0.0100174054477 -0.0229605584654 0.00789382124599
-0.0104386128579 -0.0230840001532 0.00745265814756
0.0407101530399 -0.0228478782995 0.00688284333689
0.00482252161024 -0.023136139131 0.0044552874763
0.0192050182392 -0.0229170678469 0.00781631111828
0.0261018334479 -0.0229018092601 0.00735709246017
-0.021417605701 -0.0231766332157 0.00660745593071
0.0229205301787 -0.0230687973554 0.00387991603555
0.00356988509382 -0.0231123480085 0.0051513167021
0.0242598631936 -0.0230414027644 0.00435421208518
0.0358678148868 -0.0228486441007 0.00743468910886
-0.00701473322866 -0.0232070564358 0.0042118668889
0.00926997008232 -0.0232170436415 0.00206628155234
0.0314520949235 -0.022936654903 0.00592418527052
-0.0160408860068 -0.0231371386409 0.00688598253506
0.0224992314377 -0.0229556732014 0.00653850384561
0.0254074805677 -0.0230905798064 0.00308504603762
0.0204769651247 -0.0231982361417 0.00118199260704
-0.0181043478738 -0.0231773472793 0.00620131457442
0.000624481612185 -0.0231950926684 0.00358934448051
0.0293029473101 -0.0230516285277 0.00352525262311
0.0071709945777 -0.0231196610703 0.00455912509718
0.00263956188167 -0.0230059064741 0.00771564633584
0.0142392978604 -0.0230600042305 0.00510371678253
-0.00353105566294 -0.023148576203 0.00515091005485
0.0352816151344 -0.0229453929829 0.00527226435458
0.00471875251342 -0.0232054030902 0.00287002250694
-0.0111025980703 -0.0231824500993 0.00526014926332
0.00482810579926 -0.0230588962828 0.0062361210812
-0.00505645393163 -0.0231649447041 0.00495279737064
-0.00852278204356 -0.0231960939664 0.00464206155017
-0.00242530669945 -0.0230980459665 0.00618626688514
0.0241614571435 -0.0229725197788 0.00595446830759
0.0117786920664 -0.0231306356079 0.00376410213972
0.0311752084938 -0.0230288043777 0.00383146058098
0.0135400720962 -0.0232251557636 0.00137698054831
-0.012610636368 -0.023171695959 0.00568553788944
0.0104970849191 -0.0231700433999 0.00300595049597
-0.0193461516246 -0.0231593205146 0.00676312349653
0.0329069672847 -0.0228724514236 0.00723383449111
-0.00185038775003 -0.0230194026509 0.00793244065406
0.0197241332759 -0.0230904792363 0.00375578452246
0.0123102832216 -0.0229893878029 0.00695925028454
-0.00108470023146 -0.0231854612221 0.00401249636587
-0.0291618120958 -0.0232174175246 0.00657762387309
0.0233285500598 -0.0231607130783 0.00171203058674
0.00725730051404 -0.0230239949198 0.00675537082528
-0.0338004959047 -0.0232045455984 0.00742005155414
0.0278514958433 -0.0230939489787 0.00271990027726
0.0172363831528 -0.0230573901461 0.00481151924339
-0.00942531206624 -0.0231521940579 0.0057606936886
0.028965564004 -0.0229650307419 0.00556218026236
0.00103744355287 -0.0230473085655 0.0069491945181
0.0187598990658 -0.0231842998597 0.00170535632974
-0.0246343279583 -0.0231838948902 0.0068182953028
0.00695975019345 -0.0232165566426 0.00234921862136
0.0196722254124 -0.0230037438082 0.00576231188172
0.0236001110675 -0.0228897384242 0.0079297159693
0.00599417964964 -0.0229929470928 0.00761999811598
0.0344965012256 -0.0228959884638 0.00650404275513
-0.00632823211362 -0.0230484835593 0.0077883728292
0.0181906102648 -0.0231265252868 0.00310479424873
0.033363291696 -0.0229526857165 0.00532968259381
0.0263021865224 -0.0229640726521 0.00589751723105
0.00850271234368 -0.0229799277671 0.00762524056658
0.0206264597984 -0.0229342447205 0.00725297643767
0.0172298376017 -0.0231843156814 0.00188494209368
0.0153311673831 -0.0229966715014 0.00643597625059
0.0276895491999 -0.0229191568912 0.00677026399324
-0.00029589859786 -0.02312948503 0.00521073219165
0.0177031065795 -0.0229854782296 0.0064151682815
-0.0118161200052 -0.023087875523 0.00752528729946
0.0108312243454 -0.0230429323083 0.0058982788773
0.0315188261074 -0.0228607957494 0.00766591453224
0.0384696766268 -0.0228334123635 0.00747998107236
0.0121359021064 -0.0231939749113 0.00226126466669
0.00346997557265 -0.0231771200136 0.0036691979883
-0.0140581116481 -0.0231693632218 0.00590957666874
0.0213440972954 -0.0231159729146 0.00297728698215
-0.00541007119861 -0.0231044231352 0.00639022548184
-0.0154833754186 -0.0231937544314 0.00551465542942
0.0366913604556 -0.022918078338 0.00573643537001
-0.0322678456516 -0.0232104497787 0.00710362536103
0.00229842631133 -0.0230785909894 0.00607940806476
0.0243000692244 -0.0232082790627 0.000500732090342
0.0133156394525 -0.0231085230324 0.00409333498599
0.00178657033816 -0.0232245647178 0.00229676510105
0.00338792334493 -0.0232251219231 0.000157349300816
-0.0128694656131 -0.0232250440608 -0.00239596669081
-0.0278360669874 -0.0232231007047 0.00339671901413
0.000318488305503 -0.0232259347133 -0.00392496516861
0.00993295095527 -0.0232256874998 -0.00113904255015
-0.0063248703814 -0.0232255986052 -0.00364443653121
-0.00359753389703 -0.0232249113095 -0.000168979449092
-0.0268147396929 -0.0232254423208 -0.00660948359434
-0.0227411015633 -0.0232259130196 -0.00793272503231
-0.00380579375696 -0.0232244129637 0.00196217255207
-0.017802501532 -0.0232253658109 -0.00467338909094
-0.0195804521962 -0.0232259415993 -0.00749481137858
-0.0234214913875 -0.0232242770419 -0.00093595896492
-0.0261086946714 -0.0232249632857 -0.00439970018421
-0.0267416654143 -0.023224630578 -0.00306475857859
-0.0298794897284 -0.0232234916882 0.00133211934228
-0.0172890893096 -0.0232259332667 -0.00705093977631
-0.0240601440762 -0.0232237992585 0.00102916625258
-0.0339411103174 -0.0232224763439 0.00502713880382
-0.00771640368726 -0.0232252993081 -0.00258980075558
-0.0169830832128 -0.0232240200607 0.00132746220999
-0.0281600040676 -0.0232242411279 -0.00162265402151
0.00164123518494 -0.0232255297103 -0.00192757272577
-0.0048986817818 -0.0232256230673 -0.00349715665493
-0.0314485492232 -0.0232239001901 -0.000724313488527
-0.0214829140325 -0.0232247857643 -0.00280444589584
-0.032596655147 -0.0232227802176 0.00394421601405
0.00542706941207 -0.0232251812644 0.000261917606594
-0.0203119384095 -0.0232246230617 -0.00188825157125
-0.0246617095139 -0.0232248353716 -0.0035857633613
0.0215624850109 -0.023225872099 0.00012661931712
-0.0206701122028 -0.0232241710904 1.44655800167e-05
0.00479979198716 -0.0232257010815 -0.00211128808655
-0.0320646988811 -0.0232235583871 0.000653192093363
-0.0303537825313 -0.0232248007812 -0.00444784849004
-0.0357072388544 -0.0232231774934 0.0016623991143
-0.02249075596 -0.0232236302837 0.00204352448291
-0.03073168627 -0.0232230688451 0.00302022281458
-0.0182965102006 -0.0232238114757 0.00200132294054
-0.0101821221273 -0.0232259480745 -0.00585108435102
-0.0247673829842 -0.0232240979746 -0.000396298995395
-0.0319719795857 -0.0232224627568 0.00543654843349
-0.016716678036 -0.0232251759623 -0.00365423623679
0.00686986663035 -0.0232251773668 0.000535539260861
-0.0210933436076 -0.0232233759013 0.00339887996095
-0.0237657885612 -0.0232232977627 0.003263435049
-0.0211800823584 -0.0232258993438 -0.00759552949717
-0.0195225527866 -0.0232230817477 0.00495811489987
-0.0187384229409 -0.0232244226683 -0.000736463536265
-5.30466825364e-05 -0.0232255242009 -0.00220500390183
-0.0120011776626 -0.0232242776493 0.00109299457844
-0.00170791223557 -0.0232259726879 -0.0044506679396
-0.00841582905537 -0.0232249302491 -0.00110852407779
-0.0166061585647 -0.0232234040488 0.00407465557454
-0.00108519428993 -0.0232247194209 0.00111281659558
-0.0288846165088 -0.0232250439268 -0.00524437067132
0.0152163688563 -0.0232254110471 0.00100363021701
-0.0276249114457 -0.0232237818437 0.000470786555414
-0.0151239259387 -0.0232250195919 -0.00269056101621
-0.00272710938171 -0.023224662021 0.00107046616248
-0.0252629918626 -0.0232258690663 -0.00819012012755
-0.00580769758319 -0.0232244715454 0.00135117050693
-0.0206571939795 -0.0232237631205 0.00179175695998
-0.00323287318542 -0.0232255902007 -0.00305782491307
-0.0250896258291 -0.0232233871046 0.0026392251404
-0.00933225774888 -0.0232240688153 0.00247637076983
-0.0189607776633 -0.0232248059004 -0.00244338309353
0.00987784350537 -0.0232253142342 0.000475156051066
-0.038534047187 -0.0232221066758 0.00581843623658
-0.0213193041948 -0.0232254042465 -0.00546622985195
-0.0229813195422 -0.0232230596451 0.0044389875868
0.00433002603282 -0.0232248928842 0.00132144410114
-0.0358889195736 -0.0232226510876 0.00392036298383
-0.0131279398668 -0.0232254387084 -0.00415897811968
-0.000172715582862 -0.0232244865034 0.00228851619599
-0.0235556148226 -0.0232246565585 -0.00261101735308
-0.0247167228466 -0.0232229647915 0.00454295959425
0.0187983044104 -0.0232258156048 -0.000119315083042
0.013501767826 -0.0232258613345 -0.00126049320837
0.00380158648913 -0.0232258893765 -0.00310809476357
-0.0159354002155 -0.0232243068024 0.000266283717964
-0.0334860886569 -0.0232230116782 0.00277895456958
-0.00541426205932 -0.0232239918734 0.00350811431561
-0.00983608354224 -0.0232246999107 -0.000359022641702
0.017337345874 -0.0232257642762 -0.000155889119891
-0.0284653220292 -0.0232234060054 0.0019564783607
-0.036834348512 -0.0232220296462 0.00645594106221
-0.0229246678053 -0.023225404031 -0.00575087529644
-0.0219365125485 -0.0232244101703 -0.00125100578539
-0.0103973551663 -0.0232242911189 0.00131970011342
-0.00673406337579 -0.0232241147014 0.00273893109917
0.0113676699301 -0.0232254804272 1.71146539902e-05
-0.0198677808339 -0.0232254917109 -0.00558855301921
-0.00988155781789 -0.0232237183615 0.00390340653548
-0.0138350228758 -0.0232242012906 0.00109898703892
-0.0262762265125 -0.0232231005535 0.00367486180656
-0.00664915869836 -0.0232248047296 -0.000248135889412
-0.0251632460571 -0.0232254968061 -0.00655274882631
0.0157144721371 -0.0232257538394 -0.000399179193565
-0.0194804790821 -0.0232235637141 0.00286866269236
-0.0306256109918 -0.0232224412015 0.00576984111039
-0.0354474037454 -0.023222120097 0.00630913639433
0.00682244557409 -0.0232256599277 -0.00157241972261
-0.0079408783633 -0.0232258201502 -0.0048958099747
-0.0265561086395 -0.0232226604256 0.00553997886791
-0.02001282533 -0.0232250980122 -0.00390145358304
-0.034092922426 -0.0232236153616 4.45005419884e-05
-0.0298715816749 -0.0232227901233 0.00438589076849
-0.0159353515765 -0.0232238062773 0.00244397417318
-0.0025130810384 -0.0232242182772 0.0030391782012
-0.0265133686628 -0.0232240554506 -0.000521884831151
-0.00523498753487 -0.023225080444 -0.00119614107376
-0.0296264646946 -0.0232238222346 -6.10086892936e-05
-0.0118779984184 -0.0232253612134 -0.00359945732532
-0.0310206383455 -0.0232242617313 -0.00222118234158
-0.0137495152497 -0.0232234209355 0.00450936239586
-0.0120316009597 -0.0232236239218 0.00393181642416
-0.0389200925418 -0.0232217036514 0.00750323791081
-0.0113980742728 -0.0232240056021 0.00238390373272
-0.0319765521093 -0.0232231725605 0.00234752488516
0.00815132217426 -0.0232255677261 -0.000934871422435
-0.0162515385873 -0.0232256903568 -0.00580951575727
-0.0175612989699 -0.0232246345167 -0.00144877018058
-0.0153480513162 -0.0232254603673 -0.00464815439084
0.00138179301271 -0.0232250639513 5.26956342321e-05
0.000204047044759 -0.0232252022366 -0.000758468049953
-0.00178399638127 -0.0232253275901 -0.0016575149068
-0.00781596133586 -0.0232245674218 0.000576775444631
-0.0111780561094 -0.0232247591102 -0.000855315307889
-0.0142186099215 -0.023224545739 -0.000467874849014
-0.0144558706139 -0.023223730789 0.00303559775531
-0.0122180801649 -0.0232257645286 -0.00541469694835
-0.00950002645899 -0.0232252491679 -0.0026889451883
-0.0256539499321 -0.0232243617531 -0.0017016594003
0.0340488168283 -0.023004380355 0.000991253266893
0.0409893097375 -0.0228444902257 0.00150455069687
0.0425280674776 -0.0228101646811 0.00349003639361
0.0370809352284 -0.0229311624427 -0.00439347154273
0.0378903190291 -0.0229150527411 -0.000107374034046
0.0414690201865 -0.0228321549724 -0.000599539544548
0.0384055900964 -0.0229064610356 0.00539409133849
0.0292204584432 -0.0231162745051 0.00173703584841
0.0380264825223 -0.0229103422601 -0.00271946104492
0.0303025869855 -0.023089430403 -0.00137355170913
0.0357079879614 -0.0229634525014 -0.00339345832744
0.0356995273618 -0.0229664221325 0.00122942616646
0.0423539043675 -0.0228159245893 0.00638928050228
0.0420136812662 -0.0228161545513 -0.00631282679753
0.0397208544691 -0.0228689441443 -0.00653391351342
0.0383982039968 -0.0229055730783 0.00363041477747
0.0284177439036 -0.0231334813325 -0.000464418527774
0.0322159051889 -0.0230477516851 0.00276530312981
0.0394564623441 -0.0228772375857 -0.00288334167385
0.0394464212928 -0.0228794466204 0.000411377874091
0.0383676024261 -0.0229053002887 0.00199890195674
0.0401908450023 -0.0228611492642 -0.00144623110037
0.0414236594188 -0.0228316445936 -0.00319459896743
0.0362434666975 -0.0229549034463 0.00295628093712
0.0267174252671 -0.0231724690345 -0.000895145937119
0.0419916913059 -0.0228233029543 0.00475278062842
0.0398173449341 -0.0228680268445 -0.00435129561881
0.0344832087087 -0.0229931099696 -0.00108144470875
0.0260189550758 -0.023189416448 0.000480472293103
0.0316025396031 -0.0230583796008 -0.00311603691485
0.0409975921967 -0.0228454526669 0.00342681443424
0.0316713927193 -0.0230578658657 -0.00132391811394
0.0309561220272 -0.0230752553268 0.000142120047656
0.0422815518275 -0.0228087902018 -0.00828147184645
0.0362623477621 -0.0229518575921 -0.00139283330454
0.0332116918101 -0.0230209487884 -0.00359741345085
0.0426720780135 -0.022802427356 -0.00386386697927
0.034771110565 -0.0229893279228 0.00368951188657
0.042597782177 -0.0228069075244 0.000743937667473
0.0323960424879 -0.023042589805 0.00109232413369
0.0399205504409 -0.02287146932 0.00535426883923
-0.0124966406987 -0.0232124573554 -0.00687643968772
-0.0145921414314 -0.0231879777992 -0.00794710187886
-0.0187142304018 -0.0231813489749 -0.00886937444054
0.0185254422375 -0.0229501667968 -0.00883545450129
-0.00899159775242 -0.023137906357 -0.00837828825066
0.00670594535073 -0.0231296301603 -0.00582174775143
0.0151143766206 -0.0231929878564 -0.00251968251516
-0.00276855528651 -0.023144575764 -0.00708111335891
0.0238823460759 -0.0231369678531 -0.0025569926805
0.0205398179254 -0.0231765185031 -0.00202405759094
0.0153658100715 -0.0230770963065 -0.00577890249641
0.0133630602823 -0.0231325699183 -0.00455368275508
0.00966355031967 -0.02315440181 -0.00458939578914
-0.00760404792259 -0.0231363774496 -0.00817504012671
0.0295500278024 -0.0230753774947 -0.00330462804007
-0.0028428548044 -0.0232062530777 -0.0053359742843
0.0181991638964 -0.023205164582 -0.00162377394899
0.0362180786631 -0.0228658394277 -0.00809214075699
0.0114393930488 -0.023163745863 -0.00400709613744
0.00805886351674 -0.023150969861 -0.00497269999198
-0.00447651521579 -0.0231927951923 -0.0060102617785
0.0249808008413 -0.0229305956725 -0.00824504256763
0.0402852776106 -0.0228255947769 -0.0085159470767
0.0344396371381 -0.0229087375075 -0.00718553351833
0.000290698663245 -0.0231864079938 -0.00534429923079
0.00144608089151 -0.0231336806733 -0.00664196597909
0.0256171696629 -0.0230887362989 -0.00362341109475
0.0258852876218 -0.0229832276285 -0.00658365785418
-0.0111776117401 -0.0231735149059 -0.00775200237306
0.0244113620736 -0.0230243930238 -0.00567227633481
0.0285720913102 -0.0229072976778 -0.00827037812744
0.010002969083 -0.023019732923 -0.00836828625236
0.00465161001471 -0.0231726659892 -0.00496029306368
0.0221363902186 -0.0231207271775 -0.00333059124266
0.009682728042 -0.0232208219549 -0.00269241453401
0.0034675956054 -0.023141213528 -0.00606759834083
0.0311674498054 -0.0229635448882 -0.00620513165534
0.0376042625032 -0.0228479644847 -0.0083551442141
0.00334909240707 -0.0230787185175 -0.00787034739991
-0.00436584132566 -0.023139936942 -0.00749750771839
0.00785529733077 -0.0232053303075 -0.00345915290039
0.0314459483333 -0.0229058035435 -0.00780173470525
-0.00656763701921 -0.0231903356393 -0.00645237745913
0.00887878434453 -0.0230749837531 -0.00699312702972
0.0289904957084 -0.0229937818862 -0.00573037144952
0.00279134940694 -0.0232082948419 -0.00427547903402
0.02280634955 -0.0230211955833 -0.00604895288671
0.0255827759581 -0.0231426761124 -0.00209176118023
-0.000203901297973 -0.0231284633804 -0.00708422623385
0.0202655340724 -0.0230366886619 -0.00605925504936
0.027079107128 -0.0230071996784 -0.00568786711112
0.0328064250068 -0.022939047617 -0.00661196097465
0.00665713180906 -0.0230795495828 -0.00725817684467
-0.00813648551191 -0.0231874567664 -0.00681353864035
0.0155504392201 -0.0231304009031 -0.0042263992789
0.0105207599961 -0.0230666948631 -0.00693733839917
-0.00108177491658 -0.0231775796702 -0.00584013933986
-0.00133458952681 -0.0230814588479 -0.00862541862015
0.0324528493974 -0.0229982567634 -0.0049868681183
0.0234080460626 -0.0229569573233 -0.00777328154969
0.0146920140624 -0.0229737176655 -0.0088459844174
0.0183992887895 -0.0230991960978 -0.00460922503118
0.0344350742203 -0.0229814399978 -0.00511367238743
0.0130149396097 -0.0232004007259 -0.00268182485492
0.0169776739131 -0.0231897054095 -0.00228179374997
0.011469498155 -0.0232206925362 -0.00237824985786
0.0175295088221 -0.023062007671 -0.0058241565836
0.0200754432417 -0.0231107566199 -0.00398147000065
0.00605859433852 -0.0231832825219 -0.00440733373642
-0.0170127217229 -0.0231842476 -0.00848405079706
0.019039108839 -0.0230065642819 -0.00713624270091
0.0357783774907 -0.0229304039947 -0.0063296915497
0.0118948907535 -0.0230930869935 -0.00594047751436
0.013665455485 -0.0230739079907 -0.00617227961574
0.0275929924388 -0.0230793287824 -0.00354012421346
0.0301592516397 -0.0229325122202 -0.00726919254528
0.0301771117574 -0.0230212507934 -0.00473617036384
0.0121193162135 -0.0230287488773 -0.00773476693297
0.0238976611835 -0.0231945227377 -0.000913437964493
0.015870175059 -0.0230115572099 -0.00755763128425
0.026953142386 -0.0229155038293 -0.00832442924997
0.0373290369504 -0.0229094655094 -0.00665077433134
0.0278985134879 -0.0231393826253 -0.00177370111411
0.000665770053982 -0.0230638890072 -0.00877046623218
-0.0369263027294 -0.0184862728896 -0.0101989890122
-0.0370343036147 -0.0131332764846 -0.0103344594415
-0.00863840274999 -0.0106507061466 -0.011036205061
-0.0352642911947 -0.0111898025124 -0.0104242802334
-0.0209870279881 -0.0140846447946 -0.0106703854888
-0.0225034595318 -0.00753231924901 -0.0108051169063
-0.0162018784783 -0.00881397550751 -0.0109136389485
-0.0325315895737 -0.0117150779008 -0.0104721273683
-0.0368640398254 -0.0107317101388 -0.0104001493989
-0.0381023095762 -0.0169329224747 -0.0102125902012
-0.0340398578764 -0.0182588631231 -0.0102696789299
-0.0100964841869 -0.00482285191344 -0.0111535842756
-0.026001728161 -0.0152499569909 -0.010527732466
-0.0305950555717 -0.0179155797757 -0.0103558949432
-0.0408097227279 -0.0116470227995 -0.0102879474341
-0.0185738817078 -0.0136618547327 -0.0107354778727
-0.0241893105835 -0.00940027506302 -0.0107191318322
-0.0276031619073 -0.00592294527752 -0.0107320321528
-0.0426067563115 -0.0179319166749 -0.0100856822984
-0.0118861248297 -0.00718519262455 -0.0110525323754
-0.0311916624012 -0.0138701162551 -0.0104467081315
-0.0138962924032 -0.0115695721297 -0.010894438414
-0.00161459358043 -0.008419876328 -0.0112514325126
0.000102837862094 -0.00513342842467 -0.0113746680631
-0.0111509879284 -0.0113085900162 -0.0109628230557
-0.0416042259558 -0.0130424523006 -0.0102341552445
0.00639965487572 -0.00568924488909 -0.0115017811444
-0.0361572511501 -0.00880741303408 -0.0104655953821
-0.0155765014416 -0.0126438199696 -0.0108290264293
0.00159957961271 -0.00552032785355 -0.0113983192564
-0.00692322219624 -0.00649806027654 -0.0111817038037
-0.0280691463826 -0.0143660123429 -0.0105040676172
-0.0179481430504 -0.00755283556002 -0.0109069042152
-0.00798563377225 -0.00737839116868 -0.0111351634229
-0.0389921205248 -0.00609114844441 -0.0104718946019
-0.0426683811108 -0.0195703411936 -0.0100420914185
-0.0139178870607 -0.00919303797508 -0.0109551742436
-0.0215237697219 -0.00636897966593 -0.0108570897579
-0.0162445681312 -0.00710639671296 -0.0109566683009
-0.0194170592433 -0.0123586004081 -0.0107501120409
-0.0390140704722 -0.00826711462475 -0.0104153474721
-0.034304042789 -0.0153145463573 -0.0103395924013
-0.0415802380788 -0.0169231456473 -0.0101347251782
-0.024259019952 -0.0142263667621 -0.0105932432602
-0.0332453830434 -0.00641469919324 -0.0105926357808
-0.0119359539025 -0.00972966144318 -0.0109858662235
-0.0429342058533 -0.0211551451026 -0.00999529535202
-0.0297743322073 -0.0143583990752 -0.0104659639883
-0.0409775816871 -0.00929133243262 -0.0103448611102
-0.0343806693901 -0.00842494624178 -0.0105153512999
-0.0317063752228 -0.00627879250762 -0.0106307040823
-0.00274052933662 -0.00725256212433 -0.0112562138251
-0.0164013084835 -0.00492297652523 -0.0110093939322
-0.00457781591238 -0.00897573851296 -0.0111705569954
-0.0392514435212 -0.0160650433173 -0.0102091368491
-0.0268748644916 -0.0114717492692 -0.0106054499343
-0.0229911583903 -0.00596754291147 -0.0108344723466
-0.0101750838596 -0.00693526445919 -0.011097401928
-0.0249562968412 -0.00734773147021 -0.0107547794282
-0.0302487677092 -0.0124931921521 -0.0105033565951
-0.0330046592093 -0.0078994429253 -0.0105597947815
-0.0169469210943 -0.0127531449103 -0.0107954295051
-0.0402153866127 -0.018771265585 -0.0101177721514
-0.0326554427624 -0.0161186220673 -0.0103559077486
-0.038497203597 -0.0134326679156 -0.0102938891197
-0.0273958730838 -0.0165094648185 -0.0104639732938
-0.0376592017555 -0.00660480955379 -0.0104886007557
-0.0291136708827 -0.00579252313349 -0.0107014647378
-0.00513865765941 -0.0055466917958 -0.0112462942493
-0.0101890329561 -0.00987704670306 -0.0110213066491
-0.0222909655028 -0.00908384148915 -0.0107699215923
-0.0164466408085 -0.0103027294839 -0.0108697902601
-0.0289805333587 -0.0108157354662 -0.0105750543201
-0.0292054569585 -0.0168800741731 -0.0104137815781
-0.0305524505795 -0.00745162489651 -0.0106264092697
-0.0417945233755 -0.0104546374015 -0.010296544595
-0.0355493280155 -0.0126304384898 -0.0103807664966
-0.0349842363233 -0.00635247914789 -0.010555182657
-0.0333972711111 -0.0100146344105 -0.010496487897
-0.0380011503705 -0.0154043802298 -0.0102542384241
-0.0236386890791 -0.012765516674 -0.0106448086795
-0.0427985124161 -0.0117429078067 -0.0102408076759
-0.0174732782235 -0.00595294872397 -0.0109587840233
-0.0394362220856 -0.0101183465335 -0.0103581768513
-0.02573039969 -0.00887265990575 -0.0106981094807
-0.0361746367995 -0.00726036095439 -0.0105050578225
-0.0111495088502 -0.00844791362114 -0.0110365489162
-0.0150054717215 -0.0102668847652 -0.0109030833777
-0.0284615616727 -0.00921709453634 -0.010627892706
-0.0353632757197 -0.0196839102383 -0.0102032439553
-0.0207546709456 -0.00939897765864 -0.0107963098333
-0.0310493177906 -0.0155193477579 -0.0104074201633
-0.0415055819053 -0.021448638308 -0.0100198227654
-0.0187917809463 -0.00964351488358 -0.0108340983962
-0.0412332097399 -0.0199174143431 -0.0100653856423
-0.032845058817 -0.0142567796724 -0.0103996109414
-0.00543453603548 -0.00719196604602 -0.0111972654056
-0.0387968696336 -0.0192482944378 -0.0101373445728
-0.0193912679908 -0.00764751404 -0.0108720515769
-0.0396295601587 -0.0123896884727 -0.0102953232824
-0.0234946796364 -0.0111601818928 -0.0106893975699
-0.0346377407612 -0.0169242584508 -0.0102906302024
0.00810373150329 -0.00498062323311 -0.0115583104761
-0.0340627773577 -0.0124247527483 -0.0104194541188
-0.0277691871065 -0.0128828597878 -0.0105490117746
-0.0281956101582 -0.00720958393158 -0.010685580783
-0.00674066591208 -0.00868137757133 -0.0111295606682
-0.0407471897836 -0.00768431520923 -0.0103914335561
-0.00879924385194 -0.00584383045731 -0.0111564202815
-0.019116441161 -0.00621712147536 -0.0109150721135
-0.0412230350928 -0.0151778186936 -0.0101877088328
0.00574470721003 -0.00411391009399 -0.0115276520431
-0.0211521614472 -0.00790876242893 -0.0108257706847
-0.0362790644845 -0.0166383478713 -0.01026113006
-0.0023619670768 -0.00520712543714 -0.0113174082211
0.00317379336267 -0.00581261039237 -0.0114261479132
-0.011397593549 -0.00563774514648 -0.0111033682747
-0.0301721430537 -0.00898757831642 -0.0105953842342
-0.0177239386682 -0.0112710975088 -0.0108161554862
-0.0365291277 -0.0144711251509 -0.0103113423339
-0.0140357234291 -0.00657418800059 -0.0110199906046
-0.0216503522141 -0.0118488997889 -0.0107130807835
-0.0264842594031 -0.00759104399563 -0.0107141923764
0.00149060712398 -0.00714526256369 -0.0113540124169
-0.0260456681286 -0.00619923643674 -0.0107598972136
-0.0377135600925 -0.00934924227883 -0.0104166816901
-0.0432919182011 -0.00826847549563 -0.0101359976403
-0.0431863876092 -0.00966950408366 -0.0101622596033
-0.0432734619158 0.000446634310177 -0.0102725013858
-0.0328481501936 0.0131837911505 -0.0106427776876
-0.0401982516285 0.0129466500095 -0.0104703220729
-0.0298733962396 0.00292986066066 -0.0107045365601
-0.0228802113315 0.00782616140522 -0.0108722451322
-0.00482205030316 -0.00137705587434 -0.0112883444252
-0.0395742979189 0.00416067415001 -0.0104781229926
-0.0144712126394 0.00318419586942 -0.0110657299787
-0.0289603726076 0.0141127282341 -0.0107346207205
-0.0318963786079 4.28153847745e-06 -0.0106548499247
-0.0194120653516 -0.00152286089541 -0.0109462708735
-0.0369476875278 0.00945808576201 -0.0105437994346
-0.0114181932164 0.00118036097553 -0.011135730352
-0.00723754887713 -0.00208375106977 -0.0112311812174
-0.0196087952228 -0.00313974638378 -0.0109404042335
-0.00825447254399 0.00242192764523 -0.0112108457531
-0.0414351459867 0.0120125722632 -0.0104406063662
-0.02438419775 0.0026267305063 -0.0108329568088
0.00761770183012 -0.00333245785344 -0.0115783883606
-0.0309502246537 0.00149336980362 -0.0106781822943
-0.0132965731132 0.00645971140083 -0.0110958049455
-0.0254738572762 0.0113443977345 -0.0108141876414
-0.0314007654253 -0.00140702547328 -0.0106653700541
-0.0379821577308 0.000799500086975 -0.0105128291991
-0.0129636759158 0.00396452762675 -0.0111016695918
-0.0343014822729 0.0102699690521 -0.0106064516286
-0.0293944013831 -0.00140157976005 -0.0107123993812
-0.0323365626294 0.00486118247455 -0.0106483048293
-0.0278426883509 0.00343102207858 -0.0107525214359
-0.0144370728517 -0.00259575789761 -0.0110620413687
-0.0333857303509 -0.00397887848345 -0.010616849178
0.010293720181 -0.00249623312518 -0.0116417582168
-0.0365133117698 -0.00442346278155 -0.0105431997531
-0.0314853927742 0.00611608525655 -0.0106692290935
-0.0211788204678 0.00307051518693 -0.0109084289898
-0.0131500968414 0.000937228206051 -0.0110949492291
-0.0027023877163 0.00139231019042 -0.0113401757317
0.00817871299491 -0.00176904364116 -0.0115927514879
-0.00586463954304 0.00191520917281 -0.0112664650612
-0.0422074398767 0.00612723501469 -0.0104179347468
-0.0196677224695 0.00376680814183 -0.0109443868066
-0.0369113341215 0.00342320858108 -0.010539964731
-0.0309123548609 -0.00489529829951 -0.0106741083737
-0.0116154971553 0.00471859350909 -0.0111338537796
-0.00496817870308 -0.00322655055615 -0.0112834831339
-0.0222229604388 -0.00152175490876 -0.010880390061
-0.0198970244025 0.00574067160699 -0.0109405453596
-0.0336317220397 0.00238292848243 -0.0106160242835
0.00421470512144 -0.00136197608312 -0.0115001593282
-0.0378107520696 0.00825755424528 -0.0105226386085
-0.0274197377522 0.0112322882634 -0.01076849309
-0.0373141654229 0.0111564245533 -0.0105365288862
-0.0214986036537 -0.00329462896261 -0.0108959906788
-0.0357894031505 0.01462485196 -0.0105749598366
-0.0377105846938 0.00582505386281 -0.0105230972211
-0.0302360763064 -0.00261852965957 -0.0106917271336
-0.0289015214524 0.0115727167853 -0.0107340274705
-0.035742984516 -0.00272725337958 -0.0105625719546
-0.0209390944459 -0.00482859459646 -0.0109079131432
-0.00833262561753 0.000919123878876 -0.0112078469095
-0.0305172290801 0.0127655663554 -0.0106970849459
-0.00913877280389 -0.000381294651276 -0.0111879425372
-0.0194772567098 0.00785607432202 -0.0109520267073
-0.0176339542883 0.00434001569689 -0.0109924993612
0.00298974774659 -0.00210637737865 -0.011470870705
-0.0206385042538 0.00149195494565 -0.0109198669767
-0.0398387558108 -0.00238362573339 -0.0104668422598
-0.01401097602 -0.0046032281551 -0.011070469189
-0.0411087426037 0.0157955375734 -0.010451194492
-0.0363640241752 -0.00121300579828 -0.0105491920281
-0.0219625310612 0.00556647984697 -0.0108919987997
-0.0249846531907 0.000534068628275 -0.0108172581682
-0.0396859941192 0.0107389794694 -0.0104806138466
-0.0429489740233 0.0193157819899 -0.0104107970668
-0.00790061616629 0.00412947881861 -0.0112204655313
-0.0123337319448 -0.00168530660756 -0.0111120464741
-0.02090945011 0.00698428826742 -0.0109177819641
-0.0179595201383 0.00037332025663 -0.0109817881786
-0.0296638921918 0.0102810752055 -0.0107151559455
-0.0127909944583 -0.0037345434011 -0.0110997377091
-0.0398757780219 0.0090950910492 -0.0104748890351
-0.0146949352008 0.00132317795884 -0.0110590410888
-0.0428224034923 0.0107005071877 -0.0104070729035
-0.0171812779348 -0.000988774467162 -0.010998970777
-0.0233890015798 0.0102812241068 -0.0108622267516
-0.0264336704333 -0.00138533302864 -0.0107818055183
-0.0252030689415 -0.00493703883209 -0.0108078900229
-0.0165644422062 0.00677307314319 -0.0110194560919
-0.0270799544829 0.00108527307858 -0.0107685766334
-0.0420046802762 0.00947469910099 -0.0104252866984
-0.00926694509989 -0.00284480551816 -0.0111830252486
0.000788063954807 -0.00336630061404 -0.0114182892383
-0.0245812174805 -0.00352379725617 -0.0108235624974
-0.0410668067615 0.018196927619 -0.0104540423295
-0.0219432894946 0.00916545788694 -0.0108952447898
0.00516586969541 -0.00278031338302 -0.0115213511971
-0.026579103121 0.00669691520887 -0.0107846736365
-0.0354022141821 0.00315962340402 -0.0105751307339
-0.0161412223901 0.0013974960695 -0.011025200771
-0.0226793962931 0.00193869572873 -0.0108723795567
-0.0413886298049 0.000454753891085 -0.010432720679
6.62070507875e-05 0.000605308757209 -0.0114044547753
-0.042761923341 0.0175944453598 -0.0104138443454
-0.0357397198867 0.00135876665824 -0.0105658217201
-0.0365497949373 0.00488945713994 -0.0105495771803
-0.0232503412644 -0.00397016382169 -0.0108544088793
-0.0307062919624 0.00439193398027 -0.0106861506387
-0.0406917992413 0.0052674455778 -0.0104527905626
-0.0404774193717 -0.00480744623792 -0.0104499909168
-0.00209463349833 -0.000297053145216 -0.0113531082775
-0.0191363552789 0.00203685172374 -0.0109554974706
-0.0426010074747 0.0075475026592 -0.0104098133176
-0.0246736344707 -0.00107923872148 -0.0108232949026
-0.0396390469404 0.0159202177007 -0.0104857380011
-0.0181299132308 -0.00375814097772 -0.0109745859713
-0.0269461274682 0.00971090701004 -0.0107784120313
-0.0383776148666 0.00237217288659 -0.0105047818425
-0.0415895540751 0.00217167011922 -0.0104293447987
-0.0368885675912 0.013507690108 -0.0105483300542
0.000763048568152 -0.000884684543116 -0.0114196301795
-0.000762045281387 -0.000843591821824 -0.0113839169905
-0.00235498199615 -0.00177409315512 -0.0113458591516
-0.00612958335914 -0.00016539149443 -0.0112586394984
-0.0338741505009 0.00525556095216 -0.0106125731715
-0.0263977879611 0.00318727750945 -0.0107861976714
-0.0356954862395 0.00670431603519 -0.0105710098808
-0.0401132475884 0.00764801223992 -0.0104681994131
-0.0160269825017 -0.0032148524934 -0.0110242963201
-0.0287721557401 0.001245164357 -0.0107290390464
-0.0227029508915 0.00347081847057 -0.0108730173485
0.00254007316049 0.000446663970205 -0.0114623139667
-0.0293146881645 0.00713959774018 -0.0107209008718
-0.0433440194708 0.0154863374836 -0.0103985640142
0.00308418335965 -0.00371966102169 -0.0114718311897
-0.0314800876489 0.00318513568293 -0.0106670772264
-0.0352388619953 0.00809040114845 -0.0105827886749
-0.0343355120176 -0.000619627580469 -0.0105971970571
-0.0150154655335 0.00629059581459 -0.0110553862615
-0.00195241170849 -0.00368940247733 -0.0113538071306
-0.0423447882537 -0.00289886448029 -0.0104077058093
-0.0118533118122 0.00266022309126 -0.0111266813335
-0.0324875334201 0.00146532688818 -0.0106421291209
-0.0273745101715 0.0134860941547 -0.0107713034637
-0.0357484833401 0.010256130946 -0.0105725261159
-0.0284051053216 -0.00377274532673 -0.0107337449975
-0.0193740617167 6.27139161403e-06 -0.0109483491429
-0.0394048291656 0.0142777405367 -0.0104899520237
-0.00387767338013 -7.54570123186e-05 -0.0113114895384
-0.025065751051 0.00902898411246 -0.0108219546461
-0.0267647569108 -0.00302407070376 -0.0107727728616
-0.0270250340988 0.00538699418207 -0.0107732046207
-0.0363475608459 0.0165558815132 -0.0105633774132
-0.0178787133944 0.00790866216591 -0.010989534156
-0.0247098665882 0.0053648383653 -0.0108274502382
-0.0149224517953 -0.000487239256846 -0.0110523025715
-0.0420477809633 -0.00558248075403 -0.0104125829303
-0.0328075983275 0.0151670367098 -0.0106452683518
-0.0207493618984 -0.00076666860785 -0.0109155146262
-0.0307375144894 0.00793563644641 -0.0106881709254
-0.0158541383915 0.00465719992923 -0.0110344609596
-0.0378712002621 -0.00144017169732 -0.0105136904624
-0.0399935544918 0.0022440916559 -0.0104668080306
-0.0379471566275 0.0152735978459 -0.0105248903012
-0.0381734534482 0.0123599874349 -0.0105173236207
-0.0400557760543 -2.43326189157e-05 -0.0104635879997
-0.0343168169903 -0.00222154065981 -0.0105963911668
-0.0070680463606 -0.00373401117938 -0.0112338724015
-0.0411474628238 -0.00189675084178 -0.0104365469381
-0.0324537230888 0.00888145128022 -0.0106486810122
-0.0354046765363 0.0117359978339 -0.0105817335303
-0.0161232965449 0.00299223017626 -0.0110268594049
-0.0419117559478 0.0135525477759 -0.0104306315591
-0.0317396032176 0.0108022341454 -0.0106669102331
-0.0106282095 -0.00227939685456 -0.0111515590788
-0.0279894889806 -0.00196251299847 -0.0107448920472
-0.0268822766935 0.00820554910582 -0.0107787394858
-0.0285524309813 0.00543825703069 -0.0107374453515
-0.00958054242941 0.00378007086841 -0.0111808201178
-0.00385526084855 0.00319073061947 -0.0113145514007
-0.0289335900708 0.00903973612009 -0.0107313087059
-0.0313247493454 0.0145803091634 -0.0106795676608
-0.0382598735823 -0.0045106162357 -0.0105021962074
-0.0390120458075 0.00677101231724 -0.0104933282581
-0.0320307967743 -0.00366330807629 -0.0106488511445
-0.0282939377239 -0.000314631355529 -0.0107390361505
-0.0346806532856 0.0131965360791 -0.0105998374351
0.00675784957106 -0.00110512948149 -0.0115599649385
-0.0243141853665 0.00709481825345 -0.0108380677242
-0.0324410720037 0.00716970090427 -0.0106476481633
-0.0429649852507 0.00405417497545 -0.0103985694602
0.00427819809838 -0.0223479242424 0.00942800933046
-0.00517678076082 -0.0226844388201 0.00890359486052
0.0248554578139 -0.0226102096973 0.00858114219811
0.0316480207682 -0.0221222967225 0.00944991955383
0.0128385568914 -0.0227511002898 0.00848791562371
-0.0103036488059 -0.022511692389 0.00932926541764
0.0223044064512 -0.0225218547828 0.00879774447609
0.0344278623886 -0.0221231346421 0.00940466413284
-0.0135750870087 -0.0225460214389 0.00931193413686
-0.0255234679076 -0.0227723789447 0.00904679748229
0.0204585828519 -0.0224932260579 0.00888390673007
-0.0190404258384 -0.0227823566534 0.00892521660002
0.0386235979345 -0.022175010767 0.00923519333883
0.0422874551279 -0.0220438872685 0.0094398504862
0.0404741499616 -0.0221583914811 0.00923940111564
0.027593651003 -0.0227451118388 0.00826856492941
0.0295700275504 -0.0225051073387 0.00871731450479
0.0364995034787 -0.0221471629384 0.00932415724398
-0.0304154293662 -0.0230532740949 0.00827491744927
0.00108640614686 -0.0228703536812 0.00834316113425
-0.00777494675073 -0.0230487629251 0.00793510009433
0.0144972113586 -0.0228204806949 0.00828645193509
-0.0284334412702 -0.0229242579117 0.00863913925563
-0.0318668620997 -0.0228848317214 0.00881353126461
-0.000438673171551 -0.0228167032835 0.00853131470859
-0.00404205595685 -0.0229737207421 0.00810664985407
-0.03611582088 -0.0229863988586 0.00856879570812
-0.0140547599982 -0.0230674272896 0.00797601884057
-0.0343339151036 -0.0228231013307 0.00904114729895
0.0345397205306 -0.0228154800631 0.00798871310779
-0.0377449289933 -0.0228963556473 0.00887004622966
-0.0220904452602 -0.0229516789081 0.00845607305644
-0.0167427102829 -0.0230023250725 0.00821741318597
-0.0268634760646 -0.0230332957403 0.00828063155472
-0.0204457441883 -0.0229051048457 0.00857304095971
0.0436443131674 -0.0222760519542 0.00856110977763
0.0437987805345 -0.0225854606135 -0.00130997114584
0.0348935470829 -0.0225411587087 -0.00968538778179
0.0221151826758 -0.0228772872339 -0.00916957480087
-0.0127220273844 -0.0231093150331 -0.00913898004063
0.029912139214 -0.0227194043909 -0.00938940356479
0.0334595659725 -0.0227068785623 -0.00937020369521
0.0366545175346 -0.0226257951758 -0.009493224983
0.00818782989945 -0.0227915103027 -0.00951623319572
-0.00509764625964 -0.0229868415059 -0.00928978936399
0.0201815636041 -0.0227395689827 -0.00947060032434
0.0237712787917 -0.0227671836625 -0.00937018258561
0.0130602735228 -0.0229530247362 -0.00913060845294
0.0439589597011 -0.0220596056934 -0.00412644339831
0.0444122166265 -0.0150678988965 0.0056767484611
0.043704706864 -0.0226033620486 0.00511719052082
0.043811567761 -0.0211931924426 0.00638884803477
0.043916695906 -0.0212118246097 0.0015043138034
0.0441661405749 -0.0189291458991 6.91023210051e-05
0.0441877871957 -0.0193752626933 -0.00286679001542
0.0439444806477 -0.0195482863288 0.00749461199559
0.0443197269985 -0.0163861057153 0.00414980896992
0.0438836908675 -0.021227677339 0.00294310607044
0.0441633630143 -0.0181517607412 0.003588553199
0.0441176105099 -0.017945836948 0.00657761063391
0.0440986518263 -0.0193030071567 0.00152106180069
0.0440015383131 -0.0212689603211 -0.00262141228709
0.0442529181257 -0.0176369505602 0.00174350679703
0.0443099614325 -0.0158591521305 0.00689564087706
0.044097723001 -0.0184584096345 0.00524936341322
0.0440944853371 -0.0213469944315 -0.00720863358912
0.0440274209001 -0.0216859898257 -0.00562390426551
0.0440281768467 -0.0203562839951 0.000144457481528
0.0439650637859 -0.0200902570836 0.00418899803894
0.0441452041556 -0.01949713686 -0.0014530690256
0.0442343682553 -0.0134673163154 -0.00462142918514
0.0440919159264 -0.0205734339978 -0.00899152715868
0.0443127107608 -0.00973769314692 -0.00216005861204
0.0444440736392 -0.00620410912155 0.00285146608436
0.0444089124989 -0.010439346351 0.00257949039813
0.0441649918465 -0.017456740871 -0.00657786525131
0.0441821883842 -0.0198794104025 -0.00498378589698
0.0442715409879 -0.0107401625182 -0.00376482316499
0.04433363608 -0.0132830364069 -2.6121602509e-05
0.0444880516912 -0.00163931930503 0.003429774272
0.0442110896719 -0.0184327932263 -0.00409875635118
0.0444408768727 -0.00958493882088 0.00380069935086
0.0443816930119 -0.00715380558677 0.00023484977778
0.0443784777635 -0.00932614583848 0.000790322229676
0.0443177979726 -0.007710128212 -0.00258067616071
0.0444211148958 -0.0129471071623 0.00396703095516
0.0444375937404 -0.0111890198331 0.00416824060727
0.0443991430102 -0.00438110735071 0.000151740311173
0.0443674522795 -0.00592862056217 -0.000831299208924
0.0444749513088 -0.0086249389395 0.00508653151997
0.0444740900119 -0.0139432190733 0.00677517577256
0.0444353534996 -0.00493702323394 0.0020305858643
0.0441957093441 -0.014831509723 -0.00599084477368
0.0442972230059 -0.0133644379467 -0.00170726811289
0.0444671321114 -0.000805885462286 0.00217777997306
0.0444926003543 -0.0113670354079 0.0068056809206
0.0444660958396 -0.00435338946977 0.00328251859934
0.0442283958162 -0.0168114858502 -0.00381428125782
0.0443839252671 -0.00339585967868 -0.000882219679588
0.044149844432 -0.0194395489376 -0.00664357741442
0.0443014101784 -0.0158293257058 -0.000709544436492
0.0443733509994 -0.0128852225635 0.00170699740194
0.0444396886627 0.000136981819264 0.000584267168512
0.0444528392887 -0.00241737206172 0.00203142340077
0.0442536025019 -0.0180913773461 -0.00221609215546
0.0443560948526 -0.0152644247988 0.0016712674721
0.0444862321818 0.00191345931964 0.00218939737678
0.0443158627066 -0.0113534522194 -0.00148694415922
0.0443578037676 -0.0085403376138 -0.000434671625519
0.0443091664607 -0.0172256850867 0.000108163491882
0.0444596514345 -0.0129187551306 0.00576500551598
0.0442686014056 -0.0159948045133 -0.00219433075084
0.0443418653361 -0.0102145098093 -0.000637820107511
0.0443864401443 -0.014531632608 0.00285608725244
0.044349255016 -0.0117348323649 0.000202997682994
0.0444130653627 -0.00751821745936 0.00182454796533
0.0444487713483 -0.00757373948197 0.00351705062423
0.0442675607534 -0.0144219271006 -0.0027544936003
-0.0437187175561 0.0207574545639 -0.0101257079688
-0.0440715241394 0.019779386788 -0.00912345099701
-0.0438999279204 0.0183555384643 -0.00960801066603
-0.0440994497653 0.0115101886931 -0.00881818828528
-0.0440396108965 0.00569520716074 -0.00884551669781
-0.0441014990211 -0.00664925403364 -0.00705393082484
-0.0441014990211 0.00441691217073 -0.00489855866141
-0.0441014990211 0.00983920571578 -0.00546612840185
-0.0441014990211 -0.00143435523765 -0.00582522966777
-0.0441014990211 0.0173285656053 -0.00663616827328
-0.0441014990211 0.0141393531423 -0.00783754111296
-0.0441014990211 0.00230890268788 -0.00637579607878
-0.0441014990211 0.0123394696309 -0.00614781463814
-0.0441014990211 0.00171313671746 -0.00190144511803
-0.0441014990211 -0.00482509727529 -0.006574759217
-0.0441014990211 -0.000538429667741 0.00158696923985
-0.0441014990211 0.00849121119625 -0.000643643777386
-0.0441014990211 -0.00226795119692 0.0017160529569
-0.0441014990211 -0.000226683097584 -0.00657923829211
-0.0441014990211 0.0125200313626 -0.00763769443138
-0.0441014990211 -0.00947789017718 -0.00723918891974
-0.0441014990211 -0.0017167527097 -0.00176710326201
-0.0441014990211 -0.00446173506649 0.00344017889439
-0.0441014990211 0.000418695724288 -0.00252677990138
-0.0441014990211 -0.00293011755347 -0.00246663589426
-0.0441014990211 -0.00503741388118 -0.000498345824815
-0.0441014990211 -0.000446953846921 -0.00364558795453
-0.0441014990211 0.00627307034058 0.000615909661557
-0.0441014990211 0.00244168094959 0.00195103074391
-0.0441014990211 -0.00136169412639 0.00477214361958
-0.0441014990211 0.00333823237956 -0.00833383451013
-0.0441014990211 0.000491065051327 -0.00512093434451
-0.0441014990211 -0.0040336257044 -0.0036172308802
-0.0441014990211 -0.00282068514006 0.00623428816278
-0.0441014990211 0.00696678328225 -0.00474955876515
-0.0441014990211 0.0181101832083 -0.00822265578223
-0.0441014990211 0.00731840043959 -0.00651986544637
-0.0441014990211 0.0129694332125 -0.00478032272365
-0.0441014990211 0.0155296211457 -0.00698618189773
-0.0441014990211 -8.12711105602e-05 -0.000409159818441
-0.0441014990211 -0.00607898561327 -0.00397004210788
-0.0441014990211 0.00111654883673 0.000577427700228
-0.0441014990211 0.0145750110007 -0.00529953599824
-0.0441014990211 0.00300163460468 7.4737040612e-05
-0.0441014990211 -0.00616703229563 -0.00555145662245
-0.0441014990211 -0.0017132948637 -0.000210606181892
-0.0441014990211 -0.00240684722383 -0.00387661804406
-0.0441014990211 -0.0106733203326 -0.00814611198256
-0.0441014990211 0.00483082915574 -0.00138681609625
-0.0441014990211 -0.00558929234853 -0.0018816744944
-0.0441014990211 0.00652410587279 -0.00201324216201
-0.0441014990211 0.00873911964246 -0.0066839607512
-0.0441014990211 -0.00365298815213 -0.00761148516651
-0.0441014990211 0.0100151897702 -0.00857159092874
-0.0441014990211 0.000216046236867 0.00370385624121
-0.0441014990211 -0.00760575934533 -0.00402942407539
-0.0441014990211 0.0161540650134 -0.00557600567524
-0.0441014990211 0.00950388818184 -0.0021194315275
-0.0441014990211 0.00783596596197 -0.00322592664381
-0.0441014990211 -0.0080115846448 -0.00584556339876
-0.0441014990211 -0.00324938751448 0.00462141700543
-0.0441014990211 -0.0014700825478 0.00308500969307
-0.0441014990211 0.0050082619669 -0.00730952823581
-0.0441014990211 0.00460633401899 0.00130482918476
-0.0441014990211 0.00130441434057 -0.0075159655613
-0.0441014990211 -0.00388404254616 -0.0052773792178
-0.0441014990211 0.011570816262 -0.00284557628663
-0.0441014990211 0.00200216155235 0.00332851112614
-0.0441014990211 0.00088116233712 0.00204159852631
-0.0441014990211 0.00743596879185 -0.00838034768463
-0.0441014990211 -0.00322993421464 0.000598602986407
-0.0441014990211 -0.00210328877928 -0.00760535217455
-0.0441014990211 0.00230559424523 -0.00452762710684
0.0287883350893 -0.014733476512 0.0106513164813
0.0306407292883 -0.0117607124388 0.0107804543287
0.029836069383 -0.0135492429297 0.010692157348
0.0279273106843 -0.011818794654 0.0108695532081
0.0279775869389 -0.00995705068778 0.0109884089455
0.0373149809947 -0.0179343900903 0.0101522033975
0.0229941851322 -0.00816470436713 0.0112750363257
0.0326748988945 -0.0139157001931 0.0105712711563
0.0233904224572 -0.012125333751 0.0110049648199
0.0313498853722 -0.0142376374623 0.0105957663845
0.0234226429401 -0.00963480486086 0.0111651618928
0.0278086583398 -0.0136163310521 0.0107571959068
0.0357095421591 -0.0168651866933 0.0102763931291
0.0248648827924 -0.011557636164 0.0109912718443
0.0258472165394 -0.00964738026502 0.0110813719187
0.0262804717216 -0.0110092372764 0.0109783437236
0.0321604847155 -0.0167360164638 0.0104062173028
0.0245356739039 -0.00855084196881 0.0111972740722
0.0300177696428 -0.0154801987391 0.0105608802184
0.00104690925448 0.0175412016566 0.0103239186322
-0.0192222326883 0.0176377197975 0.0101841464091
0.0049692441597 0.0152179665204 0.0106132417634
-0.0152395224194 0.0181978355665 0.0101457068313
0.0117157040835 0.0142969756307 0.0107609234493
0.0264547044189 0.016352925019 0.0106205913227
0.0257526537985 0.0136770674412 0.0109206626507
0.0348088179222 0.0196949710802 0.0102933232068
0.00750711364277 0.0187836218339 0.0102235695525
0.0222884578731 0.01706721112 0.0105128285206
0.0196861794229 0.0179930896456 0.0103909222302
0.0117963066 0.0159416164696 0.010574263486
-0.019541094823 0.0162270646834 0.0103426632195
-0.000394204871801 0.0187294303348 0.0101795328865
0.0063663996878 0.015608298964 0.010577696452
0.0337024865187 0.0205894688805 0.0101844933439
-0.0287037690233 0.016824912916 0.010216405178
0.0213968777202 0.0152663487895 0.0107121147701
0.0162022708239 0.0138910276368 0.0108356304068
0.0316337421445 0.0190190625693 0.0103500724567
0.0274560929099 0.0175380915774 0.0104920734443
-0.00649612006718 0.017202736966 0.0103145108528
-0.0237252843873 0.0169822992261 0.0102301261787
0.0246673302068 0.0197759082248 0.0102196741442
-0.00501531952229 0.018475468963 0.010179073518
-0.0267259985962 0.0170539968064 0.0102029002851
-0.011372630644 0.0169439131051 0.0103129821151
0.0192201675308 0.0197768668197 0.010184954415
0.0280014695102 0.0191844849108 0.0103081671545
0.00256392034413 0.0173546809124 0.0103547849619
0.0196895546605 0.0164462147817 0.0105669892985
-0.00905073681337 0.0181717261448 0.0101880010931
0.0241558209462 0.0152366245678 0.0107330276053
0.0126986882821 0.0173120933245 0.010424026869
-0.00291466119119 0.015712591913 0.0105068563803
0.0286332850006 0.0208609683768 0.0101213856112
-0.0207958291231 0.0169021373533 0.0102578625994
-0.0165452770237 0.0155173375223 0.0104424704137
0.00369226166307 0.0145907493962 0.0106765098416
0.0133847394964 0.0159877695126 0.0105791036504
-0.00777015539805 0.016095631521 0.0104324124419
0.00469624808245 0.0182720717408 0.0102639277669
0.0103401695944 0.0162635509832 0.0105283728702
0.00964771490768 0.0145670134127 0.0107170514223
0.0330206505472 0.0176766617091 0.0105116597024
0.0265265806371 0.0186251102974 0.0103624567871
-0.00936822043197 0.0157732449118 0.0104589484672
0.024548908546 0.0172800920281 0.0105029637623
0.0280794321849 0.0156325325087 0.0107129005657
0.00179079001918 0.0143861760265 0.0106877100522
0.0181867234952 0.0179734831553 0.0103836262241
0.0271179777748 0.0202802481775 0.0101778477134
-0.0400319004769 0.0168680569943 0.0101395174461
-0.00260430683497 0.0188303856123 0.0101540007116
0.0211870151984 0.0179425790653 0.0104062068369
0.0199530046656 0.0147018568178 0.0107671838662
0.0381648259047 0.0197036363309 0.0103136607201
0.00838894317251 0.0156116778138 0.0105901629189
0.0172004944101 0.0158919543295 0.0106142529761
0.0163957875819 0.0197275041813 0.010172626463
-0.00405438327916 0.0174761391937 0.0102989101984
0.00252514134753 0.0157515590961 0.0105369854999
-0.0364320109986 0.0168184033427 0.0101680416697
0.0293016114776 0.0184015583143 0.0104055308517
0.0156045604206 0.0185255383366 0.0103043915629
-0.0165713948942 0.0168973945323 0.0102852439277
0.0331999852293 0.0191910042837 0.010340455963
0.0146856528039 0.0142698756644 0.0107828783294
-0.010827417984 0.0154237103081 0.0104894564796
