-0.057386489680496436 -0.0006905646817265082 -0.017264693812147472
-0.07566344548222029 -0.0014750893734466267 -0.017159520300404473
-0.0599919791743265 -0.0027380488622463415 -0.0171366531082035
-0.07796029979631504 -0.00198592201841135 -0.017122227025494666
-0.056809546554627305 -0.0021950334866869237 -0.017178701890748313
-0.06765559639219892 0.00016386966289066692 -0.017281246192924708
-0.06531651007573358 0.0004449380051030255 -0.017305257682485305
-0.059417834622359084 -0.00012107402543729483 -0.017291356955820004
-0.05451606925298631 0.0010531539620572924 -0.01737585405383298
-0.05665120627447114 0.0006837099717676976 -0.01734734348789038
-0.06604211697765569 -0.0017898657177461258 -0.017172381913688247
-0.06455237898278272 -0.0014067174038230655 -0.017199596904024193
-0.05354312539639247 0.0025377200229268443 -0.017465716891963683
-0.06893576252362447 -0.0012297708828521697 -0.01719569596953404
-0.08468982816090655 -0.001727445460333061 -0.01711546852813578
-0.05396307603477783 -0.0031856476683574625 -0.017130090992122874
-0.06274420454301965 0.0003479618537966104 -0.017307947607937475
-0.06153713823301418 -0.001807936881244979 -0.01718595653632284
-0.07699410364956823 -0.0005046739427972432 -0.01721187416982383
-0.07177099910962356 -0.002100547784795452 -0.017135632443888216
-0.053907254313047 -0.0006397078308646758 -0.01727896291285754
-0.055952026804142754 -0.0037781178671161455 -0.017089029760135814
-0.08314434223437053 -0.0014858172693144494 -0.017134599355233135
-0.05499729533625005 -0.0016612816766869772 -0.01721575995374122
-0.052133028513196636 -0.0023307451026778137 -0.01718596303102157
-0.05892767682651598 -0.0016496946149238002 -0.017203672659091115
-0.05038142227507394 0.000795600415971094 -0.01737423951428297
-0.0731965195964755 -0.0005327473769651363 -0.017222567347057502
-0.05825088757633215 0.0009464439825929858 -0.017357492948172456
-0.06169805762085108 0.001744361051980013 -0.01738375631130131
-0.06317494644835538 0.0027614318265155426 -0.017367076555916034
-0.061148319598350015 0.003126395786357199 -0.0173888432005867
-0.08081619353001823 0.0022620618871205386 -0.017175897726586137
-0.07864416795233015 -0.00016356435310597842 -0.01720102069503314
-0.07315924256187058 0.0022086636031480237 -0.017259048500081375
-0.08395098884475677 -0.00022410577334198122 -0.017143453347892357
-0.06903767123578947 0.0017495866124596707 -0.017304080950501566
-0.08753719524368668 -0.0013777835533092268 -0.017105259880489655
-0.07773807201644346 0.004082030469258562 -0.01720815137242216
-0.0887651996949222 0.0012842854094716413 -0.017090233680706085
-0.07018889229792158 0.0027601777924579126 -0.017290940470469925
-0.05872830242685506 0.002373287251019456 -0.017415592499499543
-0.07592055250037377 0.0016141306678534367 -0.017229453086566853
-0.07355149106561577 0.004005309553892743 -0.01725364589076971
-0.08060843384751662 0.003915710280023881 -0.01717709935925881
-0.08430258441443356 0.003359699937838226 -0.017137353349452742
-0.07969762584057194 0.0009406410996306176 -0.017188881795402837
-0.08686887323159502 0.003451983455571694 -0.017109437302609085
-0.0865519821235095 0.0010388442491078584 -0.01711441469749794
-0.08846504169645042 0.0037685093702286418 -0.017091909106769044
-0.08261727340546512 0.0035404257228526873 -0.017155532372632565
-0.08414317307431671 0.001799652465206939 -0.017140077747178403
-0.0781457655204073 0.0017857099155753143 -0.01720518891905854
-0.08843607078432787 0.0053013962267419185 -0.0170912469171277
-0.05546978888570733 0.0024839603437907935 -0.017450893382531234
-0.0656952231451065 0.002133479152948544 -0.01734011886871464
-0.06407461040399257 0.001533841958580125 -0.01735809279181783
-0.07223468474405537 0.0009159049417273344 -0.017269908315922948
-0.08181146310828699 -0.0006096892976915492 -0.017166923725524568
-0.0671683628826069 0.0028284563901674995 -0.01732368503020849
-0.07571827159455234 0.0038537148864882763 -0.01723022192073228
-0.07205275640452256 0.003898800185052221 -0.01726998262473225
-0.07533060800205935 0.00019538838409157528 -0.017236760920680674
-0.08990086184413915 -0.002370463175186925 -0.01691488448306271
-0.08305781670855507 -0.004832906195302622 -0.016389129229873487
-0.073602198372477 -0.003267955106453682 -0.01697590092004253
-0.06786116948188806 -0.0032445975709622732 -0.017072049903833722
-0.06606694515681101 -0.003588690674008305 -0.017003479410367086
-0.0790264773235273 -0.00302367565396976 -0.016959808304339484
-0.07720892196064259 -0.004650190608564614 -0.01653168592257909
-0.08188015213611329 -0.002884545570854814 -0.016954321618378752
-0.06468135039546781 -0.004220065278569917 -0.0168479053910031
-0.08471919501743655 -0.004574740758432613 -0.016435657010442594
-0.0872916688146372 -0.004097388058564961 -0.016529482014716657
-0.07027604935659484 -0.003925385343612822 -0.016843298291106652
-0.07544081019120376 -0.003875543414985836 -0.01677668613272807
-0.07211227877372754 -0.003892557703503698 -0.01682385556462843
-0.08904571487397049 -0.0048791286864531755 -0.016282710515771927
-0.06294745136938987 -0.0035237996246695455 -0.017070373640648485
-0.0858066128790438 -0.003008916730547808 -0.01685814069376306
-0.05756380529743692 -0.015203855491707548 -0.005381032517013674
-0.06780218585891876 -0.014971737123059091 -0.0077968186623574316
-0.05443441074664519 -0.015082470028280292 -0.005833982599726108
-0.059420512734844555 -0.015310139913322546 -0.004900049032388821
-0.0596312065102933 -0.014918786856510494 -0.007344279526836894
-0.060977655804856076 -0.015490317130809748 -0.0039327461166835265
-0.05746484221287948 -0.01565841115258905 -0.0025559877720040935
-0.04985401923123403 -0.014847434793260146 -0.006852293278557695
-0.05819924237863836 -0.014958712597017807 -0.00696018659717542
-0.0515376650987098 -0.015522630133607315 -0.0028308518919305174
-0.05465243871761419 -0.015468898539100375 -0.0034612086018705156
-0.06337897205915527 -0.015112139031034165 -0.006504625019239508
-0.05121156000589737 -0.014637408283858991 -0.008282908748422045
-0.06558937079530416 -0.015239457046814776 -0.005927141922884106
-0.05271757183141046 -0.015704249746251515 -0.0018185795597877442
-0.05908520518960583 -0.015716113467932596 -0.0023533532445525504
-0.053043463965686 -0.014919877323435924 -0.006708239868322861
-0.06277095768144186 -0.014879939188905759 -0.007884828728018121
-0.05228315150419136 -0.016044832802327644 0.00033254449603759175
-0.04871376195122832 -0.01465487085617806 -0.007936143989903775
-0.05162351401171636 -0.015140818493531901 -0.005204055669416647
-0.06620112885020858 -0.015023313816313184 -0.0073244054765041425
-0.05619755013712212 -0.015061593390143716 -0.006131717367420462
-0.0555521331990767 -0.014788147384709165 -0.0077638336676818815
-0.06140486018592836 -0.015146211386735636 -0.006105000979451221
-0.06126018759690678 -0.014828110000698221 -0.008061552865846536
-0.0564953838016108 -0.01585974519920169 -0.00121628586433348
-0.05682113672166777 -0.015419700829006785 -0.0039731091130495045
-0.05412708681202336 -0.016066923085798122 0.0002932358843183668
-0.0752504459818476 -0.015895698597099044 -0.0007172189095323834
-0.05783641541296188 -0.015999218773567674 -0.0003056715373544207
-0.06621337456437776 -0.015750962337093142 -0.002086047815752683
-0.06529530508722765 -0.016196631010805283 0.001445660237762019
-0.07154251358047843 -0.015387868054145703 -0.004854516148540491
-0.06908388679215417 -0.015296870509132868 -0.005638515222290373
-0.05298235518682403 -0.016301446074228173 0.001988766434485664
-0.06937100446364654 -0.015705520643147716 -0.0023733306002521482
-0.08683945036699135 -0.01622702523940498 0.002200033541970829
-0.06071213838168039 -0.01577287099034412 -0.00204210407161441
-0.06772930220199831 -0.015459187341872332 -0.004376479844258815
-0.07378981086559842 -0.01628026768700947 0.002314418445503193
-0.06830354652953387 -0.016107493138829018 0.0008064167311522311
-0.06953211132397596 -0.015927056143706958 -0.0006030943064125581
-0.07130459514683517 -0.016154323011039064 0.0012511374385660648
-0.061765000131453945 -0.01612441701906947 0.000785961441806524
-0.07727118569110925 -0.0156494001485521 -0.0026330473716136464
-0.06749169671580804 -0.016301862586961768 0.0023369216039567696
-0.08334489008511456 -0.016286558325463267 0.0025916660574785656
-0.08506111056486997 -0.01629320786456512 0.00268547427897782
-0.0793796020129938 -0.016010518729515758 0.00029643131170882194
-0.07779786764746113 -0.016093582036590594 0.0009211423071634234
-0.07004111909166973 -0.015111631704608825 -0.0070927619418754955
-0.08152400154724959 -0.01596920320683024 1.7967653681776486e-05
-0.05760414029229059 -0.016249757437958725 0.0016864714507672934
-0.0632035509801879 -0.015968037127574018 -0.00042674032281370925
-0.07386028725871098 -0.01601103131869845 0.0001693444512071375
-0.0713528096237826 -0.01572406093336181 -0.0021783998147341783
-0.07340812433644422 -0.015247962699030004 -0.005925708983199772
-0.08126802161145368 -0.016240406732900906 0.0021743179851388063
-0.07911511578537152 -0.015806286560203272 -0.0013382942849790999
-0.07527811475863672 -0.015582871367309771 -0.003210880849469046
-0.07710594284227028 -0.015907081813138418 -0.0005823567504704081
-0.07312569424769953 -0.01545206749059469 -0.0043049972351924355
-0.06279753811742503 -0.015629324862101668 -0.0031371029309108225
-0.0670357108917112 -0.01591762163171917 -0.0007376504658000759
-0.07033903542973373 -0.015521990510077958 -0.003813696628918248
-0.06438833779687218 -0.015773812728452723 -0.0019472252991737113
-0.0662947761670289 -0.01553589328538182 -0.0037989605116859775
-0.0598209575347273 -0.015948055605196507 -0.0006664543616307819
-0.07224511851613982 -0.015991973342084253 -2.100048282349296e-05
-0.07708522801116491 -0.016266875988681706 0.0022859601415709486
-0.06327054595007317 -0.0162024989021028 0.0014443265734985114
-0.07388318357654015 -0.015723517305342796 -0.002122596660406482
-0.06490534298497602 -0.016005268545098768 -8.943122621436284e-05
-0.06431702683892956 -0.01555112841857299 -0.00372448747230221
-0.08520485333114422 -0.012757555857265221 -0.010623416735923229
-0.08308982380556892 -0.013277488674563812 -0.010000373009871721
-0.06736592492261761 -0.01234379568353471 -0.01129521407787964
-0.06526478274985362 -0.012331226747456266 -0.011329677322909808
-0.06323901942311663 -0.011790111177369372 -0.012016208706118373
-0.06027494746451012 -0.010893707874764262 -0.013149973831634071
-0.07607833386198332 -0.013396691953616105 -0.009916363850320487
-0.07773925678626245 -0.013350103956521031 -0.009958926948644364
-0.07728446426804081 -0.012387104251413976 -0.011152317745128293
-0.061524777493331934 -0.011965896071099722 -0.01181456990689459
-0.06698909831642086 -0.01127417134315532 -0.012619581970666803
-0.07181146274827313 -0.013026913263605392 -0.010411499110774911
-0.07895015928473474 -0.012097501157698717 -0.011494958043942356
-0.08063077621033479 -0.01248972902778922 -0.010995412200209814
-0.05631528371801422 -0.01052714146216698 -0.013638372648099839
-0.09019262484929662 -0.012444431769532558 -0.010965158208854336
-0.07401685016326068 -0.012058253267592682 -0.01158790004403744
-0.07437906086982672 -0.013650108745743492 -0.009618715813158641
-0.06574998226693037 -0.013436361933289395 -0.009960477106903806
-0.05985068929538272 -0.011884221323386634 -0.011930528168934125
-0.08352023070386684 -0.012111104426029935 -0.011436961203423265
-0.06928313633172778 -0.012286710770277024 -0.011348430402262017
-0.05851754891735741 -0.01113603529925156 -0.01286654498110704
-0.06761546162803894 -0.013519519493690985 -0.009840962292809473
-0.0813557936719417 -0.013587585567125207 -0.009633039166591927
-0.07039326848892641 -0.014564323322554038 -0.008525603699599794
-0.0575500141421625 -0.012669981481778992 -0.010925890860619805
-0.05389736648988044 -0.011206177638171574 -0.01280381303806423
-0.06045790934073392 -0.013862521817552037 -0.009395615558531405
-0.06230323016281867 -0.014026053892953954 -0.009193413872281618
-0.049741871316647354 -0.01374519218717895 -0.00949106140177841
-0.058290213502576974 -0.014096809129089512 -0.009080503688328762
-0.06359662138913674 -0.01321326956872791 -0.010253690627498317
-0.054121818728000516 -0.01218195196451154 -0.011540306767695001
-0.05713194515312865 -0.014618781220713344 -0.008397860035080298
-0.05149951389399396 -0.012906584730868123 -0.010587260410292428
-0.05480213027873235 -0.014115142565251676 -0.009038310697635844
-0.060418672741216435 -0.012974095872608057 -0.010546889068977204
-0.06544478073179151 -0.014335618082274834 -0.008808790619595403
-0.05590233199134315 -0.013227493732573788 -0.010194597843554257
-0.05069957354508114 -0.011748476108199159 -0.012084047609106658
-0.05391451810814986 -0.013312841850382045 -0.010073475220758863
-0.05544732287298339 -0.011352115351930023 -0.012622854525862308
-0.09144600804389987 -0.01429027627777086 -0.007600485726757482
-0.08075299604255917 -0.014523177105103903 -0.008057541128551879
-0.08848214484397322 -0.013439050308215818 -0.009355910249855532
-0.09018027789177226 -0.013628657638013375 -0.008880323640764633
-0.07238132165427379 -0.01489830014564483 -0.0080725063140266
-0.07898161720119883 -0.014156645087372358 -0.00885376081856849
-0.08465897150234439 -0.014817671133116606 -0.007215514125604436
-0.08684261966121022 -0.013043488838393085 -0.010193015998512377
-0.08726178468354094 -0.01424455145965245 -0.00802274237306399
-0.08274258402679986 -0.014167780057353162 -0.00852751036328515
-0.07615636247164745 -0.014696259787585913 -0.008124246716839452
-0.0851990183349234 -0.016020007688133334 0.0005463204018993722
-0.08201254604938145 -0.01571305161563776 -0.001931736405998417
-0.08729423929343993 -0.015226983803312971 -0.005014269291097314
-0.08079877532462314 -0.01560227963057129 -0.0028312022212352364
-0.07610670943151399 -0.015311338304529501 -0.005316194895368892
-0.0804660195498047 -0.015195486429642824 -0.005798274726136766
-0.08372215330372232 -0.015487964397199315 -0.0034191774169379605
-0.09028003667158992 -0.01533435333912873 -0.003995007346539705
-0.08910258910840387 -0.015618665246995211 -0.002036179262189229
-0.08885370389807894 -0.01522864366072304 -0.004875206793294621
-0.08568150730260622 -0.015499958757145594 -0.0031728425093565005
-0.08197927554294143 -0.015456517448083087 -0.00378846062674789
-0.07471118048219208 -0.015055063966053286 -0.007282039215346822
-0.08608476064067734 -0.015105639351191056 -0.005989794289165249
-0.07901623060693819 -0.0154652092510299 -0.0039670748918586
-0.08761249108004111 -0.015473337298515692 -0.0032079019055460357
-0.08706412961023616 -0.015701831304836454 -0.0016012202450700539
-0.08385847981984271 -0.015183456670787817 -0.005608795289830902
-0.0824852203903199 -0.015064250303494982 -0.006582212998929523
-0.08963958604551456 -0.015039362315112003 -0.006179138927580997
-0.0789333380775403 -0.015191598373858636 -0.005951258457298305
-0.08778750461428196 -0.01502245265130706 -0.006452256863481795
-0.08732977398858642 -0.015936472758577257 0.0001162158558927392
-0.08475040557867954 -0.015697662964073114 -0.0018198696231324439
-0.0849238322458313 -0.015308267731922079 -0.004619960078082731
-0.08391868334485295 -0.01590863644319472 -0.00036290007038932326
-0.07758447580073262 -0.015073302070705126 -0.006916111087987707
-0.09181618848169888 0.016178461720333683 -0.00686909794972139
-0.09421962754297912 0.01315568284745119 -0.010337597892690242
-0.09262298610412723 0.014369666297300413 -0.009497562578542725
-0.09004264329773945 0.0176526781993256 -0.0057041753739998854
-0.09089757900768199 0.01567371989375773 -0.008604226277788517
-0.0903168883388008 0.016596360407900704 -0.007411625186946385
-0.09196028309306561 0.013771799514067491 -0.011031084737016536
-0.0906261704392756 0.014951235272967902 -0.01005425329110109
-0.09262496787241144 0.012744734221781996 -0.012212466877240976
-0.09407449767029404 0.012258902873064937 -0.012016004471795022
-0.08554883950170289 0.016198799290882724 -0.009039795025861495
-0.08663972739834164 0.015289188161914083 -0.010161689001833847
-0.08250054149204446 0.015033495979062879 -0.010577025173433808
-0.0673288700449958 0.014970527053034694 -0.010997545199106238
-0.09026571852312988 0.014069058198482563 -0.011617938423436999
-0.06260326910606741 0.015327401768862419 -0.010654021906434354
-0.08381195830648479 0.015633233216235047 -0.00979165996326917
-0.0711487301976863 0.014914588616285872 -0.01098215175589473
-0.07445356636174358 0.015261877901253083 -0.010470133183789398
-0.06978399590027959 0.014530198315087077 -0.011497304368557022
-0.08039109961732997 0.013775789227944755 -0.012209604004352304
-0.0697431532487152 0.015680182464845337 -0.01004884554447609
-0.07768449337339511 0.01544806442955992 -0.01016282168611197
-0.07409267089940974 0.01432980999135172 -0.011652975952280115
-0.07274684541357122 0.01556831782006749 -0.010122291182270614
-0.08382475696637459 0.014463558888693615 -0.011265565822865496
-0.07907033403922535 0.01428726967189777 -0.011594661344228445
-0.08768083487940664 0.01340926539774164 -0.012507630168393218
-0.0772541748363341 0.014033013036058528 -0.01195595154598746
-0.07585815240642214 0.01479074528632299 -0.011032338816338283
-0.06591226954690071 0.015160066524699152 -0.010790514351617932
-0.06374375853329636 0.014515304033081015 -0.011651899962380537
-0.08547085609333128 0.01377596485710127 -0.012095156827652252
-0.0586210627543447 0.015106003143640669 -0.011022606433456799
-0.081560424711081 0.015921605798704 -0.009478839962621975
-0.0886843821196435 0.015390100941718818 -0.00998852696435711
-0.06830126519764751 0.018333906111357393 -0.003948246982101981
-0.07570060874810075 0.018254374873629794 -0.004354561250120523
-0.05873901114956225 0.01811189601771815 -0.0047384835480653
-0.0651544122771188 0.018103267318338907 -0.004846458150887644
-0.07281746989354376 0.018287959875489177 -0.004185729268609995
-0.060311695220827605 0.01827695661316976 -0.004087929178637656
-0.07113922708838745 0.01824981737466333 -0.004321093114774724
-0.05207181140010198 0.018227055192754246 -0.004196218819753912
-0.04302320364138901 0.014641749637967227 -0.009031047627603117
-0.047650551178691436 0.016779196276756583 -0.006665539342898373
-0.0452570818879245 0.016806350913790492 -0.005790783634051034
-0.05072596328706705 0.015736392579094163 -0.009656603037382949
-0.04203735261594856 0.015166387118172791 -0.007719613920143928
-0.030027077890264337 0.013791638878075854 -0.006129164628507597
-0.033269118337847244 0.013411472649502555 -0.007950143847924411
-0.05133570237343316 0.015021629903472375 -0.011190672535202615
-0.03393904873770698 0.014429868291820611 -0.006294414041871078
-0.02663997064691932 0.012811685746805013 -0.006777724627346886
-0.041076703406790455 0.015584055841286115 -0.0066150120228290095
-0.04053978869801235 0.014462590965177264 -0.00850748764097678
-0.03692069081216456 0.014811971570567802 -0.006613655113946754
-0.031377580151906254 0.013601165661497983 -0.006947194303896057
-0.048323547773447634 0.015127159203332527 -0.009957622003788158
-0.039704060939481235 0.015803150485858976 -0.005736337102344281
-0.04977376820732956 0.014991696100383856 -0.010708098885155311
-0.037991163810878935 0.013941145009869548 -0.008595524400309725
-0.043623228306306 0.01662431397694473 -0.005565195141844467
-0.048499687883095055 0.0160045367954825 -0.008393025590215573
-0.03934738612946982 0.014779153246028038 -0.007510347367509966
-0.04701385573415602 0.015427579068586795 -0.008949982714258996
-0.04383788925907278 0.01536749450603032 -0.007967291591409834
-0.03540803852493257 0.013991695242504492 -0.007612101412212681
-0.04592442995559142 0.01600226733307198 -0.007510156718200869
-0.0275507233648643 0.013668523558737693 -0.0046994035208812596
-0.041933129927953575 0.01660770201192773 -0.0031979209482730702
-0.03947130143163898 0.016179511913888063 -0.002805843336083615
-0.0388828772383914 0.015884603151952156 -0.004380721151995043
-0.024809918040725278 0.013057575853440827 -0.005426061429866566
-0.04683917105349948 0.01730458530811102 -0.005334788403485848
-0.04192985674587396 0.01636768732993467 -0.00527223412158126
-0.029479902913815685 0.014074130882230725 -0.004399552864899011
-0.03197404907056288 0.014554435283554448 -0.0043939057525121785
-0.0472399226224465 0.017828356681419546 -0.0014640378825560721
-0.04925167329826685 0.01789416715872998 -0.004246181516119672
-0.04463119270973427 0.01723698581279641 -0.0022411510608282706
-0.04340958363404581 0.016842877059531344 -0.0036204675540032916
-0.03401704850079798 0.014994825737933462 -0.003982324058110183
-0.04542935701952235 0.017162190423342393 -0.004219335113510126
-0.03727452356589159 0.01561450516559234 -0.004040988199260886
-0.047562852762058204 0.017684022684674037 -0.0032528504543056025
-0.063447072530637 0.017890365424590875 -0.005407309192190444
-0.0541872242189925 0.01788094064781623 -0.005480526408628058
-0.0743447187731988 0.017778648491070675 -0.005627528993749452
-0.08596049071859989 0.018043775163264927 -0.004903732658724217
-0.08884235219923563 0.016753343664030564 -0.008107673435779427
-0.08147598957315241 0.017992181963664974 -0.005056520426381305
-0.08631687600063633 0.017414843073549565 -0.006470899554847347
-0.06889606427418678 0.017380071176665353 -0.006651159086376779
-0.06131143760254543 0.018001496912158944 -0.005141518231495479
-0.08720702839997016 0.016810586413139192 -0.007973640306291207
-0.08448147784070573 0.017782200361962694 -0.005564256706567348
-0.0669781407954491 0.018004238972790645 -0.005104260152845173
-0.07701896345301659 0.017829421523683425 -0.005486504297906705
-0.07904236625567958 0.017914241605242427 -0.005264031453651059
-0.08776085498389595 0.017573805188133187 -0.006066564965636405
-0.08245785422176197 0.016995593508188148 -0.007537570785837927
-0.08734342486007686 0.018275631299390534 -0.0043178674065207
-0.07113228162521225 0.017417077331392042 -0.0065468316314136014
-0.05594845036871783 0.017841644963485354 -0.005569108823185042
-0.06982578804884157 0.017862033766219775 -0.005443752959543465
-0.07718648265737259 0.017247822242501303 -0.006936597566100169
-0.07982834694265668 0.016272100838721396 -0.009024160685272124
-0.05982606762804586 0.017217133340920773 -0.006912878718351022
-0.06450758907018779 0.01634531414214411 -0.008704934277130084
-0.050825396852074406 0.016512126205921584 -0.008217514976456508
-0.05352972152990479 0.015142498650973469 -0.010980268408801532
-0.06435935075536428 0.015549362670598425 -0.010291052962323584
-0.06314966316966843 0.016957786269989332 -0.00746780228900254
-0.058155885909906294 0.017386054303155905 -0.006557029904497778
-0.07528694948020828 0.01692625239970945 -0.007667900702817038
-0.08100456105542977 0.016809588356991523 -0.007965255425606076
-0.061399883500195276 0.01603416839830251 -0.009290491794375804
-0.05251204560186505 0.016156536390991804 -0.008945924057615883
-0.07887933451302762 0.016938885334721876 -0.007683306458867188
-0.07551001661822936 0.016005383893571784 -0.009507405683418915
-0.05555273972195186 0.01628153031478677 -0.008730951814775803
-0.06011159556405388 0.015490177430391442 -0.010361103559856585
-0.05825057132776135 0.016231353000289408 -0.008861542289722283
-0.08413661150146678 0.016778049101490916 -0.0080635741705678
-0.06780774803707927 0.01606663172125251 -0.009298163825247832
-0.0730196184948895 0.017120011592479535 -0.00725575378255285
-0.055938513298194784 0.017015129285989316 -0.007271901243300196
-0.06568469750739132 0.016962589651217348 -0.007486875005332114
-0.050706487007177316 0.017585485343176412 -0.006074993219320163
-0.05406743419706947 0.015904124299208268 -0.009467026594098923
-0.07378068103920732 0.016160250636436245 -0.009178924117446441
-0.052759535472081884 0.01763232052376239 -0.006004771189643732
-0.06757019881075212 0.01703745732737133 -0.007358838822190795
-0.056349160197301816 0.01568250074317088 -0.009934921120452918
-0.05532576622287535 0.01512081886114192 -0.011043817615694684
-0.07109256214688732 0.016222556793156682 -0.009024248353725032
-0.06927824981632622 0.01634336034331748 -0.008762756808994509
-0.07759264248806119 0.016498034748507202 -0.008548187904342176
-0.05434971212459055 0.016751950274069387 -0.007778941787854713
-0.09660471499576603 -0.0029956804688307187 -0.014280641122905037
-0.09783860150588279 -0.0030447148094775557 -0.013257839971441294
-0.09549550940261664 -0.0020656621342791176 -0.015327836234021036
-0.09979403621821126 -0.003388190130955441 -0.011598606991226671
-0.09269318960515852 -0.00773783538088122 -0.013650500642121977
-0.09070983345318649 -0.005824160049849292 -0.015577072559567317
-0.0944018066208608 -0.005655913334229308 -0.014557572776750065
-0.09196467750072024 -0.01049135512892899 -0.011979960055001638
-0.09208637795714239 -0.006514961082156495 -0.01467848827809606
-0.09183190918984316 -0.008935803851192 -0.013091079719551712
-0.09269280598732221 -0.005244115647508643 -0.015331890592388514
-0.09280067482552666 -0.003564382946647006 -0.01583759562147141
-0.09414468208761284 -0.004140666082545435 -0.015171997286931561
-0.09148220590708615 -0.004372776764361381 -0.016045533621150014
-0.09395080329295902 -0.0015840399394056236 -0.016069290781097964
-0.09592114828468969 -0.0050948873921705905 -0.014229868190995632
-0.09976909896453978 -0.004948743312358506 -0.011121066067085133
-0.10085696273648995 -0.006239382874945653 -0.009003991174574635
-0.09917140189159496 -0.006583728707544929 -0.010623962048161115
-0.09846264258744847 -0.006016154918039543 -0.011809696891459533
-0.10176868354687395 -0.004026176685100471 -0.009563395273759252
-0.09453861061192181 -0.008768778917814316 -0.012263580963555735
-0.09753331010584806 -0.008442706704170147 -0.010637995198175779
-0.09825192293095557 -0.009354771639988213 -0.009246879212024738
-0.0955279668700439 -0.007660416517084302 -0.012738015826514069
-0.09337048888155035 -0.009798314567288085 -0.011985539844062924
-0.09520609479226255 -0.009489576674565903 -0.011099185227785986
-0.09262901128497734 -0.011376700444784038 -0.010874153770560072
-0.09417007029864209 -0.010951444366048823 -0.010297884446997248
-0.09697908996989443 -0.007209139653503826 -0.012246766861409296
-0.0968615083632405 -0.010086733540338023 -0.009414766845325183
-0.06955883242111519 0.01229628287706722 0.012965635758542798
-0.05702466832118116 0.01199369096021449 0.013158932808100125
-0.08746465301723445 0.010311400676585723 0.014507632513048133
-0.08324478120578975 0.011888448975103848 0.013309859001144998
-0.07932052754907491 0.010680948011981124 0.014207375799283009
-0.08524311514422414 0.010843642609482371 0.0141012105578168
-0.0819098207950123 0.01122180256293106 0.013807643012377805
-0.06471784543230395 0.01173238109613009 0.01337654124171175
-0.07738324082450102 0.01167847484402473 0.013451754032251302
-0.08881397673011109 0.012796363539323796 0.01264218724574294
-0.07600520116890017 0.010941552248292435 0.014002280446903378
-0.06113389277445584 0.01204526102707105 0.01313138993842163
-0.08798905473945792 0.011611181455485188 0.01353139921123085
-0.08483053997012217 0.012620172107555564 0.012763812050863218
-0.07556263464823233 0.012048224379596127 0.013168652909314356
-0.08319793801719201 0.010634692086303606 0.014252781164515884
-0.06793604396668293 0.011089823479567917 0.013868668298712573
-0.07143436570075719 0.012166609305462456 0.013068306972478521
-0.07093373294405658 0.01077520971994526 0.01411351912948896
-0.07356118143677776 0.011865947390370678 0.013300279901301228
-0.0872332457146668 0.006812742868225278 0.016107390905019385
-0.08032833448331853 0.00804095082462445 0.015557876431533918
-0.07532018181064101 0.006218684396286056 0.016240185822644398
-0.06779551410951352 0.008005207462330851 0.015462839078886294
-0.0844304865174124 0.007218012565942296 0.015921496524459337
-0.06688271159727054 0.006504051179358375 0.016052929187979827
-0.08875954865852945 0.006702406996115732 0.016164656136523056
-0.07411236659033116 0.007110011349560417 0.01587455674840971
-0.0857708348251254 0.005581093213290188 0.016585319458396846
-0.06011420537623276 0.007122362010738343 0.015747582383039138
-0.08663431371224586 0.008728341050124102 0.0153390090932433
-0.05830300107913642 0.0070583369954047995 0.01575729704926945
-0.06518853093412016 0.007371550219553289 0.01569255221177261
-0.06895882876615857 0.007010862899245313 0.015869121561858494
-0.07646469664791852 0.007621424019775154 0.01569132451803337
-0.06188781258980751 0.00760106217733829 0.015572336512586774
-0.0781376602752071 0.007780508387685691 0.01564253357852028
-0.08310865588096579 0.006598524114233523 0.01615677053143578
-0.08314037336224778 0.008165417584816936 0.015532808801910707
-0.08051650279664875 0.006379143012543476 0.016221568550157512
-0.07225780334794314 0.0071621948858886595 0.015837596764227548
-0.07073696476122751 0.007851417218786638 0.015549755273270353
-0.06523113415511693 0.00917499865915354 0.014837187648455527
-0.05489306786090396 0.01119156000537428 0.013650365460263597
-0.0509183470910144 0.009128177714067506 0.01462103895251695
-0.056385795207999086 0.007506540964765021 0.015527773360543388
-0.060742501360078374 0.009420427235437637 0.014638646350356693
-0.06774622147159219 0.009384116968238492 0.014774184823479617
-0.0780295934568216 0.009377946345143155 0.014949494241339602
-0.05409295070044106 0.00963413557898856 0.01441986320540704
-0.06654596898596465 0.010205445685490241 0.014341214049173644
-0.05582826405651548 0.009692340436246012 0.014419664318200505
-0.061952766939514 0.011035061239900387 0.013847258538746446
-0.07036483499280372 0.009469120068583433 0.01477530674544117
-0.07334722828506705 0.008493800609653775 0.015315530738230568
-0.057497208052065034 0.010796021524668098 0.013892806910883768
-0.05160553373362107 0.01096385188501175 0.013709777579651347
-0.07323246244841955 0.009939510934598909 0.014586869370893235
-0.05487312779935019 0.00845778424018984 0.015024264488224737
-0.06360281655748218 0.007996378909851882 0.015402396068502877
-0.08452557327081757 0.009723256657238555 0.014884694365970477
-0.053091390061758816 0.010762344458778219 0.013835955164811082
-0.06280959200336866 0.00934066838920605 0.014713356006393584
-0.07594802068565285 0.009067753584818766 0.015070565583660224
-0.057621895282607104 0.008375616247906087 0.015111600695010479
-0.06915464489929529 0.010309590842871894 0.014332547094749907
-0.059903388682991596 0.011181225993223498 0.013739464126197275
-0.05065512281084446 0.006754857726278925 0.015809667535751155
-0.06381625727139538 0.010347722596951825 0.014223980995039276
-0.09188557239666381 0.006672997733940178 0.015520246232810639
-0.0940089265648838 0.0061935138951904525 0.015158810881303678
-0.08946824847851799 0.008583482537712928 0.01535064017073308
-0.0900193277217914 0.00545133063225465 0.016537576692870655
-0.01916481137607241 0.012037500685455362 0.0025612244498978637
-0.006775000132620335 -0.005311417429483824 -0.0047738137390028095
-0.006775000132620335 -0.005734710192634626 -0.0027477504845700843
-0.006775000132620335 -0.007653337760855325 0.0008641101897167861
-0.006775000132620335 -0.0037424930638930674 0.005803062175036499
-0.006775000132620335 -0.005496698497231095 0.003252405022040516
-0.0067750001326203355 0.0013673858154994833 0.0026936619098254606
-0.0067750001326203355 0.0008105996549116554 -0.00016404724082608917
-0.006775000132620335 -0.001134834722061408 0.004698538524952247
-0.006775000132620335 -0.0012630537820330172 -0.0036733956249484713
-0.006775000132620335 -0.00832822243142204 -0.0008380652963985674
-0.006775000132620335 -0.00346110843039687 -0.010607876033340204
-0.006775000132620335 0.0010620663094404801 0.005933223307281912
-0.006775000132620335 -0.004961989750595986 0.00121938566095647
-0.006775000132620335 0.003828655746357287 0.004686618921857081
-0.006775000132620335 -0.0030905962378309886 -0.0036047234975301523
-0.006775000132620335 -0.0026881130692246067 0.0008909003851986183
-0.0067750001326203355 -0.000841702278696463 -0.006000490894885083
-0.0067750001326203355 -0.006164337401144371 0.005032990077863942
-0.006775000132620335 -0.004636446949617723 -0.0076106252356800035
-0.020640999078750614 0.0006589375030812221 -0.000894306677465529
-0.02064099907875061 -0.0018594235882358659 9.336087095855247e-06
-0.02064099907875061 0.0017987665271914034 -0.0050292159274853135
-0.02064099907875061 -0.00466443355737647 -0.004781387494719462
-0.02064099907875061 0.002483810124099762 -0.001771808503980965
-0.02064099907875061 -0.005685053699740533 -0.0008290000166877574
-0.020640999078750607 0.008178520189139424 -0.003921372394961392
-0.02064099907875061 0.0015749944132049378 -0.008019594884020709
-0.02064099907875061 -0.0031368095588618075 -0.0027591895617835407
-0.020640999078750607 -0.004217602740845111 0.0012541112988017473
-0.02064099907875061 -0.0008687326688030436 -0.002138985071580997
-0.02064099907875061 0.00623415330444706 -0.0044048945250384375
-0.02064099907875061 0.0007005460406920511 -0.006473950301658173
-0.02064099907875061 0.00600887344589623 -0.0068840483952232025
-0.02064099907875061 0.0010886515097910554 -0.0035936761225453364
-0.02064099907875061 -0.006681824634104537 -0.0049178680647084016
-0.020640999078750614 0.009312935470659301 -0.005187446737769934
-0.02064099907875061 -0.007133015257076335 -0.00048301073966053017
-0.02064099907875061 -0.00420690322978125 -0.001641579377962936
-0.02064099907875061 -0.005802862515317397 -0.007014790132591314
-0.02064099907875061 0.004149042039875239 -0.005040936316984621
-0.02064099907875061 -0.003998623162669079 -0.006614275820660088
-0.007901352123823003 0.005531749894399083 0.010986476168919457
-0.01140004226182898 0.005995374330141863 0.010755727038755533
-0.02064099907875061 0.0009396817241012791 0.0027876419334328106
-0.02064099907875061 0.002580601039537685 0.006290833034166329
-0.02064099907875061 0.006069708309780705 0.0023526534903320294
-0.02064099907875061 0.009497383865860022 -0.0008846457530494668
-0.02064099907875061 0.006259350752741059 -0.00029422680595545935
-0.02064099907875061 0.0019044752905744318 0.004125420332757026
-0.02064099907875061 0.0052131146799947944 0.007339835287457293
-0.02064099907875061 0.006996031521492807 0.007390713172000536
-0.020640999078750614 0.00028616976241415196 0.004204830076234392
-0.02064099907875061 0.0034237537873524123 0.008820315844395372
-0.02064099907875061 0.005143949689950608 0.00881211239883329
-0.02064099907875061 0.0034230715062395453 0.003825323735170444
-0.02064099907875061 -0.0019801931623694034 0.006364289144085081
-0.02064099907875061 0.0009463803694090304 0.005644840182681092
-0.02064099907875061 0.003166181274491953 0.001302810785561416
-0.020640999078750614 0.0018450383925536211 -4.1317854871388005e-05
-0.02064099907875061 0.0002213091959259719 0.006918542830527486
-0.02064099907875061 0.008732380344943521 -0.0024047018388029424
-0.02064099907875061 0.004709017341315257 0.0005592865808150566
-0.02064099907875061 0.007604547539982841 0.0009977287542353506
-0.02064099907875061 0.009785263346254956 0.0008664103211298759
-0.020640999078750607 -2.3164111606886544e-05 0.0007413663351882288
-0.02064099907875061 0.010844181745643292 -0.0038839535532124454
-0.006775000132620335 0.004227391695803983 -0.00819145456418691
-0.006775000132620335 0.0027076077646749626 -0.008321109952922678
-0.006775000132620335 0.009000232292564027 -0.004199455427041583
-0.0067750001326203355 0.004655877970177482 0.006448369266567818
-0.006775000132620335 0.006026985091511939 -0.005486236438364958
-0.006775000132620335 0.006037905130889563 0.00551222950738455
-0.006775000132620335 0.006631315284952852 -0.0004790143924525731
-0.006775000132620334 -0.0009844708621910754 -0.008980946312048627
-0.006775000132620335 0.007471685934540418 0.006082629426563986
-0.006775000132620335 0.0048518249042496095 -0.0038783272359115446
-0.0067750001326203355 0.0031205309797265914 0.001985464102530953
-0.006775000132620335 0.009888172961505848 0.0016386516783414742
-0.006775000132620335 0.007322833197219471 0.002401979476405343
-0.006775000132620335 0.007455745562659196 -0.006656933498570062
-0.006775000132620335 0.008310686309010403 -0.0004644458352370084
-0.006775000132620335 0.004659603278437895 0.0021283970368197415
-0.006775000132620335 0.0015977805788823236 -0.005320902216215807
-0.02064099907875061 -0.0018258509100905474 -0.010604990135275555
-0.02064099907875061 -7.535250840005588e-05 -0.010147079738042837
-0.02064099907875061 0.006578230886237182 -0.010518260652422217
-0.006775000132620335 -0.006716648811463905 -0.007288611016074508
-0.006775000132620335 -0.008989986229772064 -0.005873570116306941
-0.006775000132620334 -0.005682125534200926 -0.00881405276763163
-0.006775000132620335 -0.009378332833435471 0.0006980785625038579
-0.006775000132620334 -0.006882021742351012 -0.0043306529562736696
-0.0067750001326203355 0.003496770479188165 -0.009741023901048957
-0.006775000132620335 0.007743342869168028 -0.00998504947707641
-0.006775000132620335 0.008505430431787982 -0.008645390425508891
-0.006775000132620334 0.00208686212797321 -0.010310439505804526
-0.02064099907875061 -0.00713913166580892 0.008414446889348833
-0.02064099907875061 -0.0020690087449733554 0.008069026500795629
-0.011706556622110975 0.012965858779115578 -0.0022559760486713424
-0.01967277733234392 0.01236884544480087 -0.0053766584572415834
-0.012457716349511077 0.012851547701613186 -0.0036640804223909726
-0.008902604552489092 0.013059499734180548 -0.0033941233936494097
-0.017100985018793737 0.012657340872017244 -0.002530773785953228
-0.010883216342690143 0.012926733428345955 -0.0038692236072038685
-0.014739833626079224 0.012754383867351175 -0.0031399641214558804
-0.01776768430416702 0.012494753080917844 -0.004954162245012771
-0.016156240471569994 0.01260535690271253 -0.0045180081204886785
-0.02064099907875061 0.0047315147916284165 -0.01077714254085204
-0.018993695785517746 0.004152918492961367 -0.011235065964034098
-0.01989822107119025 0.0006200601056253899 -0.01153129981461275
-0.017720844502923418 0.0028705925375163387 -0.01151443534657207
-0.015116481539249672 0.0006525955881410339 -0.012040876855963818
-0.015989980566385814 0.0032928862630483904 -0.01165318615314196
-0.012325467222953216 0.005320052005963517 -0.011820795663708182
-0.017116216378809352 0.006118315309340345 -0.01121775913963161
-0.0182409669012195 -0.001495749572769053 -0.011944716597185262
-0.015035661666694728 0.004759091779603925 -0.011592376104418413
-0.013914090487740989 0.005907407773103253 -0.0115849068969206
-0.010551141652122764 0.004352096586378255 -0.012118986912923707
-0.01951689716518253 0.002567727981789114 -0.011355392167474415
-0.016932344067963595 0.0010629188665717485 -0.01180030864483346
-0.018895917710586574 0.007454346206043972 -0.010878013228972796
-0.009315331173468193 0.005495988681366909 -0.012124270925615433
-0.018845314734930008 0.005758346987101592 -0.01107225915913088
-0.013308076164808896 0.003557418016762126 -0.011911570763576781
-0.020640999078750607 -0.00986540015706712 0.001897964943980106
-0.02064099907875061 -0.007835872145647542 -0.006501547221956691
-0.02064099907875061 -0.008447946817614817 -0.0032167735347065273
-0.02064099907875061 -0.009240506744948751 0.00046031278413862474
-0.018335277620413433 -0.010564682035037102 -0.0028582641102643767
-0.0198353909071161 -0.009632085997108644 -0.004954492980181682
-0.019545297306223737 -0.01029553928642 0.00011843098641256956
-0.0201354157687801 -0.009827026377776134 -0.001688243855700198
-0.019902950007343122 -0.009436651283342713 -0.006531309620336882
-0.016328598343431755 -0.00950357054521482 -0.007085732249513462
-0.012183884923175143 -0.010054466476367332 -0.006209927091281193
-0.008637588902856893 -0.010466163387050632 -0.005641723362031634
-0.015042482802024262 -0.009918904753164235 -0.006071903637021743
-0.017946688999346528 -0.010183699396350518 -0.004709470420964389
-0.017897024124227695 -0.009640346790110872 -0.006368853327200349
-0.013197032266435451 -0.010535931302560583 -0.0045532045011536185
-0.015367264561339841 -0.010460298061320103 -0.004365571299515362
-0.010483131457550778 -0.010226317099626167 -0.0060151362942054195
-0.006775000132620335 -0.008381156202964441 -0.0075871684674669445
-0.006775000132620335 -0.0019355849139881041 0.008924963616589064
-0.006775000132620335 -0.005367729268988386 0.00699857248963446
-0.006775000132620335 0.00766304441998764 0.007684636157074473
-0.007739462498784664 0.011744673933538698 0.005644566518555873
-0.009514568494354282 0.011874389161181349 0.005294161117278083
-0.013597960304304648 0.011125791170910638 0.006495569975897304
-0.011510208650131097 0.011740085702434693 0.005437343476454666
-0.007717241079231876 0.006930914659863332 0.010287534457992494
-0.008629839851084698 0.012675424984014813 -0.004930207284907529
-0.013754224082400065 0.012582281001143671 -0.005122877950515069
-0.01126530711360751 0.012083569043397184 -0.006478443059473966
-0.01034969365081518 0.012547031861555187 -0.0052536415437337315
-0.01526426984717389 0.012299626949507116 -0.005859550824922523
-0.009298725562837135 0.011995834867159133 -0.006733465599297419
-0.011955406079587323 0.012599916417401855 -0.005095368686929046
-0.012994275301892766 0.01167866964860451 -0.007412574640480115
-0.0075482596797455444 0.011819172571425979 -0.007201005152203231
-0.009902082991690308 0.01076635013760772 -0.008536975877462116
-0.0073874077711496315 0.009552553194749562 -0.009789738079181994
-0.012019230067799721 0.010882491884697783 -0.008516998309096755
-0.01708832255463956 0.005161064680699434 0.01043725758866981
-0.016298625396298467 0.0064974217076447195 0.010487995271862439
-0.01338335239300953 0.004744691855105567 0.01067530023617512
-0.020626378727882255 0.004391024827971825 0.01020993908898973
-0.01892142931380551 0.0056337439051488344 0.010319481313267969
-0.01448019591572099 0.006088409499413076 0.010604828538791619
-0.018769776097053763 0.003836651924035802 0.010329064922622472
-0.013359791673022491 0.002998987903241079 0.010669124958125345
-0.015875592618037553 0.003133196964704428 0.010509734948312869
-0.009967666237512832 0.003017425775225692 0.010885012856798198
-0.008083906231612634 0.0025175354039485543 0.011002400876567885
-0.011023152487841035 0.0009642238764205757 0.01080779676345355
-0.014510169856028347 0.0019320453996294236 0.010590708783094354
-0.011851707617780729 0.0031634521818361167 0.010765871566348168
-0.019462318255590562 -0.002863728496249191 0.009596379757951249
-0.017573768246507124 0.0018265616133172516 0.010295318782508275
-0.020443548876528043 0.0013469045362142736 0.009973461823920355
-0.018887970634145483 0.001010831617096874 0.010081551100747956
-0.014914913683037559 -0.00030746416724905003 0.010306402665346154
-0.02056060351326876 -0.0017199214287436277 0.009621010637936703
-0.016897363408377726 -0.0028619714300267157 0.00983650683978878
-0.012607541238897128 0.0009033069999442717 0.010657062819234675
-0.01147727080234653 -0.0005785364131471745 0.010597782389860706
-0.008596392513755356 9.425025427295028e-05 0.010942183093008201
-0.01662828291373552 -0.0003157335900572525 0.010145209571385603
-0.01809824646922735 -0.0006101611886060274 0.00997492047176198
-0.013112568839455233 -0.0009226255075470085 0.010406497566338891
-0.006775000132620335 -0.0048214463142300275 -0.011701260286693441
-0.016598427304183077 -0.006343384478195912 -0.011012619690911548
-0.011236941049406644 -0.007092589260670461 -0.010263847079516907
-0.012946056250859754 -0.006695920266497745 -0.010660287259256523
-0.02064099907875061 0.01169715958278076 -0.006764663665065961
-0.01753547188983004 0.01132249478001738 -0.00795486216871316
-0.01928347610272 0.011250721873533846 -0.007989683700278014
-0.014716700847992216 0.011273964831821696 -0.008138239289070932
-0.01667533003424566 0.010552058465018381 -0.0088608241457697
-0.014087404263586158 0.010084170340641288 -0.009328754142943386
-0.007088344203988576 0.012498613994980185 0.0038785599611580656
-0.008626238697129404 -0.005864919694285578 0.009741456984288223
-0.011752394948058246 -0.006041438208539261 0.009562397466755938
-0.013772866330759883 -0.006386035935731492 0.009324550078075967
-0.011702290151044188 0.012678197477308119 0.002090854758307633
-0.015273708685776084 0.012664067362788176 0.0010861663718037767
-0.013764560050802042 0.012600796689370709 0.0019721252776793304
-0.008627733019108207 0.012538122724141525 0.0036083368935549407
-0.016101190971244194 0.012309519487460447 0.003056462023974512
-0.010095512565252866 0.012459956971884662 0.003617371067675486
-0.012228199337074152 -0.001874397183013234 -0.012411600731487681
-0.008504213164404207 -0.0019170529003937039 -0.012643376271517239
-0.00994772890419151 -0.0019314568921708973 -0.012553533929301856
-0.014260855854939846 -0.0026650261912227317 -0.012285091115103916
-0.007344137188737064 -0.0002076799514738072 -0.012715577730724806
-0.008307550274226567 0.0009602503074521073 -0.01265561628677541
-0.014707206914300573 -0.0008365839048655254 -0.01223323286928987
-0.01145850573839358 0.0014536213075457556 -0.012328398456926685
-0.0076306471715182275 0.00255168669254845 -0.012600054779297518
-0.016417571089036305 -0.000640214640230725 -0.012043372616912526
-0.008220984744858306 0.004054204832094268 -0.012391513368884655
-0.012218642870889106 -9.106512670313755e-05 -0.012406687514600756
-0.013227781126565835 0.0012690142953165609 -0.012170647450113491
-0.009861920208957715 0.0009831160130434528 -0.012534255752056328
-0.00928172473689117 0.002558272300695921 -0.012435014255092858
-0.019291643542355824 -0.007322259005166023 -0.009926548688544192
-0.016394909120166015 -0.008654486755932589 -0.008495950309251555
-0.013839093073219198 -0.008251774446436419 -0.009076716873714294
-0.011605772457297402 -0.009087087328494888 -0.0081977515857611
-0.016941132905964638 -0.007402597865753237 -0.009934323706676906
-0.01974616330835381 -0.008460692872177508 -0.008577415230225144
-0.01815513571100559 -0.008240598873790252 -0.008903214986004817
-0.014710615427146197 -0.009116836542124022 -0.008028808714132245
-0.00956370200087886 -0.009587722292095216 -0.007467108419670384
-0.01339276362085905 -0.009443767505339257 -0.007471865364090349
-0.009592052930344869 -0.007881466450712091 -0.009474929077269772
-0.007893276912784804 -0.008417885646040495 -0.008937838233426613
-0.014052841001984907 -0.010791017093445708 -0.003252364385211582
-0.011546639494235372 -0.010710906981316421 -0.00421306889825505
-0.009915667342626756 -0.010804300171684753 -0.003968454296997119
-0.016939768450898837 -0.0106691754085957 -0.003425524948383108
-0.008408431490796524 -0.011079000605149306 0.001234483081945491
-0.014813456756464291 -0.010803839079234951 -0.0019212623687925236
-0.008329443502367414 -0.011066248030620071 -0.0004142409055591531
-0.008808312897996344 -0.011029808538750283 -0.0023086811503690175
-0.011432209003619647 -0.01093074960953051 -0.0021732167011549453
-0.0098061210894147 -0.011003688270938686 -0.0010499532972884009
-0.01158701883344306 -0.010939743123447657 -0.0006142935103320991
-0.013435387549403446 -0.010449489202233722 0.0041532544278673564
-0.010933166845328614 -0.010369145877015389 0.004451499914084793
-0.008522007339824125 -0.010601686486473772 0.0038512956453919532
-0.018028977675825057 -0.009977208065105719 0.0053805124943720785
-0.015120958858028982 -0.010313566977759966 0.004496553529337328
-0.02023111412116438 -0.008999193084097003 0.006549227690238395
-0.019903347908905293 -0.009949436145608944 0.005221861543241243
-0.009406955430949911 -0.009975463881528247 0.005190818891436392
-0.016359162812307194 -0.009852066260726723 0.005693166600646429
-0.014645919427476903 -0.00973275289799675 0.0058688170227733545
-0.011982851609530382 -0.00991307128500536 0.005410290060536489
-0.010877803154541899 -0.00938907582985524 0.0063903769811229725
-0.009034463937969646 -0.007221774436040926 0.008656076883324815
-0.010346299353424569 -0.0066489116852877315 0.009175769294762937
-0.013345254152286195 -0.007920065216093654 0.008113486582430645
