-0.0438120420934 0.0156601609865 0.00704424088539
-0.0444584848509 0.0148724636082 0.0086641081745
-0.0424966635583 0.0148491129796 0.0079856914699
-0.0549077283597 0.0166070236078 0.00759468653172
-0.0508681898292 0.0165982026933 0.00765247676599
-0.0667524173266 0.017021191811 0.00664636425641
-0.0695504148259 0.0167205377102 0.00722165148372
-0.0643887391844 0.0164684445069 0.00777854265446
-0.0752465048002 0.0167036195119 0.00719904634307
-0.0806983447512 0.0167747899417 0.00700217499247
-0.0588548528248 0.0160710145833 0.00863064895259
-0.0572662707836 0.0161579417088 0.00847205653481
-0.0732803951548 0.0170436586194 0.0065365021237
-0.0616273537324 0.0163993528124 0.00794453861159
-0.0526456357398 0.0162998594103 0.00823325901961
-0.0527287556866 0.0169530750902 0.00692219542685
-0.0720561798828 0.01657918916 0.00748029985847
-0.0563886141642 0.0168317022188 0.00712932033446
-0.0625075946619 0.0139035877071 0.0113261074353
-0.0662686769469 0.012462619888 0.0128093535082
-0.0777903642447 0.0134576329491 0.0119383059486
-0.0552368466297 0.013041927366 0.0121097793049
-0.0578132478476 0.0142258366532 0.0109526039921
-0.0557932400651 0.0140800051027 0.0110766722773
-0.081343672984 0.0132606250159 0.0121740620018
-0.0657158804706 0.0134529576272 0.0118120030549
-0.0710702563307 0.0140791244431 0.0112432776632
-0.0699979942108 0.0127311337475 0.0125810194992
-0.0516157330608 0.0122802516382 0.0128329549196
-0.0538120098565 0.0140571796865 0.0110780288877
-0.079564996407 0.0135189903053 0.0118961367082
-0.0578369408729 0.0125479813797 0.0126324376579
-0.0536487391392 0.0152578930382 0.00987431253351
-0.0644311473912 0.0146634602643 0.01058632184
-0.0531984479183 0.0122616574244 0.0128687373711
-0.0683682387535 0.0145541190294 0.0107384844971
-0.0639316047999 0.0131311062728 0.0121148289316
-0.0758908924396 0.0135716057641 0.0118036108901
-0.0520378787156 0.0139816464394 0.0111343939976
-0.0741825594849 0.0133278522244 0.0120290826491
-0.0672498570832 0.0134926994653 0.011788860897
-0.0726301574293 0.0136496986501 0.011690065699
-0.0596772593319 0.0142101315478 0.0109885458541
-0.0508620374533 0.0156689021226 0.00943265186817
-0.0664550408697 0.0145105301287 0.0107613639031
-0.0851772499861 0.0131446930833 0.012331699203
-0.0601012566273 0.0129257335163 0.0122788610839
-0.0624850867861 0.0126768961998 0.0125538132861
-0.0612548144521 0.0148623010631 0.0103528204435
-0.0560091686286 0.0152427240709 0.00991510280917
-0.0696588553553 0.0150778287904 0.00992413676331
-0.0926163614989 0.0169648007006 0.00646422810191
-0.0826039491672 0.0140249257621 0.0112307981805
-0.0853217592436 0.0166981349513 0.00705129814599
-0.0704759847548 0.0160867413451 0.00835177932565
-0.077565191831 0.0161159827026 0.0081350448923
-0.0655469868315 0.0154373596772 0.00947048385406
-0.0747285098024 0.0149820324331 0.00994874006662
-0.0825260639256 0.0157978532302 0.00850442018382
-0.0789511502912 0.0164523226988 0.00758389405083
-0.0903677822852 0.0150805609724 0.00941825741197
-0.0908096826355 0.0162300904453 0.00763860194473
-0.0738700033914 0.0160374906518 0.00834534832974
-0.0893051937111 0.0134544019231 0.0119464092569
-0.0796292701557 0.0155968468016 0.00888391339268
-0.0866962218985 0.0134573813464 0.0120050268707
-0.0604542765848 0.015773689978 0.00907629405257
-0.0842416854698 0.0145813595866 0.0103348571976
-0.0799538389891 0.0148014570336 0.0101000341465
-0.0576338195247 0.0153644540798 0.00977437137192
-0.0882359738462 0.0141434963589 0.0109119000094
-0.0760208393697 0.0158297604256 0.00861290931732
-0.0859819401164 0.0144656023393 0.0104708321646
-0.0869549773208 0.0151392503399 0.00941061882882
-0.0831331733252 0.0166487417096 0.00718032542518
-0.0777495447883 0.0151154321175 0.00967027356767
-0.0728219279722 0.0149356752211 0.0100662637944
-0.0761971239883 0.0144645727166 0.0107094543276
-0.0852071221937 0.0159052165953 0.00827425556178
-0.06300634892 0.0151566542483 0.00996399376393
-0.0821374097913 0.0149368620106 0.00983876942622
-0.0683980241457 0.0162094200746 0.00821333420008
-0.0892029148722 0.0159692143597 0.00807897446388
-0.0668998830538 0.0159797050056 0.00860312318359
-0.0548695377163 0.0158486180945 0.00909628173635
-0.0878668042639 0.0165618284746 0.00719939914781
-0.102465055744 -0.00725472853575 0.00270849110227
-0.101998479354 -0.0076719697695 0.00019710417121
-0.100318023404 -0.0102289279906 0.00179327523741
-0.104484526118 -0.00446136458111 0.00361100991213
-0.104767987447 -0.00377790449283 0.00079648481497
-0.10126435581 -0.00883500443728 0.00135877269027
-0.104878599064 -0.00329125292534 -0.00252207689838
-0.103647723208 -0.00543421718811 0.00137335099734
-0.100710936385 -0.00950670693953 0.000164634317908
-0.105454721512 0.00261227154466 3.21412032256e-05
-0.104997852202 -0.00207154312389 0.00110996197712
-0.105029714235 -0.000935364527676 0.00256506312076
-0.105292522067 0.000420724229286 -0.000584583714895
-0.105182129386 -0.00104401783292 -0.000953624534534
-0.104993425017 -0.00313225694789 -0.000798883109332
-0.104712532635 0.00430448404915 -0.0017440638745
-0.105005228277 -0.000631166772171 -0.00273891570833
-0.104055253642 0.00408967341363 -0.003957836827
-0.104581708948 0.000855424137027 -0.00352564987072
-0.103488484875 0.0022147375417 -0.00653195014117
-0.105093812088 0.00172361513304 -0.00152494738219
-0.104018831725 0.00146380397448 -0.00510954949361
-0.104582350277 0.00270576108178 -0.00279514987442
-0.103261748911 0.00396829406911 -0.00657612223067
-0.10442473597 -0.0029036009287 -0.00473047306965
-0.102510977406 0.00083729763599 -0.00905214811164
-0.102750443921 0.00288566810736 -0.00865150813728
-0.103655521028 -0.00194438501845 -0.00643721026552
-0.103363434023 0.000307605970266 -0.00719041166665
-0.103998914257 -0.000654782528252 -0.00577094262537
-0.102447365395 -0.00109385345873 -0.00908133964162
-0.100315837812 -0.00855549429455 -0.00757625621369
-0.102893463254 -0.00354363745262 -0.00758014907785
-0.102117262787 -0.00547831765732 -0.00707283700047
-0.103020795354 -0.0050894898526 -0.00544681788265
-0.100774384323 -0.00668533897565 -0.0087410875254
-0.101240150564 -0.00721321023159 -0.0070364632759
-0.101579914851 -0.00518330159789 -0.00866591575408
-0.0988922466694 -0.0117207806504 -0.00155809285679
-0.100011447433 -0.00950606924989 -0.00555328015729
-0.101910913643 -0.0073091178523 -0.00310279041803
-0.102975787861 -0.00608234147079 -0.00170019889189
-0.101277623319 -0.00779687291957 -0.00536621694347
-0.103178107321 -0.00548372011002 -0.00359427236598
-0.100073506261 -0.0096813995008 -0.00401266777942
-0.100992694769 -0.00861574652811 -0.00284163792311
-0.103964483141 -0.00457945387233 -0.00254863716277
-0.0991724712014 -0.0110033205162 -0.00352148732218
-0.0998322457116 -0.0104813072498 -0.00124532653249
-0.0909413732034 0.00214692901731 -0.0168141581356
-0.0892098038171 0.0049552713991 -0.0170699796876
-0.0915128162734 0.000531182195857 -0.0167363362465
-0.0902841432944 -0.000505995853584 -0.016946898654
-0.0923917873664 -0.000975565351864 -0.0166072554428
-0.0757368065895 -0.00260449383981 -0.0170933213987
-0.0638555629522 0.000199559185542 -0.0172956712754
-0.0840960000578 -0.00144017634021 -0.0171341743914
-0.0826339871672 -0.00136770201072 -0.0171431550371
-0.0529243293549 -0.00215857191497 -0.0171934486997
-0.0539540299765 0.00202281860388 -0.0174343106582
-0.0741827722222 -0.00134105414422 -0.0171721568901
-0.0552689651846 0.000535078954635 -0.0173431518472
-0.0568479014224 0.00146532625374 -0.0173923534861
-0.0533572672689 0.000565575916341 -0.0173511412505
-0.0513238776987 -0.00229581881053 -0.0171906305708
-0.070593246635 -0.000979830349516 -0.0172049105357
-0.0670744505303 -0.00149606482451 -0.0171861882508
-0.0544879840912 -0.00158156576561 -0.0172220696069
-0.0604988481585 -0.00215515659859 -0.0171690497212
-0.0642614093529 -0.00215892590066 -0.0171566105688
-0.050373690664 0.00152051518018 -0.0174166018523
-0.0782626334974 -0.00257258879674 -0.017086982063
-0.0863168810185 -0.00203984561754 -0.017091939512
-0.0588860143256 0.00167222353671 -0.0173978180936
-0.0721681980305 -0.00180374894469 -0.0171516764862
-0.0521214517556 -0.000585760357508 -0.017287913049
-0.0599529885522 0.000109233637911 -0.0173030696985
-0.0689866642807 -0.00134453490811 -0.0171888280963
-0.0501263558081 -0.00110767851691 -0.0172639105645
-0.072130328982 0.00018976215806 -0.017268226585
-0.0659913175634 0.000135895537116 -0.0172850172068
-0.0584428723522 -7.13954010929e-05 -0.0172974245536
-0.058013017042 -0.00225864569142 -0.0171710784431
-0.0799848826228 -0.00221696646274 -0.017102158442
-0.0692582120439 0.000614031826832 -0.0173023324986
-0.0618892147904 -0.000122563582328 -0.0172832440909
-0.0622268413521 -0.00213201981118 -0.017164789278
-0.0556588486261 -0.00280318034141 -0.0171469211837
-0.0518760126414 0.00319627184762 -0.0174894502354
-0.0661307120991 0.00336206179814 -0.0173346088198
-0.0784306265122 6.4954796802e-05 -0.0172031931029
-0.0726871885584 0.00373359622188 -0.0172632010771
-0.0752680887062 0.00221913383156 -0.0172361501531
-0.0621050918423 0.00154653083919 -0.0173794639722
-0.0796744328241 0.0031703969666 -0.0171877128798
-0.0763905668633 0.00371194860217 -0.0172230144331
-0.0710198230472 0.00122730040516 -0.0172828973226
-0.0849316595671 0.00439039036633 -0.0171298679945
-0.0825900017638 0.00297379958495 -0.0171561894312
-0.0887444155066 0.00049788690125 -0.0170909603443
-0.0615732970556 0.00357209035796 -0.0173839460679
-0.0818549517013 0.00443413131268 -0.0171632380094
-0.0891187537755 0.00257247068577 -0.0170855750652
-0.0632267947689 0.00261310967352 -0.0173666082414
-0.0596601099612 0.00349187398663 -0.0174047649602
-0.0747028593857 0.00390030167868 -0.0172412146104
-0.0736927528745 0.00262751331794 -0.0172529903395
-0.067727497181 0.00220538572897 -0.0173180125736
-0.0697987834831 0.00272685442464 -0.0172951963614
-0.0855993520558 0.00238600995854 -0.0171238972254
-0.084297689074 0.000462886722264 -0.0171392521783
-0.0806300579796 -0.000625062485696 -0.0171797577577
-0.0777646921578 0.00294652130008 -0.0172085858927
-0.0839689784337 0.00217189332036 -0.0171417314711
-0.0737945576614 0.000696952344613 -0.0172531152882
-0.0809896335923 0.00180304853846 -0.0171743074803
-0.0821455881938 0.000450900926041 -0.0171626210242
-0.068464310253 0.00413220017291 -0.0173087867551
-0.0603533090179 0.00216566631698 -0.0173980852212
-0.0752816029483 0.000668323608458 -0.0172369915458
-0.0768561198887 0.00115307355568 -0.0172195911957
-0.0875776682884 -0.000787234708725 -0.0171044442775
-0.0651265092972 0.00147958138928 -0.0173467089259
-0.0873630546807 0.00364675817157 -0.0171039488279
-0.0864636228365 0.000979543884373 -0.0171154116268
-0.0896389952789 -0.00232573307713 -0.0169871098989
-0.0913601929708 -0.0020338040395 -0.0166395558992
-0.0908610391907 -0.00353700062602 -0.0164324711798
-0.0682164833495 -0.00326241130676 -0.0170615054457
-0.0638577765568 -0.00390076368919 -0.0169503710183
-0.0862483934275 -0.0047648653609 -0.0163584334688
-0.0580846779204 -0.00415287292472 -0.0169697098055
-0.0892932956768 -0.00423763340572 -0.0164588846075
-0.0752791760826 -0.00410375287233 -0.016715160821
-0.0839698281124 -0.00404353220264 -0.0165964369758
-0.085227459879 -0.00301491423959 -0.0168654956453
-0.0663474068728 -0.00351018821181 -0.017021134547
-0.0794998015192 -0.00441825315571 -0.016561028832
-0.0697136102404 -0.00376387433402 -0.0168974042353
-0.0739659421015 -0.00335250751578 -0.0169464944745
-0.0822772545609 -0.00383296062812 -0.016681948636
-0.0716026169696 -0.0035868476409 -0.0169176078215
-0.0517351066573 -0.0160395908988 0.000352426533417
-0.0572428716697 -0.0152583055141 -0.00501310350612
-0.0616186320215 -0.0153114092445 -0.00510215893888
-0.0542210281253 -0.0156667780924 -0.00219430067026
-0.0538100350351 -0.0149161429971 -0.00680459654778
-0.0545526202883 -0.0161015509543 0.000467078008243
-0.0504720666386 -0.0148950996919 -0.00661608730815
-0.0664408364426 -0.015174687689 -0.00640966891804
-0.0642697335362 -0.0149073500196 -0.00785821012136
-0.0599582994312 -0.0156837011494 -0.00263752153614
-0.0519149292968 -0.0151637056617 -0.00509012588838
-0.0555148280109 -0.0154466016845 -0.00368169749475
-0.0567134734886 -0.0157223962586 -0.00208788018226
-0.0561805497782 -0.0159810052723 -0.000435107228239
-0.0507537527884 -0.0153721229292 -0.00368823575288
-0.053197250431 -0.0162081751156 0.00125699520237
-0.052357699791 -0.0157130433321 -0.00172973437781
-0.0523227397729 -0.0149342308258 -0.0065504857519
-0.0604220842368 -0.0148238199622 -0.00800806737812
-0.0553456084513 -0.0148505026967 -0.00735786676444
-0.0599411249255 -0.0151687818678 -0.00582537444595
-0.0585183109592 -0.0149338466637 -0.00714468880968
-0.0507284653235 -0.0156198796628 -0.00215117484158
-0.0552367167697 -0.0151339989168 -0.00559144350304
-0.0618057278649 -0.0150649016428 -0.00664693904965
-0.0496732314989 -0.015125805091 -0.00511075303819
-0.0581492902878 -0.0155922462882 -0.00303120463455
-0.0538693992501 -0.0153412926329 -0.00417682148748
-0.0646217824399 -0.0153521842407 -0.00513646385592
-0.063953843199 -0.0155730066046 -0.00355867389339
-0.082731785356 -0.0160101122367 0.000372859320853
-0.0662053759601 -0.0158564584457 -0.00124506752135
-0.0718191222402 -0.0158444109318 -0.00120770978053
-0.0679920202719 -0.0158116570432 -0.00155982828466
-0.0725688869421 -0.0153982512754 -0.00474733266208
-0.0773583885832 -0.0162709032848 0.00232456370935
-0.0783467336857 -0.0158172476792 -0.00126915773594
-0.0717843075239 -0.0152441828731 -0.00599443952586
-0.0692280699856 -0.0152018084733 -0.00639306310628
-0.0763963077199 -0.01606598926 0.000667822076753
-0.0661660889917 -0.0154811621261 -0.00423841636724
-0.071712327262 -0.0160515182042 0.000441116373551
-0.0706645630053 -0.0162362768746 0.0018893831424
-0.0786588675755 -0.0160599160627 0.000673170394955
-0.0797351239288 -0.0157246122107 -0.001974787188
-0.0799816260759 -0.0162601947492 0.00230152427359
-0.0624181049022 -0.015707819314 -0.00252024726778
-0.0699426521403 -0.0157199874442 -0.00224439397026
-0.073079073367 -0.0155963818156 -0.00315541884399
-0.0630496795579 -0.0159601248708 -0.000493485452693
-0.0697226166284 -0.0154177897779 -0.00465918839774
-0.0733511490213 -0.016296127469 0.00243045059992
-0.0601604715849 -0.0161707770671 0.00111747825108
-0.0660385732393 -0.0156661967191 -0.00276607858724
-0.0565638668298 -0.0162175852148 0.00140522358694
-0.0578066804215 -0.0160827818996 0.000359910114009
-0.0838407869266 -0.0161917730422 0.00184768380228
-0.0585216630046 -0.0158930519512 -0.00113590401247
-0.0646782550873 -0.0158959740701 -0.000966284842036
-0.077824096973 -0.0155805581489 -0.00316881652558
-0.0715544359293 -0.0156442923534 -0.00280964052573
-0.0749332353824 -0.0161275078574 0.00112356707058
-0.0678389637083 -0.0154857153166 -0.00416235349569
-0.0747853525505 -0.0156151463021 -0.00296524868277
-0.0698881309772 -0.0159158672962 -0.000683846993894
-0.0647062477919 -0.0161251208776 0.000861476365737
-0.0675324580045 -0.0161419360695 0.00106272055366
-0.074394482611 -0.0153656077584 -0.00496422711971
-0.0858695945573 -0.0162403739357 0.00228341907909
-0.0823341305976 -0.0162431009698 0.00222113793247
-0.0752809970714 -0.0158078946394 -0.00141659532335
-0.0764220450344 -0.01568447663 -0.00237354696339
-0.0616518658163 -0.0161387422108 0.000897494184132
-0.0734682050441 -0.0158610229624 -0.00103606151763
-0.0680550897473 -0.0131708124913 -0.0102676474891
-0.0692096457445 -0.0125408463316 -0.0110352390488
-0.0599498051848 -0.0112603207618 -0.0127001430854
-0.071382265924 -0.0132007253718 -0.0102007126103
-0.0633418659557 -0.0129925134456 -0.0105303317427
-0.0717917834921 -0.0146330832368 -0.00842807923462
-0.0722112558039 -0.0121141043687 -0.0115352012862
-0.077031763798 -0.0130857713579 -0.0102917516907
-0.0632582213269 -0.0118239009473 -0.0119743057207
-0.066461348497 -0.0136274078323 -0.00971812549035
-0.0696842519783 -0.0114548257755 -0.0123721807794
-0.0694500369685 -0.0142278476384 -0.00894964920486
-0.0795587141915 -0.0125997070077 -0.0108692550688
-0.0765563726133 -0.0118851492476 -0.011778788495
-0.0648370463609 -0.0132811440307 -0.0101603987066
-0.0864384091005 -0.0121671220452 -0.0113414742586
-0.0752377821983 -0.0132805696028 -0.0100673504856
-0.0765931997478 -0.0139818283351 -0.00918908739932
-0.061384994848 -0.0117618188947 -0.0120678624162
-0.0678254393829 -0.0115213226227 -0.012306814412
-0.06463810658 -0.0123190612622 -0.01135035071
-0.0812658764487 -0.0128662663653 -0.0105246687731
-0.0730534542323 -0.0140180802021 -0.00917622595803
-0.0742853268865 -0.0117095448361 -0.0120161298527
-0.0661187053071 -0.0118384131225 -0.0119305975015
-0.0580353891574 -0.0118541089237 -0.0119840806157
-0.0729503841212 -0.0129984940173 -0.0104363296509
-0.0586979061499 -0.0133628061049 -0.0100339926411
-0.0571720493591 -0.0126793620714 -0.0109117355801
-0.0561733914464 -0.011702036405 -0.0121731615905
-0.0536700052 -0.0144104239991 -0.00864961689958
-0.0529136651166 -0.0122040179503 -0.0115053233045
-0.0490969553663 -0.0141465120071 -0.00896750664486
-0.0501995409445 -0.0129471964132 -0.0105277548599
-0.0610530531213 -0.0134097237264 -0.00998562783912
-0.0511815041241 -0.0115122616322 -0.0123927495998
-0.0654136836152 -0.0142836732179 -0.00887595157026
-0.0625026604071 -0.0147727149576 -0.0082267270125
-0.054609250927 -0.0114326447755 -0.0125140526576
-0.0634378774958 -0.0140578132479 -0.00915824638721
-0.0554854545631 -0.0132620145744 -0.0101476528932
-0.0589131697195 -0.0144687058347 -0.0086017834579
-0.0596097820015 -0.0122766753298 -0.0114465353166
-0.0523086048136 -0.0106357677451 -0.0135347210569
-0.052155095261 -0.0145857742175 -0.00841434221336
-0.0682866870631 -0.0149085895742 -0.0080811842087
-0.0506452884338 -0.0143989058736 -0.00864856269752
-0.0565563267772 -0.0142900603672 -0.008820870569
-0.0541976144957 -0.0126666160277 -0.0109125385637
-0.0902292222147 -0.0133110808663 -0.00944115379793
-0.0788370589385 -0.0142438424369 -0.00871045689028
-0.0835703263363 -0.0136056779355 -0.00945977783913
-0.0770223407882 -0.0148071010232 -0.0078565522076
-0.0896170278541 -0.0142119575804 -0.00788880426895
-0.0809728966755 -0.0141477993882 -0.00870724204398
-0.0801822649911 -0.0148958472658 -0.00744124161686
-0.0750156318956 -0.0146444836147 -0.00830927958168
-0.0877932672398 -0.0130789211468 -0.01005253922
-0.0899589196205 -0.0125327608144 -0.0108474398268
-0.0869354746984 -0.0144133447424 -0.00774912732807
-0.0915533756049 -0.0136451063804 -0.00873918802572
-0.0858517121279 -0.0131269230984 -0.010125366045
-0.0826729900799 -0.0142417201713 -0.00840167660464
-0.0851939630738 -0.0141121431397 -0.00842672164626
-0.0885545371752 -0.0149637637583 -0.00663827090326
-0.0882416744156 -0.0139265545432 -0.00850846557922
-0.0858965959292 -0.015208804486 -0.00525953523176
-0.0735277469195 -0.0150749580438 -0.00723468867353
-0.0858250088222 -0.015744215727 -0.00139586584027
-0.0884840592656 -0.015222186239 -0.00495199455428
-0.0822622127806 -0.0157671918476 -0.00152011327285
-0.0776925614505 -0.0153262735083 -0.00507903928567
-0.0888925415776 -0.0160758495399 0.00125084964059
-0.0841496052429 -0.0156954932157 -0.00188450444007
-0.0845953257026 -0.0160028316849 0.000372997322591
-0.0895420271647 -0.0156090760558 -0.0020696761049
-0.0827015436232 -0.0155143406215 -0.0033117123469
-0.0786156289216 -0.0151633717098 -0.00618114425697
-0.086674992101 -0.015467519244 -0.00332633809148
-0.0871336812239 -0.0158540282691 -0.000495601406907
-0.0759515778928 -0.0153443306744 -0.00509039402419
-0.0818753486203 -0.0152781805368 -0.00508579795643
-0.0887534747661 -0.0157886280365 -0.000836277216059
-0.0889553152937 -0.0154073866642 -0.00357512324185
-0.0904428325182 -0.0153022358964 -0.00421386048578
-0.0794715887149 -0.0155320925232 -0.00344659587588
-0.0801322570284 -0.0153213702892 -0.00491568725233
-0.0754911445918 -0.0151432522271 -0.00658113648871
-0.0873611623353 -0.0161209027477 0.00145167832783
-0.0826668025613 -0.0150564602841 -0.00662371724796
-0.0833426834002 -0.0152456388315 -0.00520142241629
-0.0901040114153 -0.0150925155221 -0.00575715047286
-0.0920270975051 -0.0151184798274 -0.00541280768252
-0.0848130665685 -0.0150184346585 -0.00672365516765
-0.0908492927778 0.0163394061563 -0.00741912986087
-0.093674517168 0.013627083981 -0.00994582620057
-0.0900406077406 0.0175542863873 -0.00588737166244
-0.0919036573639 0.0148073173566 -0.00932059425784
-0.0914206998061 0.0136154254547 -0.0116373228643
-0.0942139864445 0.0123065703503 -0.0118478345508
-0.0904385064731 0.0145711273551 -0.0107800227052
-0.0866217582844 0.0157685908814 -0.00955788005245
-0.0769649785288 0.0138422496078 -0.0122028823609
-0.0686888765231 0.0143022900417 -0.011809172888
-0.0707799418116 0.0144542175375 -0.0115706710779
-0.0692733262163 0.0151577314633 -0.0107178790145
-0.0793190790738 0.0157602013231 -0.00973266531612
-0.0887487332258 0.0144321488284 -0.0111944304726
-0.075256977035 0.0146582873328 -0.0112127999042
-0.0569054717471 0.0150347523171 -0.0111509846812
-0.0737020334466 0.0151081141959 -0.0106808278893
-0.0708445530749 0.0155876886888 -0.0101406530485
-0.0823829122563 0.0152188326388 -0.0103460820342
-0.0809405596384 0.0141685511303 -0.0117022329283
-0.0793288845865 0.0146347803591 -0.011150863958
-0.0838202612105 0.0146205857991 -0.0110677587726
-0.0883331496636 0.0133709172982 -0.0125412937583
-0.07608588876 0.0154985429929 -0.0101351482458
-0.0650650948187 0.0149271196042 -0.0111031579053
-0.0776749007133 0.0153008220345 -0.0103486136664
-0.0601999442657 0.0147928153352 -0.0113818277651
-0.0675591024646 0.0153767703113 -0.0104803612621
-0.0665048296093 0.0142346197344 -0.0119435723675
-0.0615728374772 0.0153566782786 -0.0106402941685
-0.08931879712 0.0154973996316 -0.00983902779649
-0.086620779462 0.0141115446861 -0.0116463526099
-0.062473945951 0.0181477702702 -0.0046357181441
-0.0544535039523 0.0182457186972 -0.00414774818838
-0.0520528659639 0.0182999282441 -0.00390088417439
-0.0826284203249 0.0182843909157 -0.00431186667761
-0.0576044759159 0.0183089024572 -0.00392773800458
-0.0592328194068 0.0180755141476 -0.004891443011
-0.0668957067083 0.0182248803805 -0.00437377562064
-0.0493461657017 0.0167736690503 -0.00725984913517
-0.0254069706132 0.0128530570448 -0.00627636875015
-0.0326213281576 0.0137207552272 -0.00715408570532
-0.038761177404 0.0144836132071 -0.00785588555872
-0.0488752828362 0.0154060999723 -0.00963095779935
-0.0488205798666 0.0175618411535 -0.00561878214259
-0.0502182054998 0.0160713977487 -0.00886113144731
-0.0311256690772 0.0138574163563 -0.00638573779174
-0.0423383654269 0.0144725417297 -0.00910859207413
-0.0371851528035 0.014142883604 -0.00794418189808
-0.0231682460809 0.0125806451572 -0.00600983866346
-0.0438716164038 0.0149841600289 -0.00868900472985
-0.0376943935412 0.0148952014993 -0.00672598803503
-0.0403282298067 0.014448586047 -0.00846055706028
-0.0278961052494 0.0128884595355 -0.00706819540805
-0.0473165157652 0.0152586208219 -0.00936721814419
-0.0291194724562 0.0137890681816 -0.00582129303354
-0.0465490441678 0.0145215507743 -0.0104682164737
-0.0445571842411 0.0156944799332 -0.00760934627988
-0.0428188793362 0.0154583493213 -0.00744798257464
-0.0342571815274 0.0140513488344 -0.0071051740687
-0.0465341375732 0.0158175130378 -0.00806241857924
-0.0471879951795 0.0166799853203 -0.00668998750157
-0.0358823646937 0.0148859572644 -0.00611894109974
-0.044544968329 0.0164920131131 -0.00612777397259
-0.0505553245137 0.0149840482454 -0.0109914806447
-0.0498114386817 0.0179927691734 -0.00408976435991
-0.0264833214463 0.0134365357912 -0.0049308868007
-0.0480000281298 0.0176627821058 -0.00416541728188
-0.0439761245213 0.0169806865409 -0.00337041488828
-0.038241576096 0.0156940177255 -0.00496350499318
-0.0389623428405 0.0160817980373 -0.00280441657836
-0.0482914190962 0.0179275732345 -0.00235653453418
-0.0461440085228 0.0172203744022 -0.00490606392578
-0.04173139064 0.0163668394996 -0.00494885470597
-0.0464834692206 0.017601664367 -0.00216780305136
-0.0420584632964 0.016654381366 -0.00300229332866
-0.0355856215738 0.0152718433143 -0.0041958067886
-0.0372931566083 0.0157182082818 -0.00317343353124
-0.034153507374 0.0149155695904 -0.00489648842647
-0.0397961554153 0.0159608390292 -0.00524202080477
-0.0318033822864 0.0144932099772 -0.00464003241725
-0.074182255993 0.0175236505221 -0.00626457811928
-0.0773199316752 0.0176155360407 -0.00601849712725
-0.0566980327691 0.0179837914848 -0.00521045361778
-0.0644602288665 0.0178989757233 -0.00538038963627
-0.0883521463541 0.0178151681495 -0.00546123107407
-0.0841694675459 0.0175749409186 -0.00608300895856
-0.0861824355313 0.0178157821393 -0.00547134560496
-0.0839696134309 0.0170195040462 -0.00746980335947
-0.0792523276873 0.0181767034353 -0.00460810629118
-0.0716846064724 0.0180476494092 -0.00497069556766
-0.0869777577131 0.0172031878749 -0.006995396296
-0.0797901364116 0.0176268143797 -0.0059771002771
-0.0758969443344 0.0174686661513 -0.00639255097037
-0.0664068524889 0.0175032263343 -0.00635726898
-0.0805179825667 0.0170381023398 -0.00744193102234
-0.0882449850912 0.0167469709092 -0.00812677886861
-0.0678795559899 0.0175127170288 -0.00632568627853
-0.069685559684 0.0179968551853 -0.00510814888014
-0.0814357362339 0.0179102003971 -0.00526126672393
-0.0825376911258 0.017393332547 -0.00654485019109
-0.0581385395381 0.017690253742 -0.00593504876037
-0.0705387735143 0.0173597547303 -0.00669302765395
-0.0746208432878 0.0180808521095 -0.00487209960563
-0.0507897627203 0.0179256273115 -0.00538727720856
-0.0725484602484 0.0175111079733 -0.0063046393773
-0.0518279536809 0.0154587863436 -0.010330089799
-0.0599985163979 0.0157122184744 -0.0099168894465
-0.0604063040054 0.017529544188 -0.00629622835331
-0.0635514153126 0.0173387388045 -0.00671240486574
-0.0663095427418 0.0163562119975 -0.00870356314939
-0.0789735446042 0.0169008358464 -0.00776027392746
-0.0688323818778 0.0160356593436 -0.00937153062074
-0.0584381213539 0.0165489279524 -0.00823015165308
-0.074925665713 0.0169696376477 -0.00757727039862
-0.0583318789643 0.0155947895937 -0.0101323022617
-0.0569932405603 0.0161604674208 -0.00898873534148
-0.0774187484586 0.0170054716143 -0.00753396792344
-0.0650635992755 0.0171604783423 -0.00708509854685
-0.0533974519719 0.0172846734831 -0.00670548140897
-0.0551590260519 0.0177187774844 -0.00585942612286
-0.0630018964354 0.0154801104901 -0.0104138559041
-0.0647906761466 0.0157769194205 -0.00984198956942
-0.0549924498071 0.0153010759609 -0.0106804662598
-0.0628672336678 0.0162729006532 -0.00883084575354
-0.0739523499832 0.0162814129507 -0.0089391653757
-0.0571854856983 0.0170644542725 -0.00718760099762
-0.0645693784679 0.0164497646494 -0.00849727086409
-0.0834230776259 0.0163832280475 -0.00884311282888
-0.0559207471359 0.0166434598377 -0.00801312078675
-0.0534849848839 0.0152196067751 -0.0108259445084
-0.0524166563019 0.0177712066229 -0.00572384018821
-0.0711533320081 0.0163182343564 -0.00883407401894
-0.0508936575491 0.016828104305 -0.00758796141972
-0.0697691384451 0.0165757855981 -0.00830465480857
-0.0535428703275 0.0161236808336 -0.00902311747028
-0.0615653771419 0.016666043088 -0.00803187476401
-0.0974992678786 -0.00310308105642 -0.0135287622085
-0.0963154780814 -0.00147111576142 -0.0147385698822
-0.0962698954125 -0.00302322730718 -0.0145522913272
-0.0973823624552 -0.00506535762725 -0.0133420537724
-0.095050323359 -0.000887668020163 -0.0158641690369
-0.0995831867604 -0.0035126444269 -0.0117542321703
-0.0934868181684 -0.00648699213828 -0.014267104528
-0.0936950761988 -0.0079229974531 -0.0132150255614
-0.0915856031279 -0.00762161831011 -0.0140710403821
-0.0909505382555 -0.00965015760166 -0.012870586721
-0.0928120824257 -0.00950328586081 -0.0123992268636
-0.091070264501 -0.0112804213214 -0.0117120716652
-0.0949428736616 -0.00468434472525 -0.0147114530723
-0.0924859904807 -0.00511027413585 -0.0154489431275
-0.0927229014314 -0.00343877342957 -0.0159059994995
-0.101020456766 -0.00388190591523 -0.0104929555959
-0.0981802778353 -0.00734317837942 -0.0111820270536
-0.0998041333908 -0.00588951705761 -0.0104159945693
-0.0971700305838 -0.00944251428604 -0.00986453587106
-0.0955483113268 -0.00792480366435 -0.0124574819858
-0.0924844482754 -0.0116624029785 -0.0106797390211
-0.094613684519 -0.00913077108736 -0.0118486527729
-0.0966500746863 -0.00661342303348 -0.0130637456348
-0.0982409123876 -0.00992482888482 -0.0086778350886
-0.0592970329093 0.0118199681327 0.0132958231149
-0.0880951351745 0.0108968845505 0.0140689691283
-0.0734704516506 0.0110763914964 0.0138939194197
-0.0719410588202 0.0119872835589 0.0132045789794
-0.0796039641712 0.0110621641689 0.0139214085523
-0.0858475298831 0.0117479017897 0.0134226995384
-0.0828212891605 0.0109512549537 0.0140136381282
-0.0699266192959 0.0110096971339 0.0139343859732
-0.0680454323778 0.0120192338898 0.0131698841333
-0.077141889464 0.0111020246554 0.0138846875269
-0.0655433471852 0.0113829489213 0.0136416364263
-0.0812394027662 0.0116561334645 0.0134791132055
-0.0840320064153 0.0117550947964 0.0134123199575
-0.0749711114219 0.0118249398877 0.013334983934
-0.0887257781403 0.0120639461015 0.0131928553102
-0.0570080842197 0.011563421837 0.0134825270806
-0.083875646351 0.00662871900229 0.0161514287292
-0.0642884856004 0.00694199017657 0.0158558378707
-0.0855972496759 0.00842759705516 0.0154497807262
-0.0546848566788 0.00680786110941 0.0158255370797
-0.0668525234747 0.00696938707644 0.0158672797339
-0.0820523273651 0.00826269609483 0.0154845668101
-0.0718894338757 0.00617232329176 0.0162287420604
-0.0590002886888 0.00727416820528 0.015677391408
-0.0871635883329 0.00914804418794 0.0151764174939
-0.0871213355183 0.00652567577138 0.0162207804472
-0.0765456004375 0.00733561982682 0.0158058921291
-0.0839599740674 0.00912891867258 0.015156103726
-0.0822974351543 0.00666366231523 0.0161237467094
-0.0702270918315 0.00613110826886 0.0162306673738
-0.0698061094775 0.00752505555382 0.0156716588529
-0.0859121179567 0.00567050598439 0.0165509299873
-0.0891932798293 0.00615619697992 0.0163860438233
-0.0624684964742 0.00672410080029 0.0159267743151
-0.0744206130966 0.0077155181725 0.0156360151857
-0.089198042836 0.00755496786148 0.0158288258138
-0.0793929148844 0.00699379085889 0.0159669007018
-0.0534494867209 0.00931651926517 0.0145687491446
-0.0608866202247 0.0110982333809 0.0137976488194
-0.0554660578396 0.00964313573566 0.0144383332888
-0.0586167610274 0.0107151602366 0.0139522030832
-0.0639134459802 0.00952376876848 0.0146397992382
-0.0720553500964 0.0086173520862 0.0152317889778
-0.0751775516673 0.0103582658027 0.0144089397092
-0.0764020589147 0.00899815852008 0.0151131535234
-0.0687166361903 0.00883416780411 0.0150668877709
-0.0783238621113 0.00930833218002 0.0149894162474
-0.0570639344769 0.00750446878347 0.0155401712826
-0.0541611260374 0.0104831855922 0.0139941986632
-0.0674140230898 0.00989695758089 0.0145108235605
-0.0605006423568 0.00846295713874 0.0151159036922
-0.0518327520442 0.00960534057729 0.0143964883064
-0.0569170965139 0.00926550780288 0.0146524612613
-0.0503190823017 0.0091255465262 0.0146123262007
-0.0598759931664 0.00966735249313 0.0145000095567
-0.0623534781188 0.00995611227569 0.0143963423184
-0.0508988710457 0.011031466057 0.0136639549058
-0.0857801807739 0.0098599719883 0.014836979299
-0.0584778841059 0.00858480925605 0.0150207767047
-0.0656825711993 0.00857829813392 0.0151447009771
-0.0712604439456 0.00974300590331 0.0146526260133
-0.0638857120877 0.0109848680204 0.0139048595161
-0.0802424420012 0.00920929044972 0.0150713321619
-0.0530400283066 0.00763450804745 0.0154074170775
-0.0504263221294 0.00714903026391 0.0156076906656
-0.0822664201761 0.00965080611466 0.0148832820396
-0.0734663485019 0.00971889141425 0.0147016885936
-0.0550270768132 0.00824296670413 0.0151348284875
-0.0929551036222 0.00576643306645 0.0156213823198
-0.091523317506 0.00636653767146 0.0157472385001
-0.0926128285785 0.00725029325715 0.0150806997639
-0.0908492090825 0.00796691953976 0.0152453309427
-0.0186728605475 0.0122256598991 0.00211167885446
-0.0199507207904 0.0118134505627 0.00289630731134
-0.00677500013262 -0.00643049507966 -0.00423425441743
-0.00677500013262 -0.00135109161732 0.00653884160567
-0.00677500013262 -0.00856381271272 0.00416106532099
-0.00677500013262 -0.00190331283391 0.00518730255998
-0.00677500013262 -0.00653805064099 -0.00120345032985
-0.00677500013262 -0.00709449293593 0.00390181817064
-0.00677500013262 -0.00434047027995 0.00281627285659
-0.00677500013262 0.0010915602768 0.000431221020687
-0.00677500013262 -0.00959743664207 0.00201505993796
-0.00677500013262 -0.00378061713897 -0.00737281702967
-0.00677500013262 -0.00404684680094 -0.00217966559002
-0.00677500013262 -0.00498143900559 -0.000993891594331
-0.00677500013262 -0.000470469716865 0.000804118292273
-0.00677500013262 0.00344903360046 0.00737255902172
-0.00677500013262 -0.0048487574802 -0.0036350050738
-0.00677500013262 0.00319331893928 0.00543751418204
-0.00677500013262 -0.0016450944035 -0.00665025447073
-0.00677500013262 -0.00495183552016 0.00477517087868
-0.00677500013262 0.000921994644227 -0.0024601055662
-0.00677500013262 -0.00504793669909 -0.00587036493518
-0.00677500013262 -0.00370219984217 0.00091565805724
-0.00677500013262 -0.00333697635407 -0.00591818476846
-0.0206409990788 0.00874675347298 -0.0043830429426
-0.0206409990788 -0.0010487191217 -0.00108523654808
-0.0206409990788 0.0025967768022 -0.00346359991375
-0.0206409990788 -0.00515455287094 -0.00197139514818
-0.0206409990788 0.00197117300365 -0.00130259587897
-0.0206409990788 0.00311028790933 -0.0059469303179
-0.0206409990788 -0.00361284804342 -0.00322280317462
-0.0206409990788 -0.0046093255417 0.000710307821365
-0.0206409990788 -0.00214711109116 -0.00235846298258
-0.0206409990788 0.000610945218598 -0.00373918809314
-0.0206409990788 -0.00727632562173 0.00127525910345
-0.0206409990788 0.000317602778312 -0.00211422084268
-0.0206409990788 -0.00104654178478 -0.00569690891617
-0.0206409990788 -0.00859069479819 -0.000373512962583
-0.0206409990788 -0.0054131544396 0.00195896802152
-0.0206409990788 0.00473640729869 -0.00320724678608
-0.0206409990788 -0.00635585043706 -0.00531055195723
-0.0206409990788 -0.008075786949 0.00272595564533
-0.0206409990788 -0.00417444646144 -0.00705042996933
-0.0206409990788 0.00580445703436 -0.00446119663753
-0.00974520465957 0.0058421024616 0.0108319767155
-0.0206409990788 0.0010788494418 0.000425698184087
-0.0206409990788 -0.00731083796878 0.00549646047298
-0.0206409990788 -0.00212694240093 0.00673423491113
-0.0206409990788 0.00603768628427 0.00324009996281
-0.0206409990788 0.00932490501125 0.0017428863102
-0.0206409990788 0.0029826926687 0.00763140669993
-0.0206409990788 -0.00656283355639 0.00343476748827
-0.0206409990788 0.00748651348317 0.00813776431072
-0.0206409990788 0.00811201135131 0.00333561852107
-0.0206409990788 0.010909916103 -0.00495136276328
-0.0206409990788 0.00965165321979 0.000205939742141
-0.0206409990788 0.00600179190149 0.00886292661099
-0.0206409990788 0.00214388208223 0.00631299361463
-0.0206409990788 -0.00105152111786 0.000445955568678
-0.0206409990788 0.00725561322351 0.004677436799
-0.0206409990788 0.00452021828938 0.00734075675099
-0.00677500013262 0.00419414598623 -0.000910100295991
-0.00677500013262 0.00293144499355 -0.00460621664924
-0.00677500013262 6.64543831978e-05 -0.00794071486381
-0.00677500013262 0.00258776106031 0.000711057306755
-0.00677500013262 0.00575763551703 -0.00415720676354
-0.00677500013262 0.00785809456995 0.00101053677486
-0.00677500013262 0.0102966296594 -0.00138069923287
-0.00677500013262 0.00751248335632 0.00690643926516
-0.00677500013262 0.00533498360668 0.000285634962988
-0.00677500013262 -0.00134535185719 -0.00884529163621
-0.00677500013262 0.00401726706101 -0.00337994578416
-0.00677500013262 -0.00033054816246 -0.0102073332065
-0.00677500013262 0.00134626780057 -0.00698769851434
-0.00677500013262 0.000121153518692 -0.00563987516422
-0.00677500013262 0.00751654150064 -0.000912215970262
-0.00677500013262 0.0069127477322 0.00522021620271
-0.00677500013262 -0.00157729623192 -0.0113820104294
-0.00677500013262 0.00373791656593 0.00298152115408
-0.00677500013262 0.00594499995959 0.00200925876627
-0.00677500013262 0.00503185120539 0.0050493464124
-0.0206409990788 0.00631658423798 -0.00777065752248
-0.0206409990788 0.00608058664989 -0.00952111828868
-0.0206409990788 -0.000677387403576 -0.0102335124641
-0.0206409990788 0.00907434829115 -0.00688664247644
-0.0206409990788 0.00478302506121 -0.00873991934156
-0.0206409990788 0.000577055280864 -0.00928051449878
-0.00677500013262 -0.00850387608994 -0.0042272913922
-0.00677500013262 -0.00656897817128 -0.00685727699062
-0.00677500013262 -0.00961879361347 -0.000941019537224
-0.00677500013262 0.00735917158375 -0.00748464356315
-0.00677500013262 0.00485253446591 -0.00897617718936
-0.00677500013262 0.0102361506974 -0.00651903957315
-0.00677500013262 0.0110568026626 -0.00515131239751
-0.00677500013262 0.00221186515006 -0.0103462001069
-0.00677500013262 0.00561300239284 -0.0109271682022
-0.0206409990788 -0.00676964431824 0.00711212916182
-0.0206409990788 -0.00475353833411 0.00777719256583
-0.0206409990788 1.63054145733e-05 0.00914417741338
-0.0206409990788 0.0114513927932 0.000208326736313
-0.0177787478946 0.0126210105468 -0.00251860361257
-0.0158271827554 0.0127560271327 -0.00196988721754
-0.0118873235581 0.0128817438624 -0.00368159456832
-0.0200404358886 0.012347027573 -0.00541056889819
-0.0157367937821 0.0126090824413 -0.00488567194823
-0.0172844309261 0.0127500316561 -0.000559154504364
-0.0104415741192 0.0130199157675 -0.00254267686743
-0.0176356036354 0.01253405172 -0.00433797842347
-0.0132478063589 0.0127606786605 -0.00458136643426
-0.0182086915959 0.00600524024011 -0.0111130980696
-0.0110899919136 0.00528505478793 -0.0119572890229
-0.0172091775154 0.00122217827048 -0.0117528672609
-0.0162556214035 0.00577687145663 -0.011348135137
-0.0111520474995 0.00321558688802 -0.0121810220287
-0.0196268867808 -0.00223491369532 -0.0118782639061
-0.013342810655 0.00193657041662 -0.0120882912655
-0.0141136868434 0.00561024545305 -0.0115965682324
-0.019512511425 -0.000688703460524 -0.0117184001944
-0.0088761786375 0.00531729632002 -0.0121912966362
-0.0174094725576 0.00328365456211 -0.0115018672311
-0.0204868044722 0.00423973127414 -0.0110651535482
-0.0157793810297 0.00235960478843 -0.011779690592
-0.014518426972 0.00408338902532 -0.0117231139528
-0.0173249819385 0.00755614123658 -0.0110352807816
-0.01248698228 0.0041677289317 -0.0119317488025
-0.0191289217185 0.00116066572252 -0.0115536792816
-0.0206409990788 -0.00755115318139 -0.00618018377154
-0.0197115443127 -0.00997542332335 -0.0022081414451
-0.0204426822858 -0.0093001056284 -0.00536290343556
-0.0125078506626 -0.0105778034895 -0.00455857771137
-0.0173121468223 -0.0101062490284 -0.00506664821676
-0.0112403068185 -0.0103612161665 -0.00545994198366
-0.0195491588041 -0.00927082938764 -0.0071731869467
-0.0156905248855 -0.00987977641116 -0.0060661092094
-0.0156177031596 -0.0104727024181 -0.0042797531946
-0.0187341161631 -0.00975756242683 -0.00585198677222
-0.014106516485 -0.0103919698558 -0.00481545556147
-0.00796391505672 -0.0105954607566 -0.00537865734283
-0.0172364013862 -0.0106335474262 -0.00348012575142
-0.00677500013262 -0.00323385000409 0.00759052076733
-0.00677500013262 -0.00503164704495 0.00660929675553
-0.00677500013262 0.00209209552181 0.00961259903521
-0.00677500013262 -0.00100353107421 0.00838514880648
-0.00677500013262 0.00815694737741 0.00841684474928
-0.00677500013262 0.0109001651293 0.00397195313685
-0.00677500013262 0.0108553887537 0.00575444743453
-0.00677500013262 0.0117116747892 0.00115270055985
-0.0113222905985 0.0114213580453 0.00605922825681
-0.00839091909053 0.0118056163264 0.00549039635852
-0.0151314879778 0.010929262196 0.00678453547911
-0.0128918472384 0.0115014769808 0.00581569297273
-0.00990761581115 0.0118737902569 0.00527279234861
-0.00784674812823 0.00650633991689 0.010500300081
-0.0126696591205 0.00663678747912 0.0104361256494
-0.0141242053602 0.00732997820537 0.0100891593144
-0.0115822888219 0.0120288201807 -0.00662086825142
-0.0100890928749 0.0128034243311 -0.0045734062531
-0.00751828405268 0.0125704473315 -0.00522191206401
-0.016417951156 0.0119047415356 -0.00681318674949
-0.0138548555149 0.0119903442779 -0.00666824308375
-0.0100546047305 0.0105385620353 -0.00880531696866
-0.00769758633859 0.00930352301937 -0.0100907382962
-0.00737938104287 0.0115674760234 -0.00748749089997
-0.00806194046803 0.0106837881178 -0.00853333809171
-0.0128605769248 0.0111702835147 -0.00823301618679
-0.0112456895328 0.0113741857755 -0.00791411648642
-0.0176094529962 0.00451542228596 0.0104037751949
-0.0163736598925 0.00525293300085 0.0104831743396
-0.0124961166545 0.00510558586927 0.0107323047288
-0.0196932426342 0.00644489722477 0.0102698926585
-0.0143886262418 0.00587863632638 0.0106107118487
-0.0108389814416 0.000981262932864 0.0108195967679
-0.0113213330061 0.00336405151537 0.0108005962586
-0.00795136500118 0.00174249217572 0.0110070319176
-0.0099522157703 0.00415713027527 0.0108915849523
-0.0142829828338 0.00330452058214 0.0106118924843
-0.00985950915175 0.00257565818515 0.0108897270512
-0.00814453585036 0.00467720712628 0.0110091349524
-0.0127968229561 0.00301619452365 0.0107050238266
-0.00716862888997 0.00322745358217 0.0110641097284
-0.0158908598569 0.00342842175338 0.0105102114899
-0.0109035117828 -0.000627726859556 0.0106459755243
-0.0155222612981 0.002006403982 0.0105072472491
-0.0182239570092 -0.000823681243082 0.00993938504181
-0.0171985512495 -0.00227742059294 0.00987342482797
-0.0129737415689 -0.00128099919828 0.0103795776239
-0.0135102856146 0.000172095125312 0.0104911951944
-0.0162603276475 -0.00112797215491 0.0100891833393
-0.0124129135576 0.00129584086304 0.0107189787123
-0.0173705899531 0.00107164377675 0.0102302618165
-0.00816333089571 5.66211895831e-05 0.0109785024878
-0.0154297768848 0.000387234384072 0.0103355983256
-0.0201260952749 0.00148942748016 0.0100190275418
-0.0201130291107 -0.00302923853147 0.00951708074365
-0.0184965533569 0.00268457503278 0.0103045422182
-0.0146793244222 -0.00633833371814 -0.0110176675375
-0.0135506132041 -0.00708512711097 -0.0102713049248
-0.0168759875093 -0.00673417828838 -0.0106220513061
-0.0108880489098 -0.00687378844082 -0.0104825216864
-0.00804711597204 -0.00766215548297 -0.00969460940564
-0.0181960651082 0.011734812657 -0.00708846120857
-0.0195283478666 0.0111254982428 -0.00822507756329
-0.0117617242079 0.0103660158534 -0.0090464827234
-0.0166175094157 0.0111358561257 -0.00827663521053
-0.0146930979713 0.0108652214078 -0.00854725005209
-0.00766501237686 -0.00555623815471 0.00993129157304
-0.0140552852106 -0.00676820368812 0.00911435939218
-0.00677500013262 -0.00418271910486 0.00928565701666
-0.0161323966668 0.0125382773526 0.00166021172831
-0.0119217809766 0.0125861300391 0.00263684539827
-0.0135744114062 0.0125201909612 0.00256777416731
-0.00931358140848 0.0126719329869 0.00286755508838
-0.0177145598049 0.0125810024266 0.000888700540689
-0.00753208892088 0.0125865161445 0.00363672792618
-0.0107628803904 0.0123755155706 0.00379407716264
-0.00677500013262 0.00407715632183 -0.0117077824392
-0.0124733769975 -0.00179572558003 -0.0123963412268
-0.0140137231203 -0.00281495362361 -0.0123004723008
-0.0104460454579 -0.00269824630711 -0.0125225194241
-0.00777366029867 -0.00160063516984 -0.0126888448305
-0.00799611287364 0.000812856017358 -0.0126749997024
-0.00953761079528 0.000190794755095 -0.0125790590902
-0.00933748143124 -0.0014591253946 -0.0125915148538
-0.0111155756042 -0.00121260743108 -0.0124808488314
-0.00892654971064 0.00209117979292 -0.0125169344327
-0.0103941320965 0.00152772960131 -0.01242698242
-0.0177861151376 -0.00174034384361 -0.0120167755465
-0.00818957639341 0.00362702175439 -0.0124372207361
-0.013374435306 -9.06479555386e-05 -0.0122915732713
-0.015297156845 -0.000743273772101 -0.0121651955829
-0.0150218592936 -0.00898832058537 -0.00816543948616
-0.0139210642885 -0.00823228607378 -0.0090959327624
-0.0183924401673 -0.00751949328597 -0.00973508063474
-0.0200603972326 -0.00673411214681 -0.010580171348
-0.0184409089815 -0.00875145405025 -0.00829427524546
-0.0110266401591 -0.00934819100612 -0.00786178267918
-0.00942616276712 -0.0102044495428 -0.00616497070335
-0.0142585040524 -0.00961868189333 -0.00703126640086
-0.0168988658158 -0.00923064139757 -0.00764933175247
-0.012533721737 -0.00985984253818 -0.00665375556558
-0.0102722335994 -0.00834820257203 -0.00900679124145
-0.0118700958813 -0.0079221709158 -0.00943326216163
-0.00842973783262 -0.00923285523319 -0.00803466351122
-0.00682953079844 -0.00910323173053 -0.0077522155413
-0.0111747844334 -0.0108272315575 -0.00358929375431
-0.00887403012344 -0.0108352381682 -0.00398382010554
-0.00939964100513 -0.0110264183755 -0.000299087221067
-0.00893391876636 -0.0110277605147 -0.00202061573011
-0.0116383113675 -0.0109269520253 -0.00174622256977
-0.012795057246 -0.0108724755008 -0.00281602913826
-0.0124608188727 -0.0109093173771 -0.000301339459017
-0.00778489308238 -0.0110855334739 -0.000575388590989
-0.019085537745 -0.0102180266097 0.00466212176532
-0.0159083748609 -0.0103804596135 0.00428354697179
-0.0118199238441 -0.0103260200764 0.00455083347383
-0.0197126797865 -0.00945643074946 0.00601857845782
-0.00776684908695 -0.0104707565167 0.00413994616474
-0.0131755414864 -0.00989667506226 0.00548692395784
-0.015224826878 -0.00992578191639 0.00550403888066
-0.011323547091 -0.00957515733316 0.00606188269188
-0.00995486097127 -0.0102921307232 0.00457762560834
-0.00916395852021 -0.00943073773402 0.0062658408879
-0.0168612243507 -0.00971078522544 0.00598781234866
-0.0127172016501 -0.00762610031791 0.00836015539584
-0.00983544309372 -0.00696629980738 0.00889116074576
-0.0112781354009 -0.00650533145231 0.00931529738997
-0.00819784421504 -0.0072474159107 0.00862085185591
-0.0109047673752 -0.00829426353051 0.00774966532637
-0.0170326664551 -0.00767708168404 0.00838206952132
-0.00932521801168 -0.00857450025736 0.00746508866404
-0.0072956709948 -0.00909203281368 0.00665813370896
-0.0130498689076 -0.00880050680708 0.00725018972697
-0.0176603093593 -0.00873909595322 0.00719931851584
-0.0195520695996 -0.0080204642992 0.00803000710449
-0.0157091916439 -0.00865924298948 0.00735082460227
-0.0167131376435 0.0112749425734 0.00601607289322
-0.0163449778282 0.0122203552208 0.00329512498985
-0.0188770060694 0.0116951398564 0.00445919143083
-0.0147451901737 0.0120819445005 0.00401406345956
-0.0147073136418 -0.00283428535253 0.0100438944719
-0.00847432101076 -0.0014949237853 0.0107753984059
-0.0114418537851 -0.00280333841581 0.0103513231249
-0.0131379823842 -0.00372180666169 0.0100896538959
-0.0100089240223 -0.00238030299242 0.01053250273
-0.0163496763412 -0.00355843378197 0.00980919099431
-0.0170158376381 -0.00322504903667 -0.0121136250137
-0.0195866926938 -0.00408856178349 -0.0119536186949
-0.0144849678631 -0.00440561237621 -0.0119849141399
-0.0073590482484 -0.00618079989109 -0.0110975711113
-0.00912539151013 -0.00389641191652 -0.012238107468
-0.00838946454821 -0.00503933313766 -0.0116675028522
-0.0178511130918 -0.00471276250412 -0.0118322117462
-0.0122064453318 -0.00546561389208 -0.0114554194928
-0.0161616187318 -0.00446006975652 -0.0119580348844
-0.0120808421862 -0.003581865936 -0.0123956412705
-0.0185389411879 -0.00622813399324 -0.0110739952257
-0.0138363819341 0.0101128620319 0.00762164017288
-0.0151710856139 0.00954486438844 0.00818917551641
-0.0183913863513 0.0106929541637 0.00704287321603
-0.0116782170321 0.010220319013 0.00751399597317
-0.018753953246 0.00908239575717 0.00865162752944
-0.0166625212804 0.00958496172408 0.00814933937112
-0.0198791582761 0.0099586672327 0.00777652824272
-0.0181725699464 0.00744718903506 0.010031194766
-0.0113501226096 0.00776200208631 0.00987197380198
-0.00820449907386 0.00853118467922 0.00920053064896
-0.0156514052099 0.00797787244226 0.00975435697786
-0.0110921152374 0.00906977188991 0.00866305596077
-0.00968209556937 0.00838741233508 0.00934436379068
-0.00777389444756 0.0105575636607 0.00717654012151
-0.0132875390938 0.00889862376233 0.00883434591637
