0.02246006045513552 0.03590589268983595 -0.12523525216956194
0.018460533216570534 0.042671299718682845 -0.12285421443950792
0.010423295660392814 -0.00031411902077421033 -0.1257817385797016
0.01980332673416575 0.010558361442602542 -0.12577893344384866
0.018430566646210608 0.0044735983962181924 -0.12577936257992672
0.013284531664361238 -0.027091184574984238 -0.12578100752460386
0.01715563568877888 -0.02839037872756737 -0.12577987381459196
0.024758884776596032 0.02743517721179889 -0.12577740536662907
-0.012451109824728367 -0.02997054682406494 -0.12578859227444564
0.004567751830712973 -0.014815732583594515 -0.1257835216467013
0.014363637907181065 -0.00013783262671407392 -0.1257805783864814
-0.021237417338721025 -0.03396283388146611 -0.12579119421553603
0.004082010629205457 -0.031426571831006604 -0.12578373335905993
0.012700607373352097 -0.034445366313452686 -0.12578120979854118
0.010229628829181 -0.029490607250893114 -0.12578191637871727
0.02595819887652153 -0.01050922696201734 -0.12577720958028818
0.018625868729066807 0.017520681944432577 -0.12577925108709007
-0.001072417046790744 -0.013683190546798733 -0.12578517660199048
0.024912159583784135 0.01401972684427017 -0.1257774158144664
0.010197221858430047 0.004344888671279617 -0.125781785811276
0.02622750914289793 0.01707642606114365 -0.12577701611005876
0.007441426702204107 -0.011795152601116746 -0.12578266354768505
0.0177312726801548 -0.015396945138441448 -0.1257796506286629
0.013310769837029024 -0.008359233000499443 -0.12578092224012583
0.020905759154427186 -0.03558293292253259 -0.12577880010640632
0.014540599885501892 -0.004620105972697913 -0.12578054487447243
-0.006845611780851174 -0.03648151153934768 -0.12578696979174966
-0.008387851174406736 -0.024947390243543758 -0.12578737584299038
-0.004647052183769981 -0.01778321837320016 -0.12578624543138092
0.012498610156139229 -0.011887477268878469 -0.1257811758312055
0.022312671969485123 0.00047194627290974775 -0.12577823682285716
0.003502030579855665 0.0033461265415092693 -0.1257837600367439
-0.01730825267189555 -0.03737600364916122 -0.1257900521743038
0.020536249581210433 -0.02947840994881512 -0.12577888355912073
0.026378218606492265 0.003237168504955333 -0.12577702906762703
0.01836332362207197 -0.01851813657420609 -0.12577947756883817
0.013850485797924781 0.015929330027789415 -0.1257806628541443
0.01690794223556169 0.01354624306191346 -0.12577977305165844
0.002296730745115664 -0.018381743944431858 -0.1257842046706342
-0.011086901345121952 -0.03562662339377749 -0.12578821427025358
0.013907854098535606 0.004147567787716577 -0.12578069475825243
-0.008857078709693812 -0.03182750390106083 -0.12578754240391266
-0.004475260440778525 -0.03198475302214344 -0.12578625368548277
0.00697748862812994 -0.005094201298197062 -0.12578277231676357
0.010581765382224575 -0.024952094185121287 -0.12578179396825234
0.022344477398907825 -0.0037966786965797396 -0.12577824513915137
0.017501061644858987 -0.009621102008810806 -0.1257796944531331
-0.005641328834531615 -0.027376000634145355 -0.12578657772274837
0.023956801680064182 -0.02923225426049825 -0.12577787602715895
0.02188653347516706 0.019426612562612088 -0.12577828373003008
0.001425952986481396 0.0003313790845997401 -0.1257843834150555
-0.004802313265571725 -0.014027578762268378 -0.1257862755665917
-0.009389303422923708 -0.015187728215904696 -0.12578763011274366
0.019890033373755875 -0.0074127820061840165 -0.12577898234351842
0.006981980569694536 -0.024500855201729795 -0.12578285135252243
0.006294492261230899 -0.018760871167307857 -0.12578302988135073
0.023511983436908766 0.005409057428128236 -0.1257778634769146
0.021197860316319733 -0.025941231242618084 -0.1257786742307443
0.004722434885013824 -0.026952387942089373 -0.12578352638502274
0.021680281757473715 0.015875874953572382 -0.12577835912312982
-0.02412865032140407 -0.03662049736046954 -0.1257920559783689
0.02596109555397976 -0.014821180850981507 -0.12577722658252444
-2.4702501686889658e-05 -0.02582290871282644 -0.1257849185744979
0.022039535663305215 -0.01149798202897694 -0.1257783667585619
-0.01132678032403265 -0.022884672487463925 -0.1257882320948529
-0.0008560667570060004 -0.01978938742625405 -0.12578513822400905
0.026082386029397397 0.02390389117161784 -0.12577703054255587
0.016787716461339672 -0.03312930101667143 -0.12578000169901782
0.0017745681172141345 -0.03717325001263242 -0.12578443612969195
0.015091412549244097 -0.02261435422323451 -0.12578045730454665
-0.01006494299285518 -0.018463462000536765 -0.12578784248659686
0.021714634177441856 -0.015049046061624115 -0.12577847706623635
0.004447178065813131 -0.007394058260171917 -0.12578352639498885
0.009348105849562185 -0.015895189798640855 -0.12578211947595697
-0.006051659255420558 -0.022592710211834805 -0.12578667865803403
0.02555764380160321 -0.02068044880083815 -0.12577736956159252
0.004762646714378865 -0.021819775669956472 -0.1257834932997991
0.0048655747718253355 -0.002433506282596306 -0.12578338273963335
0.011230215754702115 -0.020595726450886705 -0.12578158512033835
-0.002786965994294557 -0.009048545973509015 -0.1257856619248912
0.010289754202800545 0.008949323759427407 -0.1257817395175418
-0.014581559394296627 -0.034076462856840316 -0.12578923617017781
0.013171362539463728 -0.01625107259996933 -0.1257809959392477
0.007002799628910513 0.0014975187199758253 -0.12578273757441752
-0.014893247167620327 -0.02266882146787011 -0.12578928064983794
0.002906488515388235 -0.011057522049047388 -0.1257839949191358
0.013663989637939158 -0.03096613784343024 -0.12578091191250299
-0.01585603526948611 -0.028009014811029454 -0.12578958606677673
0.018623284468867712 -0.00403913046164853 -0.1257793411206807
0.0016024825227493478 -0.003737941036883227 -0.12578434832037058
0.022680142849829686 0.008807788627336739 -0.12577809417651825
0.008096664870100537 -0.03432950327385556 -0.12578256404938518
0.016684433524081693 0.009148641810443848 -0.12577985702933125
0.023332225673588572 -0.007760019901797586 -0.12577797090090814
-0.003560661797447924 -0.03663943194309089 -0.12578600383448094
0.013338293118264817 0.007731636162750664 -0.12578084751348334
-0.019705043802856998 -0.029253179185670847 -0.1257907238064291
0.0006234402244635149 -0.007976154364595634 -0.1257846539571877
0.026420602323437254 -0.03617634025854006 -0.12577717979635927
0.023714423078481144 -0.017921892314218216 -0.12577790051509335
0.025801933138241813 -0.025345737096311095 -0.12577731699602207
0.0006850721185214575 -0.02988172039149323 -0.12578472652655792
0.023895156609586653 -0.03340392136900599 -0.12577791144020384
0.021409251067662574 0.023928523452407285 -0.12577840553135025
-0.0020033996173758513 -0.023057506740210676 -0.1257854893641858
0.020979824059057545 -0.022360539755585145 -0.12577872356224154
-0.013852319435237438 -0.04932200051147308 -0.1186500076164752
-0.02042296360856595 -0.04579930889958109 -0.11999971052047635
-0.026268147204122082 -0.044538857276728905 -0.1171500475474435
-0.028763250465512542 -0.04221233638974302 -0.11980057229877195
-0.023323222239313046 -0.04602453939592287 -0.11674656101934829
0.02173661038014678 -0.023130951313143595 0.04028416179281145
0.017900196398021703 -0.024899176600151694 0.04057170493130016
0.01047546723918985 -0.027500121620094638 0.04169300589084948
0.004591660513004042 -0.028600021509943098 0.04324276120931659
0.014005655609511888 -0.027641766185222745 0.04021184157269969
0.02026743004773951 -0.02006773859112812 0.0429669901189125
-0.0086369959690811 0.04526290919943308 -0.12318539006357367
0.0032488708424674084 0.04569012739700974 -0.12093738387985696
-0.0034187944755474688 0.045105091775308054 -0.1231936319499279
-0.005537786841431651 0.047027532825770754 -0.11783559638988253
0.006934857097048651 0.04602877988784553 -0.11964619474981471
-0.0032484731090905803 0.04620450709474298 -0.12001118853964655
-0.00018177857317726114 0.04541924632389836 -0.12201144765643615
-0.010724374934687746 0.04655059512212241 -0.11965364133708573
-0.015403696526659957 0.04570470139049531 -0.11859775079383168
-0.014875325111242135 0.04521051836487425 -0.12200688203824962
-0.022594230128594208 0.04317906166761031 -0.1199417232005397
-0.019112402699318385 0.044183714999457106 -0.12041756565315377
0.017634910387053164 0.045952996953129134 -0.11319127647262173
0.00781537491045177 0.04934702124410712 -0.08539962722576795
-0.0016873645214358348 0.047691960472665204 -0.11086810397321718
0.012023159031995825 0.0460126581669809 -0.11723798506945321
0.011242106124459273 0.04676201227534544 -0.10994549566634951
0.009838729521826628 0.049458160411499495 -0.082534360449754
0.015033247017216988 0.04568979448270063 -0.11815073665752196
-0.008378975932985883 0.04803112345546529 -0.1128522777359385
0.014248829992649786 0.046622390255263914 -0.10891854645123861
0.0025624263123923963 0.047161951522741996 -0.11294307514065324
0.01461598093411808 0.046088092147916086 -0.11427639080247454
0.008601524897732735 0.0466766409051705 -0.11305225653815079
0.01831180151365732 0.045221687365433 -0.12037933144700745
0.014188193550850832 0.04739972487325671 -0.10072874731754093
0.01219483061169784 0.0485274916672721 -0.09043562834060273
0.004816084700882475 0.04793558959593328 -0.10286276773798388
-0.005097096334807273 0.047857140476133445 -0.1119601526604774
-0.0011546421000609977 0.04729580402680276 -0.11462348195086772
0.012872962919794546 0.04779206138785547 -0.0976663309741176
0.008846468386770475 0.04815424767712886 -0.09718422420644439
0.006035310634676086 0.046654276487409746 -0.11542908581073333
0.0006540438932623816 0.04837892318372574 -0.10163345630570395
0.0031631429602352497 0.04669146068002451 -0.11742976159800321
-0.00405482278289897 0.04839849462534737 -0.1053523089354456
0.007808621542114922 0.04874561980568029 -0.09178058685101001
0.00933903177632734 0.04720262239173045 -0.10686149426613678
0.005447821297905848 0.04914366034596746 -0.08952951533868186
0.004506447876036734 0.04873600141844202 -0.09463595241562069
0.00827199346350059 0.04762262376996591 -0.10329886203072101
0.01167633456333934 0.047335820949788984 -0.10350060578000818
0.0020038779053803014 0.04764703080411281 -0.10826657922569347
0.005186103650004263 0.04823642434454537 -0.0993651551599018
-0.01935291236284858 0.045209976290480125 -0.10174672416401118
-0.022460596558865197 0.043999938954088345 -0.10369125189800245
-0.012917370414774035 0.04910252067408794 -0.06632488875751041
-0.014208547787017816 0.048197671773299255 -0.07623619872369927
-0.02047125067033591 0.04542575040730433 -0.08770322024900348
-0.020640596904970474 0.04505614583065998 -0.0946840134929566
-0.012702522317490986 0.04823922272092128 -0.08762893063035082
-0.01853292686864188 0.045685873615183795 -0.09768785932343357
-0.01381274552711061 0.04956714603563747 -0.04847346735258897
-0.016586153610538088 0.047503033990415056 -0.07249126994225356
-0.0130307793106823 0.04835890268965388 -0.08223122241340045
-0.01596202642642034 0.04733130083398743 -0.08149042704832188
-0.01696724812342743 0.0476884011849084 -0.06517373402595858
-0.021773180647837644 0.04449225720681724 -0.09817496343819675
-0.023350446412684085 0.0434045921924881 -0.10988223706936405
-0.018573886525983917 0.0448179686231026 -0.1170012938789792
-0.014736730122521522 0.046636693759700115 -0.10725035335854727
-0.019779948130281826 0.04585937336291947 -0.08354758859448225
-0.01447535131161308 0.049682162130791234 -0.040443235785295684
-0.017000860428701598 0.046769366669129966 -0.08570488182718222
-0.014543992394139884 0.04894986712310603 -0.05645984460244256
-0.016287698074092638 0.048157160277672466 -0.06012639480824489
-0.01342333097439823 0.048759290180360966 -0.06995192387409895
-0.015544792018583518 0.04711511029337287 -0.08980174925063532
-0.018827556789092526 0.04519799861822092 -0.10632023047918898
-0.01409979706963633 0.048829689134153295 -0.06281829126686564
-0.021138538819335532 0.04404701411461427 -0.11345233635761716
-0.014491566601545653 0.04656589172916397 -0.11086100883686585
-0.014238941187687247 0.04698570452149399 -0.10342553572730964
-0.013188182346403066 0.04765802275428742 -0.09680970634381322
-0.017100861106103343 0.04549786371939749 -0.11367203198420878
-0.018255379666631592 0.04668627499434465 -0.07731228924602442
-0.01159933781365202 0.04747181468482194 -0.1140370083029499
-0.01249615543665235 0.048162089409955394 -0.09106520205172063
-0.026316166857007467 0.032978601143049985 -0.12516008019224106
-0.02813400411627612 0.02964312336905653 -0.12410255500990656
-0.01974548050435329 0.03979632952097555 -0.12477523723431247
-0.0245754869265666 0.03990103908333839 -0.12250574418034638
-0.025298164829809705 0.036689995097799945 -0.1237832208148013
-0.02186211639842446 0.03679980966927865 -0.12530536668739412
-0.014769524064198538 0.03892680304350722 -0.12523855108584078
-0.006496292499856257 0.03421937779021281 -0.12564293599382667
-0.004034622960915783 0.03683828543665883 -0.1254397886579401
0.008483317677856837 0.037967090821321416 -0.12538762551622612
0.004471340525295251 0.03909623432968203 -0.12528436367417536
0.015926757578299457 0.03454824765606906 -0.1256857497873446
0.004927785049761422 0.035343932255022546 -0.1255877352962389
-0.011633166934533633 0.036536651241914374 -0.12544058549370993
-0.012244397486575602 0.04356980524674614 -0.12487271357066188
-0.003458858505424981 0.040372940952456665 -0.12515712099861118
-0.01397020769337843 0.033815787367136065 -0.12565232267553095
0.0013406981142580982 0.036566816362273484 -0.12547824256549783
-0.015694651415095736 0.04316832976324805 -0.1248943617190944
-0.010538202800742252 0.04006701131161638 -0.1251598676444654
-0.018306083581679303 0.03598514363735443 -0.1254643504050214
-0.007535127801309915 0.023948106297908587 -0.125778980039585
-0.010401483286662917 0.025803054372685458 -0.12577852720613714
-0.015954530755071555 0.0307213523156137 -0.12577734465267268
-0.012775909053677665 0.0011161711244757778 -0.12578419528986817
-0.009225146873307756 0.015223479771041373 -0.1257809756768686
-0.008257599495088567 0.009954583343267863 -0.12578219845457014
-0.026455012025400425 -0.02673030348959097 -0.1257904914808763
-0.0034524981915230336 0.02359743319482371 -0.12577909697412468
-0.012820990874885432 -0.014702008237257373 -0.1257878401902515
-0.023433539775628075 0.027041884222473833 -0.12577812641394226
0.00620341514705448 0.025135589906894254 -0.1257788279386589
0.012561056210228513 0.03300333539621745 -0.1257770710673713
-0.017965061982764527 -0.008481889384798016 -0.12578636125067785
0.00893641329942582 0.027721236974241597 -0.12577825625709954
-0.014687252820291853 0.009257338556329028 -0.12578230224690864
-0.016829894403311167 0.022710772555538952 -0.12577918294572277
0.017219596507500785 0.02218350837235966 -0.12577960571380448
-0.01721771916601805 0.0063662208364167455 -0.12578294611611934
-0.020085411188152137 -0.0023543672162824707 -0.12578493040302666
0.004463522074271895 0.012762747709894808 -0.1257816638659315
0.02398979466204729 0.0312158819127324 -0.12577758410418166
-0.0088373571885839 -0.007551075962430216 -0.12578622750402974
-0.023804559564926938 0.022106158553319686 -0.12577926056919075
0.01536291228152602 0.019546104914829943 -0.12578019707599578
0.002018212696272191 0.019619200126575392 -0.1257800621611592
-0.005410952250236764 0.002129824896419559 -0.12578402685637757
-0.016314026842856794 0.012334705921213721 -0.1257815786744079
0.018744740154576497 0.03018628363108612 -0.1257777749683673
0.0013332294401702466 0.015492194307275917 -0.12578100716906945
-0.015908583087410142 0.01918678604894285 -0.12578000319986948
0.0024313111213522705 0.028496675997336404 -0.12577802000192112
-0.015559959548202123 0.02615900040980903 -0.12577839953766956
-0.0033306127675215014 0.03138594761329076 -0.12577730318947244
-0.019884469672880545 0.01707444478807107 -0.1257804548113934
-0.009379427731854312 0.004307944700882638 -0.12578348979676907
-0.021874335539070075 0.008345792550036714 -0.12578244872344432
-0.009503987273215476 -0.0038845731542812767 -0.1257853766603489
-0.0023585779376396653 0.0037171780757311347 -0.12578368805738135
0.0021290304156096266 0.0073973747828818635 -0.12578287966115398
-0.00818866127238918 -0.00048368745554445546 -0.1257846045639026
-0.005719736774124844 -0.005546780844036892 -0.12578579319804703
-0.023483924433052774 -0.029926372571550713 -0.1257912543022844
-0.020700640406847444 -0.021244902665299513 -0.12578927828333591
0.0030628013919743145 0.03163097125134597 -0.1257773032908589
-0.0020992358042569523 0.02765983124329411 -0.1257781727678151
-0.01801528252356934 -0.018161622177717923 -0.1257885915006532
-0.025350903824059186 0.013537430024594885 -0.12578122155097568
-0.017404852916637924 0.0030139870415859995 -0.12578371698265392
-0.0227732235497401 -0.025685055461119363 -0.12579028317888052
-0.025484632582770398 -0.01283708221062898 -0.12578729837382727
0.010314928160180495 0.014714030742903969 -0.12578126596432895
-0.022164822919787407 0.0036618034668880715 -0.1257835255785269
-0.0057618529841785785 0.015388132124075091 -0.12578096837495928
-0.013940571426341655 -0.0034497156986733864 -0.12578523719383858
-0.009039536476534153 0.018695637882994998 -0.1257801771602983
-0.026936092219395965 -0.01756062073331374 -0.1257883740711307
-0.0210775210634498 0.02431886664025534 -0.12577877477868593
0.011749757709478425 0.019133853022253913 -0.12578026011129212
-0.02134839944917674 -0.007269242976656357 -0.1257860518615346
-0.020534732766088703 0.012688627463393682 -0.1257814597696061
-0.008939040118781164 -0.011007707746734033 -0.125787023185124
-0.021940265362570696 -0.013717746827840629 -0.1257875326825153
-0.013053766372554378 0.01651177687020209 -0.1257806449142977
-0.022976516411056854 -0.0037804310393823263 -0.1257852334597549
0.013096249588617315 0.022398490566957648 -0.12577951968897813
-0.007276655017225339 0.029326301854125443 -0.12577774292137264
-0.012721903364246235 -0.010052703209190137 -0.12578676963465824
-0.019478739616297924 0.02947814774916098 -0.12577759996796925
-0.01289168832901098 -0.006536221350148433 -0.12578595775924545
-0.019886452118243893 0.02078794997245421 -0.12577959901662578
-0.01477868547224247 -0.019396303032630256 -0.12578890466931764
-0.02554205515001642 0.0017061754007554886 -0.12578394637221765
0.0014704013842151645 0.023806002474710614 -0.12577909246572944
-0.012774348255683916 0.028993664147277526 -0.12577777093572726
-0.016328011971713845 0.01574794046588798 -0.12578079197080946
-0.026740829277476952 -0.03402747589192631 -0.12579217058534503
-0.011432895982499433 0.0124645508353904 -0.1257815919384843
-0.01225608056888517 0.02043923322174677 -0.1257797468897196
-0.022472048742884883 0.03166230616020624 -0.125777070144754
-0.016949568858818244 -0.014973435356606496 -0.12578786621216304
0.009388524117639348 0.023101550408502217 -0.125779324863962
-0.019537933117938968 -0.02551542580531176 -0.12579027271264315
-0.004089073117694551 0.008701355408754309 -0.12578252414285027
-0.0013410591563817274 0.021241973484744894 -0.12577965847119058
-0.022006921348350274 -0.018205413639604262 -0.12578856627552817
-0.023989393636251813 0.01880639796660282 -0.12578001936362204
0.011527255177445205 0.029935565695137188 -0.12577776888809128
0.007188076188821377 0.031245604854671146 -0.12577742859778
0.018169937846759136 0.025607604500472263 -0.1257788250392362
-0.003782264821572293 -0.0009713675454259335 -0.12578475593629632
-0.0159123384817361 -0.011115986769553143 -0.12578698644029465
-0.0008749970249801375 0.011403812824256405 -0.1257819297987861
0.007130275422302105 0.016273849319715802 -0.12578087832726845
-0.02469443704321249 -0.00797625665790492 -0.12578618518805565
0.014780828505995304 0.027825735554887515 -0.1257782838850998
-0.03090591883427209 0.030763853942982446 -0.10531117945584129
-0.031420538066306306 0.02714660389220054 -0.11705225014081308
-0.03162019733926034 0.02719027963211431 -0.11341200402286775
-0.028374221600005745 0.036773943652413876 -0.11429533572412191
-0.031055364232130154 0.027634002048030116 -0.12049742819214804
-0.029817306242742907 0.03158259685911871 -0.11917347869399365
-0.027540130521292665 0.0387151242375691 -0.11747555304538583
-0.028648419694923856 0.0348725226356787 -0.12040442606471204
-0.026639330276150924 0.04094578343402514 -0.12014993134184523
-0.032268948732562315 0.024119959533412345 -0.1197761899346152
-0.029772366544430717 0.032262900222668166 -0.11608427668642728
-0.02966462171313853 0.0333099232827667 -0.11198543999730717
-0.009303942701636436 -0.05084808420111084 -0.11904800648340177
-0.019581790206543218 -0.04780386786621922 -0.11641568953979849
-0.014930734263048726 -0.04984138169122704 -0.11454071265799422
-0.018347786643300244 -0.04865423202977217 -0.10824750944130226
-0.017640770629811658 -0.04357111430290403 -0.06129302433116764
-0.017391223633122857 -0.047415827757142065 -0.09404661727583644
-0.016235529954886287 -0.045346476297384614 -0.0718758169150159
-0.017573854503111674 -0.04654165507488807 -0.08704265756169206
-0.017632795259672814 -0.04830033323553939 -0.10263445627026639
-0.015413991392582286 -0.049503118342828764 -0.10534423594433368
-0.014375986653679255 -0.04760848892276369 -0.0851161893057939
-0.01642154822683415 -0.04444545664875653 -0.06464893561068291
-0.021886687289465155 -0.04720496946831203 -0.1080293042274529
-0.02309434927105511 -0.0434998872162361 -0.07987039480001827
-0.01948182364306609 -0.04536509817039951 -0.08346795554033254
-0.015192712054610424 -0.0405914491088517 -0.026609090897309402
-0.015059481743260883 -0.04642521593141033 -0.07717172592919276
-0.020700864591416648 -0.04696659920338639 -0.10176919521080255
-0.02097713288992032 -0.0452248063753832 -0.08750527540164335
-0.01584506034625294 -0.050017112720599034 -0.11135814084560405
-0.016576404145367738 -0.04175683333379741 -0.04167502520168183
-0.017152749881569805 -0.040718271977206455 -0.0346192060756006
-0.022590782230360366 -0.044147047703664094 -0.0837586118062801
-0.019505111023306182 -0.04149171520515475 -0.04966697872193667
-0.018748225088439745 -0.04267924614008284 -0.0573903015741427
-0.024298572392032997 -0.044151486088500225 -0.08981006190327871
-0.022196094907896542 -0.045954301203956424 -0.09817823969221295
-0.021288920630413807 -0.047816503116369306 -0.11127422139137944
-0.015811408154066064 -0.046681955614691115 -0.08206490336892336
-0.02565643169930306 -0.04563258845761613 -0.10754683568543509
-0.021549276430305818 -0.045484347022247004 -0.09178999228505703
-0.019266968424552666 -0.04473933125452891 -0.07723752926288256
-0.016728258957325732 -0.04285734250370984 -0.05183652060649735
-0.024715695784657172 -0.046440822540936885 -0.1113049242610641
-0.015277887992045717 -0.045306675205875474 -0.0681560767678676
-0.020644616042881814 -0.0438454504266129 -0.07426847073703143
-0.01569978763826045 -0.04774690283662954 -0.09098769680726054
-0.017483932297739976 -0.04186054280502387 -0.04577737700715233
-0.019096501267994555 -0.04372755803114981 -0.06778673552146461
-0.017762962187225433 -0.04084016974257889 -0.037833901281406956
-0.01175985456707856 -0.045996923372699436 -0.0673119433806754
-0.0032004338979007155 -0.040856098991153805 -0.011324513088359415
-0.01008853305003245 -0.04343493609079814 -0.04274933966870676
-0.013973846456996824 -0.04303255087104941 -0.044230437514645365
-0.011301875819513274 -0.03979180621049622 -0.012442312353555798
-0.013355689380959098 -0.042115155320259404 -0.0354097233363372
-0.013604483682677932 -0.044408199384469826 -0.05578868833536359
-0.007829588516538586 -0.042220924674582584 -0.029221980561157226
-0.014086796364574269 -0.04886003964179606 -0.0953526035586714
-0.005009675692865151 -0.04175013389073711 -0.021473993094853924
-0.010421406118546962 -0.04708437111079092 -0.07510174902692505
-0.01358297756182502 -0.043650916938608654 -0.049136571319391836
-0.012427487033314519 -0.04757269870677426 -0.08195561047939363
-0.009253549354617214 -0.044948715709597166 -0.05491658329800322
-0.011251971937340122 -0.04364057986100919 -0.04604576942761884
-0.01009164965158044 -0.042521376321464494 -0.03476185806297217
-0.013629634454026904 -0.04497892745687055 -0.06081358585675347
-0.011563640575418282 -0.041536141286140894 -0.028038062989237805
-0.006238861737040097 -0.041059727928308004 -0.01701672830426383
-0.006302147990369317 -0.043219563145349645 -0.03599165157866891
-0.006074392477369051 -0.03940932198083107 -0.0023678708457306975
-0.006299526449685245 -0.04064664039387818 -0.013481271909020895
-0.009911097653471515 -0.04672557496875773 -0.07130628050962647
-0.01294501555678039 -0.04065348721463251 -0.022094972188651953
-0.004523272809019716 -0.04019755712848636 -0.007266530222858182
-0.008192007307319376 -0.04156079542272339 -0.023913897568485897
-0.010451233695935348 -0.04423079281770437 -0.05017806255167668
-0.009457049851658504 -0.03971163085352574 -0.009366381177522377
-0.010817182898864899 -0.045076758635459215 -0.058049303199529806
-0.0051728097436885764 -0.0421251161185689 -0.024964182718595827
-0.012058039926309938 -0.0427634273009755 -0.03941029181526951
-0.010701756633498448 -0.04563950205907212 -0.062823408760219
-0.013339794345851393 -0.03986402117724972 -0.015697149879534793
-0.010272441311430184 -0.040734217912625895 -0.019361145117895554
-0.008986604942665443 -0.039402097500872084 -0.006053156640033603
-0.013771810065634603 -0.041617927962698316 -0.03159577060398102
0.009472784146089458 0.049752344117318506 0.028907633697028427
0.00541808085062325 0.051091977610401074 0.00882730528268674
0.0024572831348039803 0.05088741505510208 0.020104137709038256
-0.0007237612288132803 0.05158547302815516 0.012090584663585395
0.007293179351782116 0.050340923290585676 0.020998293826028455
0.006651894266907211 0.05012999784393235 0.02709491016776683
0.002088754949387395 0.05141345322309844 0.00941272222000396
0.001974622669955621 0.05118709304566469 0.014638824399911397
0.009965455348185593 0.04987278227368458 0.02513635214865812
0.00708359671740872 0.05057970082212164 0.016242299136050478
0.00909748781582799 0.05066424402682547 0.009769344348371845
0.00852412762522659 0.05087077361904269 0.006554901918215353
0.010012999641773747 0.049264143745768846 0.038375460484793
0.009882143230073302 0.05090264432768063 0.002741355174599397
0.00435276654074281 0.05104747623232733 0.012246551982448506
0.010280664572012068 0.04950585637670829 0.03246053670344573
0.015486194493165637 0.047423636153917696 -0.09051056881865842
0.009099096511079378 0.04994286217799143 -0.07428253100335648
0.01354378577182287 0.048439915469252366 -0.07394660742370326
0.015515350231984821 0.04783438745548757 -0.07095507534953585
0.012198961905166509 0.04918437299261537 -0.06058009867586233
0.0119524719654189 0.0486952216747067 -0.08721308426456487
0.010240448451888571 0.04976266573806917 -0.06463159829910844
0.015763409352396 0.047934308775949994 -0.062391796166990726
0.013971001132663386 0.048849455816329754 -0.0481599746695781
0.009629382820434832 0.04984371275864767 -0.07051579910747971
0.01110407358011579 0.049954469001872594 -0.0420739265563167
0.013901004766273385 0.04824150990751566 -0.07752772089311505
0.01664592980607327 0.047272320069700224 -0.07922667936281629
0.01844129572095615 0.04612551204578043 -0.10418122010251829
0.018204820757376672 0.04637476258505193 -0.09632925258733574
0.00985572422645114 0.050060848586232 -0.05684649739878846
0.017769637040360973 0.04628427569719128 -0.10740961634259742
0.01809984245046157 0.0466056669281905 -0.08725314463927965
0.013770473989324501 0.04819385213807794 -0.0818049919503145
0.014270556458296677 0.047753297716508374 -0.09438654347422466
0.012218415735254102 0.04980094143380493 -0.03160983869184473
0.013278446342833703 0.0489273089172447 -0.05547979225739827
0.01220635763454928 0.04902137736204247 -0.06804060899839977
0.011360714023628041 0.049955666347956146 -0.03796457555930372
0.016718262090968376 0.047988565139066325 -0.02561774566125839
0.016674447088006555 0.04788772712763469 -0.03547776672060604
0.017814757646134785 0.04689280601068839 -0.07466728951429435
0.02088165698406176 0.045525809818917864 -0.07309521447147832
0.018565942887086642 0.046932597069961834 -0.043665285447890195
0.02019023982786216 0.04560845503533249 -0.09188265379275494
0.019120962848137846 0.04674687090221419 -0.038341305786066086
0.01785435721224768 0.047067018201682825 -0.05896616588251424
0.02106391130821813 0.04552799902685954 -0.066183544838465
0.01702506654783943 0.04759180909700375 -0.04671056091222077
0.02147414061889084 0.045633842424595415 -0.04237854469662479
0.011651467160037938 0.05051355736159959 -0.0064266395982525305
0.013318232550911559 0.04957391308324155 -0.021650391989469563
0.02206689831831174 0.04516138106481132 -0.05909516960334641
0.01606169990959096 0.04795181117131722 -0.05287601290791607
0.019351207332814074 0.04612433162640287 -0.0807154872685765
0.020839663746360097 0.045192236428577955 -0.1019092578879344
0.020201942432422054 0.046036826570916206 -0.056439796811847874
0.017642979770766978 0.04704787351468204 -0.06833944797542346
0.013474273173217019 0.04944630085088806 -0.02631568849898222
0.022585177359643712 0.04509072416095752 -0.04572391339040213
0.013755800748658358 0.04943268085167822 -0.017028793555739236
0.02142799419913695 0.04496886570907933 -0.0984314052386806
0.017300806472872972 0.04766070822116729 -0.030893232613739594
0.014960436720444465 0.048599898767715706 -0.04059051483965212
0.020269439507932665 0.046088423487929804 -0.049729369338133544
0.03262613979354868 -0.03091021567141684 -0.12074042221369627
0.03139564160567867 -0.0343193815777155 -0.11927103174409072
0.03080483448498942 -0.032129249792252984 -0.12366448212792697
0.028329575817105972 -0.037263212047219586 -0.12300551355028694
0.03152949748995689 -0.03680027630731825 -0.11563130138269131
0.03274341390514132 -0.03167920551328487 -0.11647838953441668
-0.025620343061465913 -0.0003705984361649583 0.030874907355278983
-0.02466022555129129 -0.00918026962876185 0.03993712101978773
-0.02524569476949716 -0.002676936784101522 0.034449172605201146
-0.024350907625709697 -0.01794504072180769 0.042657114666327614
-0.02516372424274619 0.00046911301634846355 0.03535411676046311
-0.025017872308834635 -0.009808836727624653 0.0364297606413172
-0.024486021716898867 -0.00425779147698078 0.041800931175624834
-0.025734355063205087 -0.004406332527005298 0.029627679865838332
-0.024823568750861703 -0.013716466003818996 0.0381921821849821
-0.024780877206280007 0.002345323121696535 0.03914912784081724
-0.025117818072126312 -0.00632497965873952 0.0355728322673827
-0.024510346957013502 -0.014845852427027819 0.04120731506740395
-0.02460462431098671 0.005774524370861268 0.040982632293288114
-0.024531756363110207 -0.0003616148482983057 0.04148631383694073
-0.025097562935180097 0.004119528080164752 0.03612194116815085
-0.02616331529509842 -0.004329841770688016 0.02544892403608199
-0.024896407550758948 -0.002230687320191295 0.037868908877137133
-0.025867518554332957 0.002682930190742282 0.026170487989863433
-0.030218926751402815 0.004842219264155304 -0.041659636010969704
-0.02799889155632299 0.0022485394902642896 -0.005934950918660703
-0.02529246857169568 0.008577771659182089 0.03050109741696038
-0.027153324991716778 0.00523507424207631 0.004692224940805255
-0.032140705052559 0.007970732495948651 -0.07324699258575404
-0.03314390550855793 0.006408885813720186 -0.08734082993374852
-0.02895335632134196 0.007360566715829651 -0.024290653438455993
-0.02854438667819656 0.0018657973541775 -0.013948295083647397
-0.0281543985373743 0.007992589821258134 -0.012607492693138822
-0.02685597392666178 0.0008590096276570834 0.012497490602932308
-0.02947827886747155 0.004929719749041613 -0.030455491482953883
-0.028657595601161455 0.008865770737574124 -0.020918797620123452
-0.02997159290471422 0.00456091886919898 -0.037685296854313835
-0.026339131348790394 0.004017332807713145 0.01799399146985612
-0.0319351961755696 0.007591054458631497 -0.06983531063489905
-0.03136469894089426 0.0074645936041512605 -0.061059781218966734
-0.027476951208864005 0.00798747589998328 -0.00229557832663211
-0.027681651986379535 0.00433632056713078 -0.0026730319859893745
-0.033399632032379827 0.0068553242604354366 -0.0915666772548101
-0.028558854425078824 0.0046034176993620095 -0.016220842341114303
-0.02604559149804392 0.006497997341310035 0.020600747681625967
-0.025648865613024034 0.008639550100734281 0.025031822449851013
-0.029916932699630548 0.008578437509240465 -0.039865533886495115
-0.02741967275982715 0.0005827482591528764 0.0041273285760701686
-0.02597868532183939 0.004505059416914914 0.02311290987722873
-0.03111722397263133 0.007491393846797288 -0.05731427905097622
-0.025567636071233617 0.004338601262752375 0.029492255047014766
-0.02825125904057689 0.00448343934849867 -0.011450503692678351
-0.030401417966978293 0.00548519943789585 -0.044918478486926
-0.026549634150558003 -0.0007595100200244531 0.01837218635188846
-0.02522640386633182 0.0062963420098624484 0.03321673916176285
-0.03368855200563281 0.0068180598074924735 -0.0959349641202858
-0.027709140349898825 0.00043754969613334213 -0.00016837221871255498
-0.026226892655315318 -7.378181892897864e-05 0.02276894767328501
-0.02680048661101996 -0.0013093689073701027 0.014967431250722451
-0.03257760668865038 0.007277334512111604 -0.07937507160174492
-0.028850500834996372 0.00028428129238083216 -0.017420477986422708
-0.027182994536108163 0.00946756928671356 0.0010676525399132958
-0.02699869828821985 0.0035465764223405758 0.00831090811686549
-0.030853194715529803 0.008554710336974036 -0.05409396625414645
-0.02487094532977651 0.008107404816128316 0.037267657068443386
-0.02929192089086105 0.002775133213774309 -0.026004554684211777
-0.024459819850740402 0.00988753602327343 0.042188796159820886
-0.0338890598287783 0.007674585749143136 -0.09962804454326486
-0.026595889594342413 0.004577580084119555 0.013667122463858476
-0.02774736483825162 0.006657356618263542 -0.0054130129871078425
-0.02963940311871476 0.006795465055552577 -0.03430592491025396
-0.02882803806538077 0.003144340895167865 -0.019222881431614554
-0.027368022011576884 0.005955638265045232 0.0008851720276311517
-0.031632955462750176 0.00469559138215826 -0.06306565679527695
-0.027244530002436956 -0.0002976215903277811 0.007452328464974874
-0.02888782446588004 -0.019724164007560184 -0.025549159973897492
-0.027542445010439287 -0.011457085403455742 0.00014229027143727174
-0.030388028595690623 -0.019409961311598854 -0.04770975395126386
-0.031264666077875106 -0.020526278852064952 -0.061543851322576816
-0.027836594772456917 -0.010232572714464903 -0.003411397201927055
-0.03193953252575309 -0.023850648775879685 -0.07387136419208161
-0.027103315512817628 -0.006629606187893943 0.009976896694507485
-0.027194103922386484 -0.011757899102645589 0.005132819857284178
-0.02581260241429358 -0.008579888931273913 0.027899661975834607
-0.02828916484373753 -0.015876383100115236 -0.01400201006465841
-0.026185882613718472 -0.017050281805211974 0.016567980887796208
-0.031102336627351575 -0.017936164718566405 -0.05736013894731279
-0.0266521828275202 -0.007990717345170926 0.015778905674530837
-0.03272659739029452 -0.02403808713279101 -0.08573740857887795
-0.029726497128660545 -0.017590268538241333 -0.036605123296679205
-0.02986983881237789 -0.022198800094587304 -0.04187927178934747
-0.0293917446451549 -0.012348528540119835 -0.02804529879034284
-0.029263050264583246 -0.017316301027124305 -0.029506712462982265
-0.02836507306610077 -0.01231428871516952 -0.012709957909909248
-0.027985277834157763 -0.017830597338163365 -0.010799693773319482
-0.02539404048624824 -0.015486768029704327 0.029441756221359673
-0.024980967052237884 -0.016439264923093874 0.03495422043073807
-0.025899389872566358 -0.01875662498486582 0.019679562149051578
-0.026862138721038455 -0.017201997931033625 0.006378876877588845
-0.027696202019021836 -0.015829206312209576 -0.005126306853647417
-0.031716864944119495 -0.022825732060236463 -0.06985294142287063
-0.027417793823618093 -0.007007101786977121 0.00502978492137757
-0.03200541286138275 -0.020814727301497808 -0.07278783809758309
-0.02744940116741209 -0.019371845451728535 -0.0038563830157702286
-0.025159612348380198 -0.01866305682942138 0.030776468280134816
-0.02960922070187691 -0.021600085099709357 -0.03758489482400439
-0.025822364072696755 -0.012039311624320608 0.025399780326746856
-0.029535577794750464 -0.015067341643202198 -0.03204073814114871
-0.028967032777764364 -0.013516556077669557 -0.02250593441142497
-0.026519056355329744 -0.017726056389225375 0.01113904838205605
-0.026902429639032648 -0.021095597069532943 0.0031281974094920853
-0.02553932755552439 -0.012239882211642303 0.02948456103273251
-0.030142995151302258 -0.018748749607277623 -0.04360527878981588
-0.026620865738890928 -0.013098323469003274 0.012770019362904034
-0.026380113028269914 -0.012167604942314527 0.01699406217811735
-0.02694185880820258 -0.005272317709167834 0.013308599027304368
-0.030743448614187593 -0.01758968035286786 -0.05177179420996549
-0.025292879431111356 -0.011950970338524311 0.033356768193567934
-0.02979570872679262 -0.014317608136988647 -0.035410168931122754
-0.030753112632696412 -0.02132007764353103 -0.054454630118455076
-0.0285971892181877 -0.01677564758764799 -0.019207953559857657
-0.0268815231623123 -0.012728599571765215 0.00913412259899095
-0.026317060335299774 -0.008226579344618977 0.0206164923580711
-0.03054827032102453 -0.016209734804470344 -0.047921740430040854
-0.03016229207357857 -0.01505491354741058 -0.04137925523715023
-0.0303127406937138 -0.02337180521519558 -0.04928310537195904
-0.025682357330896695 -0.015759738457725783 0.024955957271872102
-0.029397344256834834 -0.020706953646771477 -0.033817099629800826
-0.033931898471959834 -0.025582626451376475 -0.10476470216208768
-0.0280205122622142 -0.011375889101041254 -0.006932467655936539
-0.028567231456891867 -0.021389754243720204 -0.02190126448535617
-0.026089982057779904 -0.015165703300571457 0.019280807010857617
-0.027136146430098693 -0.021443103025548985 -0.0005940073585779457
-0.027392477886957756 -0.016202449595483528 -0.0008504974257709927
-0.03163278072823088 -0.02022907816373515 -0.06683174762626219
-0.029916641077532648 -0.018191509473186415 -0.03985014983982093
-0.033521325103176874 -0.02429526499768048 -0.09776519951393983
-0.026105364890663386 -0.007833359906578598 0.024041375300630566
-0.027721623489062708 -0.018516926679647223 -0.007334564506021164
-0.02717780335612703 -0.015007166253302723 0.003164657170633918
-0.029051877225306694 -0.01612130501786797 -0.025543975538688972
-0.028037046253121783 -0.014798379465120737 -0.009508219459339115
-0.03012896761462604 -0.0006613150991678759 -0.038417353935477794
-0.03429960178488859 -0.016652106959803188 -0.10937133111700886
-0.02917838893592704 -0.008133965130850096 -0.023884886796730037
-0.031249308017610212 -0.0034995565651883436 -0.057262519231263506
-0.030559517137227335 0.00044041846407947725 -0.045336266695729974
-0.032197158026120186 -0.009908540890958372 -0.07379726490107566
-0.032704222362370944 -0.021002966278280986 -0.08377323845330759
-0.028631975152575508 -0.0021890397402664252 -0.01402112918310833
-0.03311773174228753 -0.014264660032511551 -0.08958064757417904
-0.026727504778796096 -0.004574282073040088 0.016950557140127012
-0.033669748265475044 -0.02066338850468223 -0.09960347869937505
-0.02840301995020426 -0.007007441071548374 -0.010966009677071415
-0.03103061649480012 -0.012947731698769496 -0.05505897362980257
-0.031259673469142484 -0.010948132808733252 -0.0585314625579774
-0.0338932962764771 -0.013814243631983676 -0.10227018575760019
-0.033892778416689806 -8.454461432073131e-06 -0.10022569556330595
-0.03298380426064603 0.004701605664239332 -0.08458089810423212
-0.027611697392115282 -0.002577611810777322 0.00270240736423347
-0.03145957642465329 -0.002436019581900436 -0.06056402977226415
-0.03320837600851878 -0.022350445188165077 -0.09226393340325977
-0.03332978800257797 0.003856964885491445 -0.09039596644702565
-0.033582341035859775 -0.0073944063262775675 -0.09620905498872923
-0.027766612387010187 -0.0047171691852645956 -0.00016105559639018052
-0.03276259987464834 0.002378819177473418 -0.08128522449958088
-0.030721380702700987 -0.012088310543603934 -0.04984613107373632
-0.0321314350353877 -0.017452698705065682 -0.07382885251097973
-0.03172305275766092 -0.01294885671568707 -0.06644786398883056
-0.03174189571254233 -0.016059423396010353 -0.06721650291334777
-0.03098931254404742 -0.009206112506038288 -0.053827848575091576
-0.031483933909670525 -0.011789546929516469 -0.06234403232559887
-0.033578324665870934 -0.0033495326950443967 -0.09554648924553365
-0.03418620588649444 -0.010597979409025371 -0.10661345520476707
-0.033883062510796126 -0.02078176248654128 -0.10312938437330937
-0.03144153475622985 -0.01662689470687841 -0.06236005491681497
-0.03299252154742472 -0.008815083014438256 -0.08671761259958682
-0.03375297130597257 -0.010879692346597879 -0.09952945001835575
-0.033138191333962494 -0.004089654476372618 -0.08841662070086496
-0.03188031466843359 0.0033587543839166257 -0.06662947933304103
-0.03138015012479844 -0.005867401053562097 -0.05976371362467758
-0.03403866092715489 -0.005723933199372902 -0.10346794800018494
-0.03128934864814587 -0.014213203136941266 -0.05950104761902258
-0.028665552940014962 -0.007264599610440141 -0.01532189894237427
-0.03402172316618457 0.00458531182412414 -0.1016690380876711
-0.032544779973087565 -0.004707757937642518 -0.07874774422187215
-0.032876197888715125 -0.005564881902341372 -0.08432508460680581
-0.030211771761063298 -0.011509264143364346 -0.041379033686523015
-0.0320247576824451 -0.0014651311901126575 -0.06971657052477451
-0.0333773971129128 -0.014235787321927583 -0.09384719046072261
-0.033359637646263915 -0.008876599030143996 -0.09276476240640096
-0.02889659372582154 -0.0036722093881658173 -0.01859212351140639
-0.033861414143944606 -0.0036003640977975778 -0.10023954468197065
-0.029313130448117612 -0.0013178112382058096 -0.025095829740956716
-0.03021311081618877 -0.005505666024185049 -0.040515692571930086
-0.031653868657896087 -0.009744125682611293 -0.06483736123693987
-0.029228903559058265 -0.004433747226469074 -0.024170037240446342
-0.03234285478667018 -0.0033939371439125387 -0.0752328627005904
-0.03128782552254179 0.002088814915445012 -0.057071898640608215
-0.02955048623401283 0.00023773625708708567 -0.02877029724459973
-0.029106031070324154 -0.0010570820077470016 -0.021651148545443623
-0.03000130334990591 -0.011702010506062087 -0.03794581603493485
-0.03270905570866938 -0.015619869364547524 -0.08305887588076655
-0.030730000483804348 -0.002544155825061876 -0.048580404068258184
-0.028779544781193364 -0.010095752644592903 -0.017614276750295022
-0.031868153525293645 -0.018557071996880326 -0.0696614404482605
-0.03289280617397666 -0.01943224204129245 -0.08664329928088582
-0.03285682337432577 -0.012494377044592653 -0.08502833490731793
-0.028106794833459375 -0.0031303843017279043 -0.005522139981054303
-0.03423285811986377 7.017038387643632e-05 -0.10580750206791756
-0.03380552629875446 -0.007585399363240106 -0.09990802180546618
-0.027939420310120457 -0.006628801626029624 -0.003285196731836252
-0.03262239848845143 -0.011685075233933685 -0.08105332288007212
-0.028152866575379812 -0.006854738085001366 -0.006829136276688807
-0.03232042128102562 -0.01826222518689222 -0.077056553574827
-0.03322344668888718 -0.017212176817761708 -0.09175405304566368
-0.0341756009926079 -0.013759706516186914 -0.10690530053248327
-0.02978157230853623 -0.011087679831848902 -0.034241231308188666
-0.030394206161698675 -0.00844798325875969 -0.04392813719374736
-0.03432276688488335 -0.024036836796050925 -0.11084137884287962
-0.033627900615735645 0.0006506735128487945 -0.0957719610312863
-0.031946247632032757 -0.013578158065886184 -0.0702116272651085
-0.030473287869241104 -0.004896086349131397 -0.044705013019280725
-0.02994305730918623 0.0010580270263559103 -0.03510607116914447
-0.029739673629170363 -0.0008293464689684219 -0.03203928911606162
-0.03213809232153122 0.001795715588540432 -0.07109973731687161
-0.030327913012620323 -0.0016492521491636735 -0.04183516705130986
-0.03256409496895852 -0.00080598645970771 -0.07849002065936524
-0.03050560912728549 -0.013089363169191815 -0.04644489341460648
-0.03321411024124844 -0.007027880888510152 -0.09009859094816992
-0.03245957558436499 0.0022827786893244847 -0.07631544875067052
-0.03397489678027913 -0.010282792207477857 -0.10309150418917234
-0.03423415251405065 -0.020374859301049243 -0.10884386887189783
-0.032456899478941835 -0.015054056564576887 -0.07882813858096009
-0.028321441735693332 -0.0019370490331884528 -0.008876523392772409
-0.03268795843775513 -0.008548314230336442 -0.08166902303558687
-0.031740868469738434 -0.006371252964105962 -0.06577086982561031
-0.03335840980486256 -0.0018834473540635319 -0.09171327087722522
-0.03191735252091667 -0.008920870775401515 -0.06904955866535768
-0.03346438129140017 -0.019651491761721672 -0.09607651443965187
-0.030664641719560327 -0.006423502408997422 -0.04807752374246005
-0.0343372013069449 -0.0031858871829907073 -0.10800384701224003
-0.02938418148008795 -0.008414401608385424 -0.02731098034931733
-0.028953083294898464 -0.0068122831404947085 -0.019984300023802963
-0.029459279121342632 -0.003657205278365046 -0.027844580549158303
-0.029631898003791277 -0.006563459882030457 -0.031112291783263905
-0.03220541315715904 -0.013615653906622173 -0.07447973655931886
-0.03239662650984726 -0.007346373267993359 -0.07670013894151853
-0.03200377417938829 -0.005377173674001047 -0.06994836629670687
-0.031084568350090037 -0.0010679207732935943 -0.0541943931806393
-0.027113979923052565 -0.002301328590112576 0.010929272622926806
-0.02734589425607565 -0.003849906176369465 0.006886529706286532
-0.033654095121308146 -0.016223145850727604 -0.09869121312961479
-0.029855651022892678 -0.004439413655108775 -0.03447919228757621
-0.030778109873329233 0.0017179682545124478 -0.048743129203380975
-0.03249939012409908 -0.02065620569675067 -0.08035315838962029
-0.03168311969440451 0.0012381047163325433 -0.06369888673606325
-0.03424218039467795 0.004262302305554328 -0.10534260482188434
-0.031054497744539205 0.0030673634618556458 -0.053089971882024876
-0.0330405008019002 -0.00093130165348025 -0.08634410289014532
-0.030897268003503 -0.0045271665009514635 -0.05162394670586144
-0.019447667232343598 0.04601498235077366 -0.028106621164426363
-0.022381927538500282 0.0439071689091024 -0.031959404823080975
-0.02280708488526204 0.043813618287099135 -0.055644914004473946
-0.016531602951197863 0.04831558520409379 -0.04675013241975486
-0.022524153963432103 0.04397057778633279 -0.05022104142859373
-0.01834608455124061 0.04704803226455765 -0.05304853785241541
-0.018173421673134425 0.047034196355247665 -0.03777175035980982
-0.023690017943128982 0.04336971912799373 -0.07758369105256796
-0.023707313299251388 0.04330507565289901 -0.071905955977219
-0.019050597865220776 0.04666627384426138 -0.06754539291189951
-0.021827316992836847 0.044596057752170085 -0.06294166594949649
-0.02020329892076806 0.0457198090266737 -0.05613105863183946
-0.02198012465631959 0.044324866267449636 -0.04552087013244077
-0.016754290595281426 0.048117408355017315 -0.04287138612933274
-0.018862362720862547 0.046628674898836 -0.04843297727941884
-0.021991223078291367 0.04463541073779239 -0.08030580209633428
-0.022218314908277297 0.04435390349164778 -0.06768158171840741
-0.019506382416925722 0.04637002665833919 -0.0715457868363907
-0.021865498828700286 0.04467163040166976 -0.07423566305874334
-0.021173863436367575 0.04486913304365825 -0.04065159882595497
-0.023722432526208544 0.04345179667794864 -0.08912796130406653
-0.021679596545691116 0.04445517667128637 -0.035784870595418225
-0.025294015297961783 0.04240856459993783 -0.10054764125822076
-0.0209103950915223 0.0452376706457382 -0.05987603863056394
-0.02185026007198264 0.04419728358600114 -0.021239419991382416
-0.018723162051109014 0.04659848299210735 -0.034038657810632277
-0.021194041084532895 0.04292365455369548 0.002765184354912532
-0.017474147467671328 0.045779742851607574 0.02245001615788269
-0.01907698327177566 0.042078878841478665 0.037774271150339406
