0.0212548383232 0.0403779535599 0.0338510829941
0.0263644813239 0.039588865484 -0.0583555201232
0.025231581894 0.0405479329853 -0.0455473857143
0.0226595136028 0.0410229284867 0.000109641484348
0.022419983282 0.0390554382306 0.0239518366179
0.0274159004153 0.0397580772883 -0.0805579907745
0.0204410400208 0.0411974343938 0.0417802627466
0.00172110789667 -0.0517200008035 -0.118007673086
0.00540619743112 -0.0517200008035 -0.113929696973
0.00530322776141 -0.0517200008035 -0.117248771274
0.00868496255046 -0.0512903137188 -0.111138764272
0.013115131401 -0.0506265816719 -0.113227727419
0.00898148660171 -0.0513439998083 -0.118182370461
0.00946679490605 -0.0512167921096 -0.114576341255
-0.00333867085316 -0.0515559241319 -0.116822818042
0.00045839502095 -0.0515224843829 -0.112393871569
-0.00512419631293 -0.0516185476637 -0.119790239962
-0.00939023502504 -0.0511560614383 -0.11533248839
-0.00616036663447 -0.0511767179845 -0.112491436621
-0.00707459762815 -0.0508695750525 -0.109426934956
0.00286879237103 -0.0512870700043 -0.108128376973
0.00263490483465 -0.0464542164259 -0.0616828343119
-0.00123335563919 -0.0508926725876 -0.106523304192
9.45313692538e-05 -0.0470188612501 -0.0684835043587
0.0012507098189 -0.0495173766973 -0.0919411113014
-0.00443276116202 -0.0464947881093 -0.0658563756473
-0.0096465593208 -0.0489084915084 -0.0919058914436
0.00341859986344 -0.0500602341123 -0.0960119915168
-0.00832942734158 -0.0496775378283 -0.098611712396
0.00550896539644 -0.0516737319224 -0.110441350425
-0.00632497167132 -0.0472063546782 -0.073725930654
-0.0112674816165 -0.0485024404644 -0.0888605808358
-0.00506662501065 -0.0442143652793 -0.0442208293842
-0.00628062602419 -0.0479492681235 -0.080861117186
-0.00285916495836 -0.0449231361032 -0.0498693195666
0.00139779295076 -0.0450925511983 -0.0492235467427
-0.00329484276864 -0.0456902233852 -0.057494358176
-0.00383947832217 -0.0452890217519 -0.0539197542733
-0.00153536570305 -0.0489453231695 -0.0879197391785
-0.0130761564412 -0.0505570832909 -0.109627683452
0.00132708488873 -0.0479241396459 -0.0765473613881
-0.00426746673687 -0.0499444679463 -0.0990099830243
0.0014393684482 -0.0456811421242 -0.0548731212251
7.49117316293e-05 -0.0419967439097 -0.0200994884036
-0.00870431013539 -0.0467066700909 -0.070184241979
0.00159690299891 -0.0467352482924 -0.0649464690235
-0.00510406554984 -0.0469033115064 -0.0701522993904
-0.00086307618051 -0.0500346934843 -0.0980574076591
-0.00357172922936 -0.04254848897 -0.0273679218644
-0.00312511293428 -0.0482449493988 -0.0820215683578
-0.0102707806719 -0.0474031190936 -0.0777337854328
-0.0098219941916 -0.049261494131 -0.095401414582
-0.00070595821354 -0.0440811155808 -0.0406029901165
-0.000521335888155 -0.0428904679941 -0.0290307705817
-0.00515488922872 -0.0484198808847 -0.0847935833482
-0.00130962444245 -0.0460908489208 -0.0602924175705
0.00358687605704 -0.0483084093515 -0.0790408613823
-0.00268545533903 -0.0512206865336 -0.110461294473
-0.00799426439083 -0.0484883828707 -0.0869733076205
-0.00437007225155 -0.0494355214608 -0.0941605474464
-0.00258799609181 -0.0477560339583 -0.0770227811144
-0.00365442287342 -0.0421481984511 -0.0235548685931
-0.00119663780858 -0.0433180420026 -0.0335124107634
0.00305625351609 -0.0486347202001 -0.0824692699369
0.0024906007892 -0.0491677072449 -0.0879080156586
-0.00106348143083 -0.0446046257985 -0.0458390245756
-0.00460503032945 -0.0434797131715 -0.0368944745284
-0.0018868791178 -0.0402665234167 -0.00447654477236
-0.00583743944676 -0.0459419341097 -0.0612806982537
0.00354087383769 -0.0505645241556 -0.100806029859
-0.00725271455503 -0.0450047089631 -0.0530067851968
0.00237351464251 -0.0509062188814 -0.104723460162
-0.000178272025672 -0.0425700001422 -0.0257590472811
-0.00497029442531 -0.050389156582 -0.103671276163
-0.00155313377465 -0.0413137693335 -0.0143894781043
-0.0081360727526 -0.0504037078037 -0.105505805326
-0.00194432610993 -0.0408962709384 -0.0105757119994
-0.000105103182649 -0.0474530435381 -0.0727742488339
-0.0107737244977 -0.0498438468709 -0.10152248873
0.0297072817597 -0.0411249490619 -0.113793905027
0.0275899413111 -0.0437008396505 -0.113908397693
0.0280163939079 -0.0384663331305 -0.12213898385
0.0175240627629 -0.0421548529142 -0.0452423159427
0.0240224331376 -0.046427729664 -0.105922335904
0.0167409478695 -0.0407329116701 -0.0305160356623
0.0192181883878 -0.0456950684308 -0.080893421616
0.0195598749427 -0.0478048952136 -0.0994928384099
0.0222346125257 -0.0460898172475 -0.096074779692
0.0217770540102 -0.0456088252119 -0.0903298540608
0.0202649920964 -0.0481909346807 -0.10544277474
0.018305677465 -0.0456760692659 -0.077121639193
0.0211981677397 -0.0418080170205 -0.0569686705929
0.0226307634502 -0.0474527882349 -0.108785424819
0.0200086708969 -0.0416585413992 -0.0510326458396
0.019501147454 -0.0461700117729 -0.0858969294295
0.0189543704539 -0.0404100239977 -0.0366491220772
0.0241346588157 -0.0437114466246 -0.0841648431935
0.0243062389532 -0.0455300359379 -0.0997095820634
0.025543336984 -0.0461802970774 -0.109927565967
0.0242819138614 -0.0447244671376 -0.0930286433946
0.0193576228302 -0.0409113879424 -0.0423453354357
0.0221668422777 -0.0443048457974 -0.0812162475751
0.0211212470692 -0.0431221750247 -0.0674054397252
0.0188301531801 -0.0433299989683 -0.0600240200501
0.0180258606143 -0.0395654207834 -0.0260656360184
0.0190375447436 -0.0447058690525 -0.0720920032679
0.0187101923906 -0.0438285014081 -0.0636232317437
0.02264908385 -0.0434401551703 -0.0760596993116
0.0258425934199 -0.0451429900265 -0.102634879453
-0.0236670718718 -0.0406366828896 -0.0612389790961
-0.0184775501344 -0.0389477555523 -0.0266160796988
-0.0189547210101 -0.0408613635886 -0.0426678834466
-0.022509757157 -0.0361013779828 -0.0230824724747
-0.0213234578248 -0.040974915495 -0.0536605172906
-0.0233876294024 -0.0418182969559 -0.0686878814989
-0.0219611699295 -0.034447504527 -0.00862517624427
-0.0247115148503 -0.0430725263266 -0.0835463083433
-0.022825372136 -0.0380194725013 -0.0384740549808
-0.0193329305688 -0.0395933011863 -0.035010005471
-0.0209911798961 -0.0378595996295 -0.0294355527996
-0.0170623069349 -0.0378715464778 -0.012668585715
-0.0220105380554 -0.0400893942881 -0.050127297049
-0.0239381835995 -0.0428062884743 -0.078280339107
-0.020428695804 -0.0366926292981 -0.0184820556067
-0.0175591238599 -0.0388908586983 -0.0222597382655
-0.0258269923336 -0.0439193154871 -0.0945288264119
-0.0209375505258 -0.0401235518793 -0.0457742907617
-0.0165509021076 -0.0386073040684 -0.0158593832014
-0.0146705670365 -0.0385332799145 -0.00725122011575
-0.0231751857963 -0.0427902222861 -0.0748895878741
-0.0242893542279 -0.0379407317047 -0.0441780981991
-0.0214932764419 -0.041374700433 -0.0573148569929
-0.0228112620521 -0.0349470389784 -0.0159278286183
-0.025594555567 -0.0446565264775 -0.0989270006431
-0.0219790577511 -0.0348980392559 -0.0119991646468
-0.0235468865842 -0.0257695975187 0.0220990835029
-0.0230649155811 -0.0229391667843 0.0363036623918
-0.0219554016742 -0.0259878629685 0.0302864423027
-0.0204557098664 -0.02848435719 0.0287283966844
-0.0214892559133 -0.0282806683922 0.0236620830131
-0.0218782392281 -0.0251928595689 0.0339443956666
-0.021869574344 -0.0300403757171 0.0143711505527
-0.0233852667632 -0.0246627020348 0.0275009454143
-0.0227798635204 -0.0299646522726 0.00948935600837
-0.0224065585252 -0.0281199794759 0.0190842526468
-0.019481470838 -0.0353198134028 -0.00483862999192
-0.0202678609824 -0.0341649155186 -0.000619066953081
-0.0161996861618 -0.0371642426213 -0.00423410222028
-0.0203325872862 -0.0333286179966 0.00426596286716
-0.0203274337448 -0.0306958776535 0.0204017610785
-0.019469770118 -0.031974231229 0.0156847775862
-0.0182919541741 -0.033943616877 0.00789791482666
-0.0184711486989 -0.0331834039301 0.0119022473077
-0.0162794384516 -0.0363779330031 0.00029044554893
-0.0127447311945 0.0501660842358 -0.0323669822416
-0.0069900314457 0.0511993129522 -0.00909725583581
-0.003778472838 0.0514794248384 -0.0201553709475
-0.00291664250568 0.0514580824489 -0.0309491144125
-0.00994409667039 0.0504924108417 -0.0353561626084
-0.00729114895248 0.0511146409709 -0.0127968971455
-0.00762334658478 0.0509995423959 -0.0186370471208
-0.00268678397825 0.0515327307434 -0.02731294953
-0.00253400655616 0.0518665850172 -0.00184670353363
-0.00317784737009 0.0517347642294 -0.00576563386761
-0.011067884214 0.0504490680336 -0.0270531067443
-0.00299040391236 0.0518576120822 0.00222516131603
-0.00857017408057 0.0508055937914 -0.024407814407
-0.00505577835356 0.0512514632917 -0.0252089877398
-0.00421202413338 0.0514662011248 -0.0166684598755
-0.00288473774199 0.0517090632771 -0.0109321267215
0.00734403829375 0.0500309845197 -0.0754309780805
-0.00247605448659 0.0500798623749 -0.0711975454617
-0.00311282439408 0.049307884547 -0.0876767906326
-0.00154405389545 0.0502462223798 -0.0679034212023
0.00635320854259 0.0504007308467 -0.0671188588113
0.00455075032071 0.0507426522709 -0.0591455583931
-0.00490062328984 0.0487227676926 -0.0997449075638
-0.00789456081592 0.0486006691916 -0.101415300016
-0.00537770604991 0.0494663466759 -0.0835191104084
-0.00179315467689 0.050543342819 -0.0614009767098
-0.000387301565911 0.0508394502612 -0.0554558387479
0.00272376397665 0.0505622634907 -0.0624533491091
0.00512942188373 0.0501815683763 -0.0714598378733
0.000977776744446 0.049455855249 -0.0858019991262
0.00182228233878 0.0498709370843 -0.0771037834736
-0.00203627080917 0.0497902116637 -0.0776002317964
-0.00334718637128 0.0490169233863 -0.093889700429
6.8906935161e-05 0.0511122999022 -0.0497061568403
-0.00774492879882 0.0487790491362 -0.0976082685728
-0.00634176792758 0.0484840822408 -0.104437529561
0.00442422507619 0.0496164267581 -0.0834464614473
0.00102632565246 0.0500569042484 -0.0728268469795
0.00192206928483 0.0510206812223 -0.0522859068472
-0.00869774909469 0.0482318577817 -0.109126810204
-0.00207184180116 0.0494783494665 -0.0843292021551
0.00320637949804 0.0503928937716 -0.0662701819678
0.000176065468758 0.0512770129768 -0.0461807751995
0.00593663327052 0.049807152903 -0.0798134700492
0.000634275593079 0.0493024474555 -0.0890065707059
0.0001945771146 0.0506865747189 -0.0589482860447
0.00207355936335 0.0514543225454 -0.042962348123
-0.00531605213814 0.0500085132987 -0.0686530601344
-0.0109130729322 0.048629644302 -0.0902512972023
-0.00806062554331 0.0503608623162 -0.0470306086794
-0.00727236812676 0.0499873388595 -0.0617702276851
-0.0107217482569 0.0502803823445 -0.0392866515941
-0.00507547701865 0.0506889011208 -0.0482706495092
-0.0113002960556 0.0491404255047 -0.0727595359637
-0.0085442026341 0.0496746853188 -0.0666570178403
-0.00869488135852 0.0489846656165 -0.0876878623308
-0.0108493557144 0.0495628272481 -0.061268922057
-0.0116797213022 0.0500368977589 -0.0432176541858
-0.0115711136707 0.0493542219959 -0.0650186167393
-0.00463890583266 0.0508580055911 -0.0446581138566
-0.00807892892786 0.0488981311702 -0.0927740946118
-0.0105173569986 0.0481959669961 -0.105360852411
-0.00628279314888 0.050745099165 -0.0418535329145
-0.00379791519752 0.0503153029328 -0.0648999874705
-0.00521294811265 0.050520823494 -0.0530047327435
0.000127858666602 0.0516671500697 -0.0377016523614
-0.00649929825884 0.0508291909322 -0.0383845830288
-0.0127585846057 0.0496249676715 -0.0519582189199
-0.0129323418649 0.0497468923741 -0.0474691965698
-0.00859892396964 0.0501505790602 -0.0515405125916
-0.00809252726717 0.0495214395947 -0.0731990481085
-0.0103351537198 0.0490043718581 -0.0807436743202
-0.0013622169236 0.0513488578848 -0.0419232356641
-0.00401653453901 0.0505545576224 -0.0565630367613
-0.00563728661216 0.0497207379597 -0.076427361347
-0.00809515290678 0.0500723998579 -0.055932337311
-0.0121191820172 0.0491725963569 -0.0685932524803
0.000365372448818 0.0518206233463 -0.011655459741
0.00126143018291 0.0517780314661 -0.0152814251499
0.000457906951588 0.05186973034 -0.0193123259714
0.00576893798092 0.0513834112152 -0.00897231224965
0.00191551306587 0.0515969066597 0.00249242624801
0.00475184472572 0.0514976861477 -0.0138300430782
0.000860152856153 0.0518671481245 -0.0231909077636
0.00174125708373 0.0516614188542 -0.004455602466
0.00407621299413 0.0514527340957 -0.000606811619797
0.00731839785165 0.0512367231316 -0.00530134204394
0.0026882492814 0.0516121426782 -0.00770742271193
0.00415613305076 0.0515775471589 -0.0184350931812
0.00101565913757 0.0518814015419 -0.0267661986052
0.000124552611688 0.0517071667718 0.00631916260912
0.00667924801693 0.0505187887423 -0.0630303558376
0.00793936316345 0.0509739180473 -0.0242744097498
0.00843411922365 0.0509748670474 -0.0196596626825
0.0057617860483 0.0509873687973 -0.0435339489982
0.00531101026523 0.0512653866001 -0.0311042704303
0.00653074864371 0.0510150611127 -0.0347978314226
0.00424153717216 0.0515351867603 -0.0248647435806
0.00796764044287 0.0509008830273 -0.0283701366898
0.00358170173315 0.0513847654884 -0.0399157673858
0.00604402669459 0.050850429721 -0.049101552289
0.00217654319714 0.0517009633043 -0.0340014481734
0.00872780952016 0.0500513033712 -0.0720407510003
0.00352210962303 0.0512851255655 -0.0464079017491
0.00913576390192 0.0509199724908 -0.0164697112557
0.00592926491558 0.0508030967055 -0.0529820647843
0.00718684357018 0.0508188989919 -0.0404535634826
0.00805815251789 0.0503818335613 -0.0584954543131
0.0316567594783 -0.0145383008106 -0.0679948325915
0.0308994592101 -0.0122320258311 -0.0544581402628
0.0287787652743 -0.0147467916362 -0.0192908136292
0.0284524756205 -0.00645815606956 -0.0112308932178
0.0308300614974 -0.0159584625705 -0.0544200615429
0.0290286475931 -0.00599349204398 -0.0208522561457
0.0269395276685 -0.0135417233592 0.0122430797477
0.0283478809516 0.000255051733362 -0.00740865646703
0.0280976261753 -0.00160063158639 -0.00373471598612
0.0326292635512 -0.0189474444769 -0.0858202694266
0.0274314019884 -0.00473339438082 0.00659788011887
0.0298506993181 -0.00393816723394 -0.0341543492819
0.0262216741462 -0.0111854059449 0.0251266264645
0.028647981161 -0.00669405404242 -0.0146157707753
0.031295009238 -0.0185912831131 -0.0631025438645
0.0333043095411 -0.023529164791 -0.0986579680936
0.0291968792484 0.00104345605499 -0.0215542140006
0.0256655231594 -0.0154792259602 0.0332395007803
0.029788895854 -0.015711270421 -0.0367020043448
0.030937947983 -0.0207196412019 -0.0577020262321
0.0329385904348 -0.0244921211913 -0.0927548876345
0.0309176821383 -0.00844995133554 -0.0536120720312
0.0282071807343 -0.00758096092239 -0.00741721380544
0.0324117893703 -0.0194171828113 -0.0822785987216
0.0286559843684 -0.00345922773594 -0.0137636313251
0.0290856031622 -0.0180979359963 -0.0255134607899
0.0292260462335 -0.00659881337373 -0.0243820157249
0.0272174009832 -0.0171982786099 0.00641798078822
0.0293274597261 -0.0142213263691 -0.0284280036459
0.0274475217589 -0.0171817551241 0.00252362410527
0.0295429686153 -0.0157852669652 -0.0325573561585
0.0295479602838 -0.00530751711003 -0.0294425598916
0.0279580720364 -0.0132981470109 -0.00494180325984
0.0293175526646 -0.0175517215152 -0.0292770641809
0.0335293849112 -0.0254030114227 -0.103044054644
0.0328914607498 -0.0214605028946 -0.0910305695373
0.0264231550936 -0.0106150152246 0.0218866956895
0.0278391563869 -0.0167091482269 -0.00396832368449
0.0320454364932 -0.0221484196307 -0.0769047233084
0.0321910468148 -0.0156613940629 -0.077391280922
0.0299757386908 -0.0162836245394 -0.0400428290409
0.0273926641969 -0.0133092297432 0.00463566218779
0.025945547477 -0.0128421486257 0.0292997133092
0.0314473297085 -0.0217312399955 -0.0666424035558
0.0282401146974 -0.0192799335714 -0.0115475611176
0.0280715904893 -0.00590725248604 -0.00460856705524
0.0300532093382 -0.00466956692953 -0.0378092193343
0.0314276113286 -0.0143366543352 -0.0640503388979
0.0290649851297 -0.00979623177614 -0.0226291629052
0.0301955567325 -0.0092680036914 -0.0416254317397
0.0284527279078 -0.0193286058267 -0.0151651591957
0.0279765330511 -0.0096537565988 -0.004141811237
0.0292993750514 -0.0106339649446 -0.0268567075827
0.0307200897341 -0.0091014198627 -0.0504627898179
0.0253839494502 -0.0139368699365 0.0384817324222
0.0287325393048 -0.0102502635296 -0.0171344989013
0.0319337279955 -0.0192983426265 -0.0741415492831
0.0285132263443 -0.0107512212066 -0.0135712028575
0.0298885179532 -0.0206468828735 -0.0398971921622
0.0276692642825 -0.013203773022 -1.91317723777e-05
0.0312096242568 -0.0149182521038 -0.0605341335154
0.0294675117992 -0.000924113674801 -0.0267408864257
0.0277482687297 -0.00906437898963 -9.39003587964e-05
0.0283117082405 -0.0130868140065 -0.010869646802
0.0305916050942 -0.0131530268072 -0.0495227723848
0.0267255836306 -0.0158067694791 0.0151767349813
0.0316621891937 -0.0192112336784 -0.0695137189866
0.0302756545597 -0.00575235023034 -0.0419091868183
0.0273393012522 -0.00849586017372 0.00700966065401
0.0269645355039 -0.00937569024932 0.0130914192983
0.027158363569 -0.0136758284982 0.00849395110771
0.0304830369773 -0.00892425160813 -0.0463918267867
0.0318994452047 -0.0151875755745 -0.0723054041206
0.0281821737947 -0.0163419026018 -0.00966862355721
0.0299120858034 -0.0118882985855 -0.0376221168365
0.0302421368472 -0.0127706472761 -0.0434842648945
0.0283895998531 -0.00256750627155 -0.00897745216171
0.0284480401864 -0.0159069458198 -0.0140409219923
0.0261036533368 -0.0166407482614 0.0254607035357
0.0297644194299 -0.00854443873593 -0.0340988591737
0.0267001411417 -0.0124577762178 0.0166304734391
0.0289669407279 -0.0157109783343 -0.0227738656003
0.03055964999 -0.0178839635078 -0.0504258835693
0.0289360120178 -0.000892210374374 -0.0177248680621
0.0291225386722 -0.00251575483442 -0.0213813159381
0.0302768311579 -0.0158154525917 -0.045001891929
0.0304880027871 0.00077771402455 -0.0446161148827
0.033286011122 -0.0175047739451 -0.0973233704227
0.033720206338 0.00752831474284 -0.102264155036
0.0315129604505 -0.0110893384271 -0.0645243771078
0.0300373988144 0.00249170236466 -0.0362708526625
0.0316289284019 0.00469260088569 -0.0647871097318
0.0331579970592 -0.00365426581445 -0.0933997676305
0.0298524715607 0.00134965143771 -0.0330604000404
0.0331946860983 0.000976853290125 -0.0935249333486
0.0319886148587 0.00197609268719 -0.0716052333922
0.0303416943219 -0.0015350163498 -0.0422398457306
0.0328206906424 -0.0124074077653 -0.0883189337156
0.0326949652495 -0.015709937684 -0.0864297777087
0.0320244961598 -0.00713793828233 -0.0733128939429
0.0339678798848 0.0106335782771 -0.106380835003
0.0335641347056 0.00266377827541 -0.100007888727
0.0324870012963 -0.0146507356286 -0.0825470917525
0.0308559075944 -0.00442023309412 -0.051871138619
0.0324659735463 -0.00811949951778 -0.0814080606509
0.0321880230344 -0.000320591584739 -0.0754770337141
0.0319278164124 -0.00156794418651 -0.070917901131
0.0337340371337 0.000324483169761 -0.103351229402
0.0331528151578 -0.00991975951133 -0.0940340979166
0.0323016138278 0.0111929993861 -0.0761927459952
0.0328663170207 0.00338680664428 -0.0873085911584
0.0339178341414 -0.0252874140904 -0.10964988445
0.031869677657 -0.0105069741427 -0.0709055144891
0.0328183310122 0.0104814079617 -0.0856167439358
0.0333711603856 -0.00848121921072 -0.0978142371524
0.0296039149028 0.0049790287331 -0.0281452334348
0.029676208771 0.000118717227128 -0.0300169129783
0.0326521521352 0.00362548937181 -0.0834091425437
0.0338028171819 0.0128726695524 -0.103136630877
0.0322064628539 -0.0079541772086 -0.0766973655591
0.0318028785889 0.00897095607399 -0.0674346985559
0.0317288156953 -0.0056973807887 -0.0678001404865
0.0315764354274 -0.00405195590812 -0.0648541921157
0.0321959258614 -0.00424255481629 -0.0760756092735
0.0315408596279 0.000352796585833 -0.063699242097
0.0306729541437 0.00228469282398 -0.0477846009893
0.0338846146984 -0.0177209647218 -0.10817016444
0.0333702293041 0.010686300968 -0.0955702633629
0.0338746224835 0.00577321619983 -0.105259651773
0.0331369330469 -0.0139841663636 -0.0942192356822
0.0329259680048 -0.00173550356814 -0.0889821526888
0.0324890344587 0.0110569430058 -0.0795967821615
0.0329547619442 -0.0145932433633 -0.0909966811914
0.0300637603803 -0.000769169323931 -0.037126314411
0.0320860890728 -0.0121940107542 -0.0750138656518
0.0308815130043 0.00125639035324 -0.0516744514683
0.031194086742 0.00724367201287 -0.0566295381346
0.0311853814178 -0.00760447148258 -0.0581974195196
0.0340126158542 0.01435665314 -0.106756983573
0.0339588425061 -0.00619003437988 -0.108172250145
0.0319657485281 0.00715947231879 -0.0705895762466
0.0331990336456 -0.0206671943528 -0.0961184271101
0.0311243902605 -0.00187059918921 -0.0564285705272
0.0339771461574 -0.0141171416259 -0.109424225621
0.0338391679433 -0.0117696434259 -0.106657064066
0.0324994612282 -0.0034213431988 -0.0814675623089
0.0304877438669 -0.00409990515748 -0.0451781817821
0.033407791608 0.00617858661269 -0.0967730893031
0.0306716505027 -0.00140620380098 -0.0481898917547
0.0314331908797 0.00341805035414 -0.061396622529
0.0330286702727 0.0101212475388 -0.0894611470667
0.0313809078041 -0.00776398847718 -0.061750719109
0.0325873306357 0.00801608282643 -0.0817271281521
0.0306721243187 -0.00563963745899 -0.0486903550254
0.0308186051141 0.00798444638994 -0.0497554336956
0.0313245045885 -0.000686850231707 -0.0599087330452
0.0323013921329 0.00284787362698 -0.0771583876329
0.0293605823258 0.00364870596672 -0.0239007937752
0.0327558463061 -0.00927411784147 -0.086782596992
0.0336116704003 -0.0190293290095 -0.103387846786
0.030259671582 0.00229994773856 -0.040311424435
0.0336655939424 -0.0146254821099 -0.103850988819
0.0333744577549 0.0143669106518 -0.0952190431644
0.0317792093626 0.00277809795948 -0.0677263715357
0.0334036785886 1.11504410267e-05 -0.0974153494019
0.0337097097877 -0.00969370302686 -0.104075483073
0.0317514346178 -0.000575195422563 -0.0676138851346
0.0335945447487 -0.00400799037653 -0.101332863752
0.0333329351811 -0.0134047869806 -0.0976952809706
0.0338760316439 -0.0014562542842 -0.10612514443
0.033359884629 -0.00430593944064 -0.0971252513638
0.0339062131773 0.00211951757641 -0.106255290676
0.0322414955723 0.00677911735222 -0.0756187807232
0.0324655081595 0.00140689928985 -0.0802927415485
0.0337605354408 -0.0236617730276 -0.106617318429
0.0311469607483 0.00404310934711 -0.056149469706
0.0331778011608 0.00480094598458 -0.0927753493375
0.0327353587227 -0.00445907745407 -0.0858527419411
0.0326622604977 0.0129191433432 -0.082512021215
0.0309482464141 0.00515501969555 -0.0524278758311
0.0335386542952 0.0086133670798 -0.0988559451917
0.0305254951676 0.00444740959861 -0.0448675147439
0.0328248056557 -0.0186340196437 -0.0891168176533
0.0330324774435 -0.00688696675169 -0.0915062180288
0.0313817256464 0.00915350490297 -0.0597998012302
0.0323676697506 -0.0116725292535 -0.0800437441648
0.0261449145183 -0.00271724959849 0.0236332669162
0.0257821661147 -0.00746742369166 0.030531673482
0.0260988862272 0.00118890219032 0.0226081462328
0.0253295646049 0.00250998415979 0.0324353897826
0.0263898809631 0.000273062322177 0.01906640541
0.0260220823533 0.00479626003752 0.0221243628578
0.0245711035215 0.0075263490165 0.0405585236494
0.0259689522109 0.0106609783465 0.0203695884058
0.0278434569343 4.17079530048e-05 -0.000455997492837
0.0261527906973 -0.00765202528447 0.0256069055939
0.0250654158764 0.000655426369846 0.0367824610102
0.0269056515362 0.00576456735399 0.00979009111373
0.0276390431097 0.00418228839527 0.000557911583713
0.0267629524366 0.00280009767937 0.0129656876288
0.0288887588331 0.0030373319639 -0.0158277768159
0.024893400649 0.00843868461808 0.0358237188082
0.0270403066675 -0.00474912614866 0.012403954045
0.0266399102811 0.000483467543234 0.0156029042208
0.0250321189367 -0.00383060738969 0.0391227022767
0.026620923785 -0.00755060576394 0.0192454437781
0.0265437124577 0.0064671088647 0.0143793192945
0.0245625070114 0.00348848504426 0.042376468004
0.0270081266264 -0.00120263517045 0.0113435067208
0.0275723722822 -0.0021355026503 0.00412068697209
0.0253547644205 0.00812578446255 0.0297282579004
0.0268644485882 -0.0060860463594 0.015341127527
0.0257241403372 -0.0106535579883 0.032657804838
0.0286527631051 0.00285444024927 -0.0125652932697
0.0278901150705 0.00477010909736 -0.00307873898221
0.0247808132125 0.0048364282454 0.0388616969275
0.0252969145489 -0.00644326067557 0.0366497756169
0.0256455120417 0.0115777937806 0.0243488563996
0.0255992098369 0.00351398962139 0.0283726260894
0.0246497821959 0.0120322837111 0.0375973458485
0.0255445792468 -0.00165154651628 0.0312872244477
0.0273273794646 0.00138075142831 0.00594546475413
0.0252872498331 -0.00975307362083 0.0381752734867
0.025789319442 0.000413027174829 0.0271136043735
0.0249259395275 -0.00711809458156 0.041941515397
0.0263467580693 0.00375525807727 0.0181807609728
0.0257011177021 0.00618208527836 0.0258725350586
0.0250395100399 0.0110979461208 0.0327307328324
0.0270419159458 0.0020018654241 0.0095367703583
0.0252661427293 -0.00301875200485 0.035621734641
0.0263876731292 0.00986730832579 0.015052346203
0.0265814086881 -0.00269103847419 0.0177305568055
0.0273348758832 0.00762158568109 0.00321384348405
0.0286225848391 0.00601260925543 -0.0142891808402
0.0315553027412 0.0165611196684 -0.0694480415084
0.0294077310446 0.00860277488497 -0.0288145475502
0.0307860591154 0.0112618521296 -0.0523624300214
0.0274757774995 0.0149048922676 -0.00617488981334
0.0285074025453 0.0135975060091 -0.0203910523187
0.0320828622089 0.0144712169544 -0.0752488727853
0.0302468131972 0.0140488830247 -0.0471058220705
0.0261072405075 0.0166486932912 0.0126742786184
0.0252830311541 0.0135875443321 0.0282759438509
0.0315971984415 0.0105035258152 -0.0638189259888
0.0261087908522 0.0125838171022 0.0168524769115
0.0298113974717 0.00826901271551 -0.0345610031479
0.0269815603503 0.0125349906482 0.00373260073294
0.02800451632 0.00669193436357 -0.00566452102767
0.0266488391019 0.0160657517828 0.00510394680131
0.0272928075394 0.0108785841277 0.000747908156228
0.0290700658581 0.00960752007542 -0.0247576205497
0.0289961662715 0.00719636073658 -0.0211501985518
0.0281441646074 0.0148203294977 -0.0161736381836
0.0267129242388 0.0114371571885 0.00892115534494
0.0264129633263 0.0160115334019 0.00871942261547
0.0294272441444 0.0129235096044 -0.0335750633577
0.0317627905678 0.012860722022 -0.0687542368859
0.0245107095703 0.0161115296263 0.037321624018
0.0290732175995 0.0147321768428 -0.030102199719
0.0300769992728 0.00830584704958 -0.0386070845705
0.0300289959631 0.0117670247891 -0.0414602910245
0.0290917817575 0.00430200051764 -0.0196013553979
0.0310640784818 0.0106658481521 -0.0559417730329
0.0282932127464 0.00598445407805 -0.0092897582915
0.03052586942 0.0108277835519 -0.0479874240997
0.0291467925419 0.0166762157384 -0.0332218912611
0.033097678482 0.0151134626927 -0.0912265915754
0.0242308760255 0.016326095853 0.0413226104628
0.0335536352765 0.0153977720619 -0.09840098362
0.0298877957616 0.0164715058808 -0.0441922497265
0.0278020537417 0.0163292536625 -0.0125707610259
0.0321071440101 0.0119340172131 -0.0729927567836
0.0304003653318 0.00947399960226 -0.0446942141535
0.032126954369 0.0165662641086 -0.0780797478328
0.0304423660435 0.0151621783345 -0.0512075109058
0.0270970367562 0.0160653679539 -0.00165908905292
0.0276432117342 0.0107243865591 -0.0043804089496
0.028647136469 0.0151919267851 -0.0241477249673
0.0307049186671 0.014515212691 -0.0545007805816
0.027967419209 0.0117895107075 -0.0103737420997
0.0283546592308 0.0115512538107 -0.0159710359553
0.0270358893097 0.00948302379099 0.00606737709637
0.0296781996957 0.0161479531928 -0.0406949493075
0.0276409462287 0.00841310844853 -0.00195720662547
0.029689063251 0.0134230438013 -0.038042325043
0.0309722177376 0.0155146492649 -0.059567452509
0.00025298435268 -0.0266273752698 0.0438053724363
0.0127722313457 -0.0231541171768 0.0437184324642
0.0172992156495 -0.0185540979338 0.0441789603095
-0.0209495340067 -0.00378736892131 0.0441317678866
-0.0221913680259 -0.0159741075908 0.0435890731333
-0.0177334877873 -0.0119919111684 0.0441983067418
-0.0219206293544 0.00168115079146 0.0442123886688
-0.0165809485752 -0.00127653398082 0.0442630015314
0.0023594408439 -0.0201900235912 0.0442630015314
-0.00401776791126 -0.0091686034552 0.0442630015314
-0.0158447829704 0.00442480793179 0.0442630015314
0.0124612366192 -0.0155836839013 0.0442630015314
0.0213622086393 -0.0163638109033 0.0442630015314
-0.0050365047875 -0.0124311878713 0.0442630015314
-0.00707656094618 -0.0162475894331 0.0442630015314
-0.00903545007824 -0.0078500183074 0.0442630015314
-0.00542131795204 -0.0190577723368 0.0442630015314
0.018134473189 -0.0150117808289 0.0442630015314
-0.00362828346808 -0.00498436826789 0.0442630015314
-0.0123862914817 -0.00699991095714 0.0442630015314
-0.0149460925254 -0.0184880578412 0.0442630015314
0.0150271955702 -0.0130171832719 0.0442630015314
-0.0190350329105 0.005988141363 0.0442630015314
-0.00690223740972 -0.00447943695694 0.0442630015314
0.00310806746053 -0.0142318842128 0.0442630015314
0.00668122962678 -0.0199151902011 0.0442630015314
-0.00834955249179 -0.0207619986522 0.0442630015314
-0.011182092527 0.00118294170971 0.0442630015314
-0.0235801235446 -0.0200028584921 0.0432566456026
-0.0181523273895 -0.025463170189 0.0402880592601
-0.0197186462823 -0.0276158589894 0.0342030191857
-0.0146685688679 -0.0273348157459 0.0414230766761
-0.0218348019662 -0.0224965377948 0.0409282275212
-0.0207020908251 -0.0247636348818 0.0382093016435
0.00749248177041 -0.0299217256485 0.0399402187396
0.0130056257469 -0.0289260713885 0.0385522512247
0.0165626312002 -0.0280647326554 0.0380533018394
0.0181262636374 -0.0326232945594 0.0163198841615
0.0153278562261 -0.0350519284585 0.0099545449083
0.0190096540557 -0.0306078769286 0.0236957389381
0.0193126222445 -0.0291414911474 0.0295566525031
0.0134317345182 -0.0311226975182 0.029599029071
0.0176380008313 -0.0317386284909 0.0208321024643
0.00669585105039 -0.0318101121231 0.0364454077258
0.0134649302044 -0.0326833358154 0.0228439613442
0.00824603113777 -0.0330686048988 0.0287816288078
0.0107227459338 -0.0330876961372 0.0250960386866
0.0198412851444 -0.0281207515264 0.0331740437542
0.0116093364336 -0.0307238000884 0.0339648068965
0.0078887501152 -0.0322609708005 0.032772231273
0.0127498495502 -0.0347046313925 0.0151979606671
0.0144410334922 -0.0331450844341 0.0194394172992
0.0138564784618 -0.0317299792669 0.026371274771
0.0106013357789 -0.0341207068053 0.0208333725509
0.0194547310797 -0.027450402592 0.0366172611517
0.0150047008105 -0.0296768827977 0.0335237299776
0.0166344087336 -0.0339553985652 0.012765834993
-0.000942274278618 -0.0294797226411 0.0426380044559
-0.00792513989495 -0.0282692351099 0.0436905176598
0.00179145384877 -0.0316715579078 0.0386604420374
-0.00421833611741 -0.0286953375827 0.0435810856426
0.0125572533729 -0.0420390927808 -0.0301447098284
0.0159874176765 -0.0460781910297 -0.0737825616272
0.0146168493357 -0.0403786713936 -0.0216959889069
0.0182156554422 -0.0472183591572 -0.0895470013129
0.0132388244096 -0.0428451844032 -0.0388454208302
0.0172202305375 -0.0448983753007 -0.0671484715879
0.015984731171 -0.0382158794167 -0.00709468216363
0.0107564548256 -0.0403013175591 -0.0104810680375
0.0175808124676 -0.0482102091148 -0.0962225035553
0.0167477304599 -0.0417982856175 -0.0395641323075
0.0161112472857 -0.0441716303975 -0.0579516527382
0.0120761683406 -0.0405345752257 -0.0160689904582
0.0164511123038 -0.0435638225036 -0.0537264059552
0.0145088780208 -0.0434828980127 -0.0477277189571
0.0152255637333 -0.0393905402014 -0.0149805592342
0.00745278969056 -0.0470888397428 -0.0690020865442
0.00575362612151 -0.0475501610778 -0.0726066799996
0.00581437596083 -0.0498529040229 -0.0936249311509
0.00390606832375 -0.0447750711143 -0.0466486611327
0.00541127666569 -0.0422140236793 -0.0238297748831
0.00806331211311 -0.0430490744654 -0.0323831678287
0.00630677107911 -0.0405876494766 -0.00931742623777
0.00447066533338 -0.0403674369292 -0.00665919621542
0.00647337798014 -0.0443569356074 -0.0437453169352
0.007847527296 -0.046318548562 -0.0621182686556
0.00783815137918 -0.0452224381938 -0.0521204589292
0.00342780456026 -0.0459890601021 -0.0575485954461
0.00709605525786 -0.0479576412935 -0.0767975956238
0.00769322681613 -0.0409494512369 -0.0131074323371
0.00639066065263 -0.0456594861665 -0.0555928604218
0.000960150297103 -0.0406350405924 -0.00785591098464
0.00283548138891 -0.0415687674827 -0.0170339580753
0.00469094463419 -0.0428695462355 -0.0295517991719
0.00588940820012 -0.0417259767291 -0.0195490356817
0.00744131687652 -0.0438645429983 -0.0395984304418
0.00101312247828 -0.0401221807203 -0.00319834366558
0.0051398450215 -0.0495354648068 -0.0904915742526
0.00253207318642 -0.0434371734011 -0.033962887609
0.00456367751905 -0.0437883917004 -0.0378848870836
0.00329459545982 -0.0442649732873 -0.0417809493636
0.00208774182206 -0.0411536503709 -0.012984031746
0.00724332038057 -0.0447756119198 -0.0478355602248
0.00817028159016 -0.0426622337287 -0.0288937852093
0.00845063863284 -0.0481471127174 -0.080608879592
0.0122671028025 -0.0444976004345 -0.0518681939823
0.00965955501065 -0.043923673342 -0.0421104676979
0.0104752545226 -0.0452829929468 -0.056468545793
0.0110406345104 -0.0443690978505 -0.0486340667421
0.0154942568706 -0.0494247066018 -0.104353413921
0.0106160923568 -0.0413373100455 -0.0188877501829
0.017174231729 -0.0479359706165 -0.0928303688632
0.0095605242744 -0.0491957871463 -0.0924704796621
0.00614737834945 -0.0512221723669 -0.106315611683
0.0107604932742 -0.0429933508473 -0.0349930853017
0.0183368389901 -0.0496316786182 -0.110978465058
0.00980191459273 -0.0506035039009 -0.106354544801
0.0153880287718 -0.0489287832195 -0.0994276084575
0.0130968030838 -0.0459157126601 -0.066812533177
0.0117783651547 -0.0438421869556 -0.0447894206036
0.0148589580759 -0.0477898092338 -0.087649101396
0.0112101602639 -0.0419553126023 -0.0257800160488
0.0129784455464 -0.0501860604073 -0.107541241977
0.0170242232547 -0.049553970218 -0.1080904185
0.0100271808796 -0.0471408911527 -0.0735407876464
0.0117086012736 -0.0494371389938 -0.0982909234882
0.0126937779165 -0.0473746108735 -0.0801347897598
0.0108766650724 -0.0456065401508 -0.060224507112
0.0117362247431 -0.0481422026875 -0.0859268879387
0.0124686614344 -0.0469719313327 -0.0759083894806
0.0139955838001 -0.0482622301956 -0.0907664157795
0.0138341630991 -0.048682616342 -0.0945313155713
0.00697458394095 -0.0489004657975 -0.0854178651943
0.00778199456849 -0.0502932190732 -0.100082797168
0.0162448500028 -0.0470950984626 -0.0832548469991
0.0130807026989 -0.0464595307351 -0.071997553706
0.00911554558683 -0.0465093953626 -0.0660006601814
0.0122549638636 -0.045675545875 -0.0631364118848
0.0108909984716 -0.0358151635676 0.0128605945807
0.0089140137829 -0.0354233928777 0.0170376395541
0.0073808908057 -0.034496761114 0.0235028646783
0.0132521904717 -0.0380363773771 -0.00120973499964
0.013567696802 -0.038703281508 -0.00500683465185
0.0102812864356 -0.0395491078637 -0.00581754351233
0.0119259860702 -0.0365203856208 0.00808337228793
0.0117338450753 -0.0375782917941 0.00281252935574
0.00881482058368 -0.0367760734152 0.0101389888152
0.0045190844442 -0.033517634635 0.0316560116429
0.00576294821983 -0.0377210231726 0.00776691833956
0.00716790942841 -0.0385841034037 0.00207488553981
0.00481639021414 -0.0365324407923 0.0149291558985
0.00210891994701 -0.0394964899322 0.000537309315524
0.00164296066182 -0.0368225904198 0.015511193486
0.00510295666324 -0.0397430891939 -0.00286370744104
0.00854596873974 -0.0393267657535 -0.00293875428971
0.00236512660712 -0.0378794416426 0.00922453952139
0.00609613063367 -0.0355348930873 0.0195204420552
0.00498109722647 -0.0342308201143 0.0274309770609
0.00361091150553 -0.0387380799056 0.00366581102196
-0.000815958009521 -0.0394000290806 0.00306811726224
0.000340396229355 -0.0387222478862 0.00599130894577
0.00207826562032 -0.0355715831279 0.0220696550588
-0.0331315349916 0.00983888467255 -0.121960082817
-0.0329952642148 0.0173734096166 -0.117132069582
-0.0333166999371 0.0131161639811 -0.11639964105
-0.0336359289812 0.00976580792157 -0.114885131526
-0.0339099328316 0.00960625906796 -0.11114926433
-0.0325611704428 0.020170736402 -0.120768639246
-0.0334845049541 0.00783102699091 -0.118763933415
-0.0334533125924 0.0144622650646 -0.113258459354
-0.0302325552096 -0.0214894188665 -0.123864707058
-0.0316302691148 -0.0258328249393 -0.121800318807
-0.0296303006736 -0.0275141982359 -0.124004971653
-0.0302967165751 -0.0319380189442 -0.122797431323
-0.0320411142993 -0.00417835753551 -0.123369366251
-0.0312861556635 -0.0351095799902 -0.121326862874
-0.0308183071008 -0.0399033069752 -0.121425054264
-0.0334087165457 -0.00564925616189 -0.120033930972
-0.0333701074354 0.00364057455275 -0.12221252607
-0.0326096228525 -0.0190359581507 -0.120324452385
-0.0322418254754 -0.0356970076646 -0.118170980341
-0.0331665932575 -0.0117510014417 -0.119676349975
-0.0323855777143 -0.0296693002856 -0.118907180094
-0.0328796021212 -0.0237050019007 -0.118223982238
-0.0337138340578 -0.0203589371593 -0.115605240773
-0.0334113171756 -0.00192645921899 -0.120834455668
-0.032560087193 -0.0155108741422 -0.121291122399
-0.0334210051506 -0.0305562242719 -0.114558975124
-0.033859989429 -0.0260153859358 -0.113786562907
-0.0343412455387 -0.0226931751358 -0.111292318553
-0.0343019873682 0.00344453255016 -0.108051947295
-0.0340122125628 0.00572129956476 -0.112249898383
-0.0336644680904 0.00138580860214 -0.118329947346
-0.0340158573401 -0.0146452176013 -0.115196372573
-0.033761011012 0.00507795623757 -0.116274982003
-0.0341406544292 0.00182150480504 -0.110815455656
-0.0339496261105 -0.00184078051884 -0.114344301343
-0.034240281824 -0.00605378144267 -0.110418108938
-0.0339846860067 -0.00956371319944 -0.114934686314
-0.0342836517596 -0.0016732352437 -0.109093549039
-0.0339179104964 -0.00632881981267 -0.115502374225
-0.0343333518796 -0.00966685504437 -0.109494797261
-0.0341903866013 -0.0127322492416 -0.11218364111
-0.0280830187765 0.0260444960904 -0.124865932927
-0.0327655996034 0.0153637765072 -0.121719429114
-0.031291783011 -0.0076855748946 -0.123783216347
-0.0277574972808 -0.00816451055024 -0.125388270898
-0.0287419004218 0.0174363213429 -0.124768251122
-0.029369628514 -0.0148277642264 -0.124702878195
-0.0293776396233 0.0142802107712 -0.124501557727
-0.0296265452557 0.00487973795146 -0.124452593461
-0.0324685084874 0.00668151235772 -0.12315232772
-0.0284146768604 0.0105761167493 -0.124963146478
-0.0275094483074 -0.0359358842964 -0.12568930318
-0.0299097426208 -0.0113338786274 -0.124434359706
-0.0267699782268 0.00634868389088 -0.125737264486
-0.0291632603394 -0.0182411774364 -0.124819590494
-0.028914220341 0.0209896776563 -0.124666019667
-0.0306317658967 -0.000154702964083 -0.124031201304
-0.0334202049768 0.0170725597054 -0.107817859168
-0.0339111675817 0.0116627482533 -0.108394560256
-0.0331712087504 0.0186512496484 -0.110664061781
-0.0301288506246 0.018762523711 -0.0583799127185
-0.0256041698744 0.0243481643851 -0.00302145397862
-0.0283918297554 0.0195773009177 -0.0344227795603
-0.0224395844 0.0248627386501 0.0425979557665
-0.0280157967439 0.0266524293895 -0.043272572209
-0.0283804362133 0.0159421503211 -0.0268587483357
-0.0268463134048 0.0160625197507 -0.00448080769936
-0.0235944015554 0.0172874951391 0.0409809844183
-0.0233400691461 0.0288989230785 0.0211070621098
-0.0239036048438 0.0174724291014 0.0360450746524
-0.0242298154759 0.0278898315043 0.0100395566651
-0.0247167110406 0.0152866229581 0.0285018618867
-0.0259879302444 0.0244452291029 -0.00887803759608
-0.0233631256587 0.0218061792902 0.0351978395882
-0.0231147827848 0.0246583816759 0.0330569679805
-0.0263642640175 0.0154730291816 0.00382706999011
-0.0247981817601 0.0232244979565 0.0111501904356
-0.0312273402954 0.0175017740018 -0.0720136188067
-0.0271596395548 0.0269106976869 -0.0311727742611
-0.0269082795513 0.0210838746144 -0.0156109527523
-0.0274242737682 0.0236112522 -0.0283621884398
-0.0295141647256 0.0181500413371 -0.0480693405855
-0.0277750977925 0.023185258935 -0.0326688732817
-0.0247707103958 0.0317918453051 -0.00587568765783
-0.0284543233691 0.0229676754954 -0.0422423374426
-0.0249125539513 0.0118402655662 0.0326257787081
-0.0219619363279 0.0280153721811 0.0432272661357
-0.0274117981784 0.0181575909796 -0.0170822893235
-0.0233812858037 0.019963291293 0.0386795515359
-0.0240596165218 0.0188474250537 0.0309469146296
-0.0302878439926 0.0234332912876 -0.0702275643079
-0.0253262978773 0.021170224291 0.00754195155982
-0.0246571446256 0.0226714047286 0.0143552996785
-0.0305880172238 0.0201075665061 -0.0678875848859
-0.0258857926632 0.0124257768851 0.0170827056858
-0.0263242303563 0.0252271090911 -0.0154280653901
-0.0293137172452 0.0160543011485 -0.0408494966242
-0.0211449467245 0.0357212643017 0.039596669954
-0.0272098180979 0.0178063814229 -0.0133892380574
-0.0233493145519 0.0271266756719 0.0245765105064
-0.0277875779352 0.0264567556781 -0.0395090438937
-0.0216259266268 0.0347284236043 0.0345239482981
-0.0254315940318 0.0273251455447 -0.0065334920119
-0.0263529134217 0.0288073806863 -0.0231353995397
-0.0218001122681 0.0321140529553 0.0372744862102
-0.0275046939117 0.0194626036474 -0.0211073273404
-0.0247392982676 0.0277898713759 0.00272987901215
-0.0219149793357 0.0345114238625 0.0307029553881
-0.0294434925645 0.0240316830978 -0.0589938689045
-0.0259302562446 0.0263736039483 -0.0119509911749
-0.025814799768 0.0289152314389 -0.015419572874
-0.022910648775 0.0232371143966 0.0389589037154
-0.0287574745433 0.0225500447249 -0.045863031891
-0.0242734769892 0.0203186145789 0.024799977347
-0.0259699498062 0.0299138917188 -0.0197393404655
-0.0285498039839 0.016999999832 -0.0315086022217
-0.0238632585767 0.031909910183 0.00726577876831
-0.0228692113623 0.0338875337235 0.0179007913584
-0.0326574133385 0.0192433203516 -0.0966454192966
-0.0280730066102 0.023571702234 -0.0378482174236
-0.024182099966 0.0125924957178 0.0418668959374
-0.0225950754337 0.0342703612161 0.0211644245449
-0.0267156330935 0.0150185866447 -0.000429770004817
-0.0265689837697 0.0196331241159 -0.00765587666638
-0.0254388014308 0.0136493229283 0.0211848263599
-0.0305990465387 0.016650469318 -0.0610164753759
-0.021769616521 0.036967482554 0.0278494824204
-0.0232549345927 0.025553298651 0.0291694452245
-0.0238926108964 0.0281060720708 0.0145721626097
-0.02475427426 0.0187157519943 0.0209710892668
-0.0255148300495 0.0231198328483 0.000795132909987
-0.0221780474662 0.0283344450642 0.0393912168879
-0.0253493567109 0.0182705196981 0.013101606826
-0.0262220366901 0.0199306802866 -0.00314504695636
-0.0247353137067 0.0250923577197 0.00827695361357
-0.0234929859783 0.0326455281202 0.0112293035218
-0.0320292805091 0.0194119981033 -0.0877258883104
-0.0243730808232 0.022857170358 0.0181662724087
-0.0251317972787 0.0178484582498 0.0171685520725
-0.0226887629934 0.0322327815207 0.0239284928799
-0.0316962737524 0.0195216949795 -0.0830384132627
-0.024590294361 0.0303313089685 -0.000243611328134
-0.0292076595331 0.0237797075594 -0.0550035071859
-0.0299317318263 0.0183906937849 -0.0547165941722
-0.0283836623228 0.0260144052218 -0.0473991646719
-0.0227128033093 0.0290709181821 0.0300070586184
-0.0234327461283 0.0303617126356 0.0167642396511
-0.0277630724607 0.0149262964694 -0.0156879944917
-0.0266417430602 0.0257949163424 -0.021265497054
-0.0244398835797 0.0148251786644 0.0335229269507
-0.0289522477302 0.0237124364521 -0.0511002249555
-0.0206570658084 0.0371391230959 0.0439064221916
-0.0269085008634 0.0254501404251 -0.0244977482981
-0.0280900767701 0.0162990261621 -0.0233030753459
-0.0253260772325 0.0227262492918 0.0043793426317
-0.0266641106081 0.0208472480557 -0.0115288948305
-0.0213663304886 0.0331280471633 0.0416081652336
-0.0287845958487 0.0188145532722 -0.0386628055206
-0.0309347740517 0.0207414799756 -0.0742907617381
-0.0249567803431 0.0156686601435 0.0241844090017
-0.0264405475011 0.0298152009019 -0.0264781840867
-0.0291111007517 0.0188311064741 -0.043511267721
-0.0304585321987 0.0191310699164 -0.0639913786173
-0.0237500040473 0.0236990463163 0.0256415667292
-0.0263459529007 0.0138573274392 0.00738437364486
-0.0242409383989 0.0220115054477 0.0218354778772
-0.0261538154544 0.0186595057417 0.000447283702851
-0.0257700896501 0.0173298756182 0.00881111472432
-0.0242019288933 0.0145215227749 0.0376497235021
-0.0225356194123 0.0278612054159 0.0350811509637
-0.027167991531 0.0165644760689 -0.0102456852762
-0.025339266313 0.0125442204577 0.0249010376573
-0.0280474891596 0.0202132336225 -0.0306388414769
-0.0252509046442 0.0300715930683 -0.00945684426978
-0.0273404225026 0.021833404763 -0.0235085023003
-0.0312088833689 0.014965484782 -0.0679162802734
-0.0304832613145 0.0115264840525 -0.0522299918793
-0.0262965849732 0.0123868383618 0.0110542633859
-0.0291076890679 0.0108047100329 -0.0301165843159
-0.0306874831553 0.0122615391928 -0.0563386494708
-0.0333851757672 0.0143033527477 -0.100529728508
-0.0324958964953 0.0147528916626 -0.0874385210836
-0.0309870168474 0.0144919570271 -0.0638800297428
-0.0322762191307 0.0112908645986 -0.0795063406769
-0.0317539496441 0.0097923303639 -0.0695003445436
-0.0316052575483 0.0161936275063 -0.0756297300829
-0.0321464076013 0.00983335843597 -0.0755925893478
-0.0297595267573 0.00948674043271 -0.0384126433894
-0.031639083515 0.0129380184133 -0.0718693334867
-0.0334580712332 0.0107954707328 -0.0970387325459
-0.0333171821045 0.0178346570849 -0.104126941125
-0.0309386392059 0.0121413179856 -0.0600448168001
-0.0339384680551 0.00872784560406 -0.101711298722
-0.0297447752035 0.0115808937252 -0.0409393044006
-0.0333500708285 0.00841106250245 -0.0922417696364
-0.0312678119543 0.0101856191826 -0.062537846324
-0.0300957785253 0.013590445982 -0.0489821696448
-0.0330271689018 0.0118621726281 -0.0918115554323
-0.0323732614633 0.0127485383476 -0.082916130647
-0.0336119387322 0.014365215475 -0.1041000119
-0.0326968368045 0.0158528658294 -0.0919765257439
-0.0313400400817 0.0119009130195 -0.065904596427
-0.0301195922907 0.0093378172073 -0.0437567343132
-0.0318311100121 0.0159729762165 -0.078814523735
-0.0292925089287 0.0136870199793 -0.0367501759778
-0.0286132143617 0.0113080603476 -0.0231705351895
-0.0301002616219 0.0114496819975 -0.0462362308304
-0.0278795576396 0.0120779667594 -0.0128949667698
-0.027669982683 0.00997799957384 -0.00690920853005
-0.0330573132598 0.00933823211114 -0.0889565935556
-0.0287749094719 0.0119150756388 -0.0264565221173
-0.0283737754104 0.0100778450506 -0.0178689409145
-0.027273814889 0.0116303479238 -0.00298652477234
-0.0297077495971 0.0140222347978 -0.0435797815157
-0.0302218441714 0.0155146429761 -0.053451944509
-0.0316456067458 0.0279896818307 -0.105932469732
-0.0324112921018 0.0233964000526 -0.118772362676
-0.0325693274935 0.0227675711854 -0.111191791975
-0.0326185057919 0.0224001570453 -0.114336802837
-0.0235117192619 0.0368496745451 0.000927159907281
-0.0246816867528 0.0342283077381 -0.0105149678924
-0.0316973002313 0.0237352811367 -0.09317007816
-0.0311146534002 0.0223296245081 -0.0801862730297
-0.0288190050461 0.030778616011 -0.0666180184284
-0.0275847606382 0.0300663929988 -0.0452018432689
-0.0296355488577 0.02552587556 -0.065404389332
-0.0314021760174 0.0274605306536 -0.0985177681236
-0.029477327985 0.0305625727019 -0.076439554486
-0.0303973939017 0.026036790551 -0.0788152380183
-0.0325156941576 0.0212463223718 -0.0994128399958
-0.0309719459513 0.0268593904238 -0.0901042797833
-0.0288583841351 0.0274356966736 -0.0582567607115
-0.0269691445183 0.0322748509397 -0.0414093641905
-0.03098783929 0.027919657787 -0.0932046837437
-0.0234559250753 0.0357062626718 0.00488146991696
-0.0299256429822 0.0302518686765 -0.0826883869737
-0.0241974381221 0.0347207829369 -0.00418682743115
-0.0313628328295 0.0288559935595 -0.101646160408
-0.0228399054421 0.0368161789363 0.01163245456
-0.030602534161 0.0272901919321 -0.085424931137
-0.0267656384956 0.0316697328026 -0.0365676360833
-0.0293513794389 0.0298801807629 -0.0726156472317
-0.0258728611423 0.033129832656 -0.0263846771193
-0.0212839600311 0.0384350357982 0.0318674534001
-0.025008350235 0.0335807104983 -0.0139362547836
-0.0278044590353 0.0329449334715 -0.0564088323121
-0.0270477435339 0.0331918597266 -0.0451155947909
-0.0251128959901 0.0343793220361 -0.0177342969919
-0.0306512764059 0.0235063732484 -0.0760267836742
-0.0287359742898 0.0298608804323 -0.0628398090957
-0.0316413352156 0.0251550469377 -0.0961011397346
-0.0278631993796 0.029897552159 -0.049147704731
