0.04715055234793833 -0.01562245635891205 -0.007542000152170658
0.05444453087476896 -0.011947307904835617 -0.007542000152170658
0.046860116532285 -0.01882146279145339 -0.007542000152170658
0.045897568839106825 -0.013770910606107275 -0.005442930984252966
0.04476838229896876 -0.013140937630921484 -0.00237502298207476
0.044752012782230365 -0.017217163579036594 -0.005178629184849147
0.04454899951815605 -0.026110474143908033 0.0004430616997829936
0.04454899951815605 -0.013918420213047898 0.0012287592704169088
0.04454899951815605 -0.017065299682685074 0.0004682105402704913
0.04454899951815605 -0.02007753865419965 0.000499703663328899
0.047624335764043325 -0.03132516078251009 -0.002787310163772452
0.055812637799441386 -0.024819459629754938 -0.003867822957088422
0.050459439622195026 -0.029053308045793248 -0.0038344102270089745
0.051402979217505675 -0.028418956998502408 5.5441368733961374e-05
0.05320531628313288 -0.0268828233784707 -0.0038086826950526316
0.0534662723295462 -0.00986697293247326 -0.0030354922531930393
0.05478713429198362 -0.009579687610608682 -0.00010952120010349357
0.05839766056748414 -0.009581912706130291 1.1590694369383514e-05
0.05387797625434483 -0.009150509972097234 0.004147152834298251
0.04923055462189572 -0.009909636384835913 -0.003630419412173936
0.05904998592483822 -0.010159239092060105 -0.005737113997165438
0.057008211598274766 -0.009944054395502059 -0.0036658417212811316
0.051841606203329574 -0.009398855978789932 0.0015822539121251983
0.05732253129368914 -0.009093367716827054 0.004855485957113262
0.05131694467908918 -0.010558675527204487 -0.005701188853545084
0.04639979768856402 -0.010796612939798939 -0.00457077464904069
0.04454899951815605 -0.02558773956433966 0.008620482630916467
0.045680097646520985 -0.013801871233949634 0.006515367407591947
0.04515779027406311 -0.011553699800248736 0.003287171971297768
0.0446342232531714 -0.015180018094024524 0.0035806798120494566
0.04474892060090956 -0.017619448448329272 0.005457535990409381
0.05938100069761276 -0.014229442487161346 -0.0007242889415954861
0.05938100069761276 -0.010049140988424615 0.002878247974358355
0.05938100069761276 -0.01263153340449083 0.006342046759759487
0.05938100069761276 -0.01355947034277714 0.0024065428304023417
0.049237484731760414 -0.029278778372443286 -0.007542000152170658
0.05196864838809695 -0.02745327678153216 -0.006490630645544995
0.05751780501409163 -0.022923606950438817 -0.005966310709728454
0.047886202327011726 -0.030822752119501966 -0.005532347585927453
0.048604979134613355 -0.009722561951072834 0.003498291611615312
0.048345524100687806 -0.009519041258925134 0.0005197117241391142
0.04578915338585908 -0.009892996120868284 -0.0014248114944041051
0.04729646278513607 -0.010244248153217703 0.006317043183737677
0.05677381551887203 -0.02391827773250636 0.0031120615579274917
0.05235031203117906 -0.02725381509396535 0.005233321809303485
0.05533011487500383 -0.024664572307484645 0.005867721485386784
0.05894482339967841 -0.02229244321268066 -0.0030215906935821724
0.053663249958932305 -0.026553131633868597 0.0027970701819975885
0.05432791923378582 -0.026051923497195355 -0.0001126881703371064
0.057584270399336224 -0.02337209967719914 0.0005512786821232601
0.04893856483318697 -0.030001612500243913 0.005157672586207565
0.05319701218987968 -0.025637831654889837 0.008862782410081604
0.047100375192816624 -0.030831540249703894 0.007341490970875957
0.04697308766083581 -0.031958528902806406 0.0030686076816218606
-0.0252855518770533 0.03132632306534974 -0.008640999905765057
-0.028914083171507232 0.03147701377449274 -0.008640999905765057
-0.026657179052658603 0.025789908382573418 -0.008640999905765057
-0.027224480467613475 0.028818805619875622 -0.008640999905765057
-0.02493812180518458 0.022935690871863326 -0.008640999905765057
-0.023120828785102833 0.025131598836615355 -0.007703963820479079
-0.02448445314309631 0.023589250473800526 -0.005482175956032549
-0.026861705254163676 0.021159275338735267 -0.005883076777771175
-0.029957718993844976 0.029326217312893574 -0.006042669279526078
-0.02717850601895537 0.03391507724042311 -0.0036959999706596136
-0.02642050114701658 0.03760107580428723 -0.004786196290241551
-0.02428314690824501 0.03581590412533362 -0.006462784301579804
-0.02792164098992675 0.03706078900900978 -0.0073517493146159525
-0.02296897087807904 0.028308306123822846 -0.0037655663184833167
-0.027954657174800973 0.024894681244558098 -0.004557139285098939
-0.0282201784312638 0.030593192162100033 -0.0036959999706596136
-0.02926161738619911 0.02458647703054139 -0.007691372765740501
-0.029808705375291074 0.027246059594259808 -0.008186402382314583
-0.01699041902133352 0.024817076476215418 -0.007042254144278601
-0.01994263659559784 0.025304817088297633 -0.008546321794433182
-0.020566013448246347 0.029247420876276263 -0.008640999905765057
-0.022476000711321834 0.030265504065994316 -0.0059424986587259115
-0.014559550089846919 0.02611462314513839 -0.008640999905765057
-0.013998251815918464 0.03079730509362372 -0.007045584862241357
-0.018683089964804382 0.03338847327643777 -0.006282491320328014
-0.02194254202436509 0.03474689550160032 -0.0056897435127908685
-0.017064760671154172 0.03148696706826833 -0.007936974788647726
-0.01417569183414938 0.026691234794975406 -0.0036959999706596136
-0.015289529387182083 0.02973195724452429 -0.0036959999706596136
-0.015861897548277742 0.03307835972556469 -0.0036959999706596136
-0.010641220159073716 0.01074164305658214 0.007618372198610274
-0.0031770870463153425 0.01082644746089611 0.009488999843597412
-0.005493950669464648 0.003996802342658838 0.009488999843597412
-0.0022007828879196806 0.013833999633789062 0.009037817604376547
-0.0022968035388740583 0.006198660347514654 0.0045449999161064625
0.0008608010651918185 0.004432651556665277 0.0045449999161064625
-0.00805264642392912 0.005574258242491527 0.0045449999161064625
-0.008806326873823682 0.010934261845693748 0.0045449999161064625
0.0003545320466611856 0.003954603032176033 0.009488999843597412
0.002283359422450797 0.006879407266029931 0.009488999843597412
-0.0017518026199587024 0.005853513299199361 0.009488999843597412
0.0008360109260482983 0.00965306066461815 0.009488999843597414
0.006173985906013667 0.004033263615440397 0.0061204887132376125
0.0033765195181622446 0.009275814797913451 0.007726512181304523
0.0011862814981125028 0.011412684634814596 0.007429977453955767
0.0048289514725958806 0.006785183467281915 0.006804328530934581
-0.004963144517380941 0.01347179863622354 0.009395063461917274
-0.009917909651702724 0.013573599413823462 0.007147205200348046
-0.009650970599067391 0.007970866804573748 0.005173947408327541
-0.0012997700298428916 0.01191757661262847 0.005584089941196006
0.0006146433891049518 0.008930667858165087 0.00497369948755403
-0.00497886600083133 0.01270800927113127 0.005140779128896808
-0.0030476635073016767 0.009899012333573145 0.004719468484299396
-0.001837776674814979 0.0022998419956590313 0.009488999843597412
-0.00892074600785318 0.007176938926663585 0.008197340817229882
-0.008007948144145868 0.0035653646726163633 0.007306055458817814
0.015148205123970207 0.006386737703686151 0.012697886670890831
0.012732169176237105 0.003197545570851618 0.013982244286581777
0.0059587865275158025 0.013833999633789062 0.010012963811031636
0.002797865786177685 0.0017480000387877224 0.011711935005473652
0.004292285559207567 0.0017480000387877226 0.01452763363882072
0.0037050513166728893 0.0040891330173698365 0.009488999843597412
-0.007730170019612279 0.00976225964535321 0.009488999843597412
-0.004711880191237883 0.007126770447144958 0.009488999843597412
0.011055249741614008 0.0017480000387877226 0.011774702712217169
0.007343747243303855 0.0017480000387877226 0.011970777738410132
-0.004392790415894095 0.013833999633789062 0.012404864045092575
0.00028831047795138806 0.013833999633789062 0.010781535596593629
0.004566516060053961 0.01383399963378906 0.012920591214132096
0.009029165091052678 0.013833999633789064 0.011955461484435298
-0.0012502789804762222 0.013833999633789062 0.014170591401908114
-0.010641138005769322 0.009294031696771675 0.010161678133675838
-0.011141740720257797 0.012395088758690394 0.011452952034458229
0.003243856192497548 0.01382251118159818 0.009715887379320514
0.007422361096228918 0.005978639468799571 0.009488999843597412
0.009501680009396201 0.009087531908560062 0.009488999843597412
0.006753079542406658 0.009203425796074704 0.009488999843597412
0.01067917297441108 0.005873150321000567 0.009488999843597412
0.014758091036932946 0.007510279812996696 0.009488999843597412
0.012731264911682225 0.010717603268621898 0.009488999843597412
-0.0074770284156288995 0.003308738936053394 0.018278999254107475
-0.006894427103179605 0.0066619956410168095 0.018278999254107475
-0.003625619586687897 0.006684479156167454 0.018278999254107475
-0.0016275508396618702 0.0017851636712559054 0.017449679612744094
0.0060822237490552105 0.001855820706587971 0.017800979601406985
0.015255198608908215 0.013764192026303738 0.013459739854129075
0.00403071511992932 0.013168099187942164 0.017148454787549124
-0.009361929228163477 0.008578101817359827 0.017299629658596404
0.011973442718022548 0.0051753930127636655 0.017745573747942764
0.008891501082650336 0.00471419615760103 0.017983265146725342
0.004024747346334475 0.01011168285071929 0.01823836652273927
0.009103718585808298 0.007909206770791238 0.017946142992841745
9.034275518310158e-05 0.0062758978625540186 0.018278999254107475
0.004513860168760794 0.007384180748469136 0.018278999254107475
-0.00459744382067407 0.0036997996745167117 0.018278999254107475
0.003260654772321947 0.003833974983003543 0.018153638999220616
0.011690962601006669 0.008190028171948858 0.01753460103963015
0.009533740365401094 0.011056152262506584 0.017260832456834886
0.015972628803599297 0.010210868503656692 0.015110919246717865
0.0129982002544512 0.012351811055052408 0.01537756405716131
0.006975063309503407 0.012629756847057824 0.016955634760168495
0.011428599683231191 0.0018964579582234366 0.01669644022008492
0.01425890112584546 0.0055057788470985625 0.01581749882278142
-0.0017812611343304972 0.011277690440163963 0.01827107946063939
-0.009891646340354698 0.012764357525481692 0.014411640446863147
-0.006537641142273457 0.011274928682883385 0.01723486094388594
0.0008687079220288084 0.013145245044783982 0.017832589945836072
-0.00388117947256639 0.013057200659670363 0.016989775813088876
-0.010493959157996396 0.006039233790569981 0.011273869834940331
-0.010995574978601399 0.009134132106672636 0.014549343971711131
-0.010291296938676473 0.005583674490158555 0.014596512907041594
0.012844242184816806 0.004208766101009277 0.010969717368127664
0.017091523071082786 0.009426960026189176 0.010266544026322618
0.018861514709742507 0.011700175770250022 0.012218895212367733
0.0026618533899400738 0.036020909408091877 0.0036677275881752845
-0.002085923868150876 0.03447490180970979 0.004021495712820397
-0.006703787793040468 0.032971197586010706 0.0021390171841269533
-0.010410714048530355 0.03176411986393286 0.00217344249457827
-0.0004305884704418287 0.020717890617380545 0.008940000087022781
0.003649159660738896 0.0216352444314874 0.008940000087022781
0.019906289602210307 0.02550079275124799 0.008940000087022781
0.019719334644988994 0.032108990377550106 0.008940000087022781
0.010229100855662315 0.027230271442791467 0.008940000087022781
0.012229112327275176 0.02213748457682333 0.00894000008702278
0.012215682431571083 0.029418179832704377 0.008940000087022781
0.022965896112084935 0.02299467862734735 0.008940000087022781
0.00937510071662512 0.021087205212136213 0.008940000087022783
0.023123975475303624 0.026403338606011854 0.008940000087022781
0.00936924796383486 0.024360653816049252 0.008940000087022781
0.014141882965961049 0.0274904220362269 0.008940000087022781
0.0030694804241873253 0.02543896298657773 0.008940000087022781
0.006346144183229929 0.026072589997356236 0.008940000087022781
0.0046950411196341685 0.03423339011383373 0.0017979999538511038
0.008388425089053499 0.029567380629324264 0.0017979999538511038
0.015054975572378483 0.032710127363654834 0.0017979999538511038
0.021040928286526723 0.026604182660389324 0.0017979999538511038
0.0258501034721344 0.02746058082508764 0.0017979999538511038
0.017588727933689024 0.03592707770424938 0.0017979999538511038
0.004135572832259567 0.024100415505689185 0.0017979999538511038
0.021293480667463414 0.023715756090787285 0.0017979999538511036
0.00016848821913745564 0.021561711118356773 0.0017979999538511038
0.013008234671481274 0.023074765129790304 0.0017979999538511038
0.009869637201660371 0.023009638615635826 0.0017979999538511038
9.852554327447209e-05 0.02775105256002267 0.0017979999538511038
0.003716926333036891 0.02020047960662972 0.0017979999538511038
0.007393165215290131 0.0251822792143908 0.0017979999538511038
0.013314215370446332 0.020295835382959888 0.003990474534444564
0.004925506475772885 0.017307092268382885 0.005877215452744924
0.016698779458563424 0.021223976563068583 0.0041574925153468785
0.019368558763827554 0.022243775309376268 0.003327710909766777
0.008737869729150274 0.019006823368508757 0.0038784606386184466
0.02302372624782262 0.032588258623774916 0.008940000087022781
0.022467467021753413 0.036489373838458586 0.008940000087022781
0.025493994726292435 0.0304512631491552 0.008940000087022781
-0.0009991388590652353 0.028352729026868313 0.008940000087022781
-0.004088982084942247 0.029989686455900052 0.008940000087022781
0.010918306725409931 0.032505568190536384 0.008940000087022781
-0.009995476201645748 0.024991769045869014 0.008940000087022781
-0.011489000171422958 0.018089641064488644 0.0034909124108549886
-0.011489000171422958 0.019208926347357106 0.006186251330284847
-0.00777114938217909 0.01756210489678261 0.002243128748126571
-0.00441731365271828 0.019240669743212473 0.0017979999538511038
-0.008254634139175933 0.020678255552574527 0.0017979999538511038
-0.007176056016555479 0.02469241005796514 0.0017979999538511038
-0.005165930375561788 0.022194664812584766 0.0017979999538511038
0.016878668648847336 0.03938339317757034 0.0017979999538511038
0.021996775666027493 0.03614063773926325 0.001797999953851104
0.02041979937548095 0.03380215618256216 0.001797999953851104
0.027239569874578776 0.03392105216910353 0.0017979999538511038
0.029165999963879585 0.032768381362162514 0.0068325973827569695
0.02916599996387959 0.037971025186120146 0.006471041044642014
0.02705861417482189 0.03961885358018586 0.0050413202657835325
0.023852143598002615 0.03923997137285512 0.006376691144325712
0.025515970792064694 0.038004866075566746 0.008586746023938378
0.006710306338976156 0.019509679858290198 0.008940000087022781
0.002751542691995037 0.01863707126490357 0.008940000087022781
-0.006575202387962314 0.031691561002394994 0.007359090712048036
0.007268588148360601 0.03521168091555314 0.00785093698879841
0.013029305658452573 0.03608526195418517 0.008511833905259267
0.007735748601493631 0.03688684935275856 0.005429659390022525
0.004170932764639352 0.03543372459706159 0.006242725996670324
0.011028368813641592 0.037357147705615434 0.006422418933709612
-0.0005664413199073536 0.03387174665212436 0.006584997778005008
0.017886404678219364 0.03857966817008321 0.00660344564411282
0.02084289278354754 0.03941520869943475 0.0057759803274367895
0.014868984741537123 0.03920329051880236 0.004657837486655411
0.029165999963879585 0.028666708895689712 0.003095481952035738
0.028571869244179655 0.025621953456240028 0.007554326346450448
0.028204917808155025 0.02482503681422003 0.003998312424871437
0.022285354158390877 0.022626317000833833 0.005299659401774795
0.01910012571952232 0.02132894748781148 0.006694311615536926
0.01070302150272389 0.018682626322003307 0.007030671070694395
0.02515194717164914 0.02376974089057312 0.004148815055268651
0.013500156844095378 0.019298248500371963 0.008305253357166018
-0.00015585695196326446 0.01658100076019764 0.005410197871781368
-0.0008676804784806583 0.017485217518591924 0.0024432598081267844
0.0022237105330682786 0.01735659471476644 0.0034712714353758046
0.0067390753470504515 0.03726535868177441 0.0021706361995777394
-0.00328604587458397 0.0331906517458068 0.006344731745226839
-0.009490576559512666 0.03161568440639503 0.005569511317088309
0.00965991386437576 0.03823429331709251 0.003723993208277716
0.006548407874239239 0.021165676719164212 0.012751382748629117
0.016843539387833367 0.024723353568657964 0.012442748295915722
0.009512439388967068 0.020918145300244842 0.012715752040801144
0.01257257025970009 0.019874104381586866 0.012711965333106416
0.013945205144608439 0.02302929664056466 0.012558617952830746
-0.006029004406826157 0.01658100076019764 0.011797556172411275
0.008664295532989391 0.01658100076019764 0.009658111693440894
-0.005968554418790934 0.02634212929095319 0.008940000087022783
-0.004235044123215583 0.023409885459409016 0.008940000087022781
0.003643843439423875 0.02861610234475978 0.008940000087022781
-0.0028485710111561587 0.025981712398906592 0.008940000087022781
-0.008372898085093946 0.021980578206718393 0.008940000087022781
0.0008557772994005636 0.023636179674203513 0.008940000087022781
0.006136640745263428 0.03058936768061194 0.008940000087022781
0.014298007770256308 0.03165922406222572 0.008940000087022781
0.016232138896604013 0.01773462475370027 0.009170756125961042
0.02340761225533885 0.019564728687286648 0.009038962263197243
0.027446569721116164 0.020114437878239556 0.009024858278741011
0.02649184455940314 0.017442591817737507 0.00934607497949039
0.019380773143314125 0.01977613942386451 0.00895804692398719
0.017194078962777148 0.029607930867298234 0.008940000087022781
0.021598658527647696 0.02916314532825887 0.008940000087022781
0.026555234539306583 0.027743562691896005 0.008940000087022781
0.028844383496245574 0.03001445061811555 0.008940000087022781
0.02702392614890409 0.03307154132581509 0.008940000087022783
0.026313632383929513 0.02374700956213828 0.008940000087022781
0.017136870817275055 0.024904870592096572 0.008940000087022781
0.014367131862926364 0.02453021995118201 0.008940000087022781
-0.0054321605631290305 0.019465338773030263 0.008940000087022781
0.016492469901110092 0.021143464314088218 0.008940000087022781
-0.00849199646397935 0.02161470296268722 0.012784999795258043
0.007525611748110688 0.017491045213986846 0.012784999795258045
-0.001060702279200001 0.020846136923607105 0.012784999795258045
-0.008246261233363325 0.018315823434642144 0.012784999795258047
-0.0031511658821593343 0.018709516517635114 0.012784999795258045
0.007683211764720863 0.03333067656323149 0.009970604262585331
0.018997909075588626 0.036270712184450195 0.009326266838081007
0.0007057887545463921 0.031790758566266605 0.009462312638554814
0.0038099076335287134 0.03279665646382267 0.009280078234310967
-0.0074207111375367675 0.029644230978048452 0.009211276663310836
0.017962399264546777 0.02175281720500684 0.012544381680478426
0.025549934193545863 0.023943690605685443 0.01228145062165504
0.015544840781793391 0.019055309061153308 0.012694971911526647
0.022017354020982056 0.02480317721664487 0.01234105869931846
0.022959314034397393 0.020635385590035384 0.012456778802157245
0.0285803304840001 0.028792514554200704 0.011892948764897352
0.02850193090339754 0.03252772980306183 0.011399654445287004
0.01966339103747807 0.01899093918697716 0.012574709571995467
0.0270235457563427 0.0211155825565567 0.012311590620797059
0.025334462104603165 0.017588357427432335 0.012371973851300757
0.0249099515948359 0.02742145197297908 0.012148060893389365
0.028535680744845436 0.025707505868276158 0.012094074728939032
-0.00038432239458330514 0.026321488931995464 0.012421904648132974
0.021855438741869567 0.03236473292135622 0.01175900978412592
0.015526309048877042 0.031376777901044095 0.011761200253902423
0.007648620991770768 0.028942921468395492 0.01207071812925898
0.025896301785389462 0.03538376871892425 0.010996623760256737
-0.0030705989964938027 0.028465921231757913 0.011362602655730733
-0.008069295152483986 0.026094543200871317 0.012006523969174062
0.001461449835901357 0.02966314417174124 0.011351503585932541
0.009954444726755978 0.031056228800462604 0.011560278847500289
0.004566625724600415 0.03031901804218657 0.011388946080184464
0.015808405685588365 0.034624358317448374 0.010607884399744411
0.01895758304688251 0.03386948463109575 0.011195919767498914
0.01303299652757606 0.03321067363145604 0.010945040409105839
-0.002982758112043917 0.025071443325497957 0.012585565886030851
0.0033125505298048597 0.024879157774072028 0.012605819071724415
-0.005290849543195223 0.022735774800134216 0.012784999795258045
0.0022579372061112607 0.02099579497322162 0.012784999795258045
0.02436023118769297 0.03068104245904431 0.011960136193004064
0.022041170502551152 0.028684579240020696 0.012145292391115227
0.01004942212221239 0.026177766613812724 0.012447964537721658
0.0060060968119858785 0.02507581342242736 0.0125715216923764
0.012841761038810188 0.026396187112588933 0.01240808484745116
0.016436352407444607 0.027883425836302694 0.012255723480549739
0.04748972443679274 0.012967749008066335 0.002720629217789801
0.055429574461729664 0.009789421667791147 0.012236000038683414
0.053038826816854755 0.012845887957114978 0.012236000038683414
0.05828199908137321 0.007092769382184716 0.01211909764448261
0.05613978865808121 0.013283999636769296 0.010224728286208264
0.05291025209894851 0.012357891663560237 0.008940000087022781
0.05574211493222396 0.010448000014929588 0.008940000087022781
0.04874792885842956 0.011831498681826527 0.009002753844665482
0.051184349048530337 0.009195197498167034 0.009423961279038724
0.051347456299966975 0.009155837874607449 0.012062466501811558
0.04606995381045065 0.011067955728499777 0.010541660096867104
0.05527105695205474 0.00631938114723707 0.01112254854867862
0.06432600319385529 0.010399840437325135 -0.002921094678220348
0.06050202831191084 0.006545933816182442 0.0029673552064951826
0.062169293704369764 0.013238513702149695 0.005089793757410819
0.059053980461531104 0.013217027943162374 0.003108208728337194
0.06069960636194875 0.005667051397593145 0.009403557995980057
0.061452389751908774 0.005978624572937746 0.006523754675945808
0.0584224321958766 0.01275520511860026 0.008577993695526392
0.06233164581463921 0.011090637092048555 0.011870787969618525
0.06426453279825861 0.007595857166467968 0.001946096499415682
0.05959626368510822 0.010690443395820601 0.011899600629594916
0.06150147142128451 0.007050365433042044 0.012236000038683414
0.06182609771809025 0.01064867925924214 -0.005344000179320574
0.05828399956226349 0.00983628851781947 0.0038934569777255732
0.05828399956226349 0.007027852820348705 0.009179210878334752
0.060310615329748685 0.007695439297079781 -0.002317340319630549
0.058607097598614884 0.00702435761444868 0.006220715192313197
0.0590142438723352 0.009207236323927365 0.00045188986340529563
0.059263633747454574 0.011390095069787038 -0.003684874459771921
0.06432511095203408 0.010562095655144994 0.0007279794910391968
0.06562158809218892 0.006030492284230239 0.012966354365707164
0.0703702102734537 0.012620070145995439 0.011801536943544414
0.06524647779196982 0.009692043873092786 0.012319114258324581
0.06432899832725525 0.007328154055601318 0.01068221659514346
0.06432899832725525 0.01082416589076945 0.009868728778773766
0.06432899832725525 0.0082177444047431 0.00773519903715858
0.06432899832725525 0.005406771796471876 0.005208296902081684
0.06432899832725525 0.003115596624916485 0.0023210814414570454
0.06432899832725525 0.004369077462760462 0.009212242188346053
0.06950496432930382 0.00925037432448194 -0.005344000179320574
0.07155772457730351 0.004910597263792589 -0.005344000179320574
0.06769135365814906 0.007015644066023067 -0.005344000179320574
0.07289286241270748 0.0017480000387877226 0.0018177081382314676
0.07068888676254867 0.0017480000387877226 0.004662696115356616
0.07034073457108553 0.0017480000387877228 0.00011951994446837266
0.06769199318681288 0.0017480000387877226 -0.003078103464533929
0.0768680939652655 0.00760373587148655 -0.005344000179320574
0.07841717569865836 0.005158825654679249 -0.005344000179320574
0.07534347753582578 0.0017480000387877228 0.011032963294339775
0.06976758862484339 0.0017480000387877224 0.007419187869200341
0.08057945431486224 0.0017480000387877226 0.003423456981779513
0.07162374324752499 0.0017480000387877226 0.011761333298716467
0.06432899832725525 0.007795169161648748 -0.004210343315909342
0.06432899832725525 0.011893012613094325 0.006699186086704575
0.06432899832725525 0.00887186962005221 0.004749512488786117
0.06432899832725525 0.006967751993530589 -0.0011793347123334474
0.06662189040425817 0.009808321859706978 -0.005344000179320574
0.07148813443413829 0.013284999877214432 0.0069823893516193876
0.07680244101571881 0.01107179238406347 0.00868061653091288
0.074742408036283 0.012457860602088162 0.007233386353730185
0.07526635224729594 0.00489685159849941 0.013012915390300864
0.06818994815104121 0.003570896870928401 0.013241005817260523
0.06521506208950838 0.00254617563674611 0.012983543065509173
0.06479662118229568 0.013284999877214432 0.0036063406001203566
0.06846924648705602 0.013284999877214432 0.004691234064412426
0.08147068587161413 0.004878268669899493 -0.00473544609167984
0.06789651624655993 0.012533296736866619 -0.002565942625107482
0.07037911585227961 0.012295999309453846 -0.004464106573948891
0.07227990621609987 0.013182074126977007 0.0034612956414021437
0.06987324625872976 0.012969104571346361 0.001274743682653331
0.08125989136242938 0.0028412306324592856 0.01261361670435954
0.07952835452653319 0.00922380034359778 0.007311138005291562
0.08035837872697715 0.007946482350976518 -0.0007420234339224458
0.08074236155680575 0.008107205024807775 0.004856105745198125
0.0743393320503119 0.012478146772679428 0.0008361328890756719
0.07665889554477984 0.010706031939660342 -0.0045456884165184785
0.0760468976099441 0.011340102869420454 -0.001263329902726417
0.07783488880936795 0.010171454068502662 0.0010115705967678195
0.0767683169194555 0.011105416929592103 0.005058265709458302
0.08199541235348481 0.0027270217430728667 -0.002700255144806146
0.08227761912307824 0.004440270355595679 0.005104611416371927
0.08213004703492546 0.0031610561415581985 0.001077713513875948
0.08242670775276581 0.003967654746093047 0.010388425724422437
0.08143181186707624 0.007297248504010111 0.011350281149963094
0.08184053708791632 0.0055702588419251796 -0.0005389682642921814
0.08182112005764358 0.006591185599139087 0.008451071548803975
0.08196494732985582 0.005660582135599126 0.0023825930222451407
0.07726241472837188 0.01001357055430277 0.012071689982735313
0.07328598924506974 0.013032080914045372 0.01126824299181246
0.06858315668609827 0.006602131972550461 0.01284713949331219
0.07422499919821549 0.008241776723843597 0.012475843246778867
0.07807566442910367 0.0064907309643983824 0.012700367145528718
0.07215556595984088 0.005449348501869435 0.012976885685375956
0.07190727507386487 0.00996697805044416 0.012228925062125657
0.03378528593360061 0.03804671144808433 0.0067501505565235615
0.029165999963879585 0.033979353014492286 -0.0028287974320718983
0.029165999963879585 0.030469746370016065 -0.005481294093810835
0.029165999963879585 0.03645176360408972 -0.001234948611495664
0.029165999963879585 0.03330614959292673 -0.00616154436337028
0.029165999963879582 0.031892594053117035 -0.0007290380695534999
0.029165999963879585 0.03652328427630456 0.00252301550741447
0.03485798801039652 0.030975934159102398 -0.008090999908745289
0.03779727029645415 0.03121566243368272 -0.008090999908745289
0.034224348646276576 0.03429416016513031 -0.008090999908745289
0.039742935996536985 0.026159205884915545 -0.008090999908745289
0.03333060106297915 0.026952768340920294 -0.008090999908745289
0.031343107463403054 0.029508269303894448 -0.008090999908745289
0.0477566550068553 0.027553027346627547 -0.008090999908745289
0.029165999963879585 0.025656349177003247 -0.006075724980091801
0.029165999963879585 0.02822214467449018 0.00014113643844834278
0.029165999963879585 0.032202229018026156 0.004099897598059347
0.029165999963879585 0.028539092818014276 0.005859679789891104
0.038817936096473736 0.03173582678776729 0.008390000090003014
0.04214773593173154 0.027052788080029373 0.008390000090003014
0.04484741067309296 0.024468063622339477 0.008390000090003014
0.04230621877740872 0.031191316022085108 0.008390000090003014
0.055424282666555906 0.023723000660538673 0.004076697754983218
0.05176766623848926 0.023723000660538673 -0.0018918769009766958
0.05560307924088331 0.023723000660538677 -0.007265751312496337
0.05492221782586288 0.023723000660538673 0.007339228492268505
0.0410699320876396 0.03299002861570964 -0.008090999908745289
0.04441796722863219 0.03045849675652502 -0.008090999908745289
0.04758376835471102 0.023723000660538673 0.002590835555714772
0.05344757882280225 0.023723000660538673 -0.0051823177541183325
0.05048497518802634 0.023723000660538673 -0.0046361908183472035
0.04258658572769394 0.03500878494012744 0.005385969944999271
0.04123099093450669 0.03627087771581591 0.001204852447030953
0.04588152327580232 0.03352899446898163 0.003353568553739339
0.035533312533053085 0.03818995277396442 0.0040332508124168494
0.032851966992826234 0.03928440736328829 0.002256562999575499
0.04008074785047988 0.03646846610567994 0.004126019048694746
0.043741054147654466 0.03485172763842838 0.0006794679435763385
0.045307766211888784 0.03342834603669455 0.006069465010301721
0.04973852789489096 0.03060176175171588 0.005061413361304724
0.05042751520847251 0.029344092376236586 0.00833373186085811
0.03178866699290706 0.03863885062072979 -0.006484915958706092
0.03583786972347543 0.027338048832955205 0.008390000090003014
0.03149684172360517 0.030607668743389615 0.008390000090003014
0.035373211708503986 0.030422561105390603 0.008390000090003014
0.03942585850068577 0.024961112186391965 0.008272589315473602
0.03593750627077175 0.03831183430734263 -0.003363360345960402
0.03586296801549178 0.038336414059257244 -1.016071092676922e-05
0.034944023008814655 0.03787356123512656 -0.0067198528644746
0.03135705987695299 0.039555435421743605 -0.0009834295330675537
0.03690176219330003 0.024009606450952112 -0.004025223477387268
0.03401394126309754 0.024343927282679815 -0.006405006144699602
0.039535685303570565 0.023723000660538673 -0.0021888274069153603
0.0416453591081301 0.023723000660538673 -0.00038696270786928676
0.04147318015191804 0.023723000660538673 -0.005855812606465661
0.03883247895527458 0.024059551814024242 0.004172979622709017
0.03579741673399133 0.024093575938583772 -0.0010048076991826555
0.042317052091886805 0.02378523237708105 0.006237856739013878
0.02929205313618577 0.024809972329711417 -0.003120164696101941
0.03234526548295935 0.024470177717372296 -0.003248603884040341
0.05133287086919648 0.029551601478728384 -0.0015063588960852422
0.056153652211345814 0.026050045180811936 0.00073507649211205
0.05355052777661601 0.02796792893400952 0.00017028943679359815
0.04569368061595305 0.03371617108361972 -0.002495896053208831
0.05064910144503331 0.030161631132304904 0.0020288491102746975
0.04803948996847359 0.032062311215754535 0.0010557458709930662
0.05757013079279381 0.024635440835502065 0.006170423954375878
0.05211933042924059 0.02881330016785107 0.005457200333637211
0.05485184389804499 0.026779115396754247 0.005487966482519417
0.031701679730634244 0.02577188609785544 0.0052709451437328685
0.034635023870579 0.0253016421716878 0.0060582741129656115
0.034405100837748344 0.02453054227121633 0.002471709809106114
0.030381257005856126 0.02515463627628712 0.0014152512587625307
0.05459839519866712 0.026613126958872357 -0.005791688356137968
0.05259881627569039 0.028397378772861723 -0.004003849540516753
0.0565389147342245 0.02550919917909542 -0.003966649762573124
0.04864983599176085 0.03145735760514785 -0.0031035669893841196
0.05167123051164246 0.028190127938773495 -0.008090999908745289
0.048626918408157305 0.030733754058277354 -0.007250141880104515
0.04529670937618492 0.03332457155251002 -0.005990949164726631
0.0419223617391095 0.03516111267690132 -0.00642828286111452
0.042219915989418766 0.03569865919899447 -0.0021169921820490692
0.03870230235785889 0.037047847738000864 -0.005077826794438513
0.035492425106023504 0.036983776359672066 0.008390000090003014
0.038509120091409665 0.036878690819234825 0.0067913203852397
-0.006073305822461059 -0.02248581228839496 -0.012471256362192495
-0.008654600067197147 -0.023628313872909187 -0.012184849912234074
-0.011489000171422958 -0.016709595615689635 -0.009799709854507701
-0.011489000171422958 -0.02216086725758612 -0.006352831204628999
-0.011489000171422958 -0.01839099888134115 -0.006895896982974704
-0.004348000045865774 -0.022847774754027415 -0.007226471161091322
-0.006423227323564644 -0.028931984265117464 -0.004246000200510025
-0.010885707682005396 -0.0202053987068564 -0.004246000200510025
-0.009272763597390052 -0.02755854498907829 -0.004246000200510025
-0.0061207227481728365 -0.01418600045144558 -0.008503598914111657
-0.004348000045865774 -0.025406542113016267 -0.010376545513328133
-0.011489000171422958 -0.026597594520517714 -0.008580459531107615
-0.004348000045865774 -0.016155365393333836 -0.005856456552063599
-0.010754512106445208 -0.015559446610456813 -0.004246000200510024
-0.00734980063681914 -0.026980644542694228 -0.01057580373087157
-0.007228034798909738 -0.01638718298113815 -0.004477764076267922
-0.0095981257104013 -0.02890270662917561 -0.00915839278462814
-0.00836273104127152 -0.030226960269687915 -0.006836222004561542
-0.0058858800842898655 -0.02927776083762685 -0.008352739517407653
-0.008869389455545527 -0.01676858637093946 -0.012687762092727784
-0.00543193057287907 -0.017256994588031805 -0.012831043072141514
-0.008931311178171074 -0.020175950682514664 -0.01263623347249546
0.0012596483407073538 -0.012676469173023532 -0.01752780736480445
-0.0027212010193484347 0.0017460000235587358 -0.01182856240020742
-0.0054355847549092465 0.0017460000235587358 -0.010945241987879542
-0.008018871791752584 0.0017460000235587356 -0.015197926346188877
0.010856193891632226 5.121078344468748e-05 -0.01702874839626929
0.011537983778479036 8.120088305196306e-05 -0.014473354838371755
0.004629741783832338 0.0017460000235587358 -0.015796169815675762
0.0013502995163715227 0.0017460000235587358 -0.015234174053963195
0.006328133448787539 0.001746000023558736 -0.012913255337043674
0.00902772629902748 -0.004755392678501001 -0.00877616333538376
0.012673080616948927 -0.011666350670112307 -0.009118441702565613
0.006048834632816429 -0.012416648564158464 -0.00890243189615938
0.009835641231257408 -0.010073904938920136 -0.008967536182777212
0.0021153409433997674 -0.009869692793174435 -0.008682881826673663
-0.0010550057715044707 -0.01311030499635442 -0.008667398193144748
0.00704715095938252 -0.009667886721352239 -0.008854586814288384
0.0030571742379610235 -0.014185000211000443 -0.010586041978600833
-0.0013027973203072044 -0.003057779900409485 -0.008640999905765057
-0.004947905026545267 -0.008714385746161343 -0.008640999905765057
0.006050410233129814 -0.001069280401444357 -0.008640999905765057
0.0008620599973990348 -0.00041000086598001653 -0.008640999905765058
0.0033851282532499963 -0.0055199758494482954 -0.008640999905765057
-0.004407884201853228 -0.005439675787208443 -0.008640999905765057
-0.004360693446036969 -0.0017710364198888497 -0.008640999905765057
-0.0008126381317811225 -0.006050269464907011 -0.008640999905765057
0.008907303211184712 -0.014185000211000444 -0.01186574839670872
-0.007439913804230752 -0.014185000211000443 -0.01139691464032376
0.004112426889374 -0.005124989494219337 -0.0182678696097399
0.006925370871656255 -0.008021253503716151 -0.01807882164316712
0.010259502629286509 -0.00829872157603527 -0.017525233733387064
0.012654326740188529 -0.01006064773106247 -0.015476802962131624
0.012538983693544533 -0.004866519752151757 -0.017807855659073175
0.006900528627213285 -0.0028689092483565877 -0.018207832200034125
0.0028199892535217645 -0.001597652538189826 -0.018367338687571996
-0.0010767032362733312 -0.0022117453051936705 -0.018528908960107
-0.009222638427680051 -0.007602917693107606 -0.01792820694133381
-0.006134265946984987 -0.0010210899556434732 -0.017824848274845206
0.010061025162956455 -0.0030418288734894027 -0.018061071351382574
0.006828128732192995 0.0007861323521875008 -0.017855307946579704
-0.0014276827782992482 0.0017460000235587358 -0.01847601823174958
-0.010550184192223073 -0.004750501389190779 -0.01054935649098547
-0.011313839979855921 -0.012136175606961548 -0.009628743488744925
-0.010439795379483217 -0.004583674032435506 -0.013684301527477075
-0.009927162415383318 -0.001373729533016235 -0.010048448472822753
-0.009478069288671523 -0.0003448567134228856 -0.013149073918872585
-0.011426916654996821 -0.00842592034931608 -0.012441191459582475
-0.009112301636807296 -0.003266349137051326 -0.017190683051014503
-0.009030282174215714 -0.00041029721239664574 -0.01667598555455064
-0.010861448346281291 -0.011194138851853642 -0.013781308824089181
0.014334020979995046 -0.005898406814796396 -0.012482196310266232
0.012895831987063977 -0.0025403363734507666 -0.013218266776448445
0.014675906022475291 -0.010884978904742916 -0.012811123682530484
0.013694730241769402 -0.006936915177685657 -0.015298908673498963
0.011102044989826747 -0.014185000211000443 -0.009896105853671726
0.007513883586081903 -0.01373514803996012 -0.014851890111205778
0.0036837538074575493 -0.013288412799529059 -0.016656045075819397
0.002280807577047307 -0.014185000211000443 -0.013499076920593264
0.011870798403888678 -0.0012650416076637823 -0.009180304847035362
0.013115671271668244 -0.003615126691254672 -0.010301118627763926
0.01375641100541258 -0.006781310614070513 -0.00969525436762016
-0.006954523858240863 -0.011018139019944147 -0.01685887045519014
-0.01093321592412654 -0.01382909893044357 -0.01251363204663003
-0.0021766444990645836 -0.012513220952806948 -0.01724095134447626
-0.006999469008483963 -0.013302020135328656 -0.01475019461726057
-0.003878833478528127 -0.011825781427655783 -0.008640999905765057
-0.007567901874673108 -0.006113721868015577 -0.008640999905765057
-0.005046109487062522 -0.008280619269210891 -0.018056425289117703
1.1936508313465473e-05 -0.005510303128800471 -0.018352281211630544
0.0012875693376255479 -0.008812974578824892 -0.018148105876225434
-0.003473890433852032 -0.005158507639540531 -0.01830592082965763
-0.002443336113998747 -0.008908872965736968 -0.018065570066514776
0.012285220167449026 -0.01358951653073168 -0.01384459101469088
0.00753994142614288 -0.011624462889111991 -0.01702486801443661
-0.00034476541254634943 0.0017460000235587356 -0.00609690503250497
-0.00019785130764757015 -0.011191966523261872 -0.006457465079577855
0.0019277861658553957 -0.009160263062368487 -0.005118066909119671
-0.0010160719068527876 -0.008887303638941952 -0.008640999905765057
-0.008957480909091972 -0.006629738921418929 -0.005433648136433936
-0.005129089788642413 -0.009829739287592707 -0.004794999957084656
-0.007546844644432006 -0.0038924904134138 -0.004794999957084656
-0.00929453421507011 -0.011200622374681403 -0.004794999957084656
0.004004999817077229 0.0017460000235587358 -0.008211019395653003
0.006282557557549354 -0.003942634879148658 -0.00784579742632213
0.003148775524603631 -0.002737780546612642 -0.008640999905765057
-0.0011852161626369525 -0.005410551718789624 -0.004794999957084656
-0.002312048511895613 -0.0009414246709220107 -0.004794999957084655
-0.005785225481746998 -0.0004114210273296945 -0.004794999957084656
0.003969393495992947 -0.007205113204604929 -0.005997898579977861
-0.007340434005201785 -0.001966951545621595 -0.008640999905765057
-0.009168813473987155 -0.008678003453490285 -0.008001126866790864
-0.008600129738051887 -0.012006503568481064 -0.008640999905765057
0.001838676359959134 -0.0004902694517996808 -0.004794999957084656
-0.006595600070428062 -0.012986585941069688 -0.004859207900113342
-0.0489883037253216 0.04555065683985774 -0.006599396704940221
-0.04781052008145295 0.042763638269941256 -0.008640999905765057
-0.052815868967207774 0.03884383826978175 -0.006973194181111946
-0.05194630487284464 0.03667470256871508 -0.005701142474309852
-0.05281105979341119 0.04193071297099805 -0.005822164236745848
-0.04800773188612969 0.037639113094284006 -0.005882594581496097
-0.050741643059537385 0.03949890431503604 -0.004610235842502707
-0.04147845441180676 0.04377692141188886 -0.0036959999706596136
-0.04482604225995034 0.04237344226642536 -0.0036959999706596136
-0.030977300404291055 0.040253550524071084 -0.004028152611828769
-0.036895834192434564 0.03941351245791317 -0.008640999905765057
-0.046375168752719874 0.04526616819565624 -0.0036959999706596136
-0.04664599895477295 0.04317133274720783 -0.005901545789032597
-0.04580946031165059 0.03976978998798976 -0.00862000098970993
-0.04338423147148301 0.0384899193229562 -0.008544591200208835
-0.031275351362114026 0.0336895998729037 -0.006944246698377973
-0.033009108260090625 0.034986663701087384 -0.005265782004203317
-0.042354476164851065 0.040195981125966854 -0.004506673818890316
-0.03684434674445742 0.03629946176821452 -0.005441738489976597
-0.040612571097025645 0.037491775846626565 -0.006836910731399894
-0.03547227453303695 0.04202637701145035 -0.006302663057817666
-0.03870864216922874 0.04387776455989615 -0.006110652524676338
-0.03864558107933486 0.04225641050442553 -0.00838540628297977
-0.04139962332260195 0.04423476676348137 -0.007925724575784906
0.04859428266870727 0.0237210001796484 0.00830026163177855
0.05464558162369046 0.0237210001796484 -0.00023928698443352343
0.052802808966172225 0.0237210001796484 0.002136847236912414
0.051611213026923806 0.0237210001796484 0.00542641765146674
0.047114884690956524 0.0237210001796484 0.005801015624831507
0.04735668163288661 0.0237210001796484 -0.005276057814383935
0.048355095894876306 0.0237210001796484 -0.0019726742573298473
0.04588046109898837 0.0237210001796484 5.571671703988659e-05
0.044276431946635636 0.0237210001796484 -0.002860628368018499
0.04589743159937011 0.02116854670099107 0.008390000090003014
0.051222731130037794 0.02093505109232898 0.008390000090003014
0.05553700029850006 0.020901377064758375 -0.0005693820030084301
0.05553700029850006 0.021437519168584777 -0.004208121906438728
0.05553700029850006 0.018136125523078896 0.0031364780184164756
0.05553700029850006 0.01726737013983832 -0.005926166833953931
0.05553700029850006 0.01779974132874286 -0.0005928782118811377
0.047086033589736495 0.013284999877214432 -0.0001889742756860794
0.041811090302851656 0.019733996603615703 -0.0026481063975192405
0.04317655663431143 0.017008476209506775 -0.002666421666123093
0.04590245178944424 0.01358797323542886 0.005905115765333325
0.046168819064790236 0.013365877957752691 -0.004113568181664872
0.05124466553040273 0.015200443001422415 -0.007121628265953237
0.05222443220036678 0.017398731545918204 0.008254663244345657
0.05553700029850006 0.020313740723471488 0.0058782725470445645
0.043272621491590495 0.020539588616153175 -0.0069849330418854305
0.046030330497485006 0.01706470811782889 -0.0072388174347273165
0.043712072949877494 0.02312495668435195 -0.008090999908745289
0.05096279367160094 0.013672620211126916 0.003597306299074712
0.05144781401955076 0.01365614339158197 0.00019128070334917106
0.04873141659710843 0.013381285937396518 -0.005836272797760821
0.055330232956042565 0.01486600771498741 0.0005606554224094172
0.052848306142421385 0.014037862065216863 -0.002577771157388502
0.04460541605252455 0.014335730298471617 0.0028773900280830217
0.04343575321196072 0.016562225639734068 0.0013265978635494163
0.04185572077374011 0.022125788993977442 0.001961779830168694
0.04325406458081962 0.020659496376204897 0.0047191207020872575
0.04471552966672512 0.017105198257231814 0.0064450573755236475
0.0513699220567088 0.014407972941448466 0.006931922949960294
0.05384185893580444 0.015014163359520615 0.004016793121719255
0.05517925855178149 0.017452955540018085 0.006321790203843865
0.05646722052478459 0.015155909924583308 0.003559885301540597
0.059117771241756926 0.01887865464906938 -0.008090999908745289
0.060214365983215376 0.016147209990537703 -0.008090999908745289
0.06646804232656066 0.013284999877214432 -0.0053001407692456854
0.06396796009239879 0.013284999877214432 -0.0008689518258879719
0.06155192885715731 0.013284999877214432 -0.003411507797956401
0.061343928693902 0.013284999877214432 0.001237307125865937
0.05794338496954429 0.023721000179648396 0.0017236084182997455
0.06638372425229569 0.013284999877214432 0.0009753709689594044
0.0616108596449087 0.014666033223185465 0.008390000090003014
0.06371761839908734 0.01739754617495569 0.008390000090003014
0.056947018642545 0.021624345732945773 0.008390000090003014
0.05557379073699201 0.01551600488998037 -0.002588499944436755
0.058000203822777395 0.013351559569928336 -0.0005990743501713848
0.05683821250202595 0.015876777017241744 -0.008090999908745289
0.05827259591955601 0.01410156673378217 -0.006514982570884494
0.061104026892310766 0.013284999877214432 -0.00748176981438603
0.06359233849153666 0.013284999877214432 -0.006125387517268884
0.07206829235030104 0.013840501951621433 -0.002827596754259886
0.071989389810152 0.013787136241685656 -0.0072710158245375195
0.06166051274564994 0.02183915687683267 0.005988861787994725
0.06657441365892663 0.0183642662462409 0.00679060540829849
0.06271931564947836 0.02130932189064445 0.0025399734703736286
0.06959963243025456 0.016296650529807825 0.006105600419735332
0.06611055532895178 0.018845894637595374 0.003468722183009748
0.06470021849848279 0.019834862420751206 -0.0012998318480293815
0.0705019855105368 0.01532369421173184 -0.0007826452443893354
0.06697581036069 0.017975949238957768 -0.0030783041300517524
0.07023713242938168 0.01567474984800273 0.002405446944634047
0.06988973948162115 0.015626833896833482 -0.004664042185167989
0.06300035730414685 0.020739733441000795 -0.004885436726045747
0.06692164257119518 0.01762773701226125 -0.0069550662901102
0.057880929233919104 0.0237210001796484 -0.00184839816963642
0.06181771770992891 0.021913990669949084 -0.001358899044046672
0.06006383421960246 0.022827945097288554 -0.004989851603957082
0.06052991908673726 0.021587340319067665 -0.008090999908745289
0.05811455368044323 0.014894519520797952 0.006841517285047382
0.007739999797195195 -0.032028639219838985 -0.0075180393202362835
0.007739999797195195 -0.02326783786705267 -0.009641741925242923
-0.004346999805420637 -0.01970590194693654 -0.00791675583526539
-0.004346999805420637 -0.025591633218182367 -0.006568699973353463
0.0010051038476418827 -0.025428975503799564 -0.004246000200510025
0.003773530084324242 -0.02821959958084108 -0.004246000200510025
-0.004346999805420637 -0.019710964427497472 -0.011489918448564704
-0.0005615671640083853 -0.01418699976056814 -0.01200254520575522
-0.003684764794469028 -0.014186999760568142 -0.010272746427206474
-0.004346999805420637 -0.01668151752701705 -0.009124194672154792
0.00694624663717654 -0.026466353343056484 -0.004246000200510025
0.0020297408200472696 -0.01537098006392161 -0.005033473372554315
0.005725038758103077 -0.01418699976056814 -0.011619582519617215
0.006074689100873453 -0.016230809843224163 -0.006291224917610017
0.007229187144827327 -0.01978494757314808 -0.0059200094061204
-0.0029785150211392225 -0.027229405656738634 -0.004246000200510025
-0.0022620859746383046 -0.024151905271920453 -0.004246000200510025
0.0067607036694504845 -0.02073647858065566 -0.01287818643408548
0.004877348143933178 -0.015921992186541247 -0.013970189204461183
0.006411643145290477 -0.024748392679842607 -0.01257627062658742
0.004361165277022935 -0.01884498286428428 -0.013760929303675172
0.00012764169171238166 -0.01581443058664385 -0.014430738265271716
-0.0022508698893045007 -0.02240850052825526 -0.012666342230971427
0.0031108172039619898 -0.022508553180080045 -0.013022749231231485
-0.0006887883585138528 -0.024787073261822633 -0.012154592172342969
-0.0011096804728602922 -0.019638554518772354 -0.013473549962087114
0.003488873305601964 -0.02622694992103764 -0.012075449226903113
-0.004262180393769883 -0.014380456553378024 -0.013600173696921727
-0.0029388264346525347 -0.01706565922903448 -0.01388953478534409
2.020930821701331e-05 -0.0311487479076314 -0.008381175590121377
0.0018123055426786934 -0.029097891305812598 -0.010656760539445614
