-0.016662114732018084 0.029461344438224353 0.004183588908618505
-0.008137380826971302 0.02298477980102323 0.002635128468396709
-0.006834959763740069 0.02204619797092068 0.002026370577855232
-0.015437186211346286 0.02903212285181176 0.002942780634661198
-0.012651936817500598 0.026805459138004056 0.0025069590761403683
-0.01130281861847214 0.025601415659936566 0.0027909976977311506
-0.00945737825166059 0.024042869256799056 0.002830550861937491
-0.025846512874183977 0.03300900012254715 0.0026233980260277822
-0.023143340581611355 0.03300900012254715 -0.0007386625009620219
-0.011303248934869364 0.026000158927563525 -0.00015480794582429765
-0.010263761224740008 0.02500575328553853 0.0011203819699578746
-0.018770743717467002 0.03190798733887984 0.0025756529546247914
-0.010030225239701186 0.024899813968637288 -0.0008050251264155122
-0.008018018035718897 0.02317418445625837 0.0007172658597785498
-0.006615229935861324 0.021878585565344152 4.023100075463102e-05
-0.02087973292451883 0.02532321955803106 0.0030543600541811555
-0.019630020486523358 0.024156098850841197 0.003262354476673407
-0.015989912137895055 0.020594931436716202 0.0034360247656156032
-0.018091880850839463 0.0227269666461858 0.0035380161290581944
-0.0222896825921655 0.02664823165486256 0.0025674912965722527
-0.02534513801647798 0.029755366435215702 0.0025739789897350394
-0.02320357538000525 0.030717470961039897 -0.0023305233342872395
-0.02131707705946069 0.028038208771268027 -0.0015788639361686103
-0.016604325350627065 0.021492488352449216 0.00018831584938134557
-0.01575020205153571 0.02356648599805025 -0.001936029775852996
-0.018125975584351178 0.023634645995198697 -0.00040377432294139127
-0.020553712521676103 0.02677675393464629 -0.001141765362081081
-0.014958435917493807 0.02187785235635442 -0.0011975566747919268
-0.01892345713992687 0.025099646948782285 -0.0009707561991224462
-0.013639107359790948 0.020758388588997513 -0.0011375743882412446
-0.015252390118433061 0.02030955546743296 0.00019145752269739323
-0.026074537511354072 0.0309201635627448 0.0013891928501668896
-0.024868867305291302 0.03123608654561572 -0.0009482382114661106
-0.007367886175596682 0.020240107118273676 -0.0023640000727027655
-0.005359245019416228 0.020333393435359802 -0.0016752010312034334
-0.024255681601538747 0.02891274012266457 0.0036590669550366135
-0.025329118544314896 0.0302188416203397 0.004240547235454617
-0.015347721715471463 0.020529598696313763 0.004970704583969755
-0.023213881609032913 0.02877009161411853 0.005005999933928251
-0.015413686121463854 0.02801141227361205 0.004884318550729661
-0.0124410143958382 0.02565412510117928 0.004704145064695287
-0.006755071751015425 0.02115347438821348 0.004315955208609014
-0.009246380265718307 0.023175330146642074 0.004411329816026764
-0.013659765769047276 0.026848036324760585 0.00444405642924144
-0.022135349568411816 0.02703163587003661 0.00041206107533982815
-0.024513750034967148 0.029614645229120024 0.0003794541804637096
-0.023352801437276374 0.027606172673684717 0.0012667628094147738
-0.020613897743118212 0.025407641341278944 0.00039988360516365017
-0.018966551579093275 0.02325135290074473 0.000850471365599995
-0.023091975884653913 0.028434244795800256 -2.493309180032254e-05
-0.016160860337201835 0.02052670464656503 0.0014081520650752511
-0.019975462721771937 0.02420977470548386 0.0017807749554465105
-0.017422686733633983 0.02165638617914351 0.002079838391884933
-0.01881057694782138 0.03202526251061768 0.0002650283627554858
-0.019351027434355444 0.03243067085011195 -0.0011136397074304983
-0.016580147723503788 0.030352149745026518 -0.0007818810345879165
-0.011569880166787418 0.026036422562170362 -0.001747275813106006
-0.01569699685723918 0.029467616964414037 -0.0017790056172325
-0.01314095660700572 0.027236863584112026 -0.002183076176843138
-0.018093707402405693 0.03137966312294257 -0.0021201865026183697
-0.016430729694778247 0.030109408054747364 0.001053893841356187
-0.017907403311555978 0.031291666075821206 0.0013992046544889988
-0.015326078063624446 0.029236189571142424 0.0006258923903533273
-0.0139257402291033 0.028110291815248253 0.00037054797971985075
-0.022411400486213845 0.021211620709390897 0.0064179258528387
-0.026573289529534378 0.025298773000106016 0.0059449908035914285
-0.024593849239395796 0.023419852183693912 0.007858363666334604
-0.022729721067745606 0.023271258291731482 0.005310625749410842
-0.021008333483778445 0.02254764578326309 0.005240514528495209
-0.022918262233568208 0.02536957685025508 0.0051697327331722805
-0.025759209415594092 0.027009524280455895 0.005252645549755767
-0.029683197595734713 0.030071170859572796 0.005308555864574027
-0.019478944144768376 0.021506636365572075 0.005207517857939094
-0.01799177463537318 0.021275689162593165 0.005117938516819456
-0.014605447168316271 0.02019299939274788 0.006328708051467125
-0.012689300583486343 0.02019299939274788 0.006344970959601781
-0.03218786239620476 0.030395233329701662 0.007582620773519303
-0.02783595207304454 0.02621769798548404 0.007284197917076869
-0.02272663022656128 0.022188956572061488 0.007992930618558818
-0.025866389347507485 0.025137002356828468 0.008003902611883561
-0.02485569534849361 0.02478934122497102 0.0054124388036667515
-0.028603463200655373 0.02856247241893744 0.0053805003776895175
-0.02759828628404385 0.02690946700042174 0.0056295868577565305
-0.032906543137849874 0.03139010543653919 0.006102024181087042
-0.03169137975445909 0.03036323263263102 0.00599443865189533
-0.024203311504809366 0.023311055502810773 0.005681806127552133
-0.010953367601261508 0.023512985277350358 0.005005999933928251
-0.011961011040421873 0.022189059196369716 0.005005999933928251
-0.011698044529059657 0.020681361125634675 0.005005999933928251
-0.019437121145201693 0.02905115297793381 0.005005999933928251
-0.01670847361925273 0.023337889331197386 0.005005999933928252
-0.008474889610711276 0.020665576220669883 0.00603403726141566
-0.02270099269829658 0.032971286978561866 0.00576565892472562
-0.021504180351450044 0.03141763788317289 0.006208110905494332
-0.013682290871357767 0.02539398121756819 0.005936049778277622
-0.01792710054789272 0.029542907042196965 0.005384846343714572
-0.018257740211554893 0.025533109068240252 0.005005999933928252
-0.022516556059490225 0.031455385818794486 0.005005999933928251
-0.02355598675992714 0.02693595433599298 0.005110546170951213
-0.01866060233794015 0.022761456584693467 0.005058670287105682
-0.02472892314445317 0.028316406068608982 0.005099710762284804
-0.02045177068765144 0.023942359281337464 0.005098851687787349
-0.02983138719909819 0.03252721633624048 0.005162363608517011
-0.027655731165839803 0.030603582834305663 0.005143491067195909
-0.02694727472802593 0.028629054338197703 0.005219831091811717
-0.020637295897498964 0.025445361395947524 0.005018536617114969
-0.03151164805874479 0.03229750931979477 0.005281890953421826
-0.010364536089612238 0.02019299939274788 0.006111735651144086
-0.019554043019433053 0.021226644222954002 0.007975293607520603
-0.021254245954121585 0.02146721126139621 0.007995377347020376
-0.029818062150825123 0.031052724695202337 0.008209999650716782
-0.02650636160425878 0.026860486570406968 0.008209999650716782
-0.03129786771934924 0.03153987293343889 0.008209999650716782
-0.03253290909994724 0.032605546274438936 0.008209999650716782
-0.028397412462720383 0.02786027885053926 0.008085971597109996
-0.029474541593216892 0.02917877746786831 0.008149333993638855
-0.030688345046640187 0.03300900012254715 0.006767360890846251
-0.033843346939973415 0.032854833654895214 0.007273098883032729
-0.0275212199597029 0.03300900012254715 0.0076979343374753316
-0.025300686261880638 0.032988040807543285 0.007167468149674397
-0.022290747903345808 0.03012872116540187 0.007333630912651122
-0.010562753094662944 0.02185302920979606 0.006428697639254176
-0.023450784526929856 0.03217300455954016 0.006844360714367888
-0.01873963560703301 0.02855528837120476 0.00662944968365734
-0.01685912077153659 0.027417482823485537 0.0063641692268004086
-0.020401617032043233 0.029956677501894586 0.006631917069646313
-0.01577425414422167 0.02552377931683399 0.006936321138298314
-0.014703131165365676 0.023070994260965486 0.007553210815589823
-0.018566059686250826 0.026564191765624703 0.007501717355498294
-0.016354188309973688 0.02423484712638268 0.007633697106845363
-0.01748753277429977 0.025394675583373563 0.007576567464493272
-0.020915677670128165 0.028606471598829498 0.007496068847221076
-0.019275639276483278 0.023455064766083562 0.008024942492219763
-0.026434288066125633 0.028696568949481076 0.008184799935134728
-0.019386548596288515 0.02499779343066523 0.007978625286421256
-0.023627579357023483 0.02703016622511422 0.008109149018240898
-0.02263165284797457 0.02549670293057175 0.00811375987042987
-0.021028077198609135 0.02503691722656668 0.00805410225061724
-0.01414222312368595 0.020301685325978428 0.007802730807544129
-0.01818229233767022 0.02208035827278071 0.008001369774806769
-0.02129965834376163 0.02329639861720171 0.008119150584815599
-0.01652843292968087 0.021729299782790312 0.00793530336005489
-0.02860288089404786 0.03195840912479225 0.008176051636452117
-0.026459580266756644 0.031202979157323688 0.00801345750049636
-0.024039603855875065 0.02871093787725682 0.008060205119484314
-0.025375008901703168 0.02988717291640698 0.008062363894958279
-0.02248203079433275 0.02830593276855322 0.007921812834538538
-0.020229690869475576 0.026549864255973967 0.007884720834233664
-0.013536612900797537 0.021733557124973418 0.007640019320692429
-0.03063402716189334 0.028935892004842267 0.006608739323524512
-0.025413164710119847 0.02397269051737453 0.006732000654426342
-0.020944519502288934 0.020517129396549705 0.005777337486369306
-0.0276247727641679 0.038630731016140195 0.0003687203042045204
-0.020907271865375054 0.03378034039744644 0.0022262596864847956
-0.023681638367652427 0.033520665083065344 -0.0023640000727027655
-0.025479962908991575 0.034302935534333966 -0.002364000072702765
-0.02380931371209666 0.03514422058343389 -0.0023640000727027655
-0.027487466806871797 0.03300900012254715 0.002893278674037599
-0.02838233310082384 0.03482449172571281 -0.00034564726974666265
-0.029028114832446494 0.03465733336614776 0.001247678390624699
-0.026413389014168648 0.033212011898653214 -0.00011086191876203034
-0.02844876477619365 0.03566743440992724 -0.002245912867890867
-0.027635753989045463 0.03354552788726719 0.0013453683780529396
-0.02679710773152938 0.03406250766445797 -0.001443510307449466
-0.029093999415636066 0.03627378085965658 -0.00025697356335093477
-0.029093999415636063 0.03381436337088599 0.0037403728542350417
-0.027975261857472244 0.03300900012254715 0.005069008174159705
-0.02591429090900501 0.03300900012254715 0.005201720127032176
-0.024520157388785727 0.03300900012254715 0.0014676723882951208
-0.023716288499617766 0.03300900012254715 0.004540851269507487
-0.02909399941563606 0.036972973676568606 0.0013316329293183288
-0.029093999415636063 0.034616066166734835 0.0059439062843588495
-0.029093999415636063 0.03514641950541529 0.0026779364363400658
-0.029093999415636063 0.038329079294384436 0.0003010044719653506
-0.028979083395861985 0.036648273227386285 0.006332428400563887
-0.022134443594369127 0.03469830315459191 -0.0007879676274667134
-0.02157159563409795 0.03433981107937462 0.000577348876235995
-0.024857418419695534 0.03701469063032438 -0.000563665666608191
-0.023492285178006264 0.03588150594768169 -0.0010546691119128445
-0.02271337628655328 0.03517843657043274 0.0026117109379823695
-0.024739737888768758 0.03680620174248361 0.002020864160681143
-0.024022460875234283 0.03641399528444313 0.0008344850710838361
-0.024752416270553752 0.036354133609922026 0.0038656081550636576
-0.026087416360595743 0.03740653164613826 0.0037338177960155538
-0.026292256631170803 0.035297789603891364 0.0062985289550946625
-0.028158391547564575 0.03541713671714944 0.0069864963647490366
-0.02743597483405153 0.037031905907543565 0.005399118926508874
-0.02598896169694153 0.03642397930799988 0.0050373421931913815
-0.0265834713640333 0.03809512573838555 0.0018732850302186372
-0.027357620323812414 0.03815711623805837 0.003259969532612541
-0.022334970416682573 0.03405488685709311 0.004328830937645401
-0.02443498884359787 0.03392089626055331 0.006063130432952348
-0.02376697854707053 0.03483417678035813 0.00484560774141035
-0.026264367469358393 0.03811479672560448 -0.0003612376675728433
-0.02766123905936261 0.03854670861300864 -0.0013716931774453937
0.007599062142325783 -0.014483496036272988 -0.007769515193800817
0.0035896751736477937 -0.014038624037023554 -0.0077620730783845345
0.009934780663889923 -0.016222695057324675 -0.007577361282342605
0.008157796397865059 -0.009286999702453613 0.0032813406309624145
0.004822282963774638 -0.009286999702453613 0.007438129915827219
0.007992631420734546 -0.009286999702453613 0.00038915467453186185
0.009193184315449781 -0.009286999702453613 -0.0009591092732697671
0.009332217114625747 -0.009286999702453613 0.0014678236916498477
0.010579708570120881 -0.009286999702453613 0.0025783058869034677
0.002252507420474094 -0.009286999702453613 0.00735969600518032
0.008767288858301569 -0.009286999702453613 0.007140382997521079
0.004502345011232354 -0.009286999702453613 0.002982421992609213
0.008215207423236483 -0.009286999702453613 -0.004303158828384512
0.0052402811491097205 -0.009286999702453613 0.0017208457226810837
-0.0008980000275187194 -0.011185633397406657 0.0015579999862748413
-0.0008980000275187194 -0.012899615735105568 0.004096754830553352
-0.0008980000275187195 -0.010035216018075426 -0.0017944135743389294
-0.0008980000275187194 -0.014480872981511664 0.0015622850034659077
-0.0008980000275187194 -0.011070504617442928 0.004895435532708218
0.01063700020313263 -0.012277221125153844 0.003999552663612618
0.01063700020313263 -0.015174960158522328 0.003058847902895832
0.01063700020313263 -0.01209576078087746 0.006247289111878827
0.01063700020313263 -0.01348661546586068 0.0028444557082771007
0.01063700020313263 -0.010071509268597591 -0.0024673918273680918
0.010637000203132628 -0.010471781944158544 0.0036927382979258603
-0.0008980000275187194 -0.012763127510542953 -0.004285675647447876
-0.0008980000275187194 -0.014710473961059643 -0.0005278593340289309
0.01063700020313263 -0.016484611480855994 -0.004271542256611324
0.01063700020313263 -0.012685642388871463 -0.0050073930805123205
0.01063700020313263 -0.01343972726466194 -0.003074935603700487
0.01063700020313263 -0.017195684650391597 -0.0022284212493367413
0.01063700020313263 -0.014054319346409078 -0.0059697107922313634
0.01063700020313263 -0.00961938722499659 -0.007899834199084708
0.01063700020313263 -0.01475293203924254 -0.004001240322151613
0.01063700020313263 -0.016711023913864698 0.002394161233402861
0.01063700020313263 -0.015593108039716488 -0.0025081489321823547
0.01063700020313263 -0.01662212006491153 0.004301591062887511
0.005470117593636981 -0.009286999702453613 -0.0017247625892558714
0.0023572463231608274 -0.009286999702453613 -0.005780946650962561
0.001435899206849256 -0.009286999702453613 -0.002920092188340645
0.003079505257143181 -0.009286999702453613 -0.0029737435878973884
0.0008440291362787909 -0.009286999702453613 -0.0072653954072692045
0.006825414549679014 -0.009286999702453613 -0.0032368937863065136
0.009384055815191224 -0.009286999702453615 -0.0068421195984906145
0.003959458980991957 -0.009286999702453613 -0.0065872421998038186
0.0011242894587858232 -0.009286999702453613 0.0005485713907546798
-0.0005798525630956022 -0.009874788931424846 -0.008128000423312187
0.0036740763725491947 -0.009292106658861586 -0.008128000423312187
-0.0008980000275187193 -0.00963650590497133 -0.004589763928846841
0.0075700613462876005 -0.012915192263797236 0.007729423945321584
0.007228688100076717 -0.011235795841852775 0.007802361923144411
0.005975045360166373 -0.010202354145755134 0.00784724539825857
0.002668380385270966 -0.010908692034429606 0.007816568390384568
0.004458064208121516 -0.012348548904346196 0.007754033870795427
0.0088599763232176 -0.01103873702887876 0.0078109203975716985
0.009578127928566785 -0.01464829163568511 0.007654153591103994
0.0060753854522020735 -0.01284118317835111 0.007732638238839434
0.009408241384341827 -0.012731497137039503 0.007737402020603001
0.0048275758434580705 -0.01425271210067329 0.007619264033757194
0.0007135190742423791 -0.01155092951418168 0.007739546983361849
-0.0002057153277909685 -0.013120154380762842 0.00758558277862048
0.006231240502798872 -0.015122424699428465 0.007582561168047255
0.007807379558248502 -0.016220654507451956 0.007281014340118871
0.0029155529814335513 -0.014414365724311934 0.007488738691599401
0.0013169663241859998 -0.013816367650625024 0.007561760251769189
0.004124386088060648 -0.01702886028877776 -0.004872910882710013
0.00801304147377405 -0.017691235014781894 -0.005694178077718588
0.007265207463165474 -0.01770648648085149 -0.0015697364198588096
0.007038987666999117 -0.017609261539115698 -0.003922418736909833
0.0048791514713381594 -0.017296697018259446 -0.0023255012356837726
0.008999489342789102 -0.017999856086375304 -0.0011955548665357107
0.008641820521973119 -0.017896249506330283 -0.00295707026887159
-0.00011252529175876909 -0.016464792569700498 -0.0029146821548280723
0.0014468150646723306 -0.01671203883787662 -0.003224197453323068
0.0034205057118822393 -0.01704618327359661 -0.0027875513878216902
0.0023775818612713365 -0.016580813812962548 0.004832055778857092
0.005415050907591609 -0.017087140835572365 0.005307988762056215
0.007979115192188909 -0.017584893853788124 0.005544370351755998
0.01030679723444816 -0.017780447990853494 0.005890136197773644
0.006711724989681061 -0.01691249474978087 0.006347975912122495
0.004621270946627318 -0.01635497059294548 0.006374691224469891
0.0089160004500949 -0.017251359399968812 0.006777438570760863
0.0006110217685398651 -0.016214057733664876 0.004719353237862184
0.0017681117310845177 -0.01559858599556633 0.006402786212313688
3.1878313699450363e-06 -0.014952842120790987 0.006482892775335463
0.0019340310386631479 -0.01682019035084001 0.0006045394643301907
0.00018105104304459295 -0.016519246083146963 0.000301821419672473
-0.0007760442842104278 -0.016354935963754202 -0.001366246345767633
0.001376180106600235 -0.01672442083798124 -0.0014701533192688345
0.00449625829650617 -0.01726006280101173 -0.0007376549644472891
0.0063953056111860015 -0.017586083294605044 7.502235989055372e-05
0.008816207264926289 -0.017870463056522203 0.0037385208059959453
0.005294144577171561 -0.017277751386584897 0.0035499665816618366
0.007227468653591038 -0.017638047707555622 0.0028075126597999467
0.005339584114700034 -0.017353815069222116 0.0018962053220293225
0.009693222832030043 -0.018098225790548737 0.0018446727929376531
0.004005356731282787 -0.01717273079052256 0.000773046337676624
0.00268197110641032 -0.016813389712821966 0.003172773050657066
0.0012425633172539145 -0.01660210459874919 0.002439832722627859
-0.0005888615190352603 -0.016325495516721703 0.0015935099499448462
0.004065827422611074 -0.016983129334313316 0.004247463333444387
0.0006200876668642544 -0.013744987954927259 -0.007712597624538702
0.0014228854446506202 -0.01534559860922762 -0.006682570068923136
0.0005151192592617437 -0.016212228928015205 -0.004903207540773135
3.042351194775081e-05 -0.014972520485136061 -0.006676181622857423
0.005786691681824357 -0.01675050811480966 -0.00632554360935671
0.0023418158507419583 -0.01634977463042256 -0.005474413272388325
0.004463250268409985 -0.015641827930772043 -0.007280136289096468
0.007875424015045054 -0.0165397381077396 -0.007235047697240419
0.010632688382637343 -0.0178091299442913 -0.0008512026251990459
0.010051181610434985 -0.01804999116593436 -0.0038320266213752816
0.009721142680560303 -0.017944391595622784 -0.0059319641690093634
0.007222333505959222 -0.011910140043280826 -0.007973950507316712
0.009022438420509475 -0.012450529137108226 -0.007933407513259435
0.004047286337399628 -0.011148211068651024 -0.008033355471603543
0.008734748404912382 -0.010528058605592805 -0.008056125022336172
0.006676555120044607 -0.009941109663275379 -0.008100523515415705
0.0019757119543239326 -0.010382036433352181 -0.008089147241114234
0.010413135894995247 -0.011391776208630192 -0.007971591114785914
0.009716577148700644 -0.013966297375316046 -0.007815227136535877
0.0016776843488227602 -0.012214224738516645 -0.00793180321740623
0.0005571019083215349 -0.01115952271498372 -0.008023158937439982
0.006506572477019174 -0.013330941686678567 -0.007880527180659607
0.007432598052133883 0.00022821775319226947 -0.006247678699850792
0.009646442136618697 -0.004001318246571332 -0.008111020355195286
0.007398373291244881 -0.00011857039279647918 -0.009738415560446422
0.008736431830385385 -0.0023893262562413435 -0.008425925006397491
0.008079264634717795 -0.0004841956196118012 -0.0023257479074566437
0.00788857374327079 -0.0007935102029533716 -0.007917338280014938
0.008119367181524041 -0.0007547290813149957 -0.004015358804425349
0.008742691212629414 -0.0020387720749170534 -0.005335709548115675
-0.0008970000199042261 -0.0057413139080842125 0.003249933370517161
-0.000897000019904226 -0.002825367087673402 -0.008017884073518826
-0.0008970000199042261 -0.0053484805181529555 -0.007200521078048151
-0.0008970000199042261 -0.006417351914730331 -0.004072603924313034
-0.0008970000199042261 -0.005009206522101662 -0.0052813028324208994
-0.0008970000199042261 -0.003978163136694658 -0.009473929175780646
-0.0008970000199042261 -0.005723532044148779 -0.0017283060433482054
-0.0008970000199042261 -0.007071910753369961 -0.006923737455673052
-0.0008970000199042261 -0.0027611005615827988 -0.010728344353110278
0.01063700020313263 -0.0078454810521367 0.002938339123385269
0.01063700020313263 -0.006640584528766847 0.004619524312945515
0.01063700020313263 -0.007777348596363976 0.005919542722644828
0.01063700020313263 -0.008182935969013271 -0.002322945302876559
0.01063700020313263 -0.008611593719357439 -0.0005678403014863624
0.007150224975190952 -0.009286999702453613 0.0016792195104866083
0.009214621331161084 -0.009286999702453613 -0.0030816077347228265
0.005844488776890314 -0.009286999702453613 -0.004840258373484911
0.007303739324290542 -0.009286999702453613 -0.0055691898236409935
0.0039797253483295995 -0.009286999702453613 -0.004983682526283075
0.007753064777371363 -0.009286999702453613 -0.007087425301658617
0.005673303690190509 -0.009286999702453613 -0.006459969155466873
0.005586568832290347 0.0003260000084992498 0.0019096269444013815
0.003912326744883942 0.0003260000084992498 -0.0013635012767214249
0.005932782955777276 0.0003260000084992498 -0.010017945961464136
0.0029409377039664444 0.0003260000084992498 0.007537056219371532
0.0063557942138784155 0.0003260000084992498 -0.004493353484990371
0.005837093402465199 0.00032600000849924976 -0.001256646083034207
0.0027563434494360184 0.0003260000084992498 0.011607638124216394
0.004784933294659435 0.0003260000084992498 -0.002737833138766666
0.0027059580906842844 0.0003260000084992498 0.0028512257811179535
0.0027036009231033013 0.0003260000084992498 0.00942198780526727
0.0009773919394380198 0.0003260000084992498 0.011356089578101261
0.005924395248253422 0.00032600000849924987 0.0035267143215167085
0.004972865578192227 0.0003260000084992498 0.00726204534421181
0.006249971588801817 0.00032600000849924976 0.008467080722536137
0.0057183205689916305 0.0003260000084992498 0.005392239312056472
0.006562202375659899 0.0003260000084992498 0.01253342327110252
-0.0008970000199042262 -0.0007265393699785962 0.008756990404872732
-0.0008970000199042262 -0.002588206829564025 -0.004501462426660327
-0.0008970000199042261 -0.0021305770030419237 -0.006332137223535341
-0.0008970000199042261 -0.0010618342061957007 0.0010557197049627428
-0.0008970000199042261 -0.0024376968072662717 0.0031167772171389356
0.0002890783251514012 0.0003260000084992498 0.005375711978702182
0.0008448240994432268 0.0003260000084992498 0.0037808345088153174
0.001944198008497891 0.0003260000084992498 -0.009722796968057567
0.0031142633196482687 0.0003260000084992498 -0.007519813938031895
0.0032671321492230092 0.0003260000084992498 -0.004924497932970795
0.001705725824959218 0.0003260000084992498 -0.005950624004690675
0.0007054964227535833 0.0003260000084992498 -0.0014769206208856064
0.001327589650086703 0.0003260000084992498 -0.008162488776105797
0.002166987477551959 0.0003260000084992498 0.0003036242126021932
0.0011149170874188217 0.00032600000849924987 0.0020993251235001367
0.0010368318152098543 0.0003260000084992498 -0.011015234372990854
-0.0008970000199042261 -0.001033977989037838 -0.0035668866682123383
-0.0008970000199042261 -0.0007295642612599818 -0.010824631730010428
-0.0008970000199042261 -0.0016362321437265962 -0.012211268084602246
0.010637000203132631 -0.008388157480254111 -0.005297281822091828
0.01063700020313263 -0.00681607218299843 -0.0036458056725376235
0.010637000203132631 -0.005893968492120063 -0.005896939476023584
0.003084661511248148 -0.008334519731676981 0.011751192096099258
0.00752869515516986 -0.009041656457247948 0.009181188260432101
0.0046433223664748315 -0.008394440452688074 0.011230418432530448
-0.0008970000199042261 -0.0059329956327204185 0.004812396626307756
-0.0008970000199042261 -0.007314203270766061 -0.0014098927341136024
-0.0008970000199042262 -0.0044151668434296515 0.010430828406318302
-0.0008970000199042261 -0.0076711640619631415 0.009140946906296868
-0.0008970000199042262 -0.007397709311630259 0.0024906569913489486
-0.0008970000199042261 -0.0064286560607565366 0.006431395615311142
-0.0008970000199042261 -0.007797702229726933 0.0075552687826285665
-0.0008970000199042261 -0.004898233728089824 0.008591556421918268
-0.0008970000199042261 -0.008592374176504523 -0.0061662276331126455
-0.00022164669839857225 -0.009286999702453613 0.001434932328911817
0.001793438940986465 -0.009286999702453613 -0.0015116138875710557
0.007120648525168424 -0.009286999702453613 0.006617594589552791
0.0061110799835753064 -0.009286999702453613 0.0032307202721430354
-4.072772339970554e-06 -0.009286999702453613 0.006479279818542785
0.005284104200244639 -0.009286999702453613 -9.475604472830278e-05
0.0036007979307025872 -0.009286999702453613 0.0061824826587382736
0.0014873310895958014 -0.009286999702453613 0.005936085631252602
0.0037257299169700074 -0.009286999702453613 -0.0009080784902507151
0.0026338831763634226 -0.009286999702453613 0.004810822666738591
0.004753055842423474 -0.009286999702453613 0.004843796536677597
0.0004139365367290225 -0.009286999702453613 0.0031640352408238174
0.00843008267661509 -0.009286999702453613 0.005430517870725808
-0.00019057964521241444 -0.009286999702453613 -0.000555075628888126
0.0026514859126684593 -0.009286999702453613 0.0018438913679646816
0.005236373147068951 -0.009134859304710134 0.009553984127604975
-0.00013655917487597507 -0.009039433677012935 0.010598923799891644
-0.0004517824158487274 -0.009191728498188573 0.008931249147174632
0.0038267934933554145 -0.009098639038117995 0.009950607072785096
0.002207404793420047 -0.00911170415872331 0.00980754002493684
-0.00043601738922791414 -0.00813849934864823 0.012089338551228937
0.0015297568758679313 -0.008400133708910608 0.011970454718021122
-0.000897000019904226 -0.004524349247834225 0.012667438749786302
0.001624270822770728 0.0003260000084992498 -0.01247778941561748
0.00041423679881081514 -0.0020581416152591517 -0.013042291802486922
0.007708905481617165 -0.004525852844952305 -0.012498749274290746
0.00931684829269704 -0.006457200780706806 -0.010380800659462477
0.0008424750517562635 -0.00551119613792124 0.012932658432832716
0.0023498631243238483 -0.006784893165325498 0.012809090719069147
0.004612948880801933 0.0003260000084992498 0.01290633454771237
0.0004502388793301489 -0.00045012768408527756 0.012856181151809355
0.0017042823001947153 -0.003551407722977045 0.013016000390052795
-0.00015288437756384688 -0.003028559622171499 0.013016000390052795
0.003143381294152157 -0.004782986680400156 0.013016000390052794
0.0027575847089173077 -0.0004543690472047616 0.013016000390052797
0.0016252008237850083 -0.001872896383902819 0.013016000390052795
0.006713762424228837 -0.006872411152888071 0.011935957749058965
0.007947386663486117 -0.00699508077433425 0.011086141979916262
0.009386113886061826 -0.0070983786004784125 0.010121461875739111
0.00940353385236438 -0.00841039290826798 0.009238734734415258
0.00615782239556868 -0.00835184586450634 0.010786263656033534
0.007426384653805259 -0.005227153503328376 0.012577135209796633
0.004201513210305323 -0.006763011633428309 0.012690943157418462
0.009120075609399099 -0.002673408286110365 0.006780035538685626
0.007651631797610947 7.647473665878219e-05 0.0072586255111660135
0.008453447400034331 -0.001275981063120345 0.006029965427261886
0.00987061322693408 -0.004164180964314119 0.007088818404732059
0.007444582519153227 -0.00011345724818319021 0.011074761803519415
0.008305377975641818 -0.0012860002752178698 0.007942623165134851
0.007884500823954312 -0.0007250114431927278 0.009553960915655642
0.009561415934727494 -0.003372955005720677 -0.00236328640789063
0.009077589153016999 -0.0024589031342532653 -0.003601833490116221
0.008665662546054907 -0.0015209281626888242 -0.0009763971205906236
0.010296377562280653 -0.004819597413691839 -0.001821156068703405
0.009969412558782913 -0.004342271228518073 -0.005891730719943272
0.009896148293091888 -0.003968556308526591 -0.0006592134790092452
0.009908294234649144 -0.004141427496377914 -0.004081551763546225
0.010519839338639318 -0.005363616812484552 0.0038405280195006894
0.009063176877403448 -0.0023148924880759636 0.002756153783076339
0.008105256082511654 -0.00037886796980871317 0.0038350742093373573
0.01024246139788159 -0.004679781430332651 0.0009457409585562988
0.009765254029908086 -0.0038528244997586072 0.005061989399031003
0.009734281609063183 -0.0037067593328461482 0.0029246233238207847
0.008281343178971598 -0.0007288693887834569 0.0002528119645334212
0.008273131095869824 -0.0007124423751856175 0.0021723897907336004
0.008949139464015236 -0.0020646935053986815 0.0008550736021699071
0.00921852813439159 -0.0035536395217908834 -0.009807530347471897
0.0082019334481835 -0.0019603928786282375 -0.01120730476464483
0.009264283858859376 -0.0045575490114029725 -0.011140938975103199
0.01003978236748753 -0.005303991876173307 -0.009265755203533217
0.007694679741519507 -0.0016512175970335666 -0.012503766810011932
0.010247214338936913 -0.0059781997715319685 0.008796623015441353
0.009688056152452652 -0.004965760736763322 0.010100066233419858
0.009032235230571901 -0.00484029651246223 0.011492923511622045
0.00843712278306588 -0.004045428173228325 0.012645599399384918
0.009157880368570407 -0.0034805979659738836 0.010502356288253372
0.008267693082387765 -0.0018372454162462893 0.011350927974258851
0.006359592602049883 -0.0032475598584756427 -0.012904285241441412
0.005865453874080625 -0.001332557706495289 -0.013041848630132673
0.002694030736682016 -0.001427527720363848 -0.013257999904453754
0.0011805126388142082 -0.003394459500848703 -0.013257999904453754
0.004102610178598514 -0.00204864484244022 -0.013257999904453754
0.005338052780967117 -0.004659515705038308 0.01300738500008271
0.00399810818353096 -0.003383219587965521 0.013016000390052794
0.006903623303434072 -0.0031404273299081766 0.013016000390052795
0.005522701338281498 -0.0012818559705907004 0.013016000390052795
0.007467836201310345 -0.0012715660189059506 0.012734099054942535
-0.0007077168121992132 -0.004738039784860102 -0.012987740087802287
-0.00044866767363041277 -0.006611931972721801 -0.012555893691500068
-0.0008688139379814906 -0.007975510467136987 -0.01143387299496313
0.0046740956762531885 -0.007113272346386164 -0.012225068605036696
0.006377611572730818 -0.007313568246323938 -0.011402953609024583
0.0016232057953709845 -0.006275615881486213 -0.012717848804755705
0.0031698986605068246 -0.006515657353409419 -0.012621826255895986
0.009515117035793727 -0.007939171926999543 -0.009552027538941653
0.007917588051362758 -0.006490667555346072 -0.01126557205106626
0.004477960332604983 -0.0044348747989137564 -0.0130160098854588
0.0024786254148146487 -0.0049347122320290825 -0.013022082602881629
0.006048080269727966 -0.0047934024464828156 -0.012778615986201426
0.002974681377181312 -0.009086824820250807 -0.010198115857350157
0.00781303006603585 -0.008922429621775283 -0.009420177854472018
0.005149304905507705 -0.008499559462390617 -0.010733883473391888
0.0062250336837970325 -0.009079045375122823 -0.009702789135177267
0.0006342915941785162 -0.00900355990682613 -0.010607547582385822
0.0021573987152483697 -0.008072325094843593 -0.012000333419185818
0.041946320681693496 -0.0049529189792494495 0.00459080522571164
0.0437389316867533 -0.0035940933811407913 -0.0033237285869606183
0.032133129139230575 -0.005762000102549791 -0.001848167310725376
0.03206183667400404 -0.005762000102549791 0.0013249394186932418
0.03475360859617982 -0.005762000102549791 0.003972014937820821
0.034124817013755485 -0.005762000102549791 0.0056424560374490635
0.03225511548822739 -0.005762000102549792 -0.0038328583678543453
0.03182949956421597 -0.005762000102549791 0.005855410993646648
0.036159414392533056 -0.005762000102549791 0.005002653094841977
0.042018809592617154 -0.002879000036045909 0.003221124502812555
0.04327195243113283 -0.002879000036045909 -0.0018510289624904365
0.04212452133775602 -0.0028790000360459094 -0.0034211597482051606
0.03565382844366564 -0.002879000036045909 0.0035147179712813103
0.04147839356286362 -0.002879000036045909 0.00013508681529562352
0.04058065978967024 -0.002879000036045909 0.0030939863632799183
0.03888927239918306 -0.002879000036045909 0.0024391768545057534
0.04143596123609313 -0.002879000036045909 -0.002034916148350473
0.037267976254217454 -0.0028790000360459085 0.0028236943419126482
0.043221262675786125 -0.002879000036045909 0.0019235723912062095
0.03983820322820451 -0.002879000036045909 -0.0009065019286497308
0.03880080125657552 -0.005762000102549791 0.0029624292646185445
0.0396342604408412 -0.005762000102549791 0.005868461391069676
0.038694577345960546 -0.005762000102549791 -0.0009729518069522256
0.03501441587217667 -0.0057620001025497905 -0.0026259338681371433
0.03324898169518182 -0.005762000102549792 -0.006248040446398525
0.03435064796858964 -0.0057620001025497905 -0.004546843145315636
0.03620913365248061 -0.005762000102549791 -0.004187976226763578
0.03526559901364531 -0.005762000102549791 -0.0067916486708327894
0.038914383569254765 -0.002879000036045909 -0.0027687779829997363
0.036679764212813215 -0.002879000036045909 -0.0047173292818617025
0.03412415288980908 -0.002879000036045909 0.002566113812999266
0.03554192244369318 -0.002879000036045909 -0.003305613689983837
0.03699983597388024 -0.002879000036045909 -0.00023603715190743978
0.03676439527266285 -0.002879000036045909 -0.006197407440436566
0.03721946320467255 -0.002879000036045909 -0.003079447929330734
0.03488751859904885 -0.0028790000360459085 0.0009613443528747947
0.04149504027582439 -0.005358136620280435 -0.007410369433761698
0.04295174014120788 -0.003927320601303564 -0.008389589303370817
0.04304513066874807 -0.002879000036045909 -0.006831212580791876
0.03851658549150521 -0.002879000036045909 -0.007684452782292734
0.03146500140428543 -0.004521013746393127 0.0033560222315920534
0.03409542337281947 -0.0028790000360459094 0.004438493531092547
0.04083720142813034 -0.005530699233734385 0.007372358939475068
0.041281708400131685 -0.0055982966373870555 -0.0006241317565332206
0.04185090839095158 -0.005143114400639911 -0.0038154504255652087
0.042872977122939616 -0.004325778597690416 -0.00489948544426508
0.042224035942405896 -0.004844728883770326 0.0004947083590489849
0.04115655658204375 -0.005698379008098588 0.00576296266725976
0.04192210642027841 -0.005086178211666526 -0.002171517259496552
0.041984201828756756 -0.005036521276707357 0.0023993415663957364
0.041369616919270456 -0.005527997275095995 -0.005621697833101564
0.042733970703977824 -0.0044369403224369325 -0.0064220854633809865
0.034613329351453545 -0.002879000036045909 -0.00498239088611145
0.03259592255879367 -0.0034399602667254158 -0.0007881995704019382
0.032605391091408184 -0.0033714449685078554 0.001819421787100196
0.032613849440102115 -0.0035084408413253434 0.0038089153273701206
0.03325704398207651 -0.0034238889526470237 0.005641012667826044
0.03329591670079778 -0.0037003276303795036 0.007119634102909602
0.03777067763777431 -0.004485785953202719 0.007852193143813645
0.036591264304384113 -0.005445378499295683 0.007638506645007778
0.039351171900940216 -0.004760408253823032 0.007791038981922227
0.04157895196151441 -0.0040308343508307625 0.007811779735056113
0.040407626407911734 -0.002879000036045909 0.007921733886903353
0.03384558872815458 -0.005033123287443076 0.007711060420738151
0.03595813615161805 -0.0035150972802710564 0.007584455691879634
0.03788048319986502 -0.0029270406568210556 0.00769642610415513
0.03240115763048039 -0.003825016529749689 -0.0036071842595279064
0.03188459944597979 -0.004336940420878779 -0.005009638626668088
0.03310772312790099 -0.003843071130044699 -0.006641210932405619
0.04012437669349616 -0.005355250208997098 -0.00805879399795652
0.032563958989020855 -0.004932465535949723 -0.007805733446813485
0.03583333552090332 -0.004156474360807401 -0.008387263973963261
0.034487528010458054 -0.0038271703878787517 -0.007634005187420529
0.039333408089198586 -0.004182838344157478 -0.008742260917287421
0.03689043648804131 -0.005597134266478845 -0.0077981743011294935
0.043686702541126984 -0.0029603747749661485 -0.00021456783782031593
0.04221843403581646 -0.004148575217773261 0.006182593467639443
0.04303551480792687 -0.0032103319827226267 0.004943978433266819
-0.0015510905036933537 0.01049770034681878 -0.010451790685391708
-0.002184009618398669 0.005452999845147133 -0.009966509475881052
0.0014076730323034263 0.005452999845147133 -0.0108864557300191
-0.0006584021707896177 0.005452999845147133 -0.011146581755404247
0.00310436097616217 0.005452999845147133 -0.010948238700160597
-0.00586101283148909 0.00860838438979513 -0.008772999979555607
-0.0048835730801955034 0.007338257354687756 -0.008772999979555607
-0.0012554835158014575 0.006368463163499773 -0.008772999979555607
-0.0028689837462650245 0.00740540726907546 -0.008772999979555607
0.005738270853039209 0.00665594369129457 -0.008772999979555607
-0.0005050853909346433 0.007934420641904784 -0.008772999979555607
0.0019873252794065615 0.00823847121868685 -0.008772999979555607
0.0054497225618427205 0.005452999845147133 -0.009910324433259086
0.00935950646632959 0.005485574090519876 -0.009353740934251144
0.0034651343028438966 0.009324475574674081 -0.008772999979555607
0.006774379598733194 0.008233540555651165 -0.008772999979555607
0.008707991497694521 0.007509207448023534 -0.008772999979555607
0.006047682896745492 0.006720897311131419 -0.013257999904453754
0.0030308885870350653 0.007273297137075014 -0.013257999904453754
0.0012754435527983607 0.007058165201000411 -0.013257999904453754
0.003964107714711636 0.00582794648291198 -0.013247897709190309
-0.002057045601195375 0.006374864165719911 -0.013221004896819027
0.0017129053306992143 0.010290167298524123 -0.01142184806120822
0.004166120091474702 0.009120897085818456 -0.012539487702651685
-0.0017775016662502376 0.009673973288570566 -0.012224707040050058
-0.0032916331964946235 0.009074175894515712 -0.012760840677109869
-0.000162806648294288 0.009669862220823652 -0.012349519124821845
0.009177439402751756 0.006825052788511596 -0.010238088863966445
0.008176214269267505 0.007108011758041793 -0.012037393508995757
0.00577711333548603 0.00844006473026875 -0.012564255097813996
0.007483918754589066 0.005873073213883039 -0.013214139622622502
0.007451193600035509 0.008243764459909415 -0.011287488561829885
-0.00814328457570871 0.009852518104072321 -0.009134770569332635
-0.007019533326858979 0.00982423621972767 -0.010406851037558191
-0.003851583834113311 0.010124611803715006 -0.011259435361984694
-0.005393535805527234 0.009411285131257888 -0.012098196887021823
-0.005491310460711515 0.005662175231454942 -0.011642966131172779
-0.00670135011206645 0.006833980932848813 -0.01214683854760078
-0.007464921791391223 0.008541001409770883 -0.011760813618567272
-0.00695250880725029 0.007335827924233814 -0.010288247467505892
-0.005970864000231982 0.006381395521981466 -0.009328313151263205
-0.004333292809291724 0.007146664522121246 -0.013257999904453754
-0.00028110407326878656 0.007283954607130239 -0.013257999904453754
-0.006475508307302599 0.008382008547446234 -0.013017337684094066
0.002104770722982422 0.00865831913418749 -0.013109640829826411
0.003615350824171658 0.01032607914706773 -0.010759320481179382
0.005050228823145756 0.009652542187212905 -0.009099109267149855
0.006378105725352575 0.009165179216068483 -0.010009368106343595
0.002062974425130286 0.010474599672496377 -0.009416676896005498
-0.000649914609293606 0.01021685773063948 -0.008772999979555607
-0.004925220651060788 0.010035610102576966 -0.008772999979555607
-0.006038384673362975 0.006361057037843907 -0.004787819755599704
-0.010208001262523587 0.010441663116414904 -0.0063471660937694544
-0.008010823288779343 0.008317679713509435 -0.005451528320063584
0.0015405907200055622 0.005452999845147133 -0.006105905809602353
-0.0003239684032440264 0.005452999845147133 -0.00461684444112266
-0.004675880551864317 0.005452999845147134 -0.008188363386638801
-4.3724725213320145e-05 0.005452999845147133 -0.007216179082606659
-0.00369579974422169 0.005452999845147134 -0.004050622893190562
-0.0033278258811808665 0.005452999845147133 -0.006197613730826957
0.012577904685964356 0.010579000227153301 -0.006960082922761328
-0.0017781802338968792 0.010579000227153301 -0.005592543949692429
0.006817902769449014 0.010579000227153303 -0.0061684875252173655
-1.8742489582476533e-05 0.010579000227153301 -0.006595496691378868
0.002614170131209107 0.010579000227153301 -0.005313932925898922
0.004264524232323676 0.005452999845147133 -0.007088535772784962
0.006086801520266029 0.005452999845147133 -0.0066871930958480276
0.0011243736530085978 0.006002879601568032 -0.00877199973911047
0.004029962265957584 0.006262826204372295 -0.00877199973911047
-0.003522044171464107 0.008949006302012076 -0.00877199973911047
0.0017816846525937483 0.005452999845147134 -0.004309429114640174
0.006007702811657535 0.005452999845147133 -0.0036425956026424943
0.0052095051098198135 0.005452999845147133 -0.005109979890519413
0.002558833478025595 0.00893342180701684 -0.003324999939650297
0.010518269769017513 0.006326895315816841 -0.007156163259433211
0.008461794097753734 0.006231881646972548 -0.004472707999985975
0.011312467701979181 0.00766540498255745 -0.0049881143463313005
0.013078422859798178 0.008113350480646968 -0.005849093726564821
0.014445485275769778 0.009123157131891844 -0.005699503888856199
0.00950931817597065 0.00581471112616487 -0.005823931074651376
0.0007560021375546215 0.009233787597127431 -0.003324999939650297
-0.006168961737395858 0.008314466580789331 -0.0042956918909582585
-0.00427034539514321 0.008195638584343764 -0.0037295111295628045
-0.006491532951695748 0.010100707018452438 -0.0047390077007275514
-0.004503223816301225 0.009841306861562465 -0.004119553399111082
-0.008851991793021458 0.009974556898493504 -0.005389080562757389
-0.0023750887641599463 0.010579000227153301 -0.004072126271714436
0.010387808566501735 0.010579000227153301 -0.007853908804659741
0.002589890125242724 0.010579000227153301 -0.007653308744119349
-0.006565571543364364 0.010579000227153301 -0.006782201713944438
0.0006516294191935284 0.009103064930421753 -0.00877199973911047
-0.0075266914754015535 0.008230366510197717 -0.008765260496907368
-0.009411101057343366 0.009445503433291992 -0.008097561346348862
0.008541052243684202 0.010579000227153301 -0.004710181569714159
0.00519220022863963 0.008961727565115743 -0.003330333261628813
0.00997616356096037 0.007696619063659695 -0.0044325323507055075
0.0077147688495189945 0.008581833069159904 -0.003924571249954517
0.012784802382274894 0.009734002155631628 -0.005205974180034972
0.010576710099442976 0.00947331469717209 -0.004658857074993911
0.013837053766247656 0.009285598927342214 -0.00830106380604295
0.008794164242675876 0.009954769167307781 -0.00851538963642547
0.011859580531480564 0.010372178646120913 -0.008321169064360607
0.010244265863918002 0.008192506314475934 -0.008680864281715123
0.015096301296784428 0.010080750242867385 -0.00809907267360896
0.011226331572513125 0.006918286740692671 -0.008537276658873529
0.012754433032438638 0.007779489030509345 -0.008041450913117927
-0.004856822875156649 0.005452999845147133 -0.005421335854205445
-0.006951982515220752 0.007150908584127232 -0.006020088282355958
-0.008076101033639335 0.008157290383619724 -0.007001674847684558
-0.006424178681750942 0.006808859943104685 -0.007729543184361904
-0.00580239616167891 0.007056209750979895 0.0026294941707053843
-0.0034961538314350667 0.008585510644622419 0.005005999933928251
-0.0018229099522419278 0.008562776767147073 0.005005999933928251
-0.0009665663766071932 0.007115010138950679 0.005005999933928251
0.0050300980946819274 0.007301390701512829 -0.003324999939650297
-0.0011747274288040203 0.006593010252456237 -0.003324999939650297
0.0031856812927408204 0.007181218764308508 -0.003324999939650297
-0.00025889017702776545 0.007818624522308996 -0.0033249999396502976
0.0013485260152864087 0.006837837911314143 -0.003324999939650297
-0.0007788046627837607 0.005452999845147133 3.387015120432518e-05
0.0005008915081425778 0.005452999845147133 -0.00327123556527284
0.0019579837720072038 0.010579000227153301 0.0009324960753550396
0.005075839206131093 0.010579000227153301 0.002210801398958993
0.002022299098362032 0.010579000227153301 -0.0009298617110748302
0.0029532835688491485 0.010579000227153301 -0.0022160725621420425
-0.001989589089822362 0.008576461555256562 -0.003324999939650297
-0.0008603703225733081 0.009572786143415352 -0.003324999939650297
-0.002843544114233431 0.006999982800693329 -0.003324999939650297
0.007467474349455925 0.005532441584272849 0.0019987639039067157
-0.0023728067499556014 0.005452999845147133 0.0038260186722372377
0.004993533597362577 0.005452999845147133 0.00398716723125215
0.002525584752271992 0.005452999845147133 0.004897713181928559
0.0021753496876213323 0.005452999845147133 0.0012935689615673398
0.005334739297141748 0.005452999845147133 0.002386778389492709
0.0038303957471112864 0.0105790002271533 0.0036679896584144956
-0.0019350589125836804 0.010579000227153301 0.000300123163973868
-0.0003927324125677376 0.010579000227153301 0.0036715275415976903
-0.0008977316910839951 0.010579000227153301 0.00178569084156623
-0.005103590701446454 0.008501355950749447 -0.00020926887811190554
-0.004433895431363657 0.007986816750624195 -0.0016559866833419199
-0.005262042783232066 0.009776638241687122 0.0012317700451180674
-0.0033427940353976428 0.008789567631930685 -0.002449948371648176
-0.0038293718511608473 0.01009961103160952 -0.0005070904544040417
-0.005566264738559325 0.0076880421961667625 0.0009780679803381377
-0.005250938497792782 0.0068812728851659205 -0.0006739912609761511
-0.005887163380105169 0.009196400129434415 0.002544394536724373
0.006866276672130939 0.006777219657599743 4.5340409124035915e-05
0.005899946067192994 0.009725109025973988 0.0011492190360733864
0.0056438559820707525 0.010032257357504192 0.003577930276680196
0.006633189773444211 0.00884567403780339 0.003199441264242305
0.006585066130741354 0.008903392385455478 0.004899653940107448
0.007617764873181538 0.007327001933276315 0.0028855458856805313
0.006292000747478838 0.008650188928770976 -0.00042975572359638006
0.005411023051078706 0.010037847935759882 -0.0021240643344932206
0.0068800773699614765 0.00843585083003573 0.001413671398540716
0.0028646439955346188 0.010516275299868608 0.0049838508318748986
-0.0026956852089711704 0.010579000227153301 0.0038755904352230507
-0.005542964170666532 0.007602247318192851 0.004248827819161681
0.007531765318027815 0.005452999845147132 0.008297442433351038
0.000589820392589271 0.005452999845147133 0.010940568895645614
0.007947062334985443 0.005452999845147133 0.010040740959517389
0.004227506981491172 0.005452999845147133 0.010689167823224184
0.00630769851572088 0.005669053279529944 0.005005999933928251
