-0.00632282293718 0.0197719191006 -0.00541887232431
-0.00190088917913 0.0157610848268 -0.00702847843102
-0.00341117300666 0.0172722906338 -0.00649865478888
-0.0126117800969 0.0201919991523 -0.0046115646858
-0.00399013295214 0.0173876552172 -0.00332499993965
-0.017662088189 0.0165288657653 -0.00583520433158
-0.0125519224271 0.0122233944949 -0.00592782577814
-0.0133876314789 0.0128961246596 -0.00802994580656
-0.0116464969592 0.0111483175742 -0.00710747087286
-0.0153400421036 0.0145237429961 -0.00790023493793
-0.0167703829202 0.0155428626843 -0.00648848484781
-0.0200749892188 0.0185552322605 -0.00697122368846
-0.0187379738808 0.0173181850164 -0.00704833470825
-0.0169416625477 0.0165960262659 -0.00804934280854
-0.0135866185268 0.0178524367935 -0.00813100021333
-0.0176076848699 0.0185257652289 -0.00813100021333
-0.018951686131 0.0193645305031 -0.00813100021333
-0.0135929060266 0.0158881339122 -0.00813100021333
-0.0153793764211 0.015978776852 -0.00813100021333
-0.0158940091472 0.0184671844286 -0.00813100021333
-0.0123406140716 0.0189822145715 -0.00800125689725
-0.00825287363602 0.0131164713933 -0.00475969676042
-0.0094385749995 0.0119745879565 -0.0052934299757
-0.00632038155298 0.0150834781092 -0.00385719517868
-0.00968512784913 0.0143256650484 -0.00465515082071
-0.0100324962806 0.0163413446995 -0.00414014585453
-0.0111158714706 0.0181407209163 -0.0038251217626
-0.011627466468 0.0136663461138 -0.00520836773705
-0.0113212131024 0.0153399543806 -0.00466947244253
-0.00864957452614 0.0158633492452 -0.00401888345716
-0.0055704886007 0.0166180961197 -0.00332499993965
-0.00934088941184 0.0179567542072 -0.0035521664276
-0.0209198688514 0.0201919991523 -0.00558322482273
-0.0152517996792 0.0201919991523 -0.0050852832757
-0.00832516425082 0.0181137217002 -0.0078355867101
-0.00196119340922 0.0141513350498 -0.00797253628331
-0.00490224596847 0.0146374416051 -0.00813100021333
-0.00821067797314 0.0158752673802 -0.00813100021333
-0.00338477645316 0.0137776985952 -0.00813100021333
-0.0100950661159 0.0182781885254 -0.00796574425629
-0.0065586876688 0.0156415512448 -0.00811937385284
0.0287317457144 0.0144653439465 -0.00781223781048
0.0317547997641 0.0108689932452 -0.00417339511281
0.019386071149 0.0107595664622 -0.00465576011997
0.0311748229095 0.0108625255318 -0.00588143991238
0.0148904912414 0.0107197912569 -0.00483433152867
0.0123431219865 0.010697583216 -0.00451924189303
0.0288327149131 0.0108423110165 -0.00533443950019
0.00861867974007 0.0106654122691 -0.00368171987227
0.00709894069954 0.0106517047898 -0.00407169725459
0.00381292010488 0.0125152663353 -0.00332499993965
0.00154022622855 0.016576946051 -0.00332499993965
0.0188984097027 0.0121063796236 -0.00332499993965
0.00535773191668 0.0131299417722 -0.00332499993965
0.0106194804338 0.0110083639952 -0.00332499993965
0.00395899010616 0.0142886282354 -0.00332499993965
0.00328163348459 0.0160790227077 -0.00332499993965
0.00512738860934 0.0152007224118 -0.00332499993965
0.0205005823327 0.0119589921361 -0.00332499993965
0.00227217893628 0.0144293958069 -0.00332499993965
-0.00052066473234 0.01327032279 -0.00332499993965
0.0253447486726 0.0122132338224 -0.00332499993965
0.0172794380754 0.0113112606737 -0.00332499993965
0.0102797991404 0.0152816345962 -0.00332499993965
0.00978026442565 0.0125040290026 -0.00332499993965
0.0192510643492 0.0136188096399 -0.00332499993965
0.0293844375585 0.0113553369959 -0.00332499993965
-0.000763137762716 0.0158383074861 -0.00332499993965
0.0233608609 0.0123671182932 -0.00332499993965
0.00808384084659 0.010661688145 -0.00665896078143
0.0160530723542 0.0107308567182 -0.00658320056049
0.00361328980449 0.0106227581207 -0.00647996511252
0.0131467314284 0.0107060735649 -0.00737568769825
0.00468023830312 0.0106312740745 -0.00518223833824
0.00641284951101 0.0106466577726 -0.00576337323055
0.00961197165589 0.0106747292077 -0.00626005270286
0.00271074186576 0.0106141122364 -0.00508391381203
0.0231450800756 0.0107921944794 -0.00614054388329
-0.00089275312697 0.0105837020407 -0.00661602709063
0.0299118918612 0.0108513859856 -0.00687043848994
0.0177470698356 0.0107448849534 -0.00540028422838
0.0249510515924 0.0108082529307 -0.00678673884495
-0.00153500004672 0.0125923977071 -0.00696578238349
-0.00153500004672 0.016625762837 -0.00443954440983
-0.00147348182049 0.0135218438293 -0.00520064552229
0.00781203076901 0.0126259749515 -0.00813100021333
0.00274041314394 0.011675207352 -0.00813100021333
0.0114166164967 0.0112609954917 -0.00813100021333
0.0156280424968 0.0120422913416 -0.00813100021333
0.0066494696374 0.0108272459717 -0.00813100021333
0.0168225253955 0.0109420225099 -0.00813100021333
0.0131355707976 0.0119708547862 -0.00813100021333
0.00983596320332 0.0120960517995 -0.00813100021333
0.00107032436825 0.0117571550657 -0.00813100021333
0.00894613068258 0.0108420813423 -0.00813100021333
0.00456552407567 0.0122460322639 -0.00813100021333
0.0187840011966 0.0110717571609 -0.00813100021333
0.0129708226513 0.017763487147 -0.00332499993965
0.024663209203 0.0149949551857 -0.00332499993965
0.021523052737 0.0151541890206 -0.00332499993965
0.0183612745074 0.0171700457444 -0.00332499993965
0.0192717951322 0.0192861727732 -0.00332499993965
0.0165740115063 0.018468532481 -0.00332499993965
0.0209880981276 0.0135322373201 -0.00332499993965
0.00584077694403 0.0166758258775 -0.00332499993965
0.0278330859105 0.0123062731503 -0.00332499993965
0.0308727239367 0.0123307360275 -0.00332499993965
0.0197310649913 0.0153037400243 -0.00332499993965
0.0153182152825 0.0147135208836 -0.00332499993965
0.0265699175009 0.0152194254748 -0.00332499993965
0.0146074723433 0.0182837966846 -0.00332499993965
0.0163340820605 0.0167705737165 -0.00332499993965
0.0170081347806 0.0151735107552 -0.00332499993965
0.0122681270454 0.0134934141322 -0.00813100021333
0.0126674406415 0.0150051224399 -0.00813100021333
0.0198924813647 0.0133802314563 -0.00813100021333
0.0168111060957 0.0135115755386 -0.00813100021333
0.0179434741501 0.0124735631621 -0.00813100021333
0.0245394274551 0.0128555596061 -0.00813100021333
0.0227895673229 0.0147334424886 -0.00813100021333
0.015933280565 0.0152251641936 -0.00813100021333
0.00507288326419 0.0137622997242 -0.00813100021333
0.0293487786055 0.0129065592063 -0.00813100021333
0.0261519668766 0.0120909723216 -0.00813100021333
0.0285857134019 0.0114105428964 -0.00813100021333
0.017457597817 0.0153031757865 -0.00813100021333
0.025183413761 0.0147876921709 -0.00813100021333
0.0145318738385 0.013776969474 -0.00813100021333
0.00887752195697 0.0137982427405 -0.00813100021333
0.0273617224323 0.0130731038459 -0.00813100021333
0.00205026818529 0.0132241102669 -0.00813100021333
0.0106115428709 0.0136885136517 -0.00813100021333
0.0227581325302 0.0125704022267 -0.00813100021333
0.0245825158939 0.0161604254246 -0.00813100021333
0.0202596129972 0.0119726027441 -0.00813100021333
0.0219058413334 0.0162414157447 -0.00813100021333
0.0195425181456 0.0152446852915 -0.00813100021333
0.0166310785714 0.019872000441 -0.00528356752257
0.00580204605769 0.0188285773389 -0.00332499993965
0.0155439439091 0.0196872236175 -0.00332499993965
0.0136257215401 0.019872000441 -0.00403611503043
0.0118302944709 0.019872000441 -0.00489535013301
0.00900177789553 0.0194489932484 -0.00434996406431
0.00452910143413 0.0187141065359 -0.0045241827219
0.00159817959546 0.0181775336215 -0.00375853856902
0.00326670666323 0.018449485746 -0.00365841262876
0.0227147610501 0.0185230868772 -0.00522616639412
0.0239064448617 0.0180267071104 -0.00429497581788
0.0190052001614 0.0197360145342 -0.00502131661115
0.0191297617876 0.0191516650594 -0.00736385674174
0.0172387969666 0.0193804723457 -0.00744072681308
0.0201250053042 0.0192932207536 -0.00605851279909
0.021494529978 0.0190237285904 -0.00443437439923
0.00146821228393 0.0170706161102 -0.00672135336116
3.11893672532e-05 0.0162227931474 -0.00713097657049
0.0207342484029 0.0172151216331 -0.00812453110429
0.0175453315832 0.017302421271 -0.00813100021333
0.0098241184752 0.0152778153992 -0.00813100021333
0.0192328797246 0.0170213942896 -0.00813100021333
0.0118733818574 0.0167456859913 -0.00813100021333
0.00355188182635 0.0145725358649 -0.00813100021333
0.00656719246423 0.0151248460524 -0.00813100021333
0.0136073153888 0.0163583452919 -0.00813100021333
0.000234548374739 0.017813579265 -0.00434998536698
0.00595712547993 0.018895361692 -0.00525202391124
0.00267540207391 0.0179156065842 -0.00590251855269
-0.000715855117891 0.0168881968222 -0.00601205163968
0.00473848889536 0.0180566757386 -0.00664047350773
0.0081145944688 0.019094152977 -0.00625997513694
0.0100574385379 0.0196200075639 -0.00602107604007
0.0300876651997 0.0142765260089 -0.00672945180171
0.0254494487344 0.0169994751478 -0.00702178062612
0.0209672316669 0.0186795055372 -0.0073599112759
0.0226648760624 0.0182228206949 -0.0071133565578
0.0128196932354 0.019872000441 -0.00637074653341
0.0148026559852 0.019872000441 -0.00586778405284
0.0157871374544 0.0197514018665 -0.00716099302961
0.034364646145 0.0115714920379 -0.00430578462447
0.0327237290562 0.012661708785 -0.00472884876387
0.0311066753194 0.0137181445299 -0.00483885896113
0.0355367360528 0.0109458667748 -0.00662477954408
0.0293701785331 0.0147741231713 -0.00527246160617
0.0320590984268 0.0131080480981 -0.00598660702836
0.0276856780615 0.0157834243246 -0.00578936095701
0.0250936761715 0.0173652509917 -0.00484146949359
0.0265733803293 0.0165020586333 -0.00460535392793
0.0131650191063 0.0191904032781 -0.00764980446942
0.00212854931119 0.0155548635473 -0.00785236397859
0.00742619697738 0.0179073486143 -0.00758447930989
0.00956209863279 0.0182597561437 -0.00779064067682
0.00360577360774 0.0167809609521 -0.00758222230666
-0.000209441187858 0.0138382016236 -0.00812697780876
0.00882148279538 0.0163459366224 -0.00810565031513
0.00520945841533 0.0161049557699 -0.00798132588068
0.0148810850087 0.0185227378578 -0.00798150201912
0.0218780378249 0.0107849981683 -0.00777347135046
0.0316780248587 0.0126217186274 -0.00780751629118
0.0333059493738 0.0118436382507 -0.00766858611025
0.0274805136867 0.0156716590725 -0.00739614765244
0.0136196410573 0.0199044440939 0.00530443985582
0.0155444838813 0.0200174683457 0.00523187678832
0.000384000013582 0.0142355138776 -0.000393394435759
0.000384000013582 0.0123278998544 -0.00196513760259
0.000384000013582 0.0125847867054 5.70442397279e-06
0.000384000013582 0.0133737968344 0.00153666442163
0.000384000013582 0.0143926830067 -0.00212518783312
0.00730479890544 0.0105790002272 0.00122107128313
0.00613383625573 0.0105790002272 -0.00187056594082
0.0161540580341 0.0105790002272 -0.00261704608524
0.0154769361443 0.0105790002272 0.00251471492335
0.00697830957227 0.0105790002272 0.00489022037149
0.0138414154571 0.0105790002272 0.0034470824604
0.00888404644273 0.0105790002272 0.00232901182608
0.00777958730892 0.0105790002272 -0.00215253785034
0.0129764969522 0.0105790002272 -0.000669994473911
0.00826269094387 0.0105790002272 0.0039494594086
0.0100945840899 0.0105790002272 0.00379425219118
0.0107987982449 0.0105790002272 0.00126293804352
0.0243875869833 0.0105790002272 -0.000597161021022
0.00660684191152 0.0105790002272 -0.000373732544013
0.0115443597773 0.0105790002272 -0.0015703306096
0.00920942423007 0.0105790002272 -0.00166716295168
0.00328625075535 0.0105790002272 -0.000911572714371
0.010612039334 0.0105790002272 -0.000355125539395
0.00302585924016 0.0105790002272 0.00631890046155
0.0141178599358 0.0105790002272 -0.00162485585048
0.00833099178983 0.0105790002272 3.60475747271e-05
0.0165959878895 0.0105790002272 2.01574224502e-05
0.011980600493 0.0105790002272 0.00342851650954
0.00183046742001 0.0105790002272 -0.00163294888825
0.012265009487 0.0105790002272 0.0020091453222
0.00714835030399 0.0105790002272 0.00293103470952
0.0150855872078 0.0105790002272 0.00064020322015
0.0128436809423 0.0105790002272 -0.0024856762158
0.0220529602952 0.0105790002272 -0.000740248437059
0.0257233691343 0.0105790002272 0.00254040494112
0.0317052681474 0.0105790002272 0.00369482950303
0.0202023839476 0.0105790002272 0.00640127251133
0.0151656799671 0.0105790002272 0.00457304820803
0.0334539504944 0.0105790002272 0.006026556016
0.0263821539602 0.0105790002272 0.000331855228073
0.034691398553 0.0105790002272 0.000811354411793
0.0178973766375 0.0105790002272 0.00349677576575
0.0076761818469 0.0105790002272 0.00656983591329
0.027120183302 0.0105790002272 0.00162759248627
0.0300534872508 0.0105790002272 0.00232924834973
0.0105336157512 0.0105790002272 0.0068025197671
0.0120829725607 0.0105790002272 0.0051399525487
0.0302749122205 0.0105790002272 0.000670365730261
0.00587320736216 0.0105790002272 0.00629207145628
0.0242255184358 0.0105790002272 0.00416505683969
0.0287655411301 0.0105790002272 -0.000899973042509
0.0343627343542 0.0105790002272 -0.00163460421064
0.0275461465243 0.0105790002272 0.00606858827248
0.0188534801902 0.0105790002272 0.00542606139787
0.0329730415262 0.0105790002272 -7.94032494538e-05
0.0286230176957 0.0105790002272 0.00280287779752
0.0218610761814 0.0105790002272 0.00155442924738
0.024375440674 0.0105790002272 0.00630062806611
0.000384000013582 0.0167035955571 -0.00232860678707
0.000384000013582 0.0139172531152 0.00605208754206
0.000384000013582 0.0158741451703 0.00291859945793
0.00724539697283 0.0175306006551 -0.00332499993965
0.00421587108573 0.0172805986582 -0.00332499993965
0.00199827271611 0.0120777019397 -0.00332499993965
0.00890498243638 0.0177118558672 -0.00332499993965
0.0265851704821 0.013370570732 -0.00332434892705
0.0113096019599 0.013404791838 -0.00332478755414
0.0121669677171 0.0121861455617 -0.00332471967733
0.0132736042708 0.0132479606465 -0.00332472573983
0.00866956618459 0.0162125743005 -0.00332496297551
0.0219606846599 0.0110044645395 -0.00332439722553
0.0230611752301 0.0145489097051 -0.0033244917288
0.0128416763364 0.015940152415 -0.00332483382324
0.0292266433812 0.0129454371929 -0.00332425817468
0.0145670435979 0.0164544566536 -0.00332480270299
0.00866016604526 0.0144372311094 -0.00332490012603
0.0150500119887 0.0132681263286 -0.00332467558998
0.011417987116 0.0189875471886 -0.00332498293389
0.0170959442443 0.0134280307594 -0.00332462269051
0.0265869579267 0.0113055697413 -0.00332427545903
0.0069120366962 0.0149539225975 -0.00332496855298
0.0106964901306 0.0172114912854 -0.0033249404497
0.00800941672206 0.0122447759833 -0.00332484081179
0.0148515576214 0.011633314158 -0.00332462315028
0.0280637197295 0.0140905912948 -0.00332421443341
0.0218455370465 0.0168319807069 -0.00332443964251
0.0245987108744 0.0167056162086 -0.00332412215694
0.0207230935575 0.0181197239008 -0.003324246449
0.0350291893607 0.0114664646846 0.00583308212034
0.0274904788433 0.0159188522051 0.000217948205301
0.0284763901269 0.0153523551964 0.00142680659536
0.0308461583154 0.0139891894265 0.00425897240151
0.0271044188556 0.0162290238061 0.00402897888953
0.0338449222526 0.0121932789484 0.00440318933654
0.0327540002993 0.0128697000832 0.00547030738998
0.0288167190878 0.0150687789255 -0.00242484374447
0.0286385180493 0.0153302874122 0.00507319053536
0.0287608829422 0.015221483855 0.00335642314903
0.0296009872849 0.0146565509733 0.00039935051761
0.0322056575153 0.0131600535669 0.00359913281118
0.0255780987507 0.0171693412099 0.00524202944704
0.0275279540883 0.0158578518808 -0.00152944170782
0.0237626045169 0.0181024744676 7.64351805941e-05
0.0257949722659 0.0169361563987 0.00101113934857
0.0249170848408 0.0175147243056 0.00358562778827
0.0248952408419 0.0174144354189 -0.000918245839922
0.0169356738184 0.0198598620901 -0.00213426899791
0.0146790014819 0.0199832386323 -0.00199083283441
0.0334937107579 0.0120733412329 -0.00316625714339
0.0315023542471 0.013531209476 0.00113919795503
0.0339384599697 0.0121035010057 0.00283760034546
0.0307402738839 0.0139042820622 -0.00282228882541
0.0307752700508 0.0139258270629 -0.00083665439061
0.0328037940208 0.0127267657485 0.000100936033072
0.0323582982926 0.0129511286795 -0.00192233315079
0.0338941069378 0.0120467920358 -0.00105016622885
0.0239430630779 0.0179684438346 0.00580560747401
0.0236144630255 0.0181647055784 0.00212644913553
0.000384000013582 0.0168381589335 0.0049524475227
0.00171787371877 0.017372329201 0.00421759017657
0.00300778075088 0.0178016240913 0.00304644580103
0.00692035593708 0.0188020137413 0.0033953823086
0.00929722702123 0.0193621013363 0.00422333194017
0.00485975969156 0.0183140906595 0.00270814899875
0.00179230121082 0.0175773100123 0.00182015812963
0.0257834501355 0.0166665166893 0.00668396552801
0.030128864336 0.0144136421819 0.00604060863426
0.0272276513733 0.015651644272 0.00695257709495
0.0322853137683 0.012566989815 0.00698835471901
0.0305754755669 0.0132993049805 0.00714841506305
0.0224196603569 0.0183048460242 0.00647528960692
0.0224808287031 0.016571037883 0.00730621348613
0.017150257633 0.0148343626615 0.00748109247524
0.00769031960988 0.0118229189526 0.00778818483068
0.0190034542832 0.0152289877708 0.0074299515037
0.0093852544781 0.0127081066353 0.0077172045365
0.0150915556401 0.0147284277706 0.00752255437523
0.0178125174579 0.016477083145 0.00739347907673
0.0206470156333 0.0158078030461 0.00737402988949
0.0270071818447 0.0137992942167 0.00729936659233
0.0198346338873 0.012171500659 0.00751195936228
0.0248611755995 0.0145158889015 0.00732405137196
0.0235125968418 0.0127367504843 0.00741165888347
0.0179245375952 0.0119939970685 0.00756029614974
0.0285157928743 0.0135232527172 0.00727464982451
0.0217245435035 0.0127377602084 0.00745150131776
0.0164399894032 0.0107817869237 0.00763260279067
0.0224050462042 0.0148167998027 0.00736909437566
0.030755908101 0.0112299477031 0.0072988533724
0.0241593911915 0.0163943781562 0.00727895590735
0.0250408686955 0.0113567427879 0.00742220328616
0.0205984507485 0.0139693408101 0.00743678776131
0.0322998664918 0.0109116643976 0.0072747143277
0.0280858281538 0.0119978678727 0.00733356569104
0.025650468781 0.0132095628547 0.00734869292957
0.011433076703 0.0124830166489 0.00768924743982
0.0141652857983 0.0114589652711 0.00766143225913
0.0152941575698 0.0127814484098 0.00759349153557
0.00314132426842 0.0129048394771 0.00770568400949
0.00241421436801 0.0141886711147 0.00759598642408
0.00719650616872 0.0156587616348 0.00749024007251
0.0054817271675 0.0144905056306 0.00758165412296
0.00925385912943 0.0156028154934 0.00750218748895
0.00160084395112 0.0122822029431 0.00775218738504
0.0118153937388 0.0171244501262 0.00738428288804
0.00771578653786 0.0140526963427 0.00762189453939
0.00368860726376 0.0112949735882 0.0078347400293
0.00623027946687 0.0130209615457 0.00770152549503
0.0108255509835 0.0160122538282 0.00747065273224
0.00628919248073 0.0113707627781 0.00782823888105
0.0121704184354 0.0143100771206 0.00759127225398
0.0160405712996 0.0164593060243 0.00741983100861
0.0189705229305 0.0179799807329 0.00729771397672
0.0136745591863 0.0165250047906 0.00742515192322
0.0153641668809 0.0183562320735 0.0072859130158
0.0170923251415 0.0186656089741 0.00725625587547
0.02603947369 0.0166796030777 -0.00226102963874
0.0226087508506 0.0183798607384 -0.00274748059903
0.0216787773173 0.0189945321165 0.00195070699416
0.0213266632283 0.0190913800235 -0.000835173919286
0.0216107640814 0.0190560582848 0.00438860800588
0.0144922625995 0.0201330462534 0.00347203227191
0.0124064737952 0.0199437890963 0.00129451670456
0.0126533774287 0.0199778508743 0.00322070132083
0.0129843592897 0.0199566780642 -0.00231490957589
0.0142549903631 0.0200967259508 0.0016742654922
0.0136578505094 0.0200326995947 -6.82706553837e-05
0.0156491901372 0.0201712468272 0.000205780397705
0.0164191686599 0.0200895326202 0.00340995344511
0.0105032036534 0.01949478661 0.00576842001974
0.00766098444552 0.0187560433732 0.0057386628733
0.00363662339613 0.0178168045027 0.00483583087637
0.00568518023399 0.0183211999651 0.00508349629726
0.0114233787215 0.0198554375564 0.0045457882068
0.013857612577 0.0190292318872 0.00705268256245
0.00469533893946 0.0160929655592 0.00735840319514
0.00744141479091 0.0175362339154 0.00709930929701
0.0117810867464 0.0193008707047 0.00668323585267
0.00238383392588 0.0176751288048 -0.00219604287995
0.00547770997634 0.0184958581207 0.000731081775883
0.00813079813054 0.0191241137026 0.00234842866333
0.0105485764987 0.0196391282 0.000773771808924
0.005767132229 0.0185330797314 -0.000752145449191
0.00988757547258 0.0194580408184 -0.000930940983167
0.00802849614301 0.0190142750999 -0.00225148863894
0.00414880775805 0.018158530152 -0.00127905518438
0.00894723145314 0.0192672680547 0.000186652124297
0.0115893062382 0.019849511401 -0.000503163919022
0.00734063773071 0.0189095991912 0.000414352615563
0.00996250721064 0.0194404891575 -0.00275594895781
0.00956518315526 0.019439788477 0.00195136363848
0.00293733365054 0.0179087709852 0.000826234345793
0.000823444308728 0.0174113967449 -0.000831920646827
0.0173179771412 0.0200306587528 -0.000380913154135
0.0168969916191 0.0200795059509 0.00121996257356
0.0187482120967 0.0198260183137 0.00171400977222
0.0195512198557 0.0196249611848 -7.36260602766e-05
0.0202757000561 0.0194606463423 0.00323513668631
0.0201632768884 0.0194407482773 -0.00177400465074
0.00459926903841 0.0174258170957 0.0063898746942
0.00152649415439 0.0157206645969 0.00709792770005
0.00316031939623 0.0164552635152 0.00698399833135
0.0189235096196 0.0194454205944 0.00635974609658
0.020698067756 0.0193241709805 0.00570520113915
0.0175127898787 0.0199422738402 0.00543057727614
-0.0104326263046 0.0251315708698 -0.00144265065539
-0.0133648533915 0.0277121028916 -0.00081940613399
-0.00630533802843 0.0201929993927 0.00166511636511
-0.0129888196153 0.0201929993927 0.00159713578711
-0.0108905596062 0.0201929993927 0.00244947990469
-0.0074580757107 0.0201929993927 0.00300655588807
-0.00896299456032 0.0201929993927 0.00390617049074
-0.00953731415353 0.0201929993927 0.0015977811637
-0.0231345991777 0.0330090001225 0.00245398127986
-0.0142120304507 0.0201929993927 0.00327234536917
-0.0143790425138 0.0221159630772 0.00500599993393
-0.0210822404525 0.032321401706 -0.0023640000727
-0.0183144752649 0.028542911383 -0.0023640000727
-0.0148246401674 0.0248436193261 -0.0023640000727
-0.0111998072145 0.0211105403091 -0.0023640000727
-0.0212626302672 0.0303276259041 -0.0023640000727
-0.0219049214041 0.0326908983367 0.00500599993393
-0.0243741166896 0.0315284268298 0.00500599993393
-0.0198709808109 0.0296380737039 0.00500599993393
-0.0104118948279 0.0235187462941 -0.0023640000727
-0.0162251187995 0.0280143999806 -0.0023640000727
-0.019288228252 0.0321800680159 -0.0023640000727
-0.0120457979767 0.0231305187497 -0.0023640000727
-0.0140777662467 0.0262837748373 -0.0023640000727
-0.0061627691396 0.0213711251151 -0.00107556207596
-0.0259174251617 0.0305006509379 0.00316731885653
-0.0138550892787 0.0271750104572 0.00414222132743
-0.0183758810945 0.0310427597534 0.00383433421645
-0.00993204843901 0.024147753465 0.00374515658747
-0.0162337665386 0.0294123438587 0.00357196723435
-0.0173246452781 0.0306679668685 0.00273735761527
-0.0140965286755 0.0280299783893 0.00245822221483
-0.0068801600756 0.022061658085 0.00211501894811
-0.00822273115272 0.0230651806695 0.00260047515917
-0.0109809818078 0.0253248828035 0.00281655467398
-0.025316174719 0.0330090001225 0.00210030736931
-0.0224551760029 0.0330090001225 -0.000799044528341
-0.0242278449644 0.0330090001225 0.000943301546041
-0.0114710343844 0.0260967756084 0.000254145017034
-0.0150268772769 0.0289104633374 0.00154931449903
-0.00970908064159 0.0245672684141 0.00091424813029
-0.0121526249198 0.0264972152277 0.00183886825436
-0.0134415771321 0.0276571859156 0.000960843661687
-0.00760602052983 0.0226842911202 -0.00153490751033
-0.00795633071511 0.023103396525 0.000428159935689
-0.00888755349128 0.0238604136632 -0.00105693811932
-0.0214838790441 0.0261289686278 0.00359961902967
-0.0199395037704 0.0243429855638 0.00293773276538
-0.0183498043579 0.023027111559 0.0036535590873
-0.0162459533565 0.0208474473312 0.00342922961971
-0.0241033706535 0.0286879269589 0.00346468023785
-0.0174082012923 0.0217710111479 0.00280297268044
-0.0220771562167 0.0263124904813 0.00183570510123
-0.0232838336723 0.0275429334668 0.00185878539147
-0.018207919192 0.0238811731619 -0.000534010663237
-0.0214737749876 0.0281676459274 -0.00157148406346
-0.015172626828 0.0221721101889 -0.00127544417666
-0.0131755829947 0.0204239130248 -0.00102896630721
-0.0140000120355 0.0232248330804 -0.0023640000727
-0.0252756462461 0.0306398889999 0.000260298921137
-0.0266191046449 0.0319022577721 0.00370855488093
-0.00865622903677 0.0201929993927 -0.00190470313216
-0.00720187626663 0.0207613673293 -0.0023640000727
-0.0216102864502 0.0270300452201 0.00500599993393
-0.0228889686616 0.0282165289373 0.00500599993393
-0.0117558957001 0.0250657109033 0.00472643594415
-0.00699565738642 0.0211170623036 0.00467211763576
-0.00883710063768 0.0230344360616 0.00410921513563
-0.0167084711908 0.0215789581934 0.000202759159178
-0.0198063471054 0.0255080657554 -0.0006274749438
-0.018382624312 0.0227920958129 0.000667193212393
-0.0219898505461 0.0269933836103 0.000274470123915
-0.0209236448893 0.0252579422157 0.000962182922377
-0.0232674632525 0.0282988571019 0.000352584103703
-0.0242454136925 0.0307230372812 -0.00124836103365
-0.0227611367152 0.0290276695624 -0.00113080708996
-0.0246862888059 0.0289212769362 0.00147553801165
-0.0198729328774 0.0241080089013 0.00136454005261
-0.0182152112692 0.0315786606161 6.855742215e-05
-0.0200597034617 0.0329622702818 0.00088759070408
-0.012028973053 0.026369556312 -0.00194538054544
-0.0173148651073 0.0308550504067 -0.00162160974163
-0.018829600451 0.0320032188513 0.00202091743937
-0.0161590778598 0.0300101189289 -0.000801979048331
-0.0170889672174 0.0306848020882 0.000473990838639
-0.0148094555336 0.0289127107251 -0.000861766774202
-0.0220089023972 0.0209748723719 0.00601115893765
-0.0243133691136 0.0231892810642 0.00588823768729
-0.0266271330256 0.0252757461778 0.00615554048211
-0.0243729720728 0.0232266190207 0.0078814125282
-0.0208541493424 0.0221772160158 0.00525672336818
-0.0242685536388 0.0251475833775 0.00528283264391
-0.0176783160623 0.0213928404561 0.00508685490115
-0.025416435345 0.0261519337 0.00529118726685
-0.0220693763525 0.0250331998357 0.00513365209685
-0.0225821513363 0.0229446392509 0.00532408478941
-0.0274958304872 0.0285808757721 0.00526146776931
-0.0194953666337 0.0217580787726 0.00519019239891
-0.0162669392676 0.020501445516 0.00505130590062
-0.0089872871959 0.0201929993927 0.00543262845942
-0.0305359281582 0.0288109649739 0.00740212598795
-0.0291942517505 0.0275197859795 0.0074587431151
-0.0261042342019 0.0253395779841 0.00800022470885
-0.0275618833056 0.0269032708601 0.00804771042493
-0.0268186663327 0.0269471452397 0.00534868077124
-0.033775471705 0.0321002475595 0.00619063263088
-0.0316112514329 0.0313845794649 0.00546065378955
-0.0297843576006 0.0283564945923 0.00601673048053
-0.0133177981103 0.0257683031394 0.00512092488578
-0.0170876109184 0.0288960036392 0.00520533879388
-0.011508682332 0.0215029309047 0.00500599993393
-0.0128304605717 0.0230346767092 0.00500599993393
-0.0183754749211 0.0274781283755 0.00500599993393
-0.0143279778828 0.024042198455 0.00500599993393
-0.0204824613438 0.0313160989315 0.00500599993393
-0.0167929789614 0.0250777698956 0.00500599993393
-0.0160174765915 0.0234314799962 0.00500599993393
-0.0146967033219 0.026230591836 0.00592889132508
-0.018511443115 0.0291371728339 0.00608544310931
-0.016289394156 0.0276981344762 0.00579968343589
-0.0229935009377 0.0324181669889 0.00637205106263
-0.0100085229795 0.0229041514807 0.00541850325048
-0.0177459378132 0.0233370128056 0.00500599993393
-0.023748900451 0.0295548252189 0.00500599993393
-0.0187013436218 0.0255978845425 0.00500599993393
-0.0215472468408 0.0295696908773 0.00500599993393
-0.0226874030791 0.030994801991 0.00500599993393
-0.0282591584221 0.0300133841581 0.00521748035803
-0.02986256868 0.0319657949669 0.00519867134427
-0.0252114852518 0.027839734886 0.00515916699538
-0.0205552316244 0.0244878747893 0.00507196887748
-0.0251848717351 0.030214310991 0.00501220859207
-0.0281814640295 0.0319344153651 0.00509506555081
-0.0268061353883 0.0301307754918 0.00511908911711
-0.0214268109306 0.0207841652614 0.00793835325087
-0.018158666685 0.0215230564063 0.00800003957901
-0.0337537269222 0.0319066935603 0.00759766200181
-0.0278420541883 0.0292868772243 0.00820999965072
-0.0305832484792 0.0323365531271 0.00820999965072
-0.0307876868743 0.0301381992151 0.008095314251
-0.0320086169869 0.0311416864319 0.00806766328226
-0.0315458226691 0.0329076017476 0.00636037251065
-0.0212157798197 0.0296293974363 0.00717953412462
-0.0249031895051 0.0323079618919 0.0073131247418
-0.0234458286091 0.0308544491018 0.0074218315189
-0.0269917001412 0.0327092892477 0.00784514985709
-0.00982338585669 0.0213428606737 0.00634830957691
-0.0117259217143 0.0206997465446 0.00745461104337
-0.0130614545494 0.0229296389006 0.00699814075054
-0.0137766810029 0.0243605606779 0.00662791064489
-0.0120479026476 0.0237738617735 0.00611483774179
-0.0188081053353 0.0278761153813 0.00706145692383
-0.0152582394323 0.0237976241183 0.00747586162784
-0.0205423887753 0.0279267824758 0.00760757264932
-0.0163506392388 0.0250982733994 0.00736390212073
-0.0179422078264 0.0262772669186 0.00742371714985
-0.0286667141661 0.0318575560087 0.00818369085821
-0.0239527565048 0.0265326539976 0.00814096908549
-0.0235490433358 0.0250028239239 0.00817315964932
-0.0221264782128 0.0253563184331 0.00809481696123
-0.0177013788132 0.0239380552992 0.00793518088392
-0.0197095273258 0.0232847068774 0.00805092528687
-0.0255927583701 0.0278186461569 0.00817474709844
-0.0221812216994 0.0235469895638 0.00815359365393
-0.0163572611097 0.021389780479 0.00793215636774
-0.0212079330439 0.0267031673763 0.00798727884871
-0.0258902819592 0.0307966600443 0.00799917016571
-0.0241448840098 0.0290956996792 0.00801933827244
-0.01966247694 0.0255142233702 0.00796056756375
-0.0131706319728 0.0212050164039 0.0076827724346
-0.0224665964261 0.0285569117115 0.00788238588552
-0.0145575917143 0.0221228266414 0.00775046519566
-0.0233369068906 0.0219902845171 0.00683569953121
-0.0314837800101 0.0297714255099 0.00641277242039
-0.0255162592841 0.0240684087591 0.00674408939696
-0.0270774266456 0.038364396447 -0.00138296173007
-0.0272220799082 0.0384867027754 0.000168010827259
-0.0270027249195 0.0368906008948 -0.0023640000727
-0.0257100897989 0.0356995242309 -0.0023640000727
-0.0280982514372 0.0330090001225 0.00396694518025
-0.0247758589615 0.0330090001225 -0.000990311387318
-0.0287277535219 0.0375193546345 -0.0023640000727
-0.0282795434791 0.0358636560852 -0.0023640000727
-0.0285746335525 0.0352329108513 -0.000970771288131
-0.0289891713371 0.0342942914449 0.0020470176696
-0.0263694725338 0.0336149169814 -0.0011588330345
-0.0274920784426 0.0331491116653 0.00203145404343
-0.0275157464796 0.033996041959 4.26730299485e-05
-0.0287996404941 0.0348133340479 0.000451519708234
-0.0267927608287 0.0330090001225 0.00553541548754
-0.0225641551026 0.0330090001225 0.00089853539748
-0.0254599491606 0.0330090001225 0.00440365155575
-0.0290939994156 0.0377517931692 0.000698142542373
-0.0290939994156 0.0373174204334 0.00267366682147
-0.0290939994156 0.0363435642318 0.00145928677111
-0.0290939994156 0.036514397347 0.00421234699994
-0.0213229080269 0.0340393262544 -0.000134091851582
-0.0217151168547 0.0342058339386 -0.00185622172408
-0.0238472815804 0.0361970385584 -0.000555092377501
-0.0226418413548 0.0352849705787 0.000590647321615
-0.0229000768535 0.0354273847081 0.00222748073457
-0.0255482144127 0.0375876889792 0.00040040397833
-0.0249257345071 0.0369596487598 0.0018775981864
-0.025137210737 0.0365716390486 0.00408024053727
-0.0208475176989 0.03363196248 0.00282332368933
-0.0266539394381 0.0372010478358 0.00460693543952
-0.0283026927524 0.0330090001225 0.00691486622407
-0.0259377710902 0.0335470298258 0.00692712589724
-0.0260860718259 0.0350017583379 0.00633734601243
-0.0279368332885 0.0374811013109 0.00523923991197
-0.0277515090466 0.0360374238187 0.0065292303578
-0.0276769674866 0.0343912802268 0.00731981612447
-0.0285066532037 0.0387770012021 0.0025341845295
-0.0289907685547 0.0387770012021 -0.000468035198651
-0.0263218247825 0.0378844290676 0.00232798886894
-0.0220692462903 0.0342609786572 0.00357067305474
-0.0239044504225 0.0355730595002 0.00402877152876
-0.0248260371012 0.0351084576962 0.00542857509226
-0.022883967083 0.0340390432801 0.00491755581876
-0.0239434154318 0.0359975519869 -0.0021735179428
-0.0253301234179 0.0371288181678 -0.00195403112961
0.0092427590225 -0.0147538720614 -0.00776088390585
0.00531328897688 -0.0142598828831 -0.00776128816906
0.00267153511265 -0.0139351385717 -0.00776058270671
0.00800562980282 -0.00928699970245 0.0042971797294
0.00313191017991 -0.00928699970245 0.00692698986158
0.0077573465442 -0.00928699970245 0.000226029811363
0.00170804135948 -0.00928699970245 0.00490469893124
0.00150338952203 -0.00928699970245 0.00699592220668
0.00746508698091 -0.00928699970245 -0.0018475022837
0.0038164648031 -0.00928699970245 0.00193707368663
0.00635302436652 -0.00928699970245 0.00442012698238
0.0104614312351 -0.00928699970245 0.00493918337315
0.00975943497104 -0.00928699970245 0.00355745901955
0.00962414275956 -0.00928699970245 -0.00160739894594
0.00614140112632 -0.00928699970245 0.000203568680554
0.010531412444 -0.00928699970245 0.000360894826842
-0.000898000027519 -0.0114827659798 -0.00407335098466
-0.000898000027519 -0.0112213187998 0.000611307152007
-0.000898000027519 -0.0119548275483 0.00205028413799
-0.000898000027519 -0.0121563292729 -0.000480752953008
-0.000898000027519 -0.0106930466577 0.00692391570823
0.0106370002031 -0.0122961134233 0.00375265820979
0.0106370002031 -0.0125630862148 0.00529244139275
0.0106370002031 -0.0105313226409 -0.00345474193935
0.0106370002031 -0.0143590758444 0.00475753380894
0.0106370002031 -0.0157665307919 0.00433232947625
0.0106370002031 -0.0117365066146 0.00237755173814
0.0106370002031 -0.0138750844264 0.00262687908439
-0.000898000027519 -0.0147994946072 -0.000819236327882
-0.000898000027519 -0.0151300377321 0.00161285254714
0.0106370002031 -0.0136219618797 -0.00679690212651
0.0106370002031 -0.0152894608347 -0.00122422956603
0.0106370002031 -0.0166381327186 0.000869815435771
0.0106370002031 -0.0125528943365 -0.00346931428988
0.0106370002031 -0.0118096761487 -0.00495333117345
0.0106370002031 -0.0173954237114 0.00434880520284
0.0106370002031 -0.0156395287098 -0.00495032663536
0.0106370002031 -0.015315199 -0.00752084734659
0.0106370002031 -0.0105031343672 -0.00678617868354
0.0106370002031 -0.016802332528 -0.001625505027
-0.000898000027519 -0.0137096693333 0.00569675742542
-0.000898000027519 -0.0139808927879 -0.00679869614796
0.00734561069171 -0.00928699970245 -0.00745128016945
0.000145453371475 -0.00928699970245 -0.00330656364057
0.00135208039501 -0.00928699970245 -0.00718084805603
0.00712810522852 -0.00928699970245 -0.00342574836675
0.00379671864983 -0.00928699970245 -0.00420699910117
0.0032322975004 -0.00928699970245 7.55403705818e-05
0.000476877707985 -0.00928699970245 -0.0057338475628
0.000646162886658 -0.00928699970245 0.00142619057638
0.00532086392082 -0.00928699970245 -0.00172991344942
0.000424099899624 -0.00928699970245 0.00584073348544
0.00196476616403 -0.00928699970245 -0.00432262617728
0.00333765582897 -0.00928699970245 -0.00261019957362
0.00167113275371 -0.00928699970245 -0.00209238289379
0.00527973982275 -0.00928699970245 -0.00343324564377
0.00569346412073 -0.00928699970245 -0.00609438072145
0.00257368713146 -0.009535616566 -0.00812800042331
0.00851527516141 -0.0107547204693 0.00782325553968
0.00639736091752 -0.0120188241883 0.00776835416689
0.01026075436 -0.0119301599625 0.00777220494879
0.00925448164215 -0.013622289237 0.0076987139696
0.004645623369 -0.0109026142511 0.007816832355
0.00875446438954 -0.0160305140546 0.00757112183344
0.00721751916676 -0.0145366054829 0.00765638561521
0.00102787076467 -0.0122864932702 0.00768632002905
0.00243354839718 -0.0129144602798 0.00766978760222
0.000328392412349 -0.0105710459453 0.00781130846113
0.00486408615231 -0.0139854045946 0.00764243873076
0.00328099195025 -0.0144395606826 0.00754623009831
0.000817620743492 -0.016565708516 -0.00367022286896
0.0023523633732 -0.0166770383234 -0.00475047591576
-0.000898000027519 -0.0162002791716 -0.000134709087951
0.00709163083866 -0.017612709314 -0.00412431365854
0.00703876824162 -0.0176583397401 -0.00200320330079
0.00918163718905 -0.017971412629 -0.00347175979441
0.00440700463964 -0.0171742438486 -0.00409145819029
0.00481439447587 -0.017291080876 -0.00213087802099
0.00868336563216 -0.0179283188531 -0.00196956401466
0.00165778681562 -0.0167686592103 -0.00236070384163
0.00320355618171 -0.0170369181206 -0.00176233660962
0.00206055058647 -0.0165077872456 0.00482982471404
0.00370711190923 -0.0167075358942 0.00526350018579
0.00684179637971 -0.0174079511773 0.00533644618491
0.0100798280973 -0.0178181990166 0.00601162629942
0.000392901634695 -0.0158592717349 0.00526724669567
0.0053888482955 -0.0166697601394 0.00616258671785
0.00712867130167 -0.0166092357606 0.00687105921798
0.0033348131145 -0.0157131330965 0.00667435825724
0.00512212001694 -0.0154907170587 0.00722032938316
0.000162791954307 -0.0137738208795 0.00734683901614
0.00646006228158 -0.0175972004487 -0.000194989709791
0.00204901448501 -0.0168399302276 0.000101174577927
0.00456545829837 -0.0172719427677 0.000560023081616
-0.000438515192888 -0.0164128815453 -0.00180484268476
0.00907336505144 -0.018045841329 0.000322111849507
0.00299777283185 -0.0169715394875 0.00148477666105
0.00651757428448 -0.0175722873051 0.00146946396725
0.00727854399045 -0.0176465605461 0.00281224153255
0.0094868642648 -0.0180034075752 0.00328827363621
0.00858983938305 -0.0179080246683 0.00189496749049
0.00440450920531 -0.0171401268215 0.00320971931383
0.00520192133387 -0.017170890256 0.00459326051636
0.00302854123698 -0.0168376486374 0.00364416305177
0.00133104904998 -0.0165612290055 0.00308180137127
0.00835412380965 -0.017725862101 0.00517580437511
0.0012303357306 -0.0146953097659 -0.00732311650361
0.00609127190913 -0.0158313862451 -0.00743002821756
0.00753653429044 -0.0174427353705 -0.00596768220491
0.00394862416217 -0.0167430417072 -0.00554135085913
-7.05940088547e-05 -0.0158701779612 -0.00519662394539
0.00549453634734 -0.0169802903586 -0.00583146356322
0.00141723324179 -0.0157593689468 -0.00601829618596
0.00324552761262 -0.0157077210441 -0.00689280916894
0.00865760092319 -0.0169106996139 -0.00705957932304
0.0103783662875 -0.0171356981798 -0.0072646605489
0.00956036986222 -0.0179724579065 -0.00524959626029
0.000298866288578 -0.00990709404986 -0.00812511339322
0.00733110564834 -0.0118690492429 -0.00797616917762
0.00517975714057 -0.010509040782 -0.00806983529917
0.0077238985212 -0.0136174641009 -0.00786410082577
0.0097716781633 -0.0131469442619 -0.00787876419646
0.00314614738586 -0.012041501195 -0.00796737799755
0.00192423989921 -0.0112814865589 -0.00802803735078
0.000827769403445 -0.012783929917 -0.00786429820989
0.00487932719341 -0.0127662155699 -0.00791662409183
0.00826107153419 -0.000956090078209 -0.00354232840238
0.00776516441773 -0.000341622484196 -0.00596806925658
0.00849447191829 -0.00175260769301 -0.00673260247057
0.0104944188181 -0.00548107827358 -0.00762677364515
0.0079800036628 -0.00095010501687 -0.00783989536804
0.00885296659001 -0.00222290774349 -0.00520186075083
-0.000897000019904 -0.00533643278083 -0.00784981067984
-0.000897000019904 -0.00353887023364 -0.00903621925547
-0.000897000019904 -0.00698825863074 -0.00149059080689
-0.000897000019904 -0.00643484537946 -0.00662165596469
-0.000897000019904 -0.00568080281157 -0.00261916716789
-0.000897000019904 -0.00781381830174 -0.00410778575002
-0.000897000019904 -0.00655913364231 -0.00510073775019
-0.000897000019904 -0.00576081116789 -0.000449929701385
-0.000897000019904 -0.00297845613467 -0.00178635766462
-0.000897000019904 -0.00450652901163 -0.00431519275543
-0.000897000019904 -0.00379853572128 0.00451226957645
0.0106370002031 -0.00901288647468 0.00679202050663
0.0106370002031 -0.00776195986503 0.00332347233597
0.0106370002031 -0.00761827412059 0.00551822450392
0.00340143371302 -0.00928699970245 -0.00575168626644
0.00898548900307 -0.00928699970245 -0.00780589863542
0.00844683459208 -0.00928699970245 -0.00448980697198
0.00441550138834 -0.00928699970245 -0.00718284730488
0.00934690881045 -0.00928699970245 -0.0060668682043
0.00871058514537 -0.00928699970245 0.00173958974028
0.0076007404413 -0.00928699970245 -0.0060181981747
0.00647737450666 0.000326000008499 -0.00155739065484
0.00618793838734 0.000326000008499 0.00142747404099
0.00152843650232 0.000326000008499 0.0110025434582
0.00289253804115 0.000326000008499 0.00501646029008
0.00610589229887 0.000326000008499 -9.91311041105e-05
0.00616200171831 0.000326000008499 0.00302038318425
4.83237565368e-05 0.000326000008499 0.00978432367996
0.00427114695416 0.000326000008499 0.00176483078301
0.00411266302711 0.000326000008499 -0.00274315556993
0.00424780072178 0.000326000008499 -0.000402496225585
0.00171608408644 0.000326000008499 0.00810820403679
0.00575934973165 0.000326000008499 -0.00331746050707
0.00526005585873 0.000326000008499 0.0083865767029
-0.000897000019904 -0.00125327280227 -0.00119565947042
-0.000897000019904 -0.00199735868127 -0.00706658850477
-0.000897000019904 -0.00345683530047 0.0115146028567
-0.000897000019904 -0.00311070894363 0.00300375328634
-0.000897000019904 -0.000140703650093 0.0086437195996
-0.000897000019904 -0.00185646838315 0.00798085603344
-0.000897000019904 -0.00288454065254 -0.00373451352161
-0.000897000019904 -0.00202299160986 0.00485170617622
-0.000897000019904 -0.00142745220106 0.00229539413516
-0.000897000019904 -0.00186433174747 0.0115690626243
0.00402961684544 0.000326000008499 -0.00696627108225
0.00237751930557 0.000326000008499 0.000466800145198
0.000709354278291 0.000326000008499 -0.000114132263252
0.00221473246356 0.000326000008499 -0.00608541168226
0.00141457793362 0.000326000008499 0.00466316931511
0.00248324708159 0.000326000008499 -0.0113856260901
0.000927480986075 0.000326000008499 -0.00359386859314
-0.000897000019904 -0.000198109262536 -0.0066438561236
-0.000897000019904 -0.000634623550187 -0.0100467371462
-0.000897000019904 -0.00207613092316 -0.00910610712149
-0.000897000019904 4.55092313709e-05 -0.00834836670616
0.0106370002031 -0.00722876866763 -0.00179914513133
0.0106370002031 -0.00725187743384 -0.00675290982941
0.0106370002031 -0.00653527064131 0.00425509569618
0.00711575879101 0.000326000008499 0.00776051315227
0.00383151594468 -0.00850089754734 0.0112230903012
0.00091715379771 -0.00896383255232 0.0110333714344
0.00800992697839 -0.00882964172119 0.00948684598097
0.00539430021085 -0.00882800802468 0.0101606038327
-0.000897000019904 -0.0085132337389 -0.00230014695051
-0.000897000019904 -0.00721351552814 0.0055759022092
-0.000897000019904 -0.00895866693916 0.0040370144763
-0.000897000019904 -0.00469225706111 0.0106098211153
-0.000897000019904 -0.00763811062339 0.00932609783407
-0.000897000019904 -0.00867002153173 0.00751729860919
-0.000897000019904 -0.00900535176545 0.00208673777868
0.00929638942288 -0.00928699970245 0.00751773961691
0.00774974548127 -0.00928699970245 0.00631979755322
0.00160100540864 -0.00928699970245 0.00289827092458
0.00505416804849 -0.00928699970245 0.00310541341863
0.00614107537818 -0.00928699970245 0.00607716731643
0.00350100425191 -0.00928699970245 0.00486521377845
0.00656098481865 -0.00928699970245 0.0017753940814
0.00143546089289 -0.00928699970245 -0.000198336441216
0.000116868473526 -0.00928699970245 -0.00119709281429
-0.000423465350566 -0.00919907229246 0.00885083236437
0.00687122290061 -0.00922858459831 0.00852766363132
0.00535772984459 -0.00927543627625 0.00801462349549
0.00143547277685 -0.00916044670423 0.00927379431365
0.00287445790353 -0.00916995991337 0.00916962177765
0.00112158929154 -0.00787188491832 0.0123785696074
-0.000826823836593 -0.00759385431664 0.0125115384111
0.000608675219889 5.56607987982e-05 -0.012419859716
0.00239741458892 -0.000151149841898 -0.0129102221006
0.00207572596323 -0.00188514725242 -0.013242430187
-0.000764911866895 -0.00273188743062 -0.0129798857589
0.00794153193518 -0.00491393358143 -0.0121476253522
0.00184744861396 -0.00603973053869 0.0129364519892
0.000382127159328 -0.00534090278469 0.0129249223381
0.00321665474975 -0.0075811240539 0.0125175433096
0.000708628780354 -0.000570765836015 0.012884739422
0.0016665273738 -0.00386175127259 0.0130160003901
9.53237472641e-05 -0.00290360021137 0.0130160003901
0.0026020228886 -0.00227334899869 0.0130160003901
0.0032668882991 -0.00514620637196 0.0130160003901
0.0078826394402 -0.0074348523158 0.0108342232503
0.00903277323921 -0.00616756858275 0.0109600762661
0.00964322072622 -0.0086516664545 0.00892912397589
0.00679856137981 -0.00682470042806 0.0119148505983
0.00542949910367 -0.00792641701388 0.0115604773964
0.00651763509689 -0.0053014688091 0.0127149959701
0.00480172211682 -0.00603734142927 0.0128175889
0.00890690230206 -0.00226925776614 0.00681738167616
0.00920008824991 -0.00306759528185 0.00833963781692
0.00959156089245 -0.00358490675472 0.00681177785375
0.007725398285 -0.000389841598456 0.00936424077405
0.00811566076902 -0.000630930569903 0.00605897798953
0.00871414295476 -0.00232218477616 0.00956613267518
0.0106370002031 -0.00566893499779 -0.00339844762182
0.00992185530117 -0.00408048581325 -0.00205294619589
0.00891377961436 -0.0020451753337 -0.00161967893541
0.00990451061127 -0.0041972958976 -0.00554278413819
0.00986685908797 -0.00404583348193 -0.00378879940253
0.00979413309663 -0.0038531656125 0.00351934736405
0.0102784137813 -0.00489108381856 0.00451336065874
0.00833408613821 -0.000836003646835 0.0034382156085
0.00891853503056 -0.0021130270379 0.00527344066035
0.00910937963877 -0.00241398602277 0.00285283605859
0.0104003601475 -0.00507352259306 0.00270980208664
0.00983195035697 -0.00386301609736 0.00174398516214
0.00864750726561 -0.00146132452297 -0.000137469144024
0.00801792418663 -0.000201940068235 0.00180596024369
0.00980026483642 -0.00376723936285 -0.000225772359765
0.00779464310183 0.000244699520127 1.16396451338e-05
0.00897474278211 -0.00358850919677 -0.0112940183547
0.00759140568016 -0.000959899919638 -0.0119274748061
0.00955208427084 -0.00531133505282 -0.0104881606684
0.0100862566974 -0.00680945546117 -0.00928553196548
0.0104696229868 -0.00562449740139 0.00827817036513
0.00878508375271 -0.00346260019114 0.0121975187453
0.00881983972618 -0.00500915058736 0.0118067334951
0.00954424920683 -0.00424358784428 0.0102670830557
0.00740220456322 -0.000245360008001 0.0121916639722
0.00822727700963 -0.00168885378144 0.0111920598871
0.00788035419893 -0.00314832228515 -0.0126556971642
0.00685968229188 5.32695702505e-05 -0.0129178536916
0.00631527649821 -0.00222195490666 -0.0129415246392
0.000756122139873 -0.00350359568411 -0.0132579999045
0.00419443495287 -0.00192598192696 -0.0132579999045
0.00513425628315 -0.00345537008754 -0.0130916046091
0.00654144395004 -0.00146068959338 0.0129782647603
0.0043529567985 -0.00378321820379 0.0130160003901
0.00612126082262 -0.00339529771253 0.0130160003901
0.0038049469251 -0.000894145066058 0.0130160003901
0.00514679905418 -0.00226113292382 0.0130160003901
0.00789852687462 -0.00222787354316 0.0127342280819
-0.000897000019904 -0.00769485920196 -0.011124684632
-0.000833618669733 -0.00456633491317 -0.0127835080595
-0.000250317710979 -0.00659476646578 -0.0125666151332
0.00570173089968 -0.00799981314339 -0.0110961377442
0.00453580059041 -0.00743815108746 -0.0120097989091
0.00160843862474 -0.00607632199096 -0.0127734377077
0.00322438164877 -0.0067248549927 -0.0125627337723
0.00642811873841 -0.00596423152987 -0.0123181243837
0.00733264650068 -0.0072346075569 -0.0110501104363
0.00881006849929 -0.00760220334059 -0.0101083183046
0.00480616033782 -0.00555887867474 -0.0127907144481
0.00259821947061 -0.00415073758385 -0.0131619602389
0.00651342857263 -0.00455781964239 -0.0127622594326
0.00507756228067 -0.00923590667828 -0.00905810652142
0.0024437465975 -0.0091481390153 -0.00988427645398
0.000484325036303 -0.00921836144386 -0.00967492454076
0.0037831406149 -0.00861596994208 -0.0109994617184
0.00825661897396 -0.00904462454648 -0.0091379972031
