-0.00107125516705 0.0203196309364 0.00291665979131
-0.00317888901259 0.020440034644 -0.00151703068643
-0.0031728221588 0.0205397379809 -0.00502973556599
-0.00466209880923 0.0203664967233 0.000939807629558
-0.000579294054419 0.0204496213459 -0.0016192365161
-0.001808620274 0.0203958471742 0.000164194442542
0.00138952390978 0.020350028792 0.00206854872141
0.00741763524472 0.0204192551214 0.000175543234008
0.0131459560412 0.020472003052 -0.00116398160423
0.000660861095626 0.0204446509651 -0.00133169939769
-0.00424814906533 0.0204829906267 -0.00312758135555
-0.00281147384167 0.020322604364 0.00265416866524
0.000182292650535 0.0205148256491 -0.00384782324325
-0.00287022705464 0.0205010233566 -0.0036381209241
0.00365556477048 0.0205667483309 -0.00536264403492
0.0173021773642 0.0205266933005 -0.00271442761006
0.00881061591473 0.0204379853627 -0.000358209832343
0.016837329221 0.0205770907101 -0.00453241453217
0.0043947013297 0.0205359994272 -0.00421215434569
0.0110344718591 0.0204271972363 0.000223480577186
0.00381268305789 0.020403766957 0.000394583747277
0.00136961125687 0.0205191939983 -0.0038941443085
0.00805810844176 0.0204915866355 -0.00231516214425
0.0144350317801 0.0204694878652 -0.000958524681842
0.000603001871553 0.0205466120084 -0.00492975288781
-0.00335863759753 0.0203614185837 0.00123687928732
0.00685778700558 0.020484263191 -0.00216589059082
0.00747600913048 0.0205706036621 -0.00515224736076
0.00982701534605 0.0204304305132 1.1741566968e-07
0.0122092086218 0.0204548114009 -0.000643095498742
0.00889025409903 0.0205620184605 -0.00472155672782
0.0029773927802 0.0204640524089 -0.00180540215204
-0.000988044541343 0.0205093482221 -0.0037608824846
0.0136980100798 0.0205724256943 -0.0046525498257
0.0186327477302 0.020511261315 -0.00205005971982
-0.00053342436631 0.0205413141751 -0.00484606713476
0.00539517733539 0.0204099989622 0.000318407695498
0.0142532599474 0.0205463482451 -0.003683334237
-0.00447017568379 0.0205443649959 -0.00531035736887
0.0198791196263 0.0204872535148 -0.0012667655302
0.024376625976 0.0202976417931 0.00470806471779
0.0217196792085 0.0203891069834 0.00180761899448
0.0187507078178 0.0203738051512 0.00216471394287
0.0169884655582 0.020312380029 0.00397942477157
0.00830579393647 0.0203041926233 0.00390418278889
0.02358629472 0.0204791457435 -0.000879336086728
0.0156975271093 0.0204463319178 -0.000170703241875
0.0131053913021 0.0203610330572 0.00234387825459
0.0139992058444 0.0202766421232 0.0049615198127
0.0198486783225 0.0203732608 0.00222259959186
0.0191612543089 0.0203350636918 0.00336640649523
0.000908114530332 0.0202980610148 0.00381422946941
0.00853268382897 0.0203615378793 0.00215676277496
0.0148034901613 0.0203748451039 0.00198469316127
0.000339431007475 0.0202569115346 0.00505289679513
0.0176734822083 0.0202703442369 0.00529229476291
0.00965711706306 0.0203279300329 0.00322806082694
0.0115142917938 0.02028728223 0.00454243231267
0.0225579184978 0.0205393872519 -0.00276256282731
0.0225685482148 0.0204961918283 -0.00143950061518
0.0204619610266 0.0203331027622 0.00347527904454
0.0153256828693 0.0203415008662 0.00302531152696
0.00628277793487 0.0203067371774 0.00375032419828
0.0161289951638 0.0203769143957 0.00197108944594
0.0176399301614 0.0203493843975 0.00287079018994
0.0198374991068 0.0204474465736 -4.94216168499e-05
0.0144603785602 0.0204248773055 0.000439804515835
0.00842806768999 0.0202474032098 0.00564769012164
0.00612558462533 0.0202588215012 0.00521162264704
0.0106188157595 0.0203608403302 0.0022564345967
0.0211485338372 0.0204914205309 -0.00134670812603
0.0222301508019 0.0202898454889 0.00486621322023
0.0196042629696 0.0202565972611 0.00578571404035
0.00202936461764 0.020279462721 0.00442580881545
0.0217783510294 0.0204596659497 -0.000350725571179
0.0194417511486 0.0204133505626 0.000979757261633
0.0209770403592 0.0202793987717 0.00513905510637
0.00472502653712 0.0202783001825 0.00456260032967
0.0129719315286 0.0203118785277 0.00384400189178
0.0211383721551 0.0204256722992 0.000666150649491
0.0171892503713 0.0204711434287 -0.000874444103841
0.0121958536837 0.0204187191413 0.000543360902709
0.0207487674288 0.0205231595574 -0.00233357837184
0.00704510811282 0.0203424496361 0.00268541031885
0.00978972592479 0.0202529710698 0.00552831586265
0.00982490121884 0.0203922168638 0.00126586787935
0.0215386254589 0.0203203100722 0.00390741448068
0.0233917793581 0.020274892457 0.00536768880871
0.0176333802086 0.0203846923707 0.00178939838744
0.0197616382013 0.0202989744903 0.00449401214692
0.0165413241835 0.020417836021 0.000733529656844
-0.0029192042346 0.0202535844978 0.0050324442892
0.0129151467712 0.0202492502716 0.00575957540843
0.0184416247456 0.020433865749 0.000314028739618
0.00290578262241 0.0202593097376 0.00507580255427
0.0154890531382 0.0202570102468 0.00561858490921
0.0236758231353 0.0203548962631 0.00292859939787
0.0231984129467 0.0203988985401 0.00156330822233
0.00719468534417 0.0202846556961 0.00446070166343
0.0103195608411 0.0202946109273 0.00427317460381
0.0232443133817 0.0204411401075 0.000271575633891
0.016787696256 -0.0204136681107 0.00621242549417
0.0110050149178 -0.0204887340748 0.00625365916588
0.00697012674787 -0.0204581305885 0.00669771552546
0.0249933985337 -0.0202330504473 0.0065247440893
0.0229826450065 -0.0202642259704 0.00651369065745
0.000587238558707 -0.0205919289406 0.0064882906249
0.0129259150965 -0.0203316761419 0.00690117938517
0.0238042841169 -0.0200781561749 0.00738565526803
0.0149173872842 -0.0204427179729 0.00620188463411
0.0192596130171 -0.0203706745397 0.00624937534599
0.0207937223579 -0.0202921743927 0.00653163276982
0.00177390588032 -0.0205699086075 0.00651293936852
0.0192003197427 -0.0173736569923 -0.00853546246612
-0.000443353295955 -0.019007822016 -0.00852462827999
0.0130412309344 -0.0168762872352 -0.00862231298134
0.0138132926089 -0.0151472374399 -0.00877153446431
0.011944918093 -0.0174881857458 -0.00857517044174
0.00756975384177 -0.0179993551711 -0.00855960138603
0.003407163059 -0.0191204695684 -0.00848805438712
0.00677803990155 -0.0189053302128 -0.00848407859042
0.0179056878288 -0.0168471517551 -0.00859143145624
0.0131500458746 -0.0181033284835 -0.00851189547766
0.00168079623981 -0.0189898081343 -0.00851161624919
0.0169677716056 -0.0176860760589 -0.00852290782521
0.00550633187428 -0.0184503763931 -0.00853349477536
0.016391057768 -0.0166758921167 -0.00861716430105
0.00408326023686 -0.017969879579 -0.00858623584393
0.01042404684 -0.0174444762871 -0.00858954628129
0.0205494043686 -0.0175326010493 -0.00851196991089
0.0121898044367 -0.0161608887993 -0.00869211365275
0.014437562213 -0.0170556907367 -0.00859666660328
0.00901210030837 -0.0177320499415 -0.00857356344259
0.0062137288427 -0.0173596420125 -0.00862611109817
0.00803261969569 -0.016950225586 -0.00865018250776
0.0110169890849 -0.0160361533256 -0.0087113353822
0.00299375142219 -0.0205853909186 0.00617433642214
0.0181614049628 -0.0204259397695 0.00593384308435
-0.000557068685698 -0.0206419711657 0.00575973556923
0.00642553784435 -0.0205661750407 0.00570750347092
-0.00194499650807 -0.020642052453 0.00613664102669
0.00454938585992 -0.0205763314358 0.0059712541848
0.00941829354809 -0.0205153130528 0.0061345835594
0.0026438221548 -0.0205367663674 0.00269234935976
0.00417598652229 -0.0203238850468 -0.00386605636547
0.00193367427102 -0.0203405528604 -0.00396602498519
0.0156672899664 -0.0202323237399 -0.00355576798855
-0.00203946872251 -0.0203551278544 -0.0046351210606
0.00145862549848 -0.020542086095 0.00252472319642
0.00200143886968 -0.0204292998237 -0.00102771135467
0.00418092313276 -0.0204479949024 0.000217117977835
-0.00235790673354 -0.020494789056 -0.000133963002895
0.0053767587571 -0.0204231709227 -0.000253640033287
0.0212186291274 -0.0200812786345 -0.00691874640841
0.0158566626739 -0.0201949207045 -0.00473114741338
0.00529656419445 -0.0202706059074 -0.00529440621033
0.00704209534084 -0.0202894370484 -0.00417053663965
0.0138728921125 -0.0202786582113 -0.00255058406908
-0.00138147837467 -0.0204727672886 -0.000575981245628
0.00295096211254 -0.0204741827342 0.000722866618557
0.00530427551696 -0.0203356934339 -0.00315156688551
-0.00236036004983 -0.020321658913 -0.00582860763906
0.000133278256375 -0.0204688009712 -0.000268584229943
0.0198739649051 -0.0200997709208 -0.00669924534246
0.00690399577401 -0.0203654893869 -0.00170923138058
0.00515873414965 -0.020467873809 0.00115353634956
0.0048869646085 -0.0203942220361 -0.00134729176647
0.0224154347368 -0.0200695301255 -0.00695919559504
0.00304354791542 -0.02031932937 -0.00434321684922
0.000263218111171 -0.0203960960446 -0.00262215777424
-0.00331745357666 -0.0203724752604 -0.00443399928262
0.000334811017246 -0.0205805521506 0.00346496205525
0.0147659098776 -0.0201906390696 -0.00518724582805
0.0096141231204 -0.0203175680897 -0.00250191054968
-0.0022207687071 -0.0203962685249 -0.00333448418553
-0.000730948331903 -0.0205818790023 0.00320054094343
0.00128680574322 -0.020463811463 -9.92517581193e-05
0.0172412549065 -0.0201471515221 -0.00590197111091
0.0185187632186 -0.0201202292787 -0.00641812962044
0.0182764273511 -0.0201590790126 -0.00521047996865
-0.00106654238849 -0.0205044641579 0.000557503708841
0.00671989230261 -0.0203316349105 -0.00287585883004
0.00948555312262 -0.0202204069655 -0.00573452649515
0.0112031728738 -0.0201701860144 -0.00688972245304
0.0163928560356 -0.020129427352 -0.0067301174042
0.00800438590812 -0.0203154595484 -0.00303655285711
0.0119164538476 -0.0201879716739 -0.00609860985498
-0.00333065994702 -0.0204807194069 -0.000877863499814
0.0170382546156 -0.0201946421282 -0.00439876889966
-0.00352409206711 -0.0204164947781 -0.00304600648198
0.012106396306 -0.0202492225851 -0.00402927572627
0.00423523135787 -0.0202383831976 -0.00666093188795
0.000658099833409 -0.020499257113 0.000884763101097
0.0135641051007 -0.0201490937142 -0.00690097992332
0.00261436160145 -0.0202861452443 -0.00555863913477
0.00747954103952 -0.0202301775595 -0.00599302931079
-0.00239882610198 -0.0204371747194 -0.00204062152877
0.00827356021902 -0.0202765704846 -0.00423773831418
-0.00173153577973 -0.0206170842887 0.00406915793593
0.00902446845124 -0.0201913614372 -0.0068230580925
0.0146748171402 -0.0201384007404 -0.00693159991082
0.0106819596365 -0.0203451685128 -0.0012855235796
0.000690509831161 -0.0202977495741 -0.00573308519416
0.00361189937858 -0.0204025969452 -0.00144041517026
-0.00298598078542 -0.0205401669121 0.00117688668929
0.0109823728166 -0.0202267548909 -0.0050930974817
0.00266854228734 -0.0203640510798 -0.00298079692276
0.000631632148442 -0.0204345191115 -0.00125200252788
-0.00114203862251 -0.0203067912128 -0.00596542218131
0.00361869875098 -0.0205057988641 0.00195567359475
0.0134343465665 -0.0202078531077 -0.00500599718568
0.0108367706374 -0.0202966435681 -0.00283667247042
0.00870681900037 -0.0203683346614 -0.00109454754583
0.0118560331373 -0.0203385451177 -0.0011639878315
0.00384002251701 -0.020277942013 -0.00547414992972
8.43290581045e-05 -0.0203649440396 -0.00369839862534
-0.00125315811942 -0.0205503282794 0.00201194977146
0.00933196246986 -0.0202602858031 -0.00446737959747
0.00741113866378 -0.0204248396811 0.000389282025171
0.00163746850564 -0.0203941969222 -0.00228738794727
0.013379214176 -0.0202451108104 -0.00379659518796
0.0204815126474 -0.0201241465336 -0.005721963466
-0.00447140187491 -0.020365206129 -0.00500661774949
-0.00426765781818 -0.0205940214257 0.00336291054569
-0.00298576756358 -0.0205835518101 0.00262268596125
-0.00261889963253 -0.0206559137946 0.00521998832175
-0.00490246752844 -0.0205041582215 0.000186357221447
-0.00505698702795 -0.0205643300754 0.00247158005238
-0.0040092406429 -0.0206438176913 0.00514863158762
-0.00406081023763 -0.0205465976953 0.00153861731011
-0.00445280289192 -0.0204071723697 -0.00355176194353
-0.00478529531386 -0.0204422262982 -0.00215428060191
-0.00292349112961 -0.0206132960069 0.00371446630593
0.0267099752697 -0.0189613534131 0.00433867692191
0.0265749937338 -0.0195371504075 0.00584698412594
0.0268053170528 -0.0036441785123 0.00319624638588
0.0267542566774 -0.00933664904664 0.00395382062439
0.0267327132824 -0.00812438009065 0.00420829735928
0.0266776233055 -0.0174855861538 0.00508370377533
0.0266448952654 -0.012856353097 0.00542003803046
0.0267050782505 -0.0163208289418 0.00471054422883
0.0268171848015 0.0132947670205 0.00273862140019
0.0266280595531 -0.0184119249397 0.00573615046889
0.0266332395642 -0.0156174706213 0.0056193249831
0.0266886935261 -0.00692247780893 0.00475126124037
0.0267842726011 -0.0142850270037 0.00365802819818
0.0267186060894 -0.00539038674613 0.0043399554477
0.0268245028202 -0.0123879932421 0.00310779998259
0.0267499004305 -0.0128830012601 0.00407363612277
0.0267684377411 -0.0172035649347 0.00391375866942
0.0267171048443 -0.0150201800435 0.00453283131854
0.0266865832693 -0.00354131147545 0.00471736862763
0.0267904785936 -0.00474671705627 0.00340645477113
0.026653186164 -0.0103793757739 0.00526903367968
0.026790592319 -0.0111985359504 0.00352131864369
0.0267784048638 0.00591353439799 0.00336912408887
0.0268140655435 0.00845990003443 0.00286580145052
0.0268412642567 0.0109976617843 0.00247117405516
0.0267227080753 0.00326356891383 0.00413131413703
0.0267504469654 0.00128162254381 0.00381124574575
0.026798862385 -0.0155366073601 0.00349345294391
0.0267853902132 -0.00226102390716 0.00342690688377
0.0268067784965 0.00310844156906 0.00305575482866
0.0266013243309 -0.0140949996525 0.00600124665667
0.0268394823109 0.00490405413032 0.00260389501813
0.0268353406543 0.00151140994158 0.00271818673702
0.0268434993923 -0.00950325637448 0.0027830663152
0.0268434993923 -0.0154910969077 0.00152943450104
0.0268434993923 -0.0146806402743 0.000523811345856
0.0268434993923 -0.00729703045242 0.000647716153751
0.0268434993923 -0.0183716204416 0.00124180104401
0.0268434993923 -0.0110989718482 0.00112136783139
0.0268434993923 -0.00733087236294 0.00273262286902
0.0268434993923 0.00150448414136 0.000959156418197
0.0268434993923 0.00677873793142 0.00249200920872
0.0268434993923 -0.00995225735626 0.000795496994863
0.0268434993923 -0.0165247780605 0.000665265689496
0.0268434993923 -0.018749010857 0.000145837835961
0.0268434993923 -0.0161824866393 -0.000660927415954
0.0268434993923 -0.00465482180831 0.000555080984825
0.0268434993923 0.0098006230648 0.0023956409458
0.0268434993923 -0.00375893218508 0.00123235667259
0.0268434993923 0.012226772149 0.00232492369309
0.0268434993923 -0.0182583390882 0.00273729332654
0.0268434993923 -0.0137421352874 0.00228031358474
0.0268434993923 0.00356941851318 0.00191283291538
0.0268434993923 -0.00605618062082 0.00213222726976
0.0268434993923 -0.00124790423033 0.00170109791619
0.0268434993923 -0.0125217022049 0.00177853792007
0.0268434993923 0.000520610808102 0.00155616339041
0.0268434993923 0.00553309786549 0.00143160518203
0.0268434993923 -0.0149028753847 0.00258953610254
0.0268434993923 -0.00484457788298 0.00181999923468
0.0268434993923 -0.0163960311656 0.00260970759057
0.0268434993923 -0.00261348126746 0.00131293362358
0.0268434993923 -0.00849758948607 0.00217533853245
0.0268434993923 -0.0111604498328 -7.12913982662e-05
0.0268434993923 -0.010663983933 0.00247372787286
0.00413540556797 0.0201362337491 -0.00844810003645
0.0196781108348 0.0198685873908 -0.00835497721816
0.0213055240455 0.0196282906942 -0.00841464695202
0.0250061033798 0.0201447877273 -0.0082027234231
0.0169291729805 0.0201953371904 -0.0082800698485
0.00280828338823 0.0200879881656 -0.00847930304232
0.0226518186034 0.0199063280983 -0.00830807146955
0.0265311958357 0.0198805641991 -0.0030764077105
0.0267597549865 0.0194209264986 -0.000358244952338
0.0262901672635 0.0193448131247 -0.00735092489563
0.0264298839093 0.0165751260212 -0.00749054551459
0.0265180406239 0.018395197939 -0.00476657899009
0.0264816918993 0.0175820940939 -0.00593910689229
0.0266094009188 0.0172639003171 -0.00432205710944
0.0263812597836 0.0181611812562 -0.00695156984098
0.0265001376449 0.0195592048491 -0.00411094314931
0.0264037313991 0.0196842853324 -0.00542237703538
0.0266237538133 0.0184585173457 -0.00317052438559
0.0266662258667 0.0192541796791 -0.00192218515327
0.0267171529489 0.0179720583881 -0.00218791427126
0.0263947383381 0.00240559443033 -0.00792623045829
0.0265085025907 -0.000937406298483 -0.00771807600308
0.0262899117971 0.0137608537457 -0.008010745601
0.0238856932476 0.0191070181422 -0.00851047265551
0.0111548670275 0.0196614224192 -0.00849799166758
0.0080846212236 0.0198315280681 -0.00849052496194
0.0186624221227 0.0182044439793 -0.00864370278257
0.00873561896602 0.0189794920666 -0.00859200732955
0.0168606184155 0.0178783881873 -0.00869146196959
0.0217277647594 0.0185554845104 -0.00858738674467
0.025056779071 0.0183951183223 -0.00859253508123
0.0126728998789 0.0195996641784 -0.00849894742067
0.0229094258374 0.0178030735466 -0.00867436294604
0.018406850823 0.0194640246941 -0.00849060400157
0.0142627572595 0.01833149577 -0.00864729179561
0.00671095778082 0.0193034504472 -0.0085611547989
0.00163219600282 0.0197990052689 -0.00852258279281
0.0196538515685 0.0173212528457 -0.00874751818177
0.0152129585124 0.0192213789613 -0.00853420858336
0.0199262558163 0.0187426936662 -0.00857230547228
0.0137834318641 0.0195838421031 -0.00849605232999
0.0128516547748 0.0167766453467 -0.00876176855839
0.0122159630264 0.0177655457595 -0.00869510588918
0.0218425938435 0.0169069377086 -0.00878491095332
0.0148237625074 0.0138252622548 -0.00896098738783
0.0139596210162 0.0173137843907 -0.00873067219642
0.0202658287104 0.013925617968 -0.00897359491077
0.00599478791209 0.0181562535131 -0.00864776491439
0.0154110934813 0.0173901991814 -0.00873080021917
0.00303819853269 0.0184172673144 -0.00862035850155
0.0175944701101 0.0142747869356 -0.00894144870839
0.00533268888971 0.019122263337 -0.00858250065
0.0209372962831 0.0148096069477 -0.00891836585073
0.0207485984789 0.0159875613626 -0.00884095899102
0.0109307903778 0.0183678895516 -0.00865134221881
0.0189732140178 0.0146493089468 -0.00892189936412
0.0171822163173 0.012949046742 -0.00902636952358
0.0079039549723 0.0176436094123 -0.00868787996866
0.00923995831758 0.0166171422309 -0.00875945384345
0.014712441401 0.0163274849773 -0.00879757748028
0.0113649918185 0.0169991717631 -0.00874204089689
0.0220982441325 0.0145025402223 -0.00894245536884
0.0193127416618 0.0160193111472 -0.00883383904987
0.0216208850287 0.0135131549727 -0.00900523382055
0.0120042040955 0.0160193699226 -0.00880812318522
0.018629381067 0.0133239991718 -0.00900703284794
0.0128852383843 0.0152295797343 -0.00886267708102
0.0104226720358 0.0155117831411 -0.00883562819203
0.0160073218091 0.0164979971644 -0.00879102421184
0.00969846372445 0.0176556876336 -0.00869340630916
0.0153763096058 0.0152784492253 -0.00886825705692
0.0173719265042 0.016180069633 -0.00881653778629
0.0244105291769 0.00949770940884 -0.00872699667163
0.0249495456755 0.0137386869831 -0.00860798300989
0.024954296009 1.26258686886e-05 -0.00854046017876
0.0249014044645 0.00131513707883 -0.00856043922227
0.0254453459536 0.0150618207382 -0.00848606117214
0.0244032547724 0.0158916319058 -0.00875976032638
0.0248290517793 -0.00538482635026 -0.00854680481754
0.0248398325993 -0.00130532362861 -0.00856371774128
0.0251580106544 0.00377659285044 -0.00850591820732
0.0245302025742 0.0172479762089 -0.00873345726236
0.0247795962231 -0.0105146920897 -0.00853482785628
0.0252560924232 0.00753370116449 -0.00849868071375
0.0215911766906 0.012209364638 -0.00905886695786
0.0213483595955 0.0101794372599 -0.00910472108458
0.022704329648 0.0106785751724 -0.00900186536181
0.0220243700478 0.00869149981553 -0.00907799763879
0.0229861789691 0.0135919699874 -0.00894076313292
0.0232061727672 0.00865277513574 -0.00893795752652
0.0243287564941 0.00828884482777 -0.00873715441326
0.0225203306955 0.00657677997442 -0.00904571443856
0.0237309382999 -0.000921929971332 -0.00878302341677
0.0229367436946 0.00545522041204 -0.00896482222021
0.0245011813574 -0.00752797817466 -0.0086039722585
0.0237708356753 0.0127919577201 -0.00886501832943
0.0243286298049 0.00577420177338 -0.0087208486201
0.0230011914871 0.000376027065197 -0.0089204492962
0.0235668986881 -0.00508653838116 -0.00878497901653
0.0234718154641 0.00145441116909 -0.00884425892841
0.0238129464426 -0.00321357030122 -0.00875364659438
0.0235249768126 0.0114017398793 -0.0088994519756
0.0237260670929 0.00426660350506 -0.00881757491203
0.0242993022259 0.0024877636085 -0.0087046932385
0.0244623188693 -0.00412595515262 -0.00863293217347
0.0229052445105 0.00355061101382 -0.00895802326482
0.024202699758 0.0146910767903 -0.00880100881071
0.0220707922631 0.00440218353778 -0.00911105952479
0.0238233168588 -0.00653756828963 -0.0087302298813
0.0239698237232 0.0068805137119 -0.00879145861094
0.0256990225634 -0.0185946716229 0.00806107082921
0.0260089360716 -0.0151008891257 0.00791569168106
0.0263701463899 -0.0135127461876 0.00735821525887
0.0259821857338 0.00470589416457 0.00762147846913
0.0263351814851 -0.0109588475983 0.00732927216172
0.0261313791726 -0.000662499893397 0.0074256507893
0.0260615114224 0.00236767368811 0.00748754782376
0.00848418080201 0.00836896824557 0.00839480230277
0.000786972013614 0.0136842349804 0.00777036951755
0.0027186690094 0.0135977124303 0.00792707761375
0.01499074417 0.00445207551493 0.00892264448528
-0.000188202379488 0.0149831584475 0.00769125891017
0.00184132890545 0.0127642580107 0.00785590377142
0.00593777022163 0.010126839584 0.00818822582878
-0.00181763314444 0.0147907131125 0.00755907203323
-0.00444431887682 0.0177196830687 0.00734598327173
0.00415097130452 0.0112546892993 0.00804327252751
0.00335453722089 0.0121539120408 0.00797866215163
-0.00519122955056 0.0184748991042 0.00728539046138
-0.00226650227873 0.0160584616188 0.00752265771586
-0.00336395061237 0.0163724387551 0.00743362768712
0.00716091361453 0.00961763991756 0.00828745281568
0.00573035455128 0.011330940687 0.00817139932085
-0.00250679842358 0.0171997828238 0.00750316379343
-0.000972180355114 0.0111634283434 0.00759697336403
0.0126112265988 0.00432593937982 0.00871492440741
0.00063289761414 -0.0159987753871 0.00746640320502
-0.00209556408596 0.00517076025645 0.00743915091684
0.00794097361005 -0.00204769336237 0.00824359302969
0.0077515985623 0.00510783761987 0.00829837589681
0.000904573292218 0.00325596585857 0.00768203754554
-0.00403643149114 0.00296996960453 0.00724773954861
-0.000239450523367 0.00605427700021 0.00761003235109
0.000104522414136 0.00165546063261 0.00759622506622
-0.00336000777855 0.00705592832171 0.00734752940307
-0.00153526781736 -0.0195491859533 0.00724169258317
0.00860173474836 0.00107636640939 0.00833242800109
0.0175417096635 0.00172479990829 0.00911952761743
0.0137996925792 -0.000300696591168 0.00877258739966
0.00551906443444 -0.00554560758038 0.00799724878879
-0.0028311711729 0.00335750292632 0.00735684515893
0.00752816815758 -0.00536304135112 0.00817450292915
0.00818279122016 0.00330502994244 0.00831805899368
-6.56975812381e-05 -0.00873226773575 0.00747782718072
0.00247439777825 0.00723145771236 0.00785873794242
-0.000242306297414 -0.0175312165501 0.0073747067723
0.00746857260765 -0.00798981933955 0.00814311800698
-0.00284053955911 0.0129682121547 0.00745181688893
-0.00119844707684 -0.0111507867575 0.00735481039993
-0.00181117589649 -0.00306895943619 0.00738185848642
-0.00335634897393 0.0113794799624 0.00739094165479
0.00447283498942 0.00119956405185 0.00797312126919
-0.00181029776402 0.0135376328761 0.00754745278799
0.00193446178383 -0.00795243273388 0.00766025326936
-4.74055390288e-05 -0.00633385258206 0.00750332940098
0.0163701423073 0.000900145667124 0.00900900729256
0.00126426296417 0.00776575756692 0.00775839458777
0.00344784845181 -0.00568570369036 0.00781499431821
-0.00342517960515 0.00571568626374 0.00732848044335
0.00278179894002 0.0036971046553 0.00785035330906
0.00281605011694 -0.0120652906108 0.00769624058885
0.0114853497148 0.00640965110966 0.00863738139894
0.00484465590015 -0.011448185754 0.00787952868403
0.00267124652117 -2.24701228516e-05 0.007803626957
0.00220109380077 -0.00565385449325 0.0077064454101
0.00527836400877 -0.00361891599897 0.00799543418152
-0.00416023262984 0.00989848849144 0.0073059856897
0.00136150796552 0.00660801788834 0.00775534682872
0.000780449140569 -0.00393309927692 0.00759954576128
0.00680763052656 -0.00410976165238 0.00812407715532
0.00629003000278 -0.000799057819037 0.0081118781175
-0.00146070876188 0.00325867584944 0.0074755286347
-0.00186551768622 -0.00560345477497 0.00735185210106
0.0123297046548 0.00278775049097 0.00867501086918
-0.000490129681876 0.00779592933169 0.00760550211995
0.00395770641398 -0.00399402066789 0.00787637598195
0.00898855567828 0.00509587737874 0.00840626751916
-0.00531248768336 0.0158346690727 0.00726453683667
0.0067113195458 0.00285922817368 0.00818512710426
-0.00253917851636 0.0106923869023 0.0074554485589
-0.00111804969664 -0.000413966402975 0.00746884438784
0.0107198799077 0.00263311408913 0.00853290005942
0.00239265539506 -0.0109192996118 0.00767069192542
0.00902603054938 -3.35763251554e-05 0.008358414639
0.0163273502014 0.00282374435695 0.0090244431705
0.0105990560196 -0.00216980738198 0.0084744791068
0.00887902741877 0.0070450718009 0.00841613112271
0.00830500529448 -0.00338175099107 0.00826208366854
0.00300310384625 0.00485037052727 0.00788117218731
0.00430571269072 -0.01248752302 0.0078221092218
0.00137488181401 0.0107406943532 0.00779770494636
-0.00122435833747 -0.0142972867386 0.0073211867224
0.00921642525789 0.00208118211726 0.00839611762552
0.000742373390359 0.00470338308904 0.00768230066785
-0.000433801428841 0.00929663278913 0.00762537817676
0.00716217899997 0.00418011078124 0.00823766126952
0.00924531335127 -0.0015333096484 0.00836261454966
0.00545382895419 -0.0101520855489 0.00794563975306
0.00658204361851 0.00170568555034 0.00816234141833
-0.000665573700443 -0.00744670127288 0.00743825934583
-0.000678564362765 0.012311574792 0.00763405540559
-0.000702605659312 -0.00296008370231 0.00747974376417
0.00507121313478 -0.00775511903996 0.00793612034628
0.00413270244176 0.000125739540506 0.00793271817749
-0.00237782452009 -0.00760963341321 0.00728712202991
0.00426339705875 0.00820288966059 0.00802463522131
0.0118988160599 0.0013607182 0.00862316256298
-0.00199969150575 0.00777687997256 0.00747349764087
0.00307714653785 -0.00738434429703 0.00776569438461
-0.00201777719288 -0.013102070247 0.0072638182607
-0.00481666574792 0.0146323176765 0.00729584808573
-0.00135176848149 -0.00424749682168 0.00741022738121
0.00487439525428 -0.00217409590432 0.0079745602139
0.0103257672203 0.00657092718752 0.00853773434035
-0.00140653278121 0.00667303614883 0.00751429014076
0.00856602360403 -0.00826780763973 0.00823617648776
0.0118760114492 -0.00246228705958 0.00858306744085
-0.00335905424925 0.00462457872233 0.00732337944492
-0.000416508912848 -0.0125926311404 0.00740871823413
-0.00362384302331 -0.00165205134321 0.00723769908086
0.00605398037757 0.00523723938394 0.00815142998649
0.00915082012376 0.00382690316483 0.00840778857129
-0.00400346150564 0.00833746158597 0.00730411618199
-0.00245160031733 -0.0020101233365 0.00733649016486
-0.000184102999774 -0.00467191623639 0.00750795749935
0.0131473053908 -0.00269474069362 0.00869175969354
0.0104457191019 -0.00524069898104 0.0084304822357
-0.00466893743974 0.0115729408984 0.00727825493356
0.00159391476155 -0.00678122661284 0.00764219016797
0.00999593071712 0.00079902899409 0.00845140467653
0.0142374385399 -0.00225227840093 0.00879135990027
0.00452279797313 -0.00624862618359 0.00790324804076
0.00244174957864 0.00249299389412 0.00780865892033
0.00559380972777 0.00016833932629 0.00806072634343
0.00464188736101 -0.0010414518628 0.00796554671847
0.00258846315661 -0.0150809757684 0.00764631046163
0.00833125995581 -0.00711039256333 0.00822721291277
0.00614403327626 -0.00883425315981 0.00801904305933
0.000760116450502 0.0120610254149 0.00775718348402
0.00234097385772 -0.0138660969692 0.00763680842551
0.00200141690664 0.0013810078739 0.00775912602017
0.00110593708189 -0.0124422906477 0.00754315633274
0.00218237337005 0.00587097784798 0.0078196785541
0.00366335981908 -0.010081006967 0.00779000481151
0.00741495702533 3.49194906775e-06 0.00821810550355
0.0012710033458 -0.000608127578403 0.00767552078558
0.0141222346443 0.00348892796869 0.00883852282711
0.00552630867795 0.00896068486309 0.00814246532472
0.00637437452266 -0.0107627303831 0.00801993530783
0.0114643519051 -0.00374264084685 0.00853436015339
0.00188765270788 0.00878244732937 0.00782296217596
0.0150362876133 -0.00104185056773 0.00887317954353
-0.00157689295831 -0.0163109063216 0.00727033376283
0.00643163059292 -0.00757692135918 0.00805668779997
0.00371563918441 0.00315597685857 0.00792650262721
0.00235972551899 0.0117525223944 0.00789378616017
0.0063879218952 0.00685829808623 0.00819674675265
0.0125286321887 -0.00111209519051 0.00865351148314
-0.00337570784822 -0.00295870731937 0.00724634277319
0.000770560033767 -0.0147582982395 0.00749078767259
0.0111923896719 0.00421628242539 0.0085899389225
0.0151474906677 0.00149693320777 0.00890819378509
0.00775618129886 0.00743657678716 0.00832198656407
-0.00327311403549 0.000901966626615 0.00729378051447
-0.00392432619549 0.0138883735796 0.00736635210574
0.00917200299297 -0.00475478849719 0.00832410468
-0.00142707471684 -0.0174202622633 0.00727235892771
0.00903193430335 -0.00627817623624 0.00829669033239
-0.00178562235463 -0.00984182145393 0.00731658481564
-0.00395507218899 0.0126203743124 0.00735102924505
0.0129841545559 0.00132532088732 0.00871758128308
0.00455222939701 -0.00910380349531 0.00787736048266
-0.00305378755372 -0.00557378105868 0.00724838838871
0.00220284566972 -0.00393324083099 0.00772374771003
0.00597273615458 -0.00260910597644 0.00806613136757
0.00471018782239 0.00708712774864 0.00805252811488
-0.00230809514447 -0.00886240981362 0.00728072438294
0.000265509240411 -0.0108821393333 0.00748532035564
-0.00149183753129 0.00985156060729 0.00753852164753
0.000491551222832 -0.00245201513479 0.00758908119758
0.000372094831007 -0.0136875108073 0.00746666629675
0.0112134524573 0.000117183322269 0.00855092246933
-2.66486163014e-05 0.0104834220843 0.00767275938169
0.00295256401273 -0.00292008803192 0.00779931103155
0.00711219566724 -0.00301230912721 0.00816161000869
-0.00119903008338 0.00173524189942 0.00748319432046
0.00417977943088 0.00970604164304 0.00803231563824
-0.00193278376057 0.0121963441398 0.00752338873503
-0.00519240380312 0.013317722423 0.00724993617086
0.00174362697393 -0.00910853936461 0.00763206671959
0.00387827862852 0.00586861500692 0.00796774108686
0.0150195944295 0.00281217719443 0.00891013492748
-0.00217053356125 1.22190046072e-05 0.0073811895054
0.000513244954669 0.00856028118358 0.00770073485976
0.00663533823222 0.00837992201436 0.00823351709392
-0.000846237825191 0.00430269444693 0.00753958982061
-0.000799970775017 -0.00162923580944 0.00748450640149
-0.0023386515414 0.00183750912255 0.00738470211503
0.00234354333696 -0.00197751178517 0.00775552611829
0.00789092529771 0.00222396811495 0.00828179839912
0.00349707307757 -0.00140860452188 0.00786192237666
0.00522086441007 0.00296693430556 0.00805605438691
0.0102460970203 -0.00654196170591 0.00840008161493
-1.99984650506e-05 0.000263043787893 0.00757147373475
0.00229002190282 0.0097991745917 0.00786823067103
0.0124876866587 0.00556247362865 0.00871646144219
0.00726023154554 -0.0065762729213 0.00813901450327
-0.00305596073103 0.00904607330198 0.00739391446717
0.00726800509646 0.00612078099497 0.00826624460857
0.0149790791545 0.000297677937524 0.00888153517102
0.0124072784156 7.92934250283e-05 0.0086547894478
0.000995004990808 -0.00562592511598 0.00760140836572
-0.000297683834587 0.0163102419054 0.00767358904472
0.0139204107879 0.00734184449035 0.00880104075523
0.016358552234 0.00479811877323 0.00901297949825
0.0181620718262 0.00368497500169 0.00915554059886
0.0151001425719 0.00683573291207 0.00889018772178
0.0130648359162 0.00807442583212 0.0087296286245
0.0110330177197 0.00939870593828 0.00856772260117
0.000728792045869 0.0157030123564 0.00775424118388
0.0120589436412 0.00759060670704 0.00867054651371
0.00600831208141 0.0126846540598 0.00816712420635
0.00692621182392 0.0116193962407 0.00824890399694
0.0167316360515 0.00699196779658 0.0089976384792
0.0177114256402 0.00494406175933 0.00910177713114
0.0126950876436 0.00924864246745 0.00868290598929
0.0152519151946 0.00557156862444 0.00892383185837
0.0100668540369 0.00829762239957 0.00852274312162
0.0140611568388 0.00586645658134 0.00883784553383
0.00488421577382 0.0122857736172 0.00809847693027
0.00928051339324 0.0101898509717 0.00843456680119
0.00394314214831 0.0134392976518 0.00801349745614
0.00237253613306 0.0152780888317 0.00787326845121
0.00812495768055 0.0111654370819 0.0083383724012
0.0190438878224 0.00463023492587 0.00919349957258
0.0200061008317 0.00546479904382 0.00919349957258
0.0257015252524 0.0200812083027 0.00564665519758
0.00387324178578 0.0199795074865 0.00708716567153
0.0222998359009 0.0202043301483 0.0063929679323
0.0196574606685 0.020024160294 0.00708423637627
0.0156884823207 0.0200739409236 0.00684093848983
0.0144873767484 0.0199624945904 0.00727335478365
0.0246781563249 0.0202044854755 0.00641881784125
-0.00503115017975 0.0199249849109 0.00720614794721
0.00777318389638 0.0200573431676 0.00681923047235
0.0124999032516 0.019933754235 0.00736619507584
0.0202237038464 0.019336435633 0.00769909815797
0.0168878450105 0.0199115027753 0.00747301072383
0.00605589116117 0.0193989354497 0.00752745287745
0.0112196884534 0.0189047293178 0.00774622076286
0.0231354406813 0.0192091230754 0.00777230330669
0.00878991342145 0.0194865454781 0.00752754994183
0.0162252806392 0.0189888410242 0.00777167702747
0.0214724810157 0.0197358412511 0.00758005847727
0.00499114127038 0.0198329074836 0.0073723125649
0.0242215420376 0.0184938932396 0.00802086613896
0.0212447426375 0.0187074385687 0.00791839453543
0.0189155796037 0.0190881719751 0.00776742454908
0.0249469527962 0.0198239517964 0.00757781890764
-0.00517304469431 -0.0204174799121 0.00672241169543
-0.00516719013528 -0.0046617000466 0.00702401621357
-0.00551575431898 0.00316376951442 0.00707520815808
-0.00561602603984 0.00132117826939 0.0070193131727
-0.00485744279479 -0.0162041098148 0.00689937046041
-0.00565645569016 0.00510248774393 0.00707482413936
-0.00482603074884 -0.0150295983332 0.00692718441086
-0.00532076604994 -0.00270182287156 0.00702090177488
-0.00477177447136 -0.0175457498239 0.00689682306838
-0.00513563688924 -0.019097178412 0.0067825756822
-0.00553357867836 0.00660204073308 0.0071302363635
-0.00486769170743 -0.0117292717008 0.00697346110645
-0.00497348747136 0.00906538517763 0.00722616324838
-0.00482767761154 -0.0105278593485 0.00699320092895
-0.004828562375 0.00751298418971 0.00722256720258
-0.00461154651864 0.00589760111864 0.00722620326335
-0.00417317281357 -0.0185512360656 0.00696408260468
-0.00303242919207 -0.010163026252 0.00719788868144
-0.00274806813448 -0.0179878931255 0.00713004953832
-0.00420362463292 -0.0197841692122 0.0069450074029
-0.00471726336642 -0.00142251913608 0.00712131708868
-0.00398496803234 -0.00493156667127 0.00715828568439
-0.00422728608166 0.00178649188757 0.00721673204442
-0.00475294949267 -5.27727372627e-05 0.00713476258788
-0.00393044789301 -0.0140784580423 0.00704801992714
-0.00376214297376 -0.0154352297471 0.00704951737746
-0.00384162371506 -0.0168919647071 0.00702213222819
-0.0026678567969 -0.011910014191 0.00721629329387
-0.00416299670933 -0.00649928284793 0.00711850759185
-0.00495592512426 -0.00912390553144 0.00699676725694
-0.00368578325482 -0.00787985923264 0.00715412443288
-0.00404993136906 -0.0124032900464 0.00705601246949
-0.00291014219638 -0.0192198683955 0.0070963196452
0.0248454146213 4.77168786561e-05 0.00864520130544
0.0249883106567 -0.0171461922757 0.00848606673947
0.0251632273823 -0.0161071065291 0.00840531904808
0.0249800859177 -0.00617913731451 0.00854674720912
0.0252706152828 -0.0141163418521 0.00836273073798
0.0252142443982 -0.00943823817761 -0.00841525705648
0.0253893725645 0.00243331886349 -0.00842989627968
0.025474226559 0.0124989286673 -0.00846237547984
0.0252248616974 -0.0132964656392 -0.00838920234066
0.0255460448903 0.0162427021659 -0.00846176016182
0.0254348596207 -0.015516317779 -0.00830991423957
0.0257005137879 -0.00592721051058 -0.00828257297013
0.0211651265975 -0.0194948902536 -0.00808980469794
0.0186095561494 -0.019419640528 -0.0081621758521
0.0253047902099 -0.0193256541451 -0.00806817968804
-0.00246934704659 -0.0196763129536 -0.00847099084513
0.0198662382751 -0.0199256915618 -0.0079725543784
0.0235396951621 -0.019468891667 -0.00805405866726
0.0250659408155 -0.0180138186523 -0.00828706214614
0.0245166212298 -0.0168531170485 -0.00841577445392
0.0235812272035 -0.0176321209092 -0.00840944452012
0.0158668859249 -0.018455466245 -0.00843281602124
0.00998549146168 -0.0189800417295 -0.00841802130558
0.0177155625469 -0.018540832905 -0.00838575167603
0.0143542150512 -0.0191102181227 -0.00832158814206
0.02235892122 -0.0187479961825 -0.00826903821003
0.00784110356295 -0.0191564964967 -0.00841568717794
0.0112598726567 -0.019208712498 -0.00835048384433
0.0259853908086 -6.95894240084e-05 -0.00817157614167
0.0260192093631 0.0108953461568 -0.00820078340179
0.0259817991564 0.0173995403825 -0.00824735198736
0.0259678197289 -0.00324576240196 -0.00816707199954
0.0258430747215 -0.011799525301 -0.00819433841039
0.0258361585232 -0.00452556045334 -0.00822864894039
0.0256181323473 0.00955500397721 -0.00839919348043
0.0259052802132 0.0053203337515 -0.00823515557341
0.0262716455658 0.00133393546973 -0.00801806381016
0.025953854704 -0.0140655046265 -0.00812537253423
0.0261098542867 -0.00806346962694 -0.00806536651285
0.0262061834379 0.00427151179493 -0.00806892308338
0.0265086285839 -0.0167176867536 0.00700061661638
0.0265888145815 -0.00471649765115 0.00556363573981
0.0266016130535 -0.00764856253457 0.00574784360921
0.0264214344436 0.00454367821387 0.00563595317638
0.0264639304272 0.0151767743517 0.00450986700241
0.0266452017237 0.00063318035771 0.00481673048788
0.0262971377104 0.0102099587273 0.00579291469673
0.0264475084123 -0.00653810589697 0.00644704845768
0.0262479348662 0.0173140095299 0.00544033357268
0.0264809789673 -0.0124729909767 0.00678093600976
0.0266846497521 0.0179472161881 0.00313637189956
0.0265360531844 0.0092374547673 0.00464499802428
0.0265080370646 0.00731934863084 0.00495297678078
0.0264362921561 0.0181073779945 0.00440223794645
0.0264936538766 -0.015398030895 0.00696518114445
0.0263896434517 0.0026544860516 0.00596091319128
0.0264401815369 0.0162648035194 0.00453939674797
0.0264780985794 0.01227146374 0.00468473582084
0.0264246054502 -0.000646522992032 0.00606241128666
0.0265844636365 -0.0113187527015 0.00614931416685
0.0264403948681 0.0109883793502 0.00498844869907
0.0266341764844 0.0139193889821 0.00374003714523
0.0262134103688 0.0190399180475 0.00547095906716
0.026677100618 0.00803215457396 0.00402115492342
0.0266734874234 -0.000594587611664 0.00477574888007
0.0263493126011 0.00624008407786 0.00586279591604
0.0267141623311 0.0168620665836 0.00307690215667
0.0267126634345 0.0118307621739 0.00351386338629
0.0265757013776 0.00173549582734 0.00508075138828
0.0266568086797 0.00489126923822 0.00439365871685
0.0268051428606 0.0157009861126 0.00270722952637
0.0263964037423 0.0134173160187 0.00500786804642
0.0264803371162 -0.00313372414152 0.00598747582447
0.0263786355968 0.00844787022589 0.00552337051783
0.0267661710317 0.018596524887 0.0020969236186
0.0257274420624 0.0177132239645 0.00724398160338
0.0258951085718 0.016587846979 0.00690059250815
0.0259270060115 0.0148722155329 0.00706644085305
0.0257314665027 0.0188932047969 0.00704991124589
0.0262630585107 0.00756771063161 0.00617965275569
0.0262314741511 0.00512587501448 0.00651641372963
0.0261373579113 0.0154951677697 0.00611200730505
0.0260538543359 0.013417372973 0.00665303474052
0.025911037867 0.0111733082889 0.00747386631969
0.0260795967141 0.00687212082837 0.00705958537834
0.0261444144287 0.00899337507642 0.00659906016851
0.0259965971754 0.010003268076 0.00718273823477
0.0264218857069 -0.00935826816043 0.00681640670185
0.0264887242507 -0.0180683539684 0.00721100819602
0.0263459108867 -0.00523060378399 0.00682848234638
0.0262427630658 -0.00310035084652 0.00712203579366
0.02630689918 -0.00832209291095 0.00725045439494
0.0262585401098 0.0035816856341 0.00651799316865
0.0261007330844 0.0117909210388 0.00657214381672
0.0262082668199 0.000510658724306 0.00698893942419
0.0262772830546 -0.00162817357354 0.0068494496286
-0.00121047337814 0.0204627843873 -0.00732295867802
0.00599533249861 0.0204983445997 -0.00742613454609
-0.00201093212724 0.0202980786187 -0.00818722238767
-0.000243399736489 0.0203664318905 -0.00788768955974
0.0179050005706 0.0205116187489 -0.00784452258573
0.00913798559088 0.0204493114233 -0.00782272851896
0.0132988531381 0.0204444467408 -0.00802066437261
-0.00274481505369 0.0204486330098 -0.00733683147883
0.0122799020673 0.020539186949 -0.00746257908157
0.00464470061955 0.0205013123007 -0.00735431936551
0.0035724408051 0.020468256119 -0.00749021576612
0.0151571722979 0.0204895669414 -0.00785143560006
0.00216490477687 0.0205751594376 -0.0066963235006
0.0234170172977 0.0205788450906 -0.00400320762897
0.0154486487475 0.0205757366289 -0.00668475523941
0.00612065416855 0.0205765552026 -0.00550781727791
-0.00377530500194 0.0205752652888 -0.0063490825807
0.0176760188188 0.0205771722002 -0.00538649313765
0.0051522779457 0.0205760405051 -0.00596628930798
0.0124859035433 0.0205766259278 -0.00570159523266
0.020990523246 0.0205755887953 -0.00705623462472
0.0187995110936 0.0205755698812 -0.00698427513296
0.0237561916408 0.0205756582482 -0.00710293532026
0.0243216677893 0.0205774422812 -0.0053987919834
0.022221548497 0.0205783811881 -0.00440313930688
0.0156850892124 0.0205772193637 -0.00525879585308
0.00993310416057 0.0205765809306 -0.00563998517551
-0.000539537502794 0.0205754125434 -0.00633981846727
0.0221550683038 0.0205758422753 -0.00685877663189
0.0207290792013 0.0205769054256 -0.00577059696835
0.0196177855408 0.0205764902734 -0.00612679287319
0.0106737014895 0.0205750836464 -0.00712028816418
0.000966635577687 0.0205750927425 -0.00671153210114
0.0228885590338 0.0205770429999 -0.00572636108585
0.00741776052552 0.0205754622077 -0.00661958458845
0.0254861710912 0.0205757343309 -0.00710054435589
0.016962658603 0.0205760447312 -0.00644880616379
0.0136464406253 0.0205758044709 -0.00654481103822
0.02608134652 0.0202743482128 -0.00812970911888
0.00707731652421 0.0203365758273 -0.0082855517669
0.0173267745297 -0.0137281416943 0.00861614893769
0.00893595309881 -0.0160555557252 0.00803025489506
0.0102927485307 -0.0149533113736 0.00817022271525
0.00466363768243 -0.0175522053309 0.00771252239503
0.000964833298734 -0.0186802595146 0.0074478900319
0.00327865309075 -0.0180102751413 0.00761121003811
0.0152318228178 -0.0114550700498 0.00864770204856
0.0201413678212 -0.0124737251039 0.00884219537725
0.0197764648423 -0.0108646090434 0.00892328150301
0.0203474191366 -0.0148021986748 0.0087079416554
0.0159425095822 -0.0127672632332 0.0086032848602
0.0185462464397 -0.0105491060362 0.00887830007402
0.00829349190915 -0.0175355377831 0.00790428469135
0.0190685805594 -0.0119277656949 0.00881984492461
0.0150805276839 -0.0137739078689 0.00849527261194
0.0173529720736 -0.0104114736981 0.00882417720425
0.0184498303924 -0.0134099606604 0.00869498269179
0.0178205782656 -0.0122664827582 0.00873316655857
0.0147466847729 -0.0149754192949 0.00840286884994
0.0166328782284 -0.00954955991473 0.00884004453872
0.012126346933 -0.01318534915 0.00837672215147
0.00952641045739 -0.017270037067 0.00798560861675
0.00576324635042 -0.0161254409859 0.00785919670587
0.00967026201042 -0.0138824892768 0.00820423509977
0.0158772874687 -0.0156365056463 0.00842108388562
0.00197940927713 -0.0179630037255 0.00754588908352
0.0106725133971 -0.0171843851284 0.00805116513601
0.0107912767986 -0.0138132930189 0.00826744810503
0.00715381066776 -0.0157984636041 0.00795263425765
0.0199892706272 -0.00882062040686 0.00906181786078
0.0132694858472 -0.0152863497024 0.00830587908682
0.018238616914 -0.0145812771851 0.00861090361516
0.0139449390959 -0.01288096725 0.00849124175521
0.0217578412596 -0.0144574244144 0.00880353146866
0.00844986771165 -0.014351878912 0.00811086552215
0.0185156768187 -0.00894734362676 0.00897649492635
0.00671817881507 -0.0171895214016 0.00784307211578
0.0210331417471 -0.0131720035439 0.00884554428022
0.0206156074225 -0.00983165288969 0.00903173309553
0.0115247098949 -0.0147345005227 0.00824858723993
0.0164563842422 -0.0115420167446 0.00870662690975
0.0169150817566 -0.0151061193239 0.0085086596158
0.0112859103278 -0.0158955088946 0.0081637009752
0.022262298499 -0.0117068053739 0.00898987683495
0.0229878236621 -0.0135695298441 0.00890497261877
0.00612944879772 -0.018667206859 0.00768978194571
0.00295705096471 -0.019132652023 0.007512524572
0.00944672128511 -0.0185209984107 0.0078291659969
0.0204098494303 -0.0162134501507 0.0085361074402
0.0107068810436 -0.0182478813828 0.00791148877434
0.0130069778805 -0.0178359266339 0.00805006310133
0.015487263101 -0.0178683533723 0.00813514260318
0.0227690932552 -0.0151510862952 0.00876462354772
0.0184478533259 -0.0177935732351 0.00825201889427
0.0189929593782 -0.016356112861 0.0084657438091
0.0147948651071 -0.0168405007639 0.00824893493442
0.0165053881342 -0.0172195448596 0.00825945607669
0.0225442000967 -0.0164949740311 0.00857508063581
0.0175553380419 -0.0166319720881 0.00837665025499
0.00727060943136 -0.0185090516878 0.00775229231213
0.0121799700492 -0.0170730932138 0.00812322148895
0.01188575502 -0.0181873166585 0.00796218415844
0.0238397023555 -0.0157485799416 0.0087205579671
0.0265205309442 -0.0195456761782 -0.00302234671118
0.0262923261003 -0.0200190220202 -0.000367452748335
0.0265089817842 -0.0196051118069 -0.00153870950732
0.022439969931 -0.0203797797796 0.00470721610122
0.0224476644649 -0.0202764301917 0.0007800725785
0.0118496206248 -0.020503302316 0.0050850551538
0.00521390023516 -0.0205605504075 0.00455556019982
0.0215252530268 -0.0203616470954 0.00364455270993
0.0242892377156 -0.0200761967786 -0.00608346249317
0.00893741612405 -0.0204510955624 0.00191185198369
0.0177208418594 -0.0203541167023 0.00180643310867
0.0102312901805 -0.0204241871313 0.00141629750664
0.0195969835985 -0.0201921973883 -0.00358595508495
0.0126164371988 -0.020464052589 0.0039051968497
0.00986107218693 -0.0204012328587 0.000392364554487
0.0228607388595 -0.0203408559048 0.00339860344405
0.0222709416347 -0.020320640846 0.00238927791457
0.0061474371015 -0.0205193663833 0.00337014450545
0.0259870355924 -0.0201085578404 -0.00416030437517
0.0167073655946 -0.0203074149503 -0.000382965546711
0.0206199705333 -0.0203275061573 0.00197695946834
0.0232484654729 -0.020104375599 -0.00543636100661
0.00877931416827 -0.0204246231437 0.00084064549551
0.0252377944519 -0.0200383157144 -0.00713714359329
0.019957510351 -0.020372183505 0.00340578975542
0.0239293106004 -0.0203209575944 0.00307774039319
0.0114170140378 -0.0204571638305 0.00315400254813
0.01888872272 -0.0203661535965 0.00274054038889
0.00476561330103 -0.0205316984004 0.00327549945253
0.0207639122965 -0.0201647636287 -0.00415326585598
0.00179933049807 -0.0205975480312 0.00456980559482
0.024219069454 -0.02011149408 -0.004769761537
0.000396479868543 -0.0206139039688 0.0046196097984
0.00389235245549 -0.0205711576151 0.00441990779341
0.0162347009734 -0.0202628859401 -0.00226915031305
0.0114905682355 -0.0204196409229 0.00175704505901
0.0141897156886 -0.0203858209354 0.00157183499575
0.0172484531648 -0.020268735534 -0.00163320603006
0.0199032594723 -0.0202390323972 -0.00167994225549
0.0129644433495 -0.0203541492345 -0.000132373324316
0.0220263462194 -0.0201177795211 -0.00542510216154
0.006961274574 -0.0204612595422 0.0014923478395
0.0183009927334 -0.02025406586 -0.00176176845763
0.00772062586204 -0.0204908315911 0.00292666823293
0.0258262374398 -0.0202841621345 0.00245216569501
0.0251705180183 -0.0201780830965 -0.00184936990874
0.0251586422132 -0.0202250578308 -6.78114278605e-05
0.0209353284294 -0.0202096568494 -0.00237610400118
0.00849669926048 -0.0205271313016 0.00462365553381
0.0118241225377 -0.0203761608004 0.00023958966342
