0.028994957257 0.0104369616813 -0.0860210985494
0.0278823457336 0.0177995439927 -0.0859641301063
0.0275088200424 0.0186364386934 -0.0886761724198
0.0269205907538 0.0220294458639 -0.0894805617593
0.0295449021601 0.00696066379115 -0.0857771192325
0.0293050540437 0.010556602371 -0.0824090425942
0.0284911461689 0.0133428565778 -0.0867103381365
0.0286405079409 0.0140163203087 -0.0839417481028
0.0288811617248 0.00849779836506 -0.0905127734917
0.0284034074512 0.0164177247385 -0.0802042636445
0.0264043517545 0.0213456499055 -0.0644241484391
0.0266444135956 0.0224661877312 -0.0800047741024
0.027225085873 0.0201922960475 -0.0778551519303
0.0265376977375 0.0236640025797 -0.0866332945492
0.0280166038907 0.0169019397156 -0.0734000271988
0.0268651545406 0.0209689026799 -0.0741294105001
0.0274457205399 0.0201489581479 -0.0835974487103
0.0234010700399 0.0286564272509 -0.0399760536425
0.0260988778298 0.0227209747387 -0.066986445631
0.0252069926076 0.0251550140462 -0.0618277524796
0.0229065626992 0.0297875739428 -0.0353701713963
0.0250719497295 0.0239889681771 -0.048781527804
0.0259573212545 0.0224271584306 -0.060731714993
0.0265053555601 0.0218854096633 -0.0715254673994
0.0249675926767 0.0253240126086 -0.0565719422019
0.0241413666864 0.0274166294808 -0.0504963924391
0.0225413333533 0.0302195730626 -0.0287439683326
0.0242240301698 0.0265047507699 -0.045489447456
0.0258297169688 0.0244477416498 -0.0733597260592
0.0253503558162 0.0251379746364 -0.0656478419265
0.0282513110301 0.0164447676889 -0.0762231237006
0.0270303523861 0.0197654356926 -0.0690695947235
0.0248769817196 0.0251024258248 -0.0523004062215
0.0255481676376 0.0182313721074 -0.03914000766
0.0242388301494 0.0247641656093 -0.0381981809513
0.0246925289953 0.0184254070638 -0.0272295269797
0.0256549666581 0.0133018955745 -0.0270306131622
0.0248063829369 0.0188830104105 -0.0301542872062
0.0256378173431 0.0213018147168 -0.048954709298
0.0262001892084 0.0210209216865 -0.0563578397792
0.027957133984 0.0136445789276 -0.061473610388
0.0277136911385 0.0162723910974 -0.0652154510296
0.0232570485119 0.0263576597273 -0.0283314229618
0.024214288355 0.023667212915 -0.0348006800461
0.0235724843841 0.0258633693738 -0.0315505162064
0.0259181512744 0.0154679319397 -0.0368632269155
0.0248949342182 0.0211723869967 -0.0377881064217
0.0267870279589 0.0172080292172 -0.0543271887302
0.0246109942121 0.0207556545483 -0.0325021253366
0.0237442667287 0.026397799457 -0.0355309928519
0.0259394517711 0.0184833179607 -0.0455309455399
0.0263993020211 0.0181617298988 -0.051329740717
0.0251898318648 0.0224966048629 -0.045748807206
0.025300025948 0.0160578725778 -0.0295055606656
0.0269969759274 0.0174254230644 -0.0579841815021
0.028751674545 0.0136178724619 -0.0729589921453
0.027071638096 0.0188653341654 -0.0630614478062
0.027398147426 0.0134996343246 -0.0529394254262
0.0244155736163 0.0248751390014 -0.0410771282463
0.0277970083664 0.0169685465247 -0.0683571479629
0.0259633852438 0.014065846178 -0.0336351158415
0.0253135067572 0.0173573050212 -0.0333033590213
0.0240615811647 0.0215976761294 -0.0268428220078
0.0258178435966 0.0217119515533 -0.0527106158045
0.0267928823383 0.0140616984147 -0.0456915906808
0.0273847535439 0.0164623792088 -0.0609564846364
0.0267330689141 0.015753869862 -0.0495116303683
0.0253952675917 0.0200140568777 -0.0418566511888
0.0258896871715 0.0133725288498 -0.030641230012
0.0264846164602 0.0143096844808 -0.0418941220817
0.0163092162463 -0.0461541828363 -0.0727130753577
0.015534158641 -0.0464029552645 -0.0625725326268
0.0154292948498 -0.0464873674946 -0.0693233340721
0.0145218818475 -0.0465065499812 -0.0598055086478
0.0142914087564 -0.0455946398019 -0.0551233501932
0.0148587513099 -0.0447078177389 -0.0521936654334
0.01533561492 -0.0408293451581 -0.0352689746433
-0.0236134183515 0.00556233828883 -0.0952004973428
-0.0241561114968 0.00905420427059 -0.0948937111313
-0.0239835570164 -0.00112581350108 -0.0951455647421
-0.0245380735863 0.0124234581354 -0.0946622774842
-0.0238104496814 -0.00761639533339 -0.0953349001917
-0.0243290565041 -0.0161433749379 -0.095243575792
-0.0242753161682 0.00259679932513 -0.0949492366944
-0.0239247498569 0.0175918992612 -0.0948539174179
-0.0243300136081 -0.011266194689 -0.0951601616697
-0.0244375668033 -0.00457749692741 -0.0949973373114
-0.0169151545034 -0.0135332772091 -0.0961386589099
-0.0182941784416 -0.0165031724875 -0.0959520339877
-0.0215532955977 -0.0107702531304 -0.0956617947045
-0.018712459445 -0.00695601793649 -0.0960189998395
-0.0204669049175 -0.0134567808131 -0.0957493703519
-0.0169674224652 -0.0258596061815 -0.0959871284185
-0.0213877848731 0.0137798760647 -0.0959703416968
-0.0211342247931 -0.0051224405854 -0.0957746324986
-0.0220136763733 -0.0184658629678 -0.0955201985126
-0.0205822707362 -0.000249231459256 -0.0958929072317
-0.0213270008277 0.00315848501809 -0.09585139601
-0.0207128279126 0.00851346847574 -0.0959822042073
-0.0192164477246 -0.0196989780575 -0.0958129159459
-0.019712432656 -0.0236932188544 -0.0957111858552
-0.0117961238677 -0.0193180689109 -0.0961520001292
-0.00332049127867 0.00389805267737 -0.0961520001292
-0.0162979953765 0.00981204308032 -0.0961520001292
-0.00299851557653 0.0225859533829 -0.0961520001292
0.00154107914764 0.000230951630941 -0.0961520001292
-0.0117969754089 -0.00940217454634 -0.0961520001292
-0.0105137994628 0.00652984436854 -0.0961520001292
-0.0134379433642 -0.0064987650218 -0.0961520001292
-0.0123966234994 0.00858367102629 -0.0961520001292
-0.019418755009 0.0174070952816 -0.0961520001292
-0.00219266194115 0.0134446282648 -0.0961520001292
-0.015359821097 -0.00859445308915 -0.0961520001292
-0.00325635344748 0.0188449306929 -0.0961520001292
0.000738257087036 0.0178331791344 -0.0961520001292
0.0148334455942 0.0135657726017 -0.0961520001292
-0.0135743413536 -0.0142297238406 -0.0961520001292
0.0053649224278 -0.000115794433323 -0.0961520001292
0.0173327677262 0.0200549078785 -0.0961520001292
0.000563119936706 0.014311191445 -0.0961520001292
-0.00652402575077 0.00794966458087 -0.0961520001292
-0.0111049243136 0.000973566811498 -0.0961520001292
-0.0098146541394 0.0174963461515 -0.0961520001292
-0.00163945689469 0.00712845531195 -0.0961520001292
-0.0113989384071 0.0204234026549 -0.0961520001292
0.0110264846211 0.0194993351273 -0.0961520001292
-0.00544691047172 -0.00696290080422 -0.0961520001292
0.00748339357314 0.00533005766221 -0.0961520001292
-0.0188249818331 0.00553023319936 -0.0961520001292
-0.0137273063222 0.00527799857141 -0.0961520001292
-0.0172371779989 9.22397221717e-05 -0.0961520001292
-0.00238295296741 0.0103191157603 -0.0961520001292
-0.00908938096085 -0.00626479981079 -0.0961520001292
-0.00761916652502 -0.00272418257423 -0.0961520001292
-0.00609710650994 0.00472000945146 -0.0961520001292
0.00223174680525 -0.00381419928391 -0.0961520001292
-0.0104009639322 -0.0242374218257 -0.0961520001292
-0.00172400370036 0.0011158116798 -0.0961520001292
-0.00856534814635 0.00300364592122 -0.0961520001292
0.0127934412772 0.0167798817233 -0.0961520001292
-0.00400620494101 -0.0138672140434 -0.0961520001292
0.00774312575677 0.00882232087069 -0.0961520001292
-0.00530282430383 0.00169670712548 -0.0961520001292
-0.00990418906387 0.0127605857152 -0.0961520001292
-0.00678393208359 -0.0148548862234 -0.0961520001292
0.00155876684297 0.00802839956476 -0.0961520001292
-0.0201898955471 0.0237228270029 -0.0961520001292
0.00510425744199 0.0162562865883 -0.0961520001292
-0.0146876099999 -0.0235908542958 -0.0961520001292
-0.00571859406573 -0.0114747442158 -0.0961520001292
-0.00888909762174 -0.0201571977754 -0.0961520001292
0.012057511485 0.013536082256 -0.0961520001292
0.00903451715859 0.017071743311 -0.0961520001292
-0.0149192909783 0.00167094771615 -0.0961520001292
-0.00818042523761 -0.00917463032561 -0.0961520001292
-3.00575670153e-05 0.0204816701181 -0.0961520001292
-0.00995249882713 -0.0125532990225 -0.0961520001292
-0.00612810371327 0.02030727009 -0.0961520001292
0.00243157279277 0.0120972688131 -0.0961520001292
0.00372245736078 0.0190923927938 -0.0961520001292
-0.017486038191 0.0211600082874 -0.0961520001292
0.00790161867432 0.0124728700521 -0.0961520001292
-0.0111873426784 -0.00335674299328 -0.0961520001292
-0.00386022312354 -0.00328959488975 -0.0961520001292
-0.00976597896044 -0.0163641001162 -0.0961520001292
0.000495540396114 0.0032154113762 -0.0961520001292
-0.00354575120525 -0.0091321163715 -0.0961520001292
0.0143408998252 0.0194483296116 -0.0961520001292
-0.0151584896541 0.0186672409146 -0.0961520001292
-0.000864852930767 -0.00780678762102 -0.0961520001292
-0.0165014528813 0.0129282969619 -0.0961520001292
-0.012455519709 0.0149020034023 -0.0961520001292
-0.0158888441457 0.0236901442898 -0.0961520001292
-0.0153707904446 -0.0197565983614 -0.0961520001292
-0.00888639127974 0.00975433893605 -0.0961520001292
-0.000399968234808 -0.00285212201864 -0.0961520001292
0.00437530838833 0.00633486901652 -0.0961520001292
-0.00692465936503 0.0145754370658 -0.0961520001292
-0.0167018193328 -0.00392597896611 -0.0961520001292
-0.0140890465558 -0.0016467370211 -0.0961520001292
-0.0232937929261 0.0208198612059 -0.0948308814245
-0.0250673390843 0.0224238594303 -0.0922891587618
-0.0227772621318 0.0244219218654 -0.0939211308231
-0.023330770464 0.0274576143281 -0.0920999355458
-0.0190162205223 0.0290128158175 -0.0956346177086
-0.0188890841511 0.0342768832102 -0.0934704572802
-0.0170506240587 0.036367486625 -0.0942241245508
0.0201819006249 0.0247880889434 -0.0263420002613
0.0220463858811 0.0172033959825 -0.0263395113004
0.0210924674 0.0215444798271 -0.0263409766762
0.0168917860074 0.0235528368138 -0.0263402990483
0.0112879124725 0.0322761318138 -0.0263419142067
0.0140827215629 0.0257969083318 -0.0263402214612
0.0173655247054 0.020208714117 -0.0263390760559
0.00838172555262 0.0326373287246 -0.026341016825
0.0171507048717 0.029501613908 -0.0263428718341
0.0056356861453 0.0314201564462 -0.0263395193328
0.0148551494506 0.0452193572896 -0.0838602659976
0.0175899506112 0.043222207137 -0.0686037639653
0.0151238877916 0.0453048239958 -0.0705765501764
0.0148307408659 0.045458257573 -0.0747486814899
0.016442775376 0.0439224348894 -0.0807561386197
0.0143626756654 0.0460460679898 -0.0670696842519
0.0130725741752 0.0470365042112 -0.0722458434962
0.0141368634347 0.0459810227694 -0.0779483831904
0.0141216721586 0.0437011214089 -0.0511382174533
0.0167028812073 0.0424177581689 -0.0563890614735
0.0166226394965 0.0417180788547 -0.0517907123689
0.0151617029968 0.0406299933758 -0.0379377849258
0.0136420082538 0.0452581305689 -0.0580694343163
0.0142524344685 0.042622141686 -0.0453236285769
0.0151709735811 0.0423106263512 -0.0480627798305
0.0156001256089 0.041126224505 -0.0431126708449
0.0144433848707 0.0454113538038 -0.0630078803475
0.0173367778587 0.0428901834242 -0.0624016569877
0.0188349337327 0.0355619469259 -0.0304406650636
0.0177168265459 0.0376851946655 -0.035138572848
0.0170390923404 0.0373180774941 -0.0287992589622
0.0183077278385 0.040554734725 -0.0548253548476
0.0180215757076 0.038480384079 -0.0414887384546
0.0186251007263 0.0395035760722 -0.0510010163285
0.0186471480332 0.0372037215473 -0.038367534915
0.0209848586502 0.0339456635605 -0.0351055063878
0.0185585129775 0.039012328229 -0.0478501178445
0.0209723097635 0.0330479580955 -0.0300400316573
0.0192136647758 0.0344971722424 -0.0269300319465
0.0190804881757 0.0377373584695 -0.0440809731906
-0.0190340570056 0.0380930684731 -0.0346607451543
-0.0187629036258 0.0407478577981 -0.0530021419728
-0.0220015266724 0.0327818062761 -0.0276234076167
-0.0213443649836 0.0347562167769 -0.0356935392765
-0.0202704619631 0.0377462114685 -0.0469520670057
-0.0203417123009 0.036860317076 -0.0405963928423
-0.0206441444255 0.0352895493707 -0.0314808822554
-0.0170218519746 0.0408717368209 -0.0418329199669
-0.0158854195395 0.0444117054387 -0.0607558990383
-0.0174719857246 0.043418510662 -0.0637489287962
-0.0173733618866 0.0409659007753 -0.0448362447197
-0.0165065915578 0.0451227194233 -0.0701194527071
-0.0142818639108 0.0471125408087 -0.0703699533864
-0.0175780380178 0.0426036319699 -0.0583743141554
-0.0159812886022 0.0434615135272 -0.0543067954184
-0.0186987660761 0.039157044383 -0.0400439819271
-0.0162553241891 0.0425547894818 -0.0493482297165
-0.0170321836992 0.0442219210321 -0.0668524374605
0.0233765790455 -0.0339048345689 -0.0709794099126
0.0215127803169 -0.0357673229485 -0.0378350960399
0.0226463482698 -0.034395583966 -0.0535973900145
0.0231571099379 -0.0340811583779 -0.0662856615822
0.0201227711787 -0.0402194557067 -0.069466641632
0.0219812846448 -0.0366617734876 -0.0712341560845
0.0233783139821 -0.0325508677738 -0.0461338948333
0.0234230934495 -0.0342503579176 -0.0790181094575
0.0216771939298 -0.036919919841 -0.0649851658941
0.0197573549927 -0.0402850098835 -0.0574566829611
0.0199328083324 -0.0401398317127 -0.061131493724
0.0228754034517 -0.033378729888 -0.0431750132389
0.0215946776827 -0.0361960060597 -0.0486833326756
0.0184764517734 -0.0431153438196 -0.0631988018671
0.023380754261 -0.0327228412944 -0.049385864258
0.0223979386451 -0.0351514854838 -0.0585191628389
0.0216824562199 -0.0358746922653 -0.0459469476176
0.0228442348679 -0.03325794008 -0.0398256351648
0.0212459299643 -0.0382597010276 -0.074035033573
0.0174689502068 -0.0449547566906 -0.0605994899363
0.0215482397381 -0.0359267422899 -0.0420503084398
0.0197308207498 -0.0400198547333 -0.051619095774
0.0234129617866 -0.0333733379507 -0.062517574243
0.0194414130829 -0.0413262458813 -0.0651851887996
0.0232043191813 -0.0348987465477 -0.0830338358952
0.0210914626446 -0.037501632329 -0.0545026305295
0.0228478574327 -0.0328745666 -0.0329039180431
0.0200294861571 -0.0406134116675 -0.0733402371365
0.0188381078038 -0.0419674046744 -0.0551606631562
0.0211457111989 -0.0375866508754 -0.0580286704832
0.0201793066188 -0.0387910297876 -0.045233296352
0.0230730264767 -0.0346671327981 -0.0740245171858
0.021700987589 -0.0346808745069 -0.0920221841115
0.0229405728282 -0.0303619267866 -0.0930400282694
0.0248024073545 -0.0284656205057 -0.0915155437633
0.0245128594354 -0.0296494895015 -0.0538296719363
0.0265142905215 -0.0258503791879 -0.0868112274398
0.027295289584 -0.0237154282164 -0.0902209945586
0.0253854273412 -0.028456550367 -0.0749272532571
0.0255338682437 -0.0275373840931 -0.0681315332455
0.0242972434679 -0.031034996329 -0.0644312398478
0.0240276575915 -0.0313966992102 -0.057813473961
0.0241510265386 -0.0322637987938 -0.0758143638567
0.0258032049612 -0.0278681290461 -0.0847784279556
0.024800921516 -0.0309675618853 -0.0856161907158
0.0257099933637 -0.0284041224224 -0.0884485486386
0.0248396137275 -0.0304875303846 -0.08035853687
0.0257449842339 -0.0271157006196 -0.0713068384921
0.0256579491798 -0.0281107862682 -0.0819053096989
0.0254989667195 -0.0283550807621 -0.0784519331643
0.0247933214109 -0.0298772646679 -0.0694730951486
0.0253462691986 -0.0278918089256 -0.0650158032202
0.0243893240682 -0.031298841035 -0.0723085419199
0.0249387864351 -0.0285932588842 -0.0572564698747
0.0237787810335 -0.0310502001708 -0.0418384367799
0.0174701454474 -0.0419853702172 -0.0904816528462
0.0192091019908 -0.0393254186417 -0.0907238843741
0.019676985179 -0.0368825111022 -0.0929733660921
0.0219898960792 -0.0367781837296 -0.0877787433804
0.0178288254478 -0.04334807233 -0.0821713950922
0.0214406578101 -0.0380055523778 -0.0814084299382
0.0200646495951 -0.039727134235 -0.0866038229314
0.0181121517715 -0.0427396211735 -0.0850715842339
0.0161903237039 -0.0460355889672 -0.0783924772644
0.0181823886972 -0.0430122896198 -0.0791705095765
0.018553662314 -0.043173440273 -0.0679885398456
0.0160557290737 -0.0460514875791 -0.0812844553165
0.0172871644531 -0.0438094718511 -0.0875975799932
0.0199024703983 -0.0403790928534 -0.0801968163904
0.0180864769899 -0.0434564487904 -0.0744655141554
0.0219902886545 -0.0369605576416 -0.0849187930893
0.019278166304 -0.041535090829 -0.0766936504119
0.0236984202423 -0.0341967646034 -0.0882653566424
0.0162521251171 -0.0455638357265 -0.0843247072343
-0.0159636905235 -0.0438309551692 -0.0822347006212
-0.0172035103731 -0.0420252123995 -0.0766069062974
-0.019548272539 -0.0381354727798 -0.0828879383688
-0.016681842675 -0.0424726294378 -0.0901117522765
-0.0182328947119 -0.0402743099883 -0.0809063884879
-0.015955518405 -0.0442099114519 -0.069185218271
-0.0173053287582 -0.041653020847 -0.0841273539244
-0.0188713065497 -0.0393454335163 -0.0779749175868
-0.0160832600924 -0.0438934051564 -0.0732565278488
-0.0190109884108 -0.0388162743566 -0.0889537246575
-0.0159540077218 -0.0439498985648 -0.0785407621994
-0.0188708533738 -0.0391294181046 -0.0857021057561
-0.0204132416587 -0.0349949800853 -0.0500240603026
-0.0181527588918 -0.0395741103176 -0.0520339844667
-0.0209062440248 -0.0354699888348 -0.0762141742373
-0.0182424671262 -0.0389704229838 -0.0443297196807
-0.0202265083608 -0.0358264594269 -0.0583791716067
-0.0202096248105 -0.0348884703166 -0.0408275366114
-0.0201150528125 -0.0352359352071 -0.0437283779105
-0.0204361420122 -0.0337918392934 -0.0291022075742
-0.0194886513528 -0.0378475065133 -0.0685458826941
-0.0210371557127 -0.0343574421345 -0.0607868017497
-0.018191593133 -0.039229721931 -0.0471981114489
-0.0202776974805 -0.0360297744579 -0.0638810702062
-0.0206133649104 -0.0355272376457 -0.0667887091894
-0.0194932219362 -0.0366563086238 -0.0471851974425
-0.0178582691827 -0.0403514045673 -0.0555615991136
-0.0201400580395 -0.034848627169 -0.0376230935649
-0.0187341982596 -0.0378452959506 -0.0415613580815
-0.0201189380377 -0.037225021184 -0.0798082045501
-0.0215054698996 -0.034429419319 -0.0788127675552
-0.020228649262 -0.0344580743683 -0.033730093091
-0.0194262375501 -0.0371271410064 -0.053300448588
-0.0189731463848 -0.0391147899384 -0.0730338276776
-0.0178194450168 -0.0408383847868 -0.0629743434995
-0.0188410470844 -0.0386934652363 -0.0607030512968
-0.0175635345033 -0.0410971908732 -0.05851114349
-0.0208016389356 -0.0345307023665 -0.0555062049592
-0.0178362955307 -0.0411421644767 -0.0690651809445
-0.0183494845587 -0.0399596795045 -0.0660267593107
-0.00948074278393 -0.0312744925346 -0.0960820412986
-0.00267808613597 -0.0324300012681 -0.0958926311492
0.0117582819362 -0.0270168436009 -0.0958716894215
0.0169131722869 -0.0204359419202 -0.0960893726657
0.00290256681734 -0.02690059298 -0.0960510258985
0.0134377704861 -0.032406558703 -0.0955776539991
0.0057089911389 -0.0341981844726 -0.0956424629737
-0.00616966944645 -0.0323997299908 -0.0959625850303
0.0168827344877 -0.0316936216689 -0.0955446175569
0.0199634331828 -0.0179998515201 -0.0961475524932
-0.000452110151574 -0.028912806739 -0.0960193509161
0.00876648534911 -0.0251245388826 -0.0960220418634
0.00582250410311 -0.0239594324617 -0.0961362289743
0.00986093078955 -0.0341703418327 -0.0955623713868
0.0074382156934 -0.0305947831109 -0.0957831026171
-0.0127894019687 -0.0317932577161 -0.0961218103242
0.0138484366439 -0.0211605671058 -0.0961143847175
0.00611654045579 -0.0281960756379 -0.0959252271088
0.0167761067299 -0.0265523550003 -0.0957957657839
-0.00340403670731 -0.0283316260749 -0.0961054069474
0.0039156180352 -0.0316874191458 -0.0957992682085
0.00527164600269 -0.018775663722 -0.0961520001292
0.0128472582186 -0.00968874445888 -0.0961520001292
0.0150846771024 -0.017683057097 -0.0961520001292
0.00590838327482 -0.0106317246554 -0.0961520001292
0.00502180585726 -0.0138180376135 -0.0961520001292
0.015015714735 0.00718970941275 -0.0961520001292
-0.00081061605754 -0.0171222180172 -0.0961520001292
-0.0120948462801 -0.0286785868153 -0.0961520001292
0.0194556385297 0.0118758915316 -0.0961520001292
0.00805651129691 0.00155241453752 -0.0961520001292
-0.00877330384918 -0.0274911233133 -0.0961520001292
0.011967121018 -0.0126214850227 -0.0961520001292
0.0174946427661 0.0158919792102 -0.0961520001292
0.013876585605 0.00427503929741 -0.0961520001292
-0.00148578593495 -0.0257842476974 -0.0961520001292
0.01582586817 0.000694907199636 -0.0961520001292
0.0113964841168 -0.0194563475285 -0.0961520001292
0.0108212764526 -0.00504439706005 -0.0961520001292
0.00863475803028 -0.0136663161408 -0.0961520001292
-0.00403109706656 -0.0169109198131 -0.0961520001292
0.00216487156501 -0.0178781460046 -0.0961520001292
0.0178321994479 0.00498550263422 -0.0961520001292
0.0210802905875 -0.014932554527 -0.0961520001292
0.0161301222354 -0.0052743065499 -0.0961520001292
0.0130365801629 -0.00209170711981 -0.0961520001292
-0.0067922510711 -0.0240583601358 -0.0961520001292
0.0110857830238 0.00282418465789 -0.0961520001292
0.00902578289736 -0.00244585431452 -0.0961520001292
0.017491302683 -0.00229300950994 -0.0961520001292
0.0133325583376 -0.0153429126087 -0.0961520001292
-0.000785713289736 -0.0203250855924 -0.0961520001292
-0.00390333152415 -0.0209448557575 -0.0961520001292
0.0192452947955 0.00837173917161 -0.0961520001292
0.0193756759197 -0.00485615109747 -0.0961520001292
0.00558875827649 -0.00546650515628 -0.0961520001292
0.0203133962616 0.015614152599 -0.0961520001292
0.0137477152765 0.00976743283351 -0.0961520001292
0.0100349911232 -0.0164628983846 -0.0961520001292
0.0191342739893 -0.00843444869075 -0.0961520001292
0.0083594237159 -0.00750043662192 -0.0961520001292
0.0180879453544 -0.0123219733711 -0.0961520001292
0.0174856860359 -0.0158760329155 -0.0961520001292
0.000988059905435 -0.0240109924938 -0.0961520001292
-0.0013896508764 -0.011885779834 -0.0961520001292
0.0113612400659 0.00580401099992 -0.0961520001292
0.00806550790733 -0.020406802906 -0.0961520001292
0.0030787119643 -0.021378100092 -0.0961520001292
0.000872162189401 -0.0137784334676 -0.0961520001292
0.0164015956237 -0.00935197316614 -0.0961520001292
0.00114270600625 -0.010039008669 -0.0961520001292
0.00359266650715 -0.00794301105062 -0.0961520001292
0.0119698374797 0.0464912380266 -0.0857685083758
0.00997764378184 0.0479183318815 -0.0807540875541
0.0151067398642 0.0444944770012 -0.0907892110854
0.0105768435123 0.048160804906 -0.0745481008606
0.0139775261884 0.0453042918838 -0.0879364825479
0.00904409719338 0.0480760001215 -0.0842737095039
0.0055512432647 0.0481590113665 -0.0844276559327
0.00105441818223 0.0481622205408 -0.0730038522465
-0.00247263019292 0.0481595293208 -0.0770355900217
0.00682580754784 0.0481634064616 -0.074433251657
0.00348938164822 0.0481641330714 -0.0700842779525
-0.00591830768026 0.0481604896278 -0.0720206114096
0.00620660125952 0.048164523527 -0.0711760359049
-0.00949651150891 0.048159892524 -0.070789775781
0.000148912176866 0.0481596188716 -0.0788052046287
-0.00231771872941 0.0481612124525 -0.0729548596119
0.0107579850558 0.0481672549355 -0.0678227880626
0.00794418259895 0.0481660274134 -0.0687456306864
0.000744972618249 0.048160966551 -0.0758966237876
0.00679812678934 0.0481606687943 -0.0812412013163
0.00996364800877 0.0481657194187 -0.0710491840371
0.00814478846025 0.0481624441488 -0.0778364386873
-0.000345761821483 0.0481629232999 -0.0701863803332
0.00351379917724 0.048160916521 -0.0781263879317
0.0111864840112 0.0463310560251 -0.0888784584589
-0.00425584179092 0.0472507393065 -0.088202481488
0.00499058055987 0.0455050291934 -0.0901083526025
0.00344505584708 0.0471961802724 -0.0880320105044
0.00662958265076 0.0471930292086 -0.0879371339847
-0.0099092912182 0.0470863270172 -0.0885844649328
-0.00447607655206 0.0479837285196 -0.0803886619636
-0.0108210364209 0.0477640482775 -0.0800202712651
-0.00382878692167 0.0478051825942 -0.0845018068854
-0.00156932661261 0.0477699545848 -0.0869339853736
-0.00163578522752 0.0480210098172 -0.0817918646642
-0.00760137659837 0.0479190538159 -0.0793243445744
-0.00979852964774 0.0479944798074 -0.0761242879127
-0.0084958074922 0.0476752559192 -0.0835887764087
0.00111165502625 0.0481068314815 -0.0821400418996
-0.00560411138469 0.0481303733125 -0.0765570163172
-0.00685375064587 0.047576456201 -0.0868408654544
-0.0115795160071 0.0480732216002 -0.0731733698176
-0.0273639534214 0.016994631896 -0.0808061059791
-0.0273717673275 0.0138128279521 -0.0885485158291
-0.0272285348737 0.0164392953869 -0.0840215554271
-0.0266617227974 0.0194710661298 -0.0842675096918
-0.0261637306284 0.0231356603435 -0.0820145031455
-0.0280334312608 0.0132100335123 -0.0810180613692
-0.026382730175 0.0194961956642 -0.0662669307118
-0.0261042262861 0.0225964400441 -0.0724900121101
-0.0256275474395 0.023774210048 -0.0660322476671
-0.0260867458001 0.0217565405329 -0.0685935781511
-0.0259171749439 0.0200839492905 -0.0576286687946
-0.0244344509059 0.0264706120544 -0.0488267155552
-0.0245643826517 0.0269656676371 -0.0539689126472
-0.0265415714492 0.0212160192154 -0.0771723555098
-0.0277027036128 0.014234549389 -0.075859788449
-0.0263184753729 0.0189873326213 -0.0626297451212
-0.0241105225544 0.0271820416741 -0.0440698017701
-0.0258821187775 0.0249740930573 -0.077060076288
-0.0272839392528 0.0157321463866 -0.0721050096195
-0.0248907475921 0.0259654729386 -0.0575871114773
-0.0256325348195 0.0245561944055 -0.0693915065902
-0.0271446909406 0.0171746322465 -0.0747705803512
-0.0252670780107 0.0248336893869 -0.0618485009058
-0.0250791450466 0.0233640203161 -0.0512877504654
-0.0255945470539 0.0256655271802 -0.0730850995476
-0.0237015191528 0.028510273922 -0.0398453374544
-0.0270961796927 0.0181250070172 -0.0775551166339
-0.0245953906557 0.0249469100695 -0.0463405421035
-0.0250689750899 0.0241489223261 -0.0542985589704
-0.028207694968 0.0119481581545 -0.0783967671958
-0.02576282224 0.0222898491156 -0.0630986258675
-0.0230300508819 0.0303911835787 -0.0316680805151
-0.023155224682 0.0327015344653 -0.0874761267184
-0.0249798140821 0.0269671312258 -0.0642447306477
-0.0251936068575 0.0270320221218 -0.0797349584997
-0.0237046899485 0.0303290201746 -0.0645215426906
-0.0236838184477 0.0300766246531 -0.056927223724
-0.0236504030621 0.0298392540673 -0.0488895386148
-0.0236656476454 0.0300089288431 -0.0540736994859
-0.0245843891885 0.0287256336646 -0.0820274920071
-0.0227744035457 0.0326894824956 -0.0624431400669
-0.0231627580987 0.0315547453355 -0.0596192800904
-0.0234451401307 0.0316309818671 -0.0798449558378
-0.0245195977912 0.0283478655964 -0.0684815493862
-0.0228870899756 0.0315007522343 -0.0403794957294
-0.0233560217437 0.0304492500907 -0.0448466759657
-0.0234955436563 0.0316608648949 -0.0838574088411
-0.0226079984383 0.0325481593622 -0.0481415949512
-0.0236853487299 0.0307329815804 -0.0732503479656
-0.0247677108743 0.0278112218807 -0.0713323094472
-0.0228165397708 0.0315617554352 -0.0373049877579
-0.0243023710115 0.0286081517336 -0.0608059519392
-0.0240677980278 0.0299031846143 -0.0775803946852
-0.0247026219296 0.028120727438 -0.0747549640928
-0.0236991586446 0.030567301046 -0.0700520633928
-0.0226799029755 0.0339512950726 -0.0899591333744
-0.0260207700844 0.0220076001258 -0.0855960094741
-0.0239226385021 0.0297257103557 -0.0878904223976
-0.0253368383307 0.0261521190624 -0.0830022678818
-0.0247217927521 0.0269202782568 -0.0867409323673
-0.026150752683 0.0190899899834 -0.0904591936193
-0.024749069499 0.0251607669778 -0.0901154208005
-0.0263551821197 0.017015032706 -0.0929500919033
-0.0233435656585 0.0308797787209 -0.0905264212042
-0.0255587710357 0.0220277531401 -0.0895469263132
-0.0167201039217 -0.0404296825292 -0.0414499806673
-0.0169514830908 -0.0416482250352 -0.0500267671111
-0.0169651058078 -0.0380740359153 -0.02963723216
-0.0183008994798 -0.0359760596367 -0.0268130875972
-0.017604167135 -0.0385819837743 -0.0369492367743
-0.0186205773681 -0.0364530027053 -0.0317479194784
-0.0260966453321 -0.00818334304928 -0.0936732425381
-0.0264989707792 0.00569753740354 -0.0936805074175
-0.0265701829989 -0.0113765624506 -0.0930801202196
-0.0260450328109 -0.0142348595283 -0.0935407442773
-0.0265065476681 -0.00184936202682 -0.0934401013146
-0.0274956427789 -6.92446914761e-05 -0.0914122872165
-0.027280189061 0.00931541863566 -0.0913229540318
-0.0277138862058 0.0110026806119 -0.0875437633696
-0.0282168843353 0.00383343915183 -0.0849164609707
-0.0271324118921 0.0132883875336 -0.0917357028366
-0.0277504262895 -0.00419224838032 -0.0901760533404
-0.0282433042662 0.00768576931579 -0.0839648667504
-0.0279302009064 -0.00201023234555 -0.0883242761274
-0.0276647777097 0.00288663148612 -0.0894963768696
-0.00059647244385 0.0480678766588 -0.067352031895
-0.00235302546809 0.0478157792262 -0.0643935263398
0.0021801740871 0.0479809926382 -0.0658498887772
0.00515320342541 0.0480148528145 -0.0658567586559
-0.00349213547577 0.0480672023909 -0.0677565690775
-0.00777024815643 0.0478382541261 -0.0654524917347
-0.00629900379884 0.0481053686765 -0.0686428644643
-0.0124130717822 0.0479791076066 -0.0679078918657
-0.00562903237275 0.0476439015971 -0.0626729687946
-0.0100965806268 0.0476440696857 -0.0633124876359
-0.0151009750828 0.041298951281 -0.0393104301382
-0.00819718454734 0.0425980240127 -0.037161432123
-0.0103954085908 0.0426477232725 -0.0396789637873
-0.0112904451542 0.0459814710643 -0.0538145570004
-0.0123631732098 0.0430688787138 -0.0434229138274
-0.0145508016588 0.0397336987372 -0.0325363345131
-0.0146823422665 0.0389617318225 -0.0296207799988
-0.0106778923668 0.0415204512317 -0.0355169423091
-0.0139152264087 0.040781288777 -0.0360102845568
-0.0187442778045 0.0372821399672 -0.0272637479197
-0.0115432561757 0.0391273529135 -0.0269618415819
-0.0111315919569 0.0404693624773 -0.031837124438
-0.00859538775048 0.0402297180968 -0.0282111986862
-0.00771080152617 0.0418830992171 -0.0338191713496
-0.0108414589851 0.0447461957289 -0.0484529131106
-0.0174019840258 0.0382738710688 -0.0297705272712
-0.0135892741462 0.0464674595845 -0.0622220337876
-0.013915954862 0.0455551001254 -0.0580550098922
-0.0132982088288 0.0471525583627 -0.0651872406394
-0.0138078404338 0.0444538459518 -0.0512261588812
-0.012013188123 0.0469623262602 -0.0594731329244
-0.0166598966618 0.0402311336844 -0.0367382047786
-0.0152784885884 0.0194383234596 -0.0263423573205
-0.0175333640967 0.0136925640388 -0.0263431897076
-0.0138118524885 0.0317696173447 -0.0263420589374
-0.0174666126537 0.0250479967881 -0.0263434120255
-0.0124980614788 0.0345437909504 -0.0263415881066
-0.0238490196013 0.0136756663444 -0.0263457908722
-0.0188904363573 0.0168587495868 -0.0263436968515
-0.0251623955307 0.0119925209424 -0.0357700084121
-0.0256772941849 0.0149192656769 -0.0467206217239
-0.0241143019413 0.0215556301854 -0.0340654034999
-0.0250451431098 0.00916874845046 -0.0304150125256
-0.0275767214591 0.0127876198092 -0.0699693812004
-0.0241129983711 0.0253500108756 -0.0390801830338
-0.0252480502708 0.0191504740087 -0.046439858026
-0.0232869959014 0.0255993814175 -0.0280712563864
-0.0236946665553 0.0270422318818 -0.0355816398987
-0.0252458775821 0.0135773692741 -0.0390181450872
-0.0260547948354 0.017354733486 -0.0551333774936
-0.0267683577536 0.0160454602977 -0.0631928893001
-0.0239760185188 0.0181941075212 -0.0277084411999
-0.0281189606338 0.0113135075872 -0.0754582606582
-0.0274432626425 0.0112963381165 -0.066159246374
-0.0277652055116 0.00961833851397 -0.0683533875794
-0.0260262743907 0.00804339732167 -0.0423917505465
-0.0248406228519 0.017429223253 -0.0385635576127
-0.0256925567506 0.00922408897959 -0.0393763565504
-0.0270042008936 0.0127045532011 -0.0619994236046
-0.0253065663176 0.0166694892154 -0.0439525355164
-0.0244718880175 0.0241553197367 -0.0424225797937
-0.027082346779 0.0151318970127 -0.0662917469161
-0.0235459297719 0.0251457240586 -0.0310242917463
-0.0230220397124 0.0286835278386 -0.0285244925349
-0.0262614267321 0.00909327544263 -0.0470125176743
-0.0243901986579 0.0166120995996 -0.0312961696073
-0.0246610973068 0.0132336862984 -0.0305342130626
-0.024827494 0.020827825776 -0.0428910549091
-0.0265410669289 0.0128805717672 -0.0558748048069
-0.0270794363811 0.00945989888999 -0.0587287392115
-0.02533759345 0.00601943902457 -0.0302527977182
-0.0245226441325 0.0190613123602 -0.0363629444082
-0.0260474646142 0.0138780808455 -0.0504214884387
-0.0278881810301 0.0112518029417 -0.0722081876816
-0.0260226355815 0.0119591832011 -0.04753549675
-0.025671882678 0.0173781476139 -0.0499076676396
-0.0254858532255 0.020033098594 -0.0508751771264
-0.0257041356044 0.010893959051 -0.0417501470637
-0.0235892395467 0.0225874944886 -0.028225758111
-0.025425703626 0.00821170390593 -0.0343701177834
-0.0256154938741 0.013248552785 -0.0436562538839
-0.0247780090548 0.0153523247768 -0.0349492778183
-0.0267770201247 0.00909170345733 -0.0540886968078
-0.0250900952873 0.0218919430196 -0.0479075377652
-0.0243047294959 0.0220674456406 -0.0373585123569
-0.00255997135236 0.040090447485 -0.09525662882
-0.00533183813877 0.0412968723502 -0.0943701344149
0.012509712332 0.0433663418778 -0.0923097848755
0.0038236175198 0.0422233307832 -0.0934198589098
0.0150521214751 0.0418841958384 -0.093419492586
0.00150601183417 0.0407610408709 -0.0946299608332
0.00719734776663 0.0406061778888 -0.0946163247098
0.0103888477611 0.0402349583113 -0.094833247186
-0.0164393133176 0.0337725880854 -0.0956347978161
-0.0146298821073 0.029628762612 -0.0958487995625
0.000306251298271 0.0336849190794 -0.09561288059
0.000322736601179 0.0381968951386 -0.0953767216892
-0.00220775298954 0.0363167651878 -0.0954791230127
-0.0104900264079 0.0370188617566 -0.0954554884335
-0.0115660119951 0.0304256457788 -0.0958022453592
-0.0169255428999 0.0268433902286 -0.0959982047622
-0.0108689505862 0.0399752712173 -0.0953013654728
0.0088173471275 0.0377476034728 -0.0953867897124
-0.00937269269913 0.0340633655465 -0.095608394824
-0.00585795428784 0.0327610905254 -0.0956709857381
-0.00696832280058 0.0378473966769 -0.095406553074
-0.0132741181749 0.0348231686585 -0.0955748060609
-0.0143435485815 0.0375474325419 -0.0954339253168
0.00414717985742 0.0377028778227 -0.0953965224882
-0.0135409052152 0.0255726777357 -0.0960537681657
0.00217191597592 0.03030995631 -0.095773675151
0.00972541107848 0.0278289463553 -0.0958720027875
0.0124514126606 0.0250804784795 -0.0959982184837
0.00392052745172 0.0236054977276 -0.0960965769608
0.00385045924394 0.0334362257339 -0.095615464855
0.0167122856833 0.0296926333476 -0.0957593440092
0.00747452897125 0.0238505589777 -0.096073687847
-0.0100463179682 0.0237475017136 -0.0961324229593
0.0198764367586 0.0218910374425 -0.0961316256165
0.00618997344332 0.0281678204721 -0.0958662446864
-0.00708366644881 0.0264069943651 -0.0959931318329
0.0140061046683 0.0391765537259 -0.0953032899745
0.00727859887376 0.0336720646682 -0.095593412959
0.00984030077719 0.0317813746916 -0.09567813406
0.0164544309199 0.0233751721956 -0.0960694462902
0.01079143797 0.022390414038 -0.0961350146461
-0.00986707819819 0.0276720601171 -0.095939721596
-0.00316875810238 0.0308929685896 -0.0957614954897
0.0119042426931 0.0367834545451 -0.0954269003625
0.018426464874 0.0275325727403 -0.095859850961
0.000664814932135 0.0239679741513 -0.0960888060922
0.0137779072233 0.0338346684212 -0.0955655357566
0.0147029887152 0.0271829193477 -0.0958883803815
-0.000813855934719 0.0283830667785 -0.0958771678056
-0.00251155960577 -0.0482407065239 -0.0718337288441
0.00389993320593 -0.0482551867641 -0.0787669076605
-0.00711069453368 -0.0483445257756 -0.0709386036911
0.00408920129015 -0.048028298448 -0.0708542857606
-0.00321012760994 -0.0483540966282 -0.0751837416916
0.00620933963455 -0.0481211453383 -0.0762914460933
0.00686574835736 -0.0480087466976 -0.0729346481579
0.00113613653571 -0.0481891965837 -0.0736446612115
-0.00485826059821 -0.0481642661792 -0.0667557095606
0.0115144398701 -0.0476621000571 -0.0652081661881
0.00919191703197 -0.047849130326 -0.0695626971257
0.00718141833004 -0.0481848198254 -0.0795379954248
0.00674956471487 -0.0478755341711 -0.0680614531911
0.00893220853973 -0.0476739338984 -0.0630466579068
0.00238344542466 -0.0479992178124 -0.0681088548041
0.00485904511665 -0.04786046505 -0.0656314673117
0.000877051276942 -0.0482984784076 -0.0772877686937
-0.000553998545124 -0.0481019112751 -0.0688364133561
0.00131770480871 -0.0479382626983 -0.0648656831981
0.0128843382549 -0.0473893374994 -0.0679521829445
0.0129859251837 -0.0472605842162 -0.0763152381845
0.011021615608 -0.0475323414714 -0.0852980204565
0.0119411517443 -0.0474157173118 -0.0802778401284
0.0137632218307 -0.0471457726442 -0.0733205360456
0.014004047918 -0.0469246412349 -0.0866740023033
0.010739106692 -0.0477278050883 -0.0745544727998
0.00904106474001 -0.0474693439925 -0.0875033646674
0.00039266251817 -0.0469946293131 -0.0899841512301
0.00615229426575 -0.047017940965 -0.0890004124215
0.00388728167809 0.0400943086205 -0.029427294993
0.00850982729306 0.0438578399618 -0.0448804640613
-0.00186088588562 0.0407460831698 -0.0293807294886
0.00655060222057 0.0446642534868 -0.0469652181097
0.00106845369276 0.0438092402653 -0.041611814278
0.00266969757853 0.0412452806713 -0.0330592140557
0.00885025241602 0.0396182314319 -0.0297790923985
-0.000615409232041 0.0415007885655 -0.032612000266
0.0105978356418 0.0403311343441 -0.0330688302449
0.00412161786057 0.0423708154666 -0.0377095828548
0.00589064288172 0.0456299857521 -0.0501629786926
0.00924555600377 0.0420589350347 -0.03871865218
0.0138223255307 0.0384762476036 -0.0277405014718
0.00117937339552 0.0406719119111 -0.0303781126214
0.00928870915622 0.0412173631371 -0.0357108417026
0.00392427173841 0.0444843602943 -0.0452264823868
0.00426409461517 0.0432851086761 -0.0410560322516
0.0127221749701 0.0394151381829 -0.0306587372965
0.00777139716636 0.0405317733987 -0.032615044882
0.0155029064248 0.0393692296814 -0.0323662015091
0.0128678675945 0.0419944867382 -0.04102850937
0.0117237801344 0.0441548479181 -0.0492207861476
0.0120510190866 0.0412898136379 -0.0371202706788
0.0124927351781 0.0449895210042 -0.0536437585468
0.0100622034096 0.0463960428893 -0.0572265512271
0.00965733186109 0.047389322081 -0.061118988541
0.00889254448804 0.0448921410334 -0.0494814846369
0.0134689979224 0.0402726596513 -0.0341764566762
0.00976899152426 0.045478880375 -0.0529395407792
0.0108872613528 0.0437218762373 -0.0464718849464
0.0104925543195 0.0429323850039 -0.042633821781
-0.00605798321495 0.0453389923512 -0.0493423046535
-0.00438709398372 0.0443552973005 -0.0445614054009
-0.00259729846394 0.0454897156691 -0.049637969596
-0.00314051657922 0.0465384040159 -0.054589219462
-0.00403359114764 0.0419306218881 -0.0332196854054
-0.00437284314599 0.0430545426616 -0.038497580237
-0.00130724791598 0.0428823009238 -0.0373345107287
-0.00567544506448 0.0410422122954 -0.0292722524174
-0.00115267015022 0.0446336888194 -0.0454786617113
-0.00981578679034 0.0457003783109 -0.0514682425645
-0.0100490885674 0.0467902953776 -0.05657520986
0.000217094554602 0.0456424589485 -0.0500190155846
-0.00206767007922 0.0434870364637 -0.0402422551175
-0.00817673991067 0.0445514645992 -0.0459210867351
-0.00629301233484 0.043844342859 -0.0424041361507
0.00304746093781 0.04584503673 -0.0506304370658
0.00526099794236 0.0464316831948 -0.0531043095997
-0.00564052469652 0.0459850371146 -0.0523041185625
0.00660878758815 0.0476402105296 -0.0624968605783
0.00382187847676 0.0473392108805 -0.0600284201508
0.00441046295517 0.0467972286126 -0.055810391861
-0.00556386722384 0.0470276287926 -0.0572103830432
-0.00235575211553 0.0470319423149 -0.0573738382961
0.00919333390089 0.0478579700012 -0.0643056409316
-0.00288912700285 0.0474947799276 -0.0609746730689
0.0069409344007 0.047149524865 -0.0586699379694
0.00039134446027 0.0476383338453 -0.0622308181824
0.000512968069952 0.0467767173306 -0.0554922950993
0.000610287286752 0.0471896036141 -0.0587276831594
0.00376497369127 -0.0459656918748 -0.0913743904473
0.0112489497955 -0.0443895216762 -0.0927976219445
0.00870406967216 -0.0457585130331 -0.0909235613001
0.0118454077145 -0.0463575042618 -0.0894173801648
0.0144689995513 -0.0448783526397 -0.0914625751541
-0.0019009030973 -0.04615703502 -0.0919688573409
0.0227995003315 0.0310400275363 -0.0488075854648
0.022629617832 0.0339762259842 -0.0846538234135
0.0255497046288 0.0264259319297 -0.0864742013787
0.0225003990301 0.031123502886 -0.0386877283084
0.024556130188 0.0287522804005 -0.0823606241034
0.0240051480653 0.0288122716375 -0.0623682779464
0.0229986061539 0.0313239971453 -0.0604329917281
0.0227156371869 0.0328872169209 -0.0722298284756
0.0225438905562 0.0330951858555 -0.0687231977826
0.0235022047366 0.0315187015521 -0.0822989711315
0.0232820000511 0.0294298173044 -0.0438869241088
0.0247862158139 0.0272792366566 -0.0698604093911
0.0228389554699 0.031963658304 -0.0635999282184
0.0224573036051 0.0346616144325 -0.0879998139772
0.0223612055863 0.0317019942849 -0.0417482749315
0.0227439182895 0.0317633133624 -0.0571178612567
0.0252383581032 0.0267682437953 -0.0796176776552
0.0238229699129 0.0299640518365 -0.0720562163454
0.0228825299589 0.0311907160557 -0.0541201587941
0.0227495675226 0.0333078009867 -0.0795699445235
0.0251122532559 0.0267997671738 -0.0752981644702
0.0236854920095 0.0312608257199 -0.0855238630673
0.024084875822 0.0280105219412 -0.0538422222128
0.0242699553328 0.0284406751131 -0.0670415138936
0.0260024065367 0.0250573518179 -0.0839047160669
0.0234949068675 0.0311941769088 -0.0773500720911
0.024611262725 0.0290164269601 -0.0893986782463
0.0210092893058 0.0351631264437 -0.0906303316707
0.0178932662611 0.0411803781182 -0.0911144370561
0.0197123104927 0.0381997280922 -0.0903898243762
0.0196530150824 0.0395668906083 -0.0801442724457
0.0209448395653 0.037489810329 -0.083011187481
0.0173083682223 0.0431704598201 -0.0775391586168
0.0188600161682 0.0405706069539 -0.082623332581
0.0215087433284 0.0364699354308 -0.0860311159385
0.0181752455058 0.041345490221 -0.0861990049014
0.0178696189367 0.0427348235447 -0.0714920255604
0.0171497974632 0.0426956959504 -0.088588053812
0.0190265675973 0.0407443091824 -0.0760952907202
0.0220026840508 0.0319488413505 -0.0334081343753
0.0221433882661 0.0324475225716 -0.0449643707047
0.0206417783587 0.0376400028331 -0.0730270337167
0.0204936853007 0.036238225821 -0.048237809928
0.0215352558941 0.034974292076 -0.0624326438002
0.0219457503755 0.0349455802372 -0.0747858875032
0.0189569437396 0.0408687146647 -0.0671160437288
0.0212627649115 0.0367255164524 -0.0791729298878
0.0211479624644 0.0353633339878 -0.0559891666749
0.0211506057799 0.0363043114241 -0.0696200024919
0.0194322177632 0.0393512559953 -0.0600483108196
0.0211046526483 0.0361057705377 -0.0653321464752
0.0207654147901 0.0358978963167 -0.0517885557405
0.0207030832356 0.0365137985648 -0.0587180476731
0.021646838433 0.0338515959898 -0.0497378387378
0.0195756189777 0.0388401892826 -0.0571496093273
0.0205039465425 0.0381760373573 -0.0764584452407
0.0198252375952 0.0388540354694 -0.0651122772827
0.0212195015244 0.0339757991991 -0.0382357131842
0.0193671857456 0.0402997382598 -0.0716824569726
0.0210128461542 0.0347950891925 -0.0436051094768
0.0231064679735 -0.0274603983541 -0.093772298881
0.0250041872415 -0.0232252629445 -0.0931961398207
0.0252528057712 -0.0193405453909 -0.0940096028676
0.0267710936377 -0.0152494032023 -0.0937362566948
0.0194372044624 -0.0346467952414 -0.0951538811072
0.0285005565213 -0.00822953548898 -0.0923477216503
0.0275116805867 -0.0203921895923 -0.0915626130164
0.0204409986313 -0.0284749052895 -0.0954137553533
0.0218672562447 -0.0213878852287 -0.0955545199532
0.0262409134745 -0.0119064108868 -0.0947571702005
0.0203842587889 -0.0314195780663 -0.0951410338791
0.0214400517206 -0.0246035309959 -0.0954027206274
0.0229278846583 0.0019858572086 -0.0956050136956
0.0241905386381 -0.000641405013803 -0.0952699355392
0.0223450570201 -0.00674809338077 -0.0958211523285
0.0226640448194 -0.0110455573973 -0.0957589569569
0.0211324159173 -0.000261131797426 -0.0961184623169
0.0222912567763 0.0131670803229 -0.0957130462257
0.0234293443376 0.00540883869587 -0.0954443361189
0.0240653119318 -0.0138361121643 -0.0953863209153
0.00138652804012 -0.0342996464951 -0.0957103059925
-0.000571354849272 -0.0387654930392 -0.095292541118
0.00244724230252 -0.036858940448 -0.0954423068094
-0.00605567694088 -0.0375833831877 -0.0954817351314
0.00683711260033 -0.0372828207317 -0.0953427293475
-0.0138931011429 -0.036109197925 -0.0957307457688
-0.00365883052742 -0.0351092520644 -0.095695997329
-0.0103319863058 -0.0387689563632 -0.095420025601
-0.0170663500603 -0.0320740369793 -0.0954800110874
-0.0128146651359 -0.0437247243234 -0.092415627996
-0.00978214129236 -0.0453369636466 -0.0918617087852
0.0157224040039 -0.0402343627082 -0.0947940748655
-0.0125546874841 -0.0407327884292 -0.0952422976124
-0.00233879361264 -0.0411616735623 -0.0949958967344
0.0143588179566 -0.0373038079184 -0.0952255184722
0.00799502125745 -0.0401751816859 -0.0949436644022
0.0178331686775 -0.0371978978459 -0.0951766422984
0.0110404912611 -0.0405637072293 -0.0948340522049
0.00926422249733 -0.0429132421804 -0.0944778548279
-0.00897098180531 -0.0416069832556 -0.0948104385548
-0.00218295185523 -0.0437701605417 -0.0936769505691
0.000717101774124 -0.0451618619967 -0.0929111901881
0.00344296895904 -0.0431054742558 -0.0942172050126
-0.00555432336844 -0.0418468204835 -0.0947510808073
-0.027277015272 -0.0129014945712 -0.0707063402305
-0.0281853585588 -0.00657220467742 -0.0753203997319
-0.0263423195621 -0.00664457888134 -0.0444379078182
-0.0283299774122 -0.00392586664276 -0.0732934712968
-0.0285336435325 -0.00378944769031 -0.0764897360021
-0.0278042955454 -0.0108362739638 -0.076096056047
-0.0257939859593 -0.00819876860362 -0.0378328018966
-0.0263245656911 -0.0108288263829 -0.0511907992853
-0.0268964574504 -0.00785572527631 -0.0558009733694
-0.0274226699948 -0.00828930308782 -0.0653838585968
-0.0275069475247 -0.00992641896831 -0.069560584489
-0.0266731105712 -0.00745299336999 -0.0513650190415
-0.0279800358792 -0.0107319851924 -0.0788766879393
-0.0277500038085 -0.00569441561159 -0.0665173541225
-0.0264800921949 -0.00774561185655 -0.0486111128673
-0.0259343479487 -0.00918125652068 -0.0418497867681
-0.027121683956 -0.00739688916045 -0.0588165793786
-0.0271330766898 -0.00955515622704 -0.0626454797907
-0.0279223262789 -0.0072516698108 -0.0720406251655
-0.0284898564249 -0.00285034689168 -0.0794993108153
-0.0284509008237 -0.000274658594547 -0.0808991052836
-0.0281872238059 -0.00324497305094 -0.0852735047349
-0.0284497131918 0.00509086770929 -0.0822633395753
-0.0285953865801 0.00839450617353 -0.0802622170465
-0.0280468847811 -0.00850539571206 -0.0866819843278
-0.0282076561496 -0.00607540891666 -0.0841694917236
-0.0282467709472 0.000114972684275 -0.0849578080123
-0.0285854830431 0.00208117674805 -0.0788762995911
-0.0277781176767 -0.0119781067311 -0.0900662661273
-0.0277627839088 -0.013070919007 -0.0865554080745
-0.0283949858561 -0.00608478808363 -0.0786429538187
-0.0279488619611 -0.0113830708895 -0.0827491878939
-0.0276874245167 -0.00307409301301 -0.0637558573643
-0.0264579837711 -0.00101895750921 -0.0456584461217
-0.02732849818 -0.00175294702875 -0.0584724489973
-0.0268159580134 -0.0027890062642 -0.0509278396243
-0.0255603049582 0.00329022766534 -0.0324445822589
-0.0257619267865 0.00203861923914 -0.0354124627004
-0.025729081394 -0.00519627430499 -0.0349289773617
-0.0265253346597 -0.00430336015433 -0.0466498535834
-0.0252704485704 -0.00665680940819 -0.0281778859825
-0.0260051899071 -0.00305353013784 -0.0389933044361
-0.0268805832733 0.000595665382222 -0.0518791257361
-0.027122105555 -0.00496012601052 -0.0554343422605
-0.0255548282333 -0.00674285217182 -0.0323639646753
-0.0252012297699 0.000346452563483 -0.027158982792
-0.0275171163151 -0.00487864512873 -0.0612489146148
-0.0254705205878 -0.000401882166345 -0.0311229531527
-0.0262242663135 -0.00106036398675 -0.0422181168839
-0.0260795215637 0.00204405103841 -0.0400874690494
-0.0256033065209 -0.00256957470272 -0.0330775667818
-0.0253192238923 -0.00306164533996 -0.028895860446
-0.0259917993876 0.00596212158439 -0.0395487876064
-0.0272013993164 0.00214010031917 -0.0571515135457
-0.0263475001154 0.0061523332083 -0.0450536149845
-0.0278971396227 4.64296079284e-05 -0.0673024557168
-0.0267089616438 0.00259061834183 -0.0497089807388
-0.0280331669825 0.0055114300399 -0.070755485909
-0.027395701045 0.00151296778469 -0.059975796221
-0.0284187433734 0.00306371365697 -0.0760592893618
-0.0282237181146 0.0066526272044 -0.0739642440599
-0.0277227731852 0.00357857775469 -0.0655101757731
-0.0271429261311 0.00659953238617 -0.0573690946401
-0.0284806867389 0.00590199568731 -0.0777191132561
-0.0278080291279 0.00600488720841 -0.0674246909147
-0.0275926028513 0.00670525533195 -0.0642946144967
-0.0281245329176 0.00157474807885 -0.0711732251514
-0.0276165017388 0.000344121578276 -0.0630712262137
