-0.026157312527348854 -0.014015444602243948 0.026958835778581786
-0.025320736327374485 -0.018298306963884 0.022087716371007274
-0.024878277965631194 -0.011025310046326123 -0.020358340278142473
-0.022406087190494424 -0.026721728455561408 -0.022045829931546513
-0.026406249460617773 -0.013410561419218233 0.0312070621458049
-0.024297605782810712 -0.01796568003116053 -0.007154704463684424
-0.024322158308143868 -0.014926090310750033 -0.01919188138076298
-0.024890389535861115 -0.013242347234254366 -0.01076136842915831
-0.024155787204471507 -0.022716806922298206 0.00884447782246244
-0.023218582001244187 -0.02076985599498511 -0.024806763353743093
-0.023371754360935262 -0.022773115798491228 -0.01226337764281109
-0.025239691259734076 -0.016302101993574226 0.011537295460256829
-0.025439208891558464 -0.010752307000130787 -0.006229633136199271
-0.024522598232409216 -0.02140727256182852 0.013356057686376018
-0.025486312602313505 -0.011912392100863017 -9.81764369307101e-05
-0.022778229428807653 -0.025933637337696266 -0.015209477207729744
-0.022761027807843823 -0.02511384750549355 -0.019104486295488485
-0.025906439466939706 -0.012554129506036175 0.01402114727947015
-0.02458170317449871 -0.020346154386107568 0.01052953566478905
-0.02454055735086678 -0.01903833744145633 0.003942744246310768
-0.024536399832672844 -0.01237707231617359 -0.024014674157269638
-0.026002519911465367 -0.013367299836880878 0.020035754787332126
-0.025473140202141437 -0.01381683005354349 0.007503833983958464
-0.02384809676347917 -0.01775888572417935 -0.0202558077845515
-0.02284023587193336 -0.023558711985872713 -0.023448757624549503
-0.02326801559306752 -0.024908905054201753 -0.006159744145938912
-0.02612453548473806 -0.013441335531854474 0.02366677810168535
-0.023795207858252364 -0.02351277959346652 0.0023558394355659117
-0.02596606053338062 -0.016360736283992455 0.03155587727816252
-0.0257415620538829 -0.014409419786356948 0.017287950143700326
-0.022280344340517615 -0.026648022260876623 -0.02577694121222704
-0.02508055203371554 -0.010593424664790296 -0.01665725266023204
-0.024981521996460414 -0.016833810692072862 0.006731872217530892
-0.024769827896338727 -0.015204081415685796 -0.005843247477219819
-0.02503500500408934 -0.01583130356912311 0.00399730339097287
-0.026341551326003833 -0.014942875879514735 0.035850935513009594
-0.02524462536558393 -0.012646741705431709 -0.003607876312372276
-0.023721509490126844 -0.022675922257722962 -0.003148487253408345
-0.024813419635219987 -0.012938308990594699 -0.014127557949435881
-0.024138173114181448 -0.0219577749244373 0.0051922094847270985
-0.023981854184822213 -0.01885069641127072 -0.012050820803220515
-0.024120724341667975 -0.0172298026301417 -0.015045819936094024
-0.025626471816175923 -0.01708159236032626 0.025324664357303885
-0.023702753229661255 -0.021633000205938745 -0.00801851509735085
-0.025551502092107162 -0.012375478631681758 0.003612147931497763
-0.026552142142554278 -0.014254404838098625 0.038705890748925435
-0.010841691265510368 -0.01550522191681981 0.06238170685260165
-0.0025288334129432025 -0.020049366679165896 0.061938148200093635
0.0011287567612823421 -0.014914039633074933 0.06244400143623352
0.005768129540100548 -0.017615564595370666 0.06244400143623352
0.009450655661393935 -0.01618659986951369 0.06244400143623352
0.0060634342424541274 -0.014543042901785317 0.06244400143623352
-0.0015480313303063166 -0.016568956012473914 0.06244400143623352
0.0033683241343598087 -0.025804271170020737 0.05687495575770957
0.006667019838374316 -0.021524895355655126 0.06085467222494373
0.002677220641212504 -0.028516311509539236 0.054237928751713516
-0.001229458545317422 -0.023018270487393404 0.060019667079432244
0.006168981373974716 -0.02457973962179116 0.05786130021582173
0.0029143042342120863 -0.023776885950354286 0.05892595635390536
0.0038397539227811176 -0.021165958579679973 0.06144331163451945
0.0057006196253620404 -0.028758911730764544 0.053748739346473895
-0.0005161391223656648 -0.02505138867632893 0.05794168341791907
0.004342416335903511 -0.030705744800964357 0.051926533307571014
0.006551870335398429 -0.033224779434693444 0.049243073205473095
0.014833202262240837 -0.023505873966261456 0.05534009258945016
0.012977666730843232 -0.022166566122644508 0.05736821950184132
0.011294926942397168 -0.02513265852891452 0.05597436606740523
0.015342629822983806 -0.017626368297308063 0.05961453479335079
0.015829742553902397 -0.020273671162602643 0.0573067349471717
0.009919298725708401 -0.02326707541714064 0.058152821882970294
0.011503842775260405 -0.018629188740551823 0.06089206843007451
0.013156454833659004 -0.01616324463108277 0.06191524691325129
0.013633514117166533 -0.025822796891675548 0.05418992620137879
0.00981091307235971 -0.033548205866268256 0.04828638283077244
0.01220895545752489 -0.034890683417671986 0.04629929641117807
0.013324825645544746 -0.02830927022687988 0.05240050434636538
0.010943339026700048 -0.03709070837148424 0.04451223101417407
0.01561239936722654 -0.031863646667830106 0.04828808873462691
0.009218276447431875 -0.03149311558184735 0.050457670726015466
0.01264945502753585 -0.0312239342901393 0.04974974853368731
0.008718173855115656 -0.02705888519858316 0.05492241776244458
0.0283891210225361 -0.013408408883629043 0.05009360003289638
0.02946800535510929 -0.0082126279897068 0.04558132285943601
0.027157300623292538 -0.017258625680152663 0.025141384308883526
0.026379828271489415 -0.020312878699453925 0.018417126701045693
0.028200979705546404 -0.01295971334730352 0.03129246281050986
0.028749798476964745 -0.011583909990934775 0.04731972215718664
0.02872088466955723 -0.011364696391161925 0.04225782048315581
0.026646265091719787 -0.019404962152254502 0.022727847360293665
0.02554507055377181 -0.023280665398353294 0.0066934290672656695
0.02636315407338135 -0.020182289970726647 0.015437686690393422
0.027896404231551455 -0.015069789291059243 0.041867198961034253
0.02774663894436015 -0.015545427317604308 0.038942325989556104
0.026098386917521706 -0.02094128383631537 0.009083024795752799
0.028097669381267745 -0.013732015736988339 0.035697370358870655
0.02749221929752092 -0.016230257987692384 0.03219259697372485
0.02839894796846051 -0.012639216035474563 0.039615282791855
0.024864593912378642 -0.025600246537480036 -0.004304933822340904
0.028639136150899178 -0.009834168633658255 0.03122525075576472
0.025494323329720726 -0.02244484281156711 -0.001573376585639009
0.0269160668723213 -0.015210750412951276 0.008456450354356852
0.02453822247839843 -0.02594847131094615 -0.012578928361514545
0.027776243061142455 -0.01232983308077908 0.01920669319952111
0.027101426621613592 -0.011199364789142864 0.00016020824450561628
0.02638138711104798 -0.018023752857226773 0.004973888683779034
0.02437902332189827 -0.023712617312740207 -0.023235928790653722
0.026989815917779852 -0.015941084362631235 0.012437296665322962
0.026463461258975703 -0.015112884834145707 -0.002251246120321436
0.025086316304155955 -0.02064913767494321 -0.01657054492699723
0.02845803937927957 -0.009519089371182373 0.02607722302922308
0.027679148428197648 -0.013825905710733935 0.021658199726692712
0.024929716187455115 -0.019670541487864165 -0.02323248265968675
0.024232577664721925 -0.026035199025077446 -0.019331512012102304
0.025625140372235903 -0.022434481989155406 0.0014005106595462481
0.024934456194199203 -0.022963493547983896 -0.012816305790878477
0.025872439471963115 -0.021554519361856577 0.004329347402135197
0.025978944087139494 -0.01266197454735879 -0.02105755373180654
0.024344614605329308 -0.026193493762582877 -0.01626130428998209
0.027234067624300674 -0.01639093325691394 0.019458534812217133
0.02527803235416542 -0.02277880450482556 -0.005498646719703395
0.026803793900886417 -0.013726620266811193 0.0012308301843845654
0.029224074333693822 -0.007459225576590043 0.03723397213225685
0.025291756550631116 -0.0183054446715874 -0.019185282335219225
0.027513524604805134 -0.012815667917426169 0.014689846250945576
0.02518114365839639 -0.0221751650239502 -0.009614701826300288
0.02388817380474957 -0.026828317267998784 -0.024763752515502217
0.026222934219268107 -0.012987069334543503 -0.014432818812359985
0.02381579651115898 -0.029226679326087843 -0.018919964838068123
0.026760539554522202 -0.01504624963977895 0.0043673611048667405
0.026338369648115194 -0.015078458503119542 -0.0052337446914378465
0.025971467506617336 -0.0186474297664451 -0.0024943418585289395
0.028703887263305132 -0.0110300707508574 0.03645658648905866
0.026048268444969217 -0.01640173953601724 -0.007758592352052232
0.026898554084534967 -0.011663659818142262 -0.0030487361444287565
0.025821799955912623 -0.015200342208081846 -0.016723569397399995
0.025639612344075184 -0.015461584638875295 -0.020092725286815858
0.025704469145378227 -0.017304625468697543 -0.012833356318625398
0.027415799615262828 -0.012436551467783314 0.011257350186521981
0.027322407503543526 -0.010769666650723814 0.003893593533951892
0.026475003181274125 -0.013307308602227138 -0.007637621844048864
0.027236980645004346 -0.012334955977901001 0.00682989288058544
0.028251311841979286 -0.010022262170287014 0.02290137759038789
0.026238488937480507 -0.01789608648717609 0.0012903259816742889
0.028014699589929994 -0.012831811380580689 0.026257921764019483
0.029346108383998072 -0.008134959434827123 0.04215355688051004
0.02339722567274512 -0.030751109509724102 -0.023767568556927708
0.028079881924132504 -0.009587984007377218 0.017602401002524477
0.025593602068270403 -0.019889867902524148 -0.007289152664736599
0.021813673448431988 -0.034702175038083365 -0.02065885178094743
0.019436595891119818 -0.03994298575753755 0.004209953823698227
0.022303693764873365 -0.033661592184649355 -0.023786458141038504
0.02285857509727613 -0.03144019580732815 0.021623798321368765
0.024478221521810627 -0.025936617275899486 0.03973848173476249
0.02298189571007294 -0.03196474180339048 -0.010671808249988653
0.023994946950743126 -0.027906916755993175 0.022623195616849872
0.024157661752372134 -0.027963830196501765 0.0026797903460677452
0.025960522855230855 -0.021263047401484814 0.04335130504812948
0.02751596534175057 -0.016334589418985055 0.04800891027604905
0.025043791228830235 -0.025001980601625347 0.010833672792873061
0.02535214198124646 -0.023962434996654236 0.013988516886749944
0.02324005881718838 -0.03007084700387555 0.02849789459195953
0.023098881372793624 -0.03094394750307162 0.012880053535192788
0.026823737923254112 -0.018635806171766193 0.042086194072934506
0.024308795745002013 -0.026743385241861335 0.0295976020140942
0.024999414046023825 -0.024244009738827347 0.04276934405984488
0.026852755437774857 -0.018775362410414026 0.03391135115084296
0.023998139045123767 -0.02861284789501499 -0.002921467518221343
0.025933349514685337 -0.021983442685007244 0.02063319093419525
0.02649999284193257 -0.02007092054176958 0.026508962651874295
0.023672661014701755 -0.028506510477111363 0.03670339017318381
0.025070654012215185 -0.02457633842332064 0.023066827738663004
0.026759897947931554 -0.018749773705867754 0.04504667463706993
0.025028011622478967 -0.02443677878268866 0.03274167137942979
0.02658042822282223 -0.019732570312729472 0.029729363091740846
0.023471219650969696 -0.030369983296080545 -0.007624763608691371
0.023892899352201936 -0.02920400781218951 -0.01243358288956545
0.02426981278606187 -0.02734782011412294 0.012317930919236055
0.023301915036355172 -0.029972062612459875 0.025213937751493637
0.02299836781141845 -0.0305013906936564 0.03973894164199334
0.024947429501219504 -0.02547565405741227 0.004537092349420362
0.022512132127139584 -0.03227596925843809 0.029934512886798346
0.02338561618658054 -0.029951768429916092 0.016724047893231366
0.02266679579851659 -0.03166136817181627 0.03484241256171478
0.02608576760641795 -0.02105981542460692 0.03681681642737277
0.0228211117269023 -0.032012589616093136 0.005320326224007884
0.024836027030177652 -0.025381762035569612 0.020151527818612118
0.025221858043783824 -0.023926750115947682 0.029604201692931084
0.023603789398498522 -0.02974075375992412 0.00023738121285407296
0.02473204792458629 -0.02525907664553872 0.03597634781632497
0.02315909030584299 -0.031520616649003935 -0.014328144184498213
0.023430418371492588 -0.030053013575246354 0.00817881299901015
0.024183354264470762 -0.027788091009664888 0.0061232373098338445
0.023592433780996583 -0.028894795765496535 0.031677994074243584
0.024659505734102433 -0.02601149215687277 0.017109875696393176
0.02551345643001571 -0.022723329443107322 0.040451583615505986
0.027060611055878505 -0.018028983198424935 0.037666570946377806
0.024512390351103832 -0.026208142146040735 0.02628686654050063
0.027706304587440275 -0.01582959481736469 0.045077868458978945
0.025991064336187808 -0.021443277277504186 0.03355713751575168
0.01933743884027161 -0.03985004705224471 0.023936072144586932
0.022505807302038373 -0.03261973363205445 0.017828278114092058
0.020278567675191643 -0.0379618358999731 0.00748386718504704
0.021235313477331007 -0.03536950538125451 0.028713273056168803
0.022658528402632272 -0.03256455889353754 0.0009854050657257408
0.019352205919970878 -0.04005556197588674 0.010412583902115328
0.020577887339540503 -0.03695957084177928 0.024914697090546185
0.021986333808414808 -0.03428052497091666 -0.007985994333467899
0.020493785827546986 -0.0375974355928816 -8.059978468087474e-05
0.018724085064415776 -0.04142351197994901 0.01531522631775387
0.020089090845064547 -0.03826535399084469 0.015119422611369702
0.022475717018711767 -0.03285317222374806 0.008590849059404444
0.020646133187096613 -0.0371688732440231 0.004189668381245968
0.020967463372997847 -0.0365944452377066 -0.005391554586905083
0.021050605548593344 -0.035917047607682225 0.021959304891925237
0.018737717858567544 -0.041293906485421826 0.02084544969450203
0.02251518172776399 -0.03321150179809038 -0.01678068011970523
0.022646876565071368 -0.03266473900318797 -0.0031436575891000823
0.021546059266257144 -0.035054106161227505 0.005902212345237891
0.021326726101732665 -0.035390452206060616 0.015587027230623652
0.022907304639989728 -0.032351719039528236 -0.01951411155870777
0.02180790202140693 -0.03449875451903685 0.003017817799738403
0.02212855785500354 -0.034046550686114424 -0.013370450186433454
0.02187275193048089 -0.03420217750042579 0.011275228805631138
0.019923143569960243 -0.03859475292987331 0.018220414452074576
0.02065499905832461 -0.03699981490321885 0.012568462692931368
0.02202762849589376 -0.03359501039535895 0.025290831908028468
0.02735971623854407 0.012430457088177867 0.018156757838500476
0.026928322214101495 0.011022086780712573 -0.0009558986705919814
0.028735791502595753 0.009117990839268753 0.04008636520523674
0.028022468417114484 0.009942113437701582 0.024252353329932523
0.029392524890121292 0.0057041351863147466 0.041384605424325274
0.028220832872689592 0.012619153740307188 0.04319107673117372
0.027084545169692546 0.010758829462912985 0.0020978966015201914
0.027856424570913633 0.008758122414535318 0.013685356716880297
0.027801438721266853 0.010470617238277748 0.020712166211782866
0.02774282230310153 0.012006697978697077 0.02675506721158705
0.028002812402492458 0.011542341150775874 0.03170604110648605
0.027870415122411327 0.013191780388781766 0.036251818802343475
0.028421115559423095 0.012665571317002333 0.04902633197027417
0.026426950892488803 0.011469696198500719 -0.012743501810192258
0.026073674170245337 0.012883148852710993 -0.015557327592793789
0.026699159435275545 0.011210701614758106 -0.00642358051830046
0.02862490189865014 0.010947984910776441 0.04613689036443949
0.027707255248470196 0.010100676154447978 0.016227024435336343
0.02703238750861655 0.01199999086793811 0.0068464401717635215
0.02888107174345125 0.006813503040149382 0.03262475691227068
0.02865798192685951 0.007516251679867874 0.02989842637250848
0.028640988678758285 0.008866160898589711 0.03617463265758614
0.02731288027001463 0.011372230178105703 0.011553726365649209
0.02897001135783643 0.008485692349649564 0.043476427417836236
0.029175318561708304 0.008158941132910155 0.047585834183059394
0.027545344797511393 -0.0009127079734574715 0.0068549109802837245
0.026307184959126744 -0.010053738322472866 -0.015405307169187376
0.02855797588383308 0.005873818205055841 0.02506022746147226
0.02631246611126451 0.006249529970604236 -0.015304698433651343
0.026356902948757213 -0.005610093906770758 -0.014510034750525706
0.02817367830430006 0.001456829694980516 0.018150595435009836
0.029350479707353612 0.003944689383521364 0.039305524539475764
0.02628743614610425 0.002111814997947328 -0.01575607492392124
0.026559492031865965 -0.0024794408413030557 -0.010867224069785245
0.02835552720497572 -0.0009201479783369979 0.02141866544915487
0.025787354529622403 -0.0010708798179311463 -0.024746599428446557
0.027668786597243582 0.0021814662497501 0.009074965397166254
0.02729940513369941 0.007686533516154819 0.0024369178990009226
0.029820859599104584 0.0040793495590027845 0.04776107280107079
0.025979220961140855 -0.007907284641284967 -0.021300007649415056
0.02848551038528631 0.002864622602875936 0.023756547463363496
0.02779783206504125 0.00532457860969472 0.01139576782044186
0.026054316416218616 0.01047232983773707 -0.01994370127122517
0.025916139967297292 0.005271284851490749 -0.022429357668510078
0.0276252811557745 -0.005207026841489839 0.008290343994405376
0.02579244944302797 0.009920455198814975 -0.024651187621629444
0.025799888017579792 -0.006966150911480236 -0.02452335089983573
0.02571963283382326 0.006643574406751898 -0.0259612723324679
0.026637098656639137 -0.005982723179298084 -0.009473394744180881
0.02661802659382994 0.01059413513801227 -0.009810461700223823
0.026189797707185963 -0.006909046938125636 -0.01751435385545664
0.027669196001142978 0.008470979883660166 0.009084514222742047
0.026928387959920967 -0.0036089315806424127 -0.004236381340549239
0.026871228614206332 0.0013538955776735222 -0.005262144367246225
0.02616395065916153 0.0041170636710076095 -0.01797513951389773
0.027351567214626657 0.0007981425891225554 0.0033721802971896087
0.025800718385654453 -0.012379239215997996 -0.02451030862011205
0.02783261638028179 0.001648391722848027 0.012019767449358103
0.02962094701349385 0.003982207796252826 0.044167430554711784
0.027108806819219844 0.0032771587545926606 -0.0009907930686734352
0.026464570578249094 0.0013145939166695582 -0.01257220179550916
0.027451465262201304 0.0067995116571470055 0.0051700266195176155
0.02591575173318045 -0.0032745163347840524 -0.022439311377254353
0.026807781101515764 -0.0018985155495995748 -0.006403802628170722
0.0263156806494467 -0.002286284709524161 -0.01524988559536613
0.026170058822135626 -0.004042845434039506 -0.01786818031357014
0.02835883774234571 0.005394637461010646 0.021480373554022478
0.02780874208047632 -0.00320319250155104 0.011588916579943872
0.02662684868689883 0.007352590536439897 -0.009653005050722648
0.027123257277251296 0.007306455276190711 -0.0007296304703148584
0.027979232769944073 -0.00058565089421992 0.014654551163692015
0.02710947108918603 -0.00042434729429845176 -0.0009801407383354215
0.026634297750806217 0.0003234058488146052 -0.009521548337905424
0.025757274726083842 -0.004292087402573919 -0.02528843226048473
0.028554879922526706 -0.0001561308143299433 0.0250024757077284
0.026135743043045143 0.0073189900858059076 -0.018481082157463285
0.02814841385815721 0.007256964659944028 0.017698463371440664
0.028956089296171002 0.0035083265627755215 0.032215850474391315
0.02875902638183855 0.0041225230822669705 0.028673681252563137
0.026316660735739104 0.009500868502781527 -0.015228164475059976
0.026941282818259582 0.009604736293192133 -0.003999984902898436
0.026561963452442286 0.00395028572174133 -0.010820559831791213
0.027246515797327436 -0.002775472793726411 0.0014825426391909466
0.026957962775460843 -0.007646774199565015 -0.0037061530464662113
0.0287388477342051 -0.0004614772109526439 0.028309356200801817
0.025993655438407405 0.002102166028084552 -0.0210370505873468
0.027088443560119226 -0.0056655174712174705 -0.0013599539622383833
0.027268530917464937 0.004401077109578877 0.001880782419192789
0.027434739620471875 -0.0038483777564117267 0.004865661571800104
0.02615120402169032 -0.000371789830295807 -0.018205834381006685
0.025767209165213644 0.0019335082868299042 -0.025107684614722424
0.02912903728563678 0.00406318669911805 0.03532493920105989
0.029602197297301437 0.0002721840048524149 0.04382989001228357
0.027906313107311252 -0.006196085288534524 0.013342490362087917
0.02894257094627361 -0.0012194092933419313 0.031971596679351434
0.028746916786602152 -0.008132004419987003 0.028454265369622526
0.02772981818414199 -0.008115848670264327 0.01016959017783479
0.02982284860559064 -0.006383963326937408 0.04779660227887437
0.02964723356370641 -0.0032896428620257673 0.04463951997448587
0.026159447309643456 -0.01207798591528735 -0.018061420366665446
0.02867033262221133 -0.002947706529997628 0.02707748973810205
0.02999825092712599 -0.002994835950180596 0.050949860448143175
0.02810089121352143 -0.006120180145554392 0.016840477148109136
0.029983293031636524 -0.0058591777127207775 0.050680958042893486
0.02944742340502823 -0.004478424441418556 0.04104747507086188
0.02824583506994298 -0.0029820367652993976 0.019446174697297224
0.0268145692972624 -0.009890022097786612 -0.006284103275051508
0.029433347815516864 0.00041552957550721175 0.04079443413488399
0.027398806855531015 -0.006765711090958168 0.004218903967260816
0.02829543911102398 -0.007096022033142813 0.020337920863472678
0.029909495784118563 0.0004567986966144558 0.04935428362052187
0.029103096725560988 0.00025590581950295276 0.03485741495407797
0.028501200650705466 -0.0028925569095552984 0.024036955461433744
0.02649949587341423 -0.010593300859609384 -0.011948269170760552
0.030006954443981222 0.0030908808568112 0.05110632608317524
0.028943493114358367 -0.005923917916983439 0.03198817476122197
0.02920422489017544 -0.0034375634596509634 0.03667542516296457
0.028590432028439357 -0.006267487910814823 0.025641093698211943
0.02756569772482364 -0.007811463775906151 0.007219149302481543
-0.023855266632806897 0.006875240706959855 0.05616695561258091
-0.026480727879285654 0.004570574792108664 0.053067081795274
-0.023134094315439998 0.004380482110765645 0.05778342325353872
-0.027345720430984835 0.006753906732517695 0.05132609608761743
-0.026364063259703814 0.0004392691586094259 0.054240283910474064
-0.0219252133970217 0.008910086590452306 0.05776706113258002
-0.02036182028561083 0.011155910361179886 0.05870356431280084
-0.02558255108034592 0.01046533151207037 0.05272148901509656
-0.021053681037040976 0.005523430541678724 0.060233912877791944
-0.02387718382751927 0.009788859213487227 0.055053745994950845
-0.026957187322048715 -0.00275117106367961 0.05393569788695531
-0.020691691679247302 -0.0038850952062125495 0.05992056861345705
-0.021380060600325424 0.0016628558450753356 0.06062100655077271
-0.02344560401545528 -0.0031789906281220496 0.05734200873902051
-0.02519938984174134 -0.00457531151391673 0.05523766926317058
-0.019100370135626155 -0.00992791209305928 0.059999648097955736
-0.022124214414676407 -0.007233496869158844 0.05764887363871299
-0.021920350063908613 -0.0008839287450800185 0.05944273460199472
-0.01926649082996842 0.0036401130293673197 0.06244400143623352
-0.009570451472913601 0.011949913477757191 0.06244400143623352
-0.016752631171471334 -0.00909792644074741 0.06244400143623352
-0.012587748642960014 0.010651518417562057 0.06244400143623352
-0.015328976015082253 -0.005834177141023804 0.06244400143623353
-0.011193579135598158 0.005766037173187384 0.06244400143623352
-0.017894560821229522 -0.0033953319736778117 0.06244400143623352
-0.01762342445809989 0.010876903042802201 0.06180188845171858
-0.01387057734120319 0.014045925864995697 0.06198304999617136
-0.02617168910308508 -0.01647234673521288 0.04869040530389283
-0.019803767832291548 -0.01579157156105055 0.05621138114107402
-0.02345670840605347 -0.017579649571230413 0.05061407810361486
-0.02116174942988639 -0.016964938955604063 0.05366365639244172
-0.024433769537970426 -0.019539476153370434 0.04775691716250481
-0.019706851907004337 -0.03097925878830976 0.04125529870550971
-0.017105768725047973 -0.033213181069539716 0.04250246098493683
-0.015484379730058182 -0.036960070215446277 0.04009904202376474
-0.0177853173298046 -0.03432387199487063 0.039887549583345394
-0.015218715583977749 -0.039253211663059416 0.037436562872728944
-0.020513237370445317 -0.0283751545578306 0.043451221720990196
-0.019151807442482592 -0.022134171589420253 0.05100950295344858
-0.015263263488694286 -0.028582689415774944 0.049115267042654766
-0.02150921244118184 -0.019969420604191136 0.05052502654681086
-0.016688038748632755 -0.02296935557234296 0.052851634374729284
-0.02031385231468843 -0.024065540481024963 0.04796434902514551
-0.017242916605523646 -0.0260971358987128 0.04933332870563527
-0.016788333008836264 -0.016667591075963398 0.05864283914725808
-0.023468354665874217 -0.023460764408028658 0.04517097075580721
-0.01959815649836484 -0.02695737236121517 0.04601997994809088
-0.015371148163458703 -0.03083221910363762 0.046894971091055275
-0.017279750018852513 -0.019954419949841908 0.0550432581061341
-0.014515110733429905 -0.034464422298209244 0.04440712356381046
-0.019422293896318474 -0.03451167483355436 0.017318074419512806
-0.021479144786753272 -0.029984557195042866 0.011018204306159433
-0.017650754476851348 -0.038586249514797624 0.01697665383308329
-0.021365560184394738 -0.030551722133615945 0.0009387528948103414
-0.019913519211607313 -0.03304339256956857 0.028539995326135537
-0.022554371972483746 -0.027260130686188867 0.019490066597431556
-0.016659904994033546 -0.04107854382560235 0.00977239926849128
-0.017432432732080956 -0.03939233626687972 0.006941968829293429
-0.018697179935419896 -0.03684848523263778 -0.004817273589926072
-0.020237668905464926 -0.03337103974821351 -0.006680664255709547
-0.02352028850347974 -0.024581591774534922 0.0346979645832371
-0.022437854726793712 -0.027035607128169204 0.035659862906612355
-0.019250776258222302 -0.03466013969787043 0.025373624700770182
-0.022827667276434278 -0.026255843747684825 0.03189457207326918
-0.019371449437973993 -0.03481251898225532 0.011262231622471898
-0.020921103397428892 -0.030885263784282184 0.02349581001160566
-0.017203901201178113 -0.04003050814085598 0.00319782502524875
-0.0189462207042538 -0.03659387969378301 -0.015230393332889149
-0.02179566443534199 -0.02859181300824353 0.03293371743769865
-0.018023672121990915 -0.03794797275854846 0.009834042753972778
-0.02134583571849998 -0.030729006966246544 -0.003402074738814811
-0.02172858561230695 -0.02928457038934879 0.01521754896945884
-0.022653176165047587 -0.026943696641590593 0.02244112952226901
-0.02160845700399415 -0.029783448056538854 0.007876729637118234
-0.020053984663638818 -0.03410957198417631 -0.01710688890419234
-0.018316651776275356 -0.03754145273530779 0.0011013063719651607
-0.02014043066001903 -0.032974591454641655 0.01368733659744617
-0.02242987854268723 -0.027359356977641504 0.02561765362095214
-0.018958449080713636 -0.036352281669004435 -0.00820977787387301
-0.020500532887931595 -0.032366510684571644 0.006518575262268695
-0.017767378392915336 -0.038217232681852877 0.02031242413310837
-0.01693602177955378 -0.040351128333066866 0.012861494737014829
-0.021578571770786363 -0.029205195002352566 0.029141814503306482
-0.019247969019868097 -0.035226937124863286 0.006950964920166492
-0.020037874080461607 -0.0337061228592804 -0.002627710981071509
-0.018233205374001738 -0.03736622036461117 0.01315623322591027
-0.01957434950623982 -0.034070006263089155 0.020369983382166515
-0.022839149322587765 -0.02600390165678696 0.039311556987008694
-0.01991642430771805 -0.03430346696625561 -0.013106128003898581
-0.021254499353618096 -0.030204333879276887 0.02073638168227839
-0.01858144128995437 -0.03628642917470375 0.022390731005957565
-0.01998355258456499 -0.033677764512083534 0.002401769942165951
-0.01800696996409576 -0.03694473635214873 0.028098046642922023
-0.017155111020273645 -0.03921854428667973 0.02335800818354508
-0.01860749574057248 -0.03496743849939383 0.03431699829878621
-0.018004458960943586 -0.036515573834588796 0.031434269052766285
-0.016611639909401163 -0.039119867098938985 0.03224255782213288
-0.015900107731567047 -0.04259078484119954 0.01620296565101526
-0.0210640688955566 -0.02984375027923991 0.03696810898709958
-0.01756286463089302 -0.03667923244009192 0.03677914222715596
-0.023055235314190112 -0.025207539331794898 0.04283116898239436
-0.020231571387006948 -0.03182916262916151 0.034155273283528464
-0.01662457244828495 -0.03954475526909711 0.028783364551976574
-0.01574264067537211 -0.04195217382798966 0.023466007822425552
-0.021174327277409845 -0.031266980548211684 -0.009225263791985327
-0.022845332561811257 -0.026755989916329655 0.009583509983890045
-0.021493517700440428 -0.030742364444498543 -0.023724579358294088
-0.022176426910047484 -0.02862471022559132 -0.001325378322614406
-0.020491900548088138 -0.033215099920010906 -0.022588949644634728
-0.02238910978478773 -0.028170793727964237 -0.005385201888149954
-0.022842745010575604 -0.026828066631769183 0.006060518923552192
-0.02060999808227025 -0.03286485115868738 -0.01957225100091009
-0.021662654493590946 -0.030196330163638145 -0.017020074310679676
-0.021879583658514997 -0.029569878832932963 -0.012386375439985525
-0.02102316455791435 -0.03173789491372854 -0.014299788171325753
-0.022849603030762458 -0.026622451468523357 0.01618062076616103
-0.02360259425808341 -0.02456196417328834 0.01858082320638685
-0.02366035954588349 -0.024391170795474586 0.011434953925699811
-0.025664082430315146 -0.01837837635287442 0.03395779562081643
-0.024967828624810774 -0.020461542525978805 0.04496755503679961
-0.02396216128114325 -0.0234831726241724 0.022007119697698252
-0.02653406819444762 -0.015767241448325007 0.04517924744644533
-0.022549617033317745 -0.027726723128440805 -0.008460867122529844
-0.0229713691240791 -0.026459572488596303 0.0010258991877219424
-0.022071978992831823 -0.02916213296143393 -0.020275900849960855
-0.02576388181464758 -0.018078142036095313 0.03738873372928154
-0.02490757702287582 -0.020644169129759006 0.038716371554488066
-0.024421174448101553 -0.02210546101111541 0.028082977431253688
-0.024007940022939288 -0.02334286269510806 0.03150083169675977
-0.025037816575216112 -0.02025642580498454 0.030759516075525992
-0.025648056584185897 -0.01842356841604071 0.04264035225037592
-0.024660608993768218 -0.021391382018657534 0.01726258803855548
-0.02448524261960814 -0.02190904061047621 0.04153512502298029
-0.024503851211265654 -0.0218557261373571 0.03401930422726822
-0.02385913044513799 -0.023790850484298458 0.025430196352199196
-0.023684122493542577 -0.02431886014255736 0.01476750055901192
0.02227303221921963 -0.001477398208423439 0.06030131542979815
0.0209096290692075 -0.007340022840404499 0.06042550863850373
0.02813737098048066 -0.006652994161615694 0.05306784335178322
0.025399350021516595 -0.005759256850579949 0.0561094552064931
0.022024508159456706 -0.00974352038424818 0.05873743178778725
0.025927611952182898 -0.0027708774870560194 0.056219350545367114
0.02317092882521112 -0.005584669696902107 0.05846310884208986
0.01990469634329592 0.00418286827554341 0.06204818173490895
0.020995996410859943 0.0010418052676038412 0.06182809771223498
0.01799428342215703 0.002170757701641957 0.06243345740119853
0.024763664171492783 0.01035072696324616 0.05583143728051475
0.021986662156298034 0.006317697987031022 0.060822365912096735
0.02081360701864253 0.009148808529995079 0.060707770392020306
0.02112965689574165 0.011679753725248963 0.059124119306352224
0.027111510851513754 0.011871466378887663 0.05253777341744297
0.02721531267050703 0.004292440849239926 0.054929665804606245
0.029194746694123988 0.00860778929270535 0.05085505656131284
0.02754427262301793 0.008262149913742222 0.05316898863795742
0.024106035766526566 0.005852956093108704 0.05855204103857416
0.026040766164855136 0.0067429829936995435 0.055678065850424244
0.02552056908073116 0.0036290366737042755 0.05721922568552157
0.026637761324411275 0.00026780568371659254 0.055730883568256874
0.023333809238495207 0.0033394403875296585 0.060132463574483125
0.028415937719983603 -5.594742993266389e-05 0.05336196735314036
0.02825891554639108 -0.002910019699431343 0.05357115490848209
-0.008762810010334247 -0.04706900570087373 0.019659182610915826
-0.010383636408009267 -0.047142777837023794 0.014955060010651984
-0.005913355221879092 -0.04718992617332447 0.022157470635448588
-0.00733307935800313 -0.0473231353445717 0.016457361380933726
-0.012348822802462703 -0.04179400156526347 0.035109333907632365
-0.011759008529434845 -0.044704318664671276 0.02934410023147173
-0.0007416887106029746 -0.0472855055869858 0.02693523840820583
-0.005664386526752478 -0.04706426033798658 0.024964975511102015
-0.008361749708359829 -0.04500196653482397 0.03000268702727095
-0.008433187671125386 -0.043087872980212355 0.033763577124273025
-0.011358950038184304 -0.0403883377110638 0.038365376652042774
-0.003597786585585649 -0.04572446306834481 0.02976081664864098
-0.005748290134842359 -0.04466401736230781 0.0313196022284335
-0.008005382709290595 -0.046751195630797285 0.02663809877134713
-0.01135651922930454 -0.04333208497712289 0.03255466948374257
-0.012087812781666842 -0.03904754838589159 0.04083104508838176
-0.007570624462231464 -0.0419453191941825 0.03623356781672157
0.0009301256294048318 -0.046299562643941757 0.029751238225412337
-0.012819328142939148 -0.04515571818897692 0.019804846877551116
-0.010922505105567144 -0.04699399961508912 0.010726443500154791
-0.0110756490872546 -0.0463928344626794 0.02188626812368482
-0.014733977614709706 -0.041817174157142825 0.03243260938521186
-0.015240693312909398 -0.0429232009227039 0.020235279013417727
-0.014188146738521158 -0.04301112029505742 0.02723694047227261
-0.011009548130320934 -0.04614458151432342 0.026337366174309887
-0.01332451458189122 -0.0441648581921904 0.024668416299707525
-0.022184357510310962 0.01693987022398603 0.05296804561142888
-0.020824704860376228 0.015424630313103609 0.05564103766696435
-0.02526747569057585 0.015575093236442699 0.05011094586517821
-0.02368005998806821 0.013098502812640203 0.053703926565093485
-0.018568115321529993 0.013340451845511768 0.05978993325860745
-0.02474545449157139 0.02321192147118287 0.011206598017596837
-0.02606207330801409 0.018281794564442354 0.027304330227493817
-0.026616099304562373 0.01613944302533333 0.035913699464527486
-0.02307462830332685 0.029600911707204268 -0.012810581331231247
-0.02531721123466415 0.020595626693112143 0.031069318583137433
-0.025374299898331183 0.020035725122563425 0.04114064319591016
-0.02419845075394938 0.025374507163013933 0.001423061414413649
-0.024030457350384914 0.025815609134052734 0.004458964645485524
-0.02567154567835544 0.018860193864596794 0.046467014723907525
-0.024092217076298605 0.025274590656881535 0.013602380546058342
-0.024905077981481807 0.02208547566289848 0.027476401081558664
-0.024992318801191484 0.02229403390793005 0.014048750042407788
-0.02671866742181559 0.015389638262423407 0.047071956370799105
-0.026221269765998884 0.01734601311390965 0.038448969392909246
-0.02583330348854864 0.018772427170867283 0.034418760153474365
-0.026310753896515143 0.017308806246260865 0.03147665692967189
-0.02277869573848752 0.030869832405265467 -0.020783073488296694
-0.023225454021643662 0.02899443901655209 -0.009837243611491643
-0.025132822279667087 0.021481247139179753 0.023529633397300943
-0.025025832011586875 0.022059151239573076 0.017420847510900124
-0.026994669978757248 0.014606584258460155 0.04366432915276236
-0.026116247934304317 0.01753129517516752 0.04279696183941174
-0.02304775158637786 0.029844504293832227 -0.017010365383424333
-0.02363132897524573 0.02749930715437141 -0.005543170383288099
-0.026955661881757742 0.014840982348957307 0.04079536915936532
-0.01969629519667247 0.03404320611335032 0.03632170542949223
-0.019294489766849714 0.0360981917630817 0.032129350700225545
-0.02372374167595548 0.023968914216596075 0.0445425643858507
-0.01993388556730303 0.032640796283664 0.03940220535082305
-0.017732089056962268 0.03770453084717508 0.036333508960710366
-0.01791905840402189 0.03895467112685863 0.03119767418205372
-0.021729232386864486 0.029606383864805 0.038388808760839
-0.02478061329501266 0.022037817499516648 0.03865587635178888
-0.023126077295335196 0.028704253354689305 0.0005678728564837664
-0.023730189954150282 0.02572921709189141 0.02376817974984273
-0.023197679405156414 0.02783724610256883 0.01215479779901517
-0.022140011200047133 0.030603330732489227 0.013498461912503139
-0.024089231652757143 0.024105742668515895 0.03507130277903273
-0.022326869732103474 0.030498033593823103 0.006674582970300689
-0.020684137662511523 0.034248632001612093 0.018134498183027627
-0.019944299864310948 0.036520515842387906 0.013284644263826712
-0.023688901299660437 0.026171970421271014 0.01806933679971074
-0.021073506751783995 0.03351562388273676 0.012738539098183935
-0.021870427843489908 0.03189503830766432 0.0037620286791253
-0.02142518932153474 0.03348181650646602 -0.002928375135563515
-0.024466197240347154 0.022691815750410065 0.04194637646762651
-0.02370816617319326 0.02495586131678517 0.03807170990162444
-0.021739759913270477 0.033366632961482845 -0.015482698549904323
-0.020976671929383284 0.034042283499148965 0.00816443985476522
-0.019624425949794154 0.03705380164042005 0.018901102877868906
-0.01853271808912334 0.03977334723915779 0.02261692454900015
-0.02185341501612951 0.031049558948353453 0.019073115753547903
-0.024464751455093102 0.02337064479691741 0.03035108134677273
-0.021016000873904206 0.03314169875876498 0.021819234974160884
-0.021281195423319126 0.03360805534516881 0.0015553876211224027
-0.022771280319365112 0.027595675283888007 0.03600453017818435
-0.02274848733432088 0.02844604525385582 0.02244845014262291
-0.020055012826733037 0.035647656922768875 0.023165179955894906
-0.020188964830801508 0.03511595496152034 0.026111093502606708
-0.022863634872885976 0.02778985073768303 0.028401875714276128
-0.020939783612070356 0.03269888088225088 0.0329479536908034
-0.02247921361288497 0.030572078943125375 -0.0016357740165484948
-0.01948644648238703 0.03687304615346103 0.028381074630798517
-0.022736911497452387 0.030201680804317226 -0.007178067216523178
-0.023556438546502426 0.025675440922395723 0.032719344544090936
-0.024047953281009282 0.02469272471865331 0.026894176286332297
-0.02164582410869069 0.030958925807413062 0.030220855882004165
-0.02184995680051187 0.030161281170375982 0.03449324519519945
-0.023513212581724965 0.027267781138392296 0.007360428843401573
-0.02159173920471894 0.03131192922664668 0.026655076932487705
-0.021861908606605692 0.0328086492551172 -0.011539959776607354
-0.020373225791288994 0.020928252981992877 0.05213265097887709
-0.018185498600719642 0.016467435063143035 0.05795548505824351
-0.018042155874323 0.022652565060496278 0.0535245478726724
-0.018177717702846524 0.027518140963249615 0.04975417249043006
-0.019869073124484896 0.02410321524578716 0.050351882325769676
-0.019492165405395275 0.01806515107159549 0.05527011643925409
-0.02187278815014892 0.02547571029715981 0.04667367271511605
-0.017707099193930462 0.03392645584457022 0.04271479419988115
-0.018850645245265467 0.030588097497313844 0.04547789767806207
-0.01945131922476312 0.031618014025733894 0.04234801732442504
-0.022004342742603065 0.027681188976851068 0.042729481029228085
-0.02415267344791593 0.021955426152243825 0.04702197012623219
-0.020527471913166506 0.027913702460785984 0.0458744118531288
-0.0008895132566526065 -0.047786408057481036 0.00983885274294952
0.003092893306874289 -0.04788926410885698 0.010998534296421555
0.00722113350897347 -0.04764323533532842 0.005848135558052702
0.0018825742436404318 -0.047646136811772564 0.006829572874373593
0.004623083553341195 -0.04773193009790884 0.00789804232060035
0.008292479581479268 -0.04782627775932765 0.00895893567675203
0.003132306899076116 -0.048071014187840516 0.014265661378141684
-0.004113255974013821 -0.047708217486062285 0.008991442439765667
-0.000536330840305661 -0.047524579889261766 0.005060893977577044
0.009121424526349325 -0.04814744443205378 0.014600050897848285
-0.000854472460151752 -0.04784146940070036 0.013932604819215069
-0.002408581866450967 -0.04763434602053262 0.016982632769836175
0.0018201817185248392 -0.04783494613585317 0.018807647680784648
-0.0014944645776425727 -0.047585177759573535 0.019957965401265373
-0.00747819307357058 -0.04760531216314521 0.008896999527674847
-0.005944629156039459 -0.0475793542308453 0.012311880315981925
0.006660483135264489 -0.04820926321583727 0.0168604960297483
-0.0037239027206870377 -0.047644449783013645 0.014392888291468457
-0.004611871469849244 -0.04742517441168404 0.018950700224672413
0.012408620299234216 -0.04659887507823647 0.020287473786640066
0.014811764744152404 -0.04512290291148985 0.01911242935733104
0.015473901529310125 -0.044209555764974075 0.02238234462107018
0.017602041093666573 -0.04320386366226343 0.019204198718301
0.016903810742202964 -0.04219933391593975 0.029712055068316867
0.002982658515393786 -0.047671631580217824 0.02415339241970354
0.006951419516057077 -0.04803787748872229 0.021440833160581648
-4.18485832757152e-05 -0.04753258711981377 0.023349260770573962
0.014189944971967208 -0.043952793895565105 0.028820002146959012
0.006369357905988256 -0.04635693675144967 0.02866505283648999
0.00969264768711027 -0.045726189592037156 0.027473029588069617
0.007487445973163925 -0.047165538073239005 0.024978935400412308
0.0041893205042252924 -0.04751843118809533 0.027040725865366908
0.012989758253511174 -0.04519919429465459 0.025972502020412593
0.01433484562910821 -0.04653422138848968 0.009319995239674686
0.01595578191091241 -0.04468360108220842 0.016318069261720733
0.010320669639113713 -0.04831255861679576 0.018181638894593895
0.012950371155256827 -0.046635388197574804 0.017159459004670648
0.014396928696607109 -0.046018264107651655 0.013744525689731914
0.003689511780265317 0.0011608308602420437 0.06244400143623352
-0.010709370342517949 -0.005035207574315956 0.06244400143623352
-0.004981400317098616 -0.002464224992901095 0.06244400143623352
0.003883983394279076 0.007645104209903268 0.06244400143623352
-0.004843980178933539 0.01052135434405586 0.062444001436233514
-0.010092911143749479 0.008943703172199186 0.06244400143623352
-0.01558053950255792 -0.0008951745929511061 0.06244400143623352
-0.014602422370272903 0.008097028828359169 0.06244400143623352
-0.003514207693730188 0.0010808559511471857 0.06244400143623352
-0.00566549112415406 -0.009147003785403014 0.062444001436233514
0.012648596086504134 0.00039104390651649164 0.06244400143623352
0.017217584565303937 -0.0006577046768085496 0.06244400143623352
0.0015277194737294657 -0.006865089336210752 0.06244400143623352
-0.009272446363043082 -0.008622062143196088 0.06244400143623352
-0.00026498990986645126 -0.00435567864421592 0.06244400143623352
-0.004031534856022587 -0.005883039497317916 0.06244400143623352
0.008681081582041568 -0.004261967370609248 0.06244400143623352
0.0025654016765708125 -0.009812008418000496 0.06244400143623352
0.005146811850387516 -0.008138375211782772 0.06244400143623352
0.010546590143069013 0.009491938790277203 0.06244400143623352
-0.001536898922231301 0.010813574433806863 0.06244400143623352
-0.0068105436285850526 0.013978009102215912 0.06244400143623352
0.002335285906984734 0.01435640473067339 0.06244400143623352
0.009629314464894127 0.012179326538791911 0.06244400143623352
0.004020947626396109 0.011668246413562665 0.062444001436233514
0.006670503812228455 0.013411022410559213 0.06244400143623352
0.005696006163494478 0.017889478818534824 0.06244400143623352
0.013245960573979042 0.011833712287334102 0.062444001436233514
0.00011726511808852558 0.018550220651144707 0.06244400143623353
0.009951188105635556 0.01591221423164168 0.06244400143623352
-0.002553310665741044 -0.011334493085899624 0.06244400143623352
-0.004950197062936246 -0.016415624970083507 0.06244400143623352
-0.00822013964620306 -0.013924897412536164 0.06244400143623352
-0.01294262630581979 -0.012571797294972412 0.06244400143623352
0.008911732968321871 0.0051635260713417085 0.07709500193595886
0.003935549683726452 -0.01188480196502572 0.07709500193595886
0.001438020187586997 -0.009739644213881292 0.07709500193595886
0.001564656928602211 -0.0009686039295335623 0.07709500193595886
0.005445889955877804 -0.005763819401720225 0.07709500193595886
-0.0027233283920955398 -0.002464548110785277 0.07709500193595886
0.004618914449074313 0.0004798062769725362 0.07709500193595886
0.011319089878430739 0.00679874850829323 0.07709500193595885
-0.0014353995808234626 -0.008688532546045442 0.07709500193595886
-0.004129508237829123 0.00012789723516595363 0.07709500193595886
0.009138913853311307 0.0019909921276032973 0.07709500193595886
0.0008483571441211596 -0.016272542076020337 0.07641552759878413
-0.018976286393310275 -0.007147198146177357 0.06613256169595923
-0.01884192022194208 -0.008041159902293836 0.07073349688455724
-0.003910257307412998 0.0033396068486661436 0.07709500193595888
-0.006842642145094021 0.0023744347576416616 0.07709500193595886
-0.0005936276600750282 0.0029684595692705054 0.07709500193595886
-0.0006015513353801866 0.009722744809951247 0.07709500193595886
-0.01888233899816891 0.007191384536462337 0.062444001436233514
-0.01653140781251576 0.002558903802102242 0.062444001436233514
0.01985191034483473 0.008402652804506746 0.07086392334774153
0.020537028717922897 0.0066384552355146995 0.068289448826963
0.01912914213272201 0.010253255856710159 0.07402280964340692
0.020813364172479507 0.005531289463767245 0.06565376968343639
0.021263575091368482 0.0013157726279713023 0.06693896483491713
0.021206711076646206 0.0034390008811367766 0.06956126363394768
0.021393999457359314 7.429199052341132e-05 0.07328205549817801
0.021393999457359314 0.0005319528359366828 0.070312308979042
0.02139399945735931 -0.0025417561747565127 0.07030833418072259
0.021393999457359314 -0.0021305115765926936 0.06716267827097239
0.005382902531290612 0.02058500051498413 0.07013422554137318
0.0018529612183519166 -0.01828988754543967 0.06244400143623352
-0.017236213686161402 0.009021817455332098 0.07549468148657826
0.008550519515142425 -0.00428848649978966 0.07709500193595886
-0.0030273977512346455 -0.02010996819529871 0.07500649043178835
-0.014991113993186492 -0.012423351894112256 0.07516017598780379
-0.016538824167949044 -0.009955559805543364 0.0752183867024839
0.008137091532933113 0.019195587968589226 0.06449881249205348
0.002464290470552793 0.02058500051498413 0.06962715427232279
0.0033420899245685596 0.02058500051498413 0.06463854234218776
-0.0024783784593173162 0.020585000514984134 0.07292932012731637
0.00764457451734249 -0.019820166191980453 0.06666221439267482
0.004487386706952596 -0.02062972027482061 0.06576705066155959
0.006993723512776842 -0.02025822166092774 0.0714518249522728
0.009862613226487274 -0.01885234177725568 0.06377002882477602
0.010561480354079162 -0.018650788531360953 0.06957124156383072
0.0013119560070676134 -0.02078999951481819 0.0707059736522545
-0.0007712768774146249 -0.020789999514818188 0.07349421077123078
0.004105075351726681 -0.02078999951481819 0.07023659981006307
0.0036459001406796074 -0.02078999951481819 0.0734772808347304
0.019141113297368416 0.010039126503687936 0.06538116702317205
0.018683981801857617 0.011270507370059543 0.07126460117422528
0.018137136292717036 0.012376431241331167 0.06728296128107766
0.01595374571562277 0.014457501601774173 0.06557500340444496
-0.017858978021101618 0.009564765306908111 0.06636708385635781
-0.016337116791991554 0.011947619709641073 0.06446111062048591
-0.017003079570587082 0.011475425269302383 0.0692055275680537
-0.01958928762598116 0.005881709302157317 0.07077594266029642
-0.019346870663814148 0.006340266172926613 0.06599673686422662
-0.018037885150557854 0.009407197110674424 0.07203564210993191
-0.016777093591635123 0.012265015249088206 0.07266752228941681
-0.013901330455711089 0.015218574935804929 0.06697793269384447
0.009678285071880455 0.01889452396293243 0.07081484090835345
0.007652748752755204 0.019717328878746422 0.06744901108502083
0.011971223042630288 0.01768772327059974 0.06707009377692426
