-0.0263549452389 0.0232408731749 0.0212931005615
-0.0263896577377 0.0198896073273 0.0148710321093
-0.0266713443419 0.0239586910699 0.0238442905281
-0.0251064327891 0.0205243027786 0.0114526340972
-0.0254556835363 0.0146926912006 0.00132606220535
-0.0263356952725 0.0185240584172 0.01200696455
-0.0245139159892 0.016553402491 0.00154279948718
-0.0247404370131 0.0180880327446 0.00536368317558
-0.0253702564619 0.0130993253503 -0.00209736727196
-0.0256330531606 0.00906988292458 -0.00901651225538
-0.0258067012831 0.0162399161166 0.0056235198035
-0.0260396977265 0.0213643499381 0.0164820802346
-0.0254912125739 0.0107792756754 -0.00619143427149
-0.0235062879367 0.0140664199971 -0.00697458041596
-0.0237987730638 0.0125564625755 -0.00886308844552
-0.0254209900705 0.017984277112 0.00763159026919
-0.0232308279684 0.0185079662184 0.000703808165107
-0.0233911677825 0.0162944750671 -0.00303907650574
-0.0240566660584 0.0163035916105 -0.000605280770721
-0.0231319265391 0.0157109037963 -0.00512045778996
-0.0239875289842 0.0200311619167 0.00642708157401
-0.0242144984006 0.0136406967876 -0.00523536470235
-0.0305518507558 0.0122257335434 0.0163185966978
-0.0273315875141 0.0168906698986 0.0127288479303
-0.0267005923429 0.0112279365474 -0.000690872402807
-0.0274999605528 0.0214420854455 0.0221883520645
-0.0276213146015 0.0222508021428 0.0242271959604
-0.028897638044 0.0182842098381 0.0215553939166
-0.0275234922427 0.0111329300077 0.0023476274011
-0.0289386765491 0.0135761093582 0.0126129220714
-0.0262125249202 0.0127477228964 0.000336545457981
-0.0272796888805 0.0200396995693 0.0186143144492
-0.0265061452812 0.017361732904 0.0104075025757
-0.026448797399 0.0134998577732 0.00271596924403
-0.0293141246322 0.0139820687133 0.0148679759444
-0.0299480179916 0.0117652411267 0.013063825843
-0.0267921506652 0.0216783770627 0.0198736818573
-0.0294303063986 0.0117185378104 0.0109463420209
-0.0282943121571 0.0183894123327 0.0193963852267
-0.0264344860048 0.00996075853722 -0.00418295706013
-0.0273006422883 0.0178319782285 0.0144277070859
-0.0276588422909 0.0121385348901 0.00482196036528
-0.026971941195 0.0244838703827 0.0260021329483
-0.0287540453256 0.0114640017821 0.00780618552231
-0.0283655137805 0.0159490763279 0.0149567697366
-0.029124963024 0.0159401546589 0.0179132644157
-0.0274056944011 0.0152757577635 0.00989657470093
-0.0279756630082 0.0177579250762 0.0169276759465
-0.0299864002776 0.0139866982479 0.017509329878
-0.0271987375625 0.0146417966087 0.00786043119313
-0.0325801795536 0.00441614647518 0.0311649997772
-0.0322112960664 0.00534028531451 0.0219167450471
-0.0319539764541 0.00655251973862 0.0199551089049
-0.0314380706659 0.00910070331708 0.016953562934
-0.0324850508316 0.0040375835322 0.0239005162941
-0.0323318092439 0.00515744848722 0.0258800154102
-0.0320494481647 0.00575591030627 0.0179394189962
-0.0315147307348 0.00898374243312 0.0194694649332
-0.0320955380784 0.00627376871213 0.0241045080486
-0.0317592087068 0.00718527965841 0.0162176312522
-0.0322236750234 0.00452612615583 0.0160324338855
-0.0297265070848 -0.00105361830899 0.00175578047642
-0.0301392188717 -0.00384489789538 0.0047295596
-0.0315513941144 -0.00364221569668 0.0116633616285
-0.0318700488873 0.00109193916709 0.0116697821178
-0.0322933895832 -0.0064258060859 0.0162670800031
-0.0302016893286 -0.000456210178015 0.00391305231004
-0.0322529272576 0.0030235826849 0.0129260093576
-0.0313881952452 1.32085092921e-05 0.00963940118073
-0.0317499293298 -0.000935304302252 0.0117480105441
-0.0321938465904 -0.00451008177936 0.015136890192
-0.0306700892827 -0.00285036816633 0.00703093559116
-0.0313554905169 -0.00611762786017 0.0115148215988
-0.0307312872342 0.000580603157238 0.00619406677938
-0.0311432328667 -0.00204502391204 0.00910899351647
-0.0314129093794 0.0020033881198 0.00910049787233
-0.0294161881674 -0.00288937111224 0.000827413412089
-0.0288664647487 -0.00167619244674 -0.00230115427045
-0.0286858139416 -0.00366381121508 -0.00253619166806
-0.0321847911648 -0.00167744917363 0.0141505808362
-0.0324917008927 0.000577321704083 0.0210447655418
-0.0326312136991 0.00270702045465 0.0254379491281
-0.032693911117 0.0029894154772 0.0276364903876
-0.0327683884083 0.00155046830708 0.0308378188144
-0.0325376331146 0.00309403008011 0.0218877581008
-0.0324815037224 -0.00222221113052 0.0216023428158
-0.0325966005069 0.000508203970101 0.0249031619677
-0.0323647760139 -0.00231026398475 0.0173637130178
-0.0323464594104 -0.00473284426039 0.0174991421302
-0.0323067138033 0.00122454882038 0.0140660128669
-0.0328437369236 0.00259313414746 0.0332462465934
-0.0324744158847 0.00232834158199 0.0198308318767
-0.032422002953 -0.00197664509253 0.0193452140957
-0.0323398077139 -0.000547508650631 0.0158649563128
-0.0326473862748 -0.000849729614684 0.0272113369916
-0.0323937216892 0.000930164717006 0.0173451037626
-0.0325394335789 -0.00105037803893 0.0233309670972
-0.0265024569042 0.00739122957346 -0.00736060070379
-0.0279654826112 -0.00215099315136 -0.00653322364715
-0.0278294614605 0.0038143147187 -0.00407937986239
-0.0293332215482 0.00517277304054 0.00233595268349
-0.0298948019316 0.00200428632313 0.00289987297907
-0.0263579143926 0.00571604623518 -0.00874702477005
-0.0313949255259 0.00404707889477 0.00964237669928
-0.028304782099 0.00128673133543 -0.00352522186051
-0.0299826196501 0.00456369360571 0.00451050204921
-0.0293885403587 0.00132745045175 0.00063067568211
-0.0269464599736 0.00153807877753 -0.00858329518402
-0.0277385300964 0.00593614540356 -0.00336892719076
-0.0276397045979 0.000724768770046 -0.00634320946582
-0.0288993891692 0.00423625853179 0.000213729413542
-0.0272792744422 0.0031847727736 -0.00649262635299
-0.0273064680483 -0.000315084132775 -0.00813306082247
-0.0284012442421 0.0057644067183 -0.000925608855553
-0.0284326362758 -0.00139647481516 -0.00437454732529
-0.0272274021448 0.00619100081085 -0.00519237254613
-0.0309281191469 0.00239110404558 0.00703577158438
-0.0303666967092 0.00227019291001 0.00483313450743
-0.0279968725602 0.00824948162417 -0.00033760389633
-0.0309751773156 0.00612893430396 0.00999708676704
-0.0298395303414 0.00658357775865 0.00565686647571
-0.027353113275 0.00819413822959 -0.00315132582747
-0.0290279855073 0.00726372671249 0.00295632791809
-0.0308735774156 0.00957276782481 0.0134504092561
-0.0286562793859 0.00692295645793 0.000983084700659
-0.0299413676384 0.00817521068006 0.00788878744282
-0.0303105651899 0.00962045054691 0.0110980776607
-0.0307617325958 0.00503534757216 0.00785040047317
-0.0315411442893 0.00676868046675 0.0131380423936
-0.0291404118553 0.00907981562482 0.00548687813093
-0.0204669925089 -0.0205596605996 -0.00568252242526
-0.0193026242526 -0.0226557006879 -0.00401139558008
-0.0179438471335 -0.0230250203611 -0.00784826061648
-0.0248435538346 -0.0202113456607 0.00902011936295
-0.0197744823772 -0.02294590948 -0.00151287190603
-0.0245304179439 -0.0196256207905 0.00626650739622
-0.0235482708249 -0.0192331876101 0.00165568007074
-0.0222043659075 -0.0177565175217 -0.00727206539833
-0.0248727413055 -0.0138019609257 -0.00873611260177
-0.0218669582352 -0.0212696408976 0.00130948560154
-0.0239005471947 -0.0179466269112 -0.000667956602255
-0.0228459765576 -0.0176737738643 -0.00520491711773
-0.024364719317 -0.0157779308729 -0.00504908261346
-0.0216866231536 -0.0194791893824 -0.00432570219036
-0.0191485715925 -0.0210741143531 -0.00897042551086
-0.0208780888131 -0.019100468154 -0.00827657951574
-0.0228011164799 -0.0211811044312 0.00440815838884
-0.0209639492398 -0.0214783245535 -0.0013428269365
-0.022160328338 -0.0196602571424 -0.002124702489
-0.0240187382732 -0.0153279858187 -0.00754194735904
-0.0143302036089 -0.0265839643954 -0.00343594995274
-0.0155474380286 -0.0269046916284 0.00194742740945
-0.013157590631 -0.0262107826352 -0.00895097823063
-0.0155680353553 -0.0253602541966 -0.00590235606014
-0.0160021336917 -0.0282896468674 0.0104404843947
-0.0123348619554 -0.0278110246076 -0.00327992121077
-0.0130211611912 -0.0268217457502 -0.00623984699702
-0.0162412048884 -0.0272984134241 0.00609638146784
-0.0145020700553 -0.0256848481887 -0.00751457628768
-0.0133204585722 -0.0276255265144 -0.00120197255854
-0.0160185313793 -0.0255428055161 -0.00358283319082
-0.0155840277396 -0.0262588883187 -0.00124898058752
-0.0208233202496 -0.0247227259678 0.011850568631
-0.0207844103305 -0.0251419948852 0.0138334475797
-0.0241657734674 -0.0219610414523 0.0118991861136
-0.0170067582548 -0.0255590262706 -7.68983066743e-05
-0.0225980069364 -0.0223458491133 0.00721108680146
-0.0180533577858 -0.0264876347943 0.00912675363956
-0.0223281718963 -0.0237492465676 0.0132552971784
-0.0203324096131 -0.0244348153643 0.00829009766669
-0.0223701492997 -0.0232979657061 0.0111214323379
-0.0190258359738 -0.0261295155173 0.0114228747743
-0.0192849408472 -0.0237897712047 0.000535622148435
-0.0202449468539 -0.0238852006259 0.00510256250002
-0.018730216583 -0.024635813019 0.00251399046487
-0.0171820683564 -0.0244267402319 -0.00513357512234
-0.01874546007 -0.0253374586818 0.00617369102054
-0.0167638658633 -0.026589904562 0.004173124277
-0.0306245357809 -0.0111999060328 0.0314026469573
-0.0301859049721 -0.0125835396974 0.0271362391436
-0.0271614760679 -0.0183399187048 0.0322307675608
-0.0286964570121 -0.0149200429679 0.0341904218224
-0.0291439142092 -0.0147797945778 0.0269483939017
-0.0319846084658 -0.00839659127797 0.031069802308
-0.0281213324208 -0.0163173254328 0.0323988544833
-0.0268414344441 -0.0186197799871 0.0357730062559
-0.0300102466031 -0.0133566607146 0.0234301122944
-0.0312636694399 -0.0101717606208 0.028608524269
-0.0281117019808 -0.0165969577865 0.03003185299
-0.0291055851508 -0.0143780492971 0.0313424503923
-0.0297046928032 -0.0129380158373 0.0330672076496
-0.0304696563989 -0.0126860419408 0.0207977309662
-0.0302752751546 -0.0121588679248 0.0293075519661
-0.0310495615418 -0.0109019972743 0.0260257413321
-0.0290395400084 -0.0152916851334 0.0242673279728
-0.0254613552833 -0.0209484392695 0.0193208433159
-0.0272840768828 -0.0181173628518 0.0215496801075
-0.0296721776802 -0.0143943852634 0.0198497444507
-0.0282573130224 -0.0165920090656 0.0181318826218
-0.0267702775592 -0.0189432968675 0.0302964370502
-0.0271103437553 -0.0184033499169 0.0267626470366
-0.0287216345416 -0.0158789563811 0.0214347947895
-0.0280545101484 -0.0169225985774 0.023124756437
-0.0253348197077 -0.0211357717015 0.0160725471587
-0.0259466182394 -0.0202210556498 0.0287648564907
-0.0266447478902 -0.0191078827669 0.0199294330883
-0.0293643834951 -0.0148668922756 0.0176036018786
-0.0266771167345 -0.0190457093065 0.0159702189094
-0.0283248161658 -0.0164803391484 0.0159211989227
-0.0263462013599 -0.019582083387 0.0230913810909
-0.0282087375375 -0.016690028565 0.0256586697172
-0.0282948375843 -0.013438168803 0.00669411899587
-0.0286347649798 -0.0146603853891 0.0117612421374
-0.026490305028 -0.0160189733523 0.00506718904015
-0.0275896903031 -0.0158138755227 0.00986834557731
-0.0257432983274 -0.0196686342 0.0115869220744
-0.0253451054183 -0.0167945043258 0.00163173952215
-0.0272646766888 -0.0177370249706 0.0136391627569
-0.0251235934624 -0.0157141355943 -0.00246140624245
-0.0259293486369 -0.0180075686796 0.00786732951971
-0.0253417721541 -0.0177830027745 0.00437005612057
-0.027061381432 -0.013588133166 0.0010841202542
-0.0253592317101 -0.0160809286872 -0.000287715959502
-0.0261475110431 -0.0198130515304 0.0139647504752
-0.0252026946227 -0.0142399873811 -0.0061827846497
-0.0270930074022 -0.015639310639 0.00695460465313
-0.0266753101916 -0.0178160170535 0.0109790535942
-0.0271080346463 -0.0145243625814 0.00392106480856
-0.031863774515 -0.00861872921 0.0184207241334
-0.0319760223286 -0.00858680640712 0.0270488010681
-0.0313267147023 -0.0104690205642 0.0199771734523
-0.0315182472197 -0.0099300981223 0.0224743023391
-0.0320975510832 -0.00809493085633 0.0248498362314
-0.0322127834585 -0.00755536315813 0.0209181787533
-0.0309713992002 -0.0115625937807 0.0177119824505
-0.0296579643806 -0.0119026181983 0.0106629165199
-0.0305841802884 -0.0117328298398 0.0149401847193
-0.0278235572176 -0.0116063663587 0.0012634523282
-0.0274487155595 -0.0115430864912 -0.000661255002193
-0.0307302690179 -0.0100008096069 0.0131125551818
-0.0281474782718 -0.0125248673624 0.00419426146665
-0.0291970421076 -0.0108210559895 0.00682330680888
-0.0290231666922 -0.0130359885258 0.00922376793144
-0.0317290477655 -0.00879339745416 0.0162218296481
-0.0264886918339 -0.0125304949792 -0.00390396692001
-0.0297674449302 -0.013065356399 0.0129041487352
0.019169974795 -0.0255217501549 0.00604310897152
0.0198120601177 -0.0245649929406 0.00403515220492
0.0206888072775 -0.0216460925256 -0.00736836716997
0.018724719579 -0.0244608493204 -0.00182720930698
0.0197459992287 -0.0238884085415 7.85806248635e-05
0.0173998229654 -0.0260551873333 0.000275571391088
0.0224257178579 -0.0197984145016 -0.00882262616823
0.0182588137689 -0.026926124129 0.0091432430457
0.0171190281633 -0.0250491214072 -0.00649812161838
0.017749161404 -0.0241486306008 -0.00826212334793
0.0217222267213 -0.0210287408958 -0.00564461840233
0.018179899461 -0.0256978555501 0.00216051539035
0.0201419534026 -0.0229474064924 -0.00304512054874
0.02015455607 -0.0225256192919 -0.00524936300519
-0.0119356403563 -0.0299290044688 0.0368130403039
-0.0241850042536 -0.0219023376579 0.0328040559666
-0.0256428931225 -0.020656573512 0.0249466978696
-0.0242867434973 -0.0220952577593 0.0217025444715
-0.0221804610802 -0.0239534039545 0.0308548419661
-0.0241252826988 -0.021877750429 0.0359774768157
-0.0222148214035 -0.0240171223111 0.0271597024636
-0.0245797710673 -0.0216553354534 0.0272703288505
-0.025379756413 -0.0207563754302 0.031080361448
-0.0210348728552 -0.0250400388004 0.0329665722673
-0.0243241700468 -0.0221640817561 0.0176995475656
-0.0235622988991 -0.0227135303746 0.0256357946918
-0.0239950888928 -0.0221689256716 0.0298943214924
-0.0213155894176 -0.0247077077898 0.0349402057276
-0.0237090071894 -0.0227326051439 0.0193984907481
-0.0227827866009 -0.0233034953677 0.0327077179618
-0.0242877396081 -0.022040120447 0.0237442688107
-0.025666943968 -0.0204064378568 0.0334745386438
-0.0224496307691 -0.0238346741329 0.0215226717527
-0.0194588102006 -0.026387395958 0.0207118512616
-0.0209443993608 -0.0251196499717 0.0211436907559
-0.01751674722 -0.028048163654 0.0205834385866
-0.0238699514549 -0.0225617475975 0.0143151909872
-0.0221275890442 -0.0240633062445 0.0156477640549
-0.0214263838397 -0.0246861510844 0.0185060136744
-0.0211776035458 -0.0249432227931 0.0240379649032
-0.019431476969 -0.0264500727245 0.0256296906144
-0.0203801500874 -0.0256773774256 0.0305201960601
-0.0203504892404 -0.0256807235244 0.0277620907578
-0.0187179688234 -0.0270383933437 0.0228486600303
-0.0179682161081 -0.027637553625 0.0175423436598
-0.019797670427 -0.026071627555 0.0174810078037
-0.0179649717755 -0.0276210635867 0.0151307277472
-0.0159324505657 -0.028198334544 0.0360080641906
-0.0151282635677 -0.028868470825 0.0297348633363
-0.0184434393165 -0.02728093351 0.0277031508798
-0.0179389207858 -0.0276587044106 0.0247799482738
-0.016582692713 -0.0281937589629 0.0283267410804
-0.0138174013226 -0.0296251621533 0.0274770532599
-0.0140324061023 -0.0293413473934 0.0316383561623
-0.0165380209838 -0.0283026688773 0.0262766544428
-0.013215087807 -0.0296756580356 0.0334941525349
-0.0139580995611 -0.0291997331527 0.0358901300791
-0.0161336426691 -0.0286066986025 0.0239042026933
-0.0172759555182 -0.0277330061053 0.030958566772
-0.0164955502808 -0.0280265738208 0.0333392806518
-0.0137546039683 -0.0297686964623 0.0248222137148
-0.0186049356918 -0.0268902521529 0.0350422403793
-0.0160396471005 -0.0289495432053 0.0168919780165
0.0115638428991 -0.0310786738367 0.0155061418506
0.0100140870778 -0.0308829232228 0.0290760511754
0.0105266277058 -0.0310320914827 0.0229758922594
0.012761459952 -0.0300852790784 0.0268783896291
0.0128970058898 -0.0303858566223 0.0202785844917
0.0117899228343 -0.0308819501983 0.0178285392197
0.012677542446 -0.0302974612565 0.0233588992469
0.00961564219533 -0.0312284356557 0.025005855864
0.00968972096332 -0.0308723294434 0.031336165557
0.0108110960151 -0.0307381269656 0.0267847981997
0.00640924900652 -0.0317587377695 0.010757285574
0.00597313399868 -0.0323159057137 0.0143736131711
0.0062919096127 -0.0296704521531 -0.00584506698002
0.00727926924838 -0.0304193124728 0.00175327887852
0.0094554095691 -0.0313277711463 0.0126732723903
0.00863352263815 -0.0311800542711 0.0100832967938
0.00710328801584 -0.0301446586542 -0.000709627338773
0.00495058606978 -0.0311368392505 0.00333586324445
0.00380092207416 -0.0328922102127 0.0151195051959
0.00549623426324 -0.0313497896421 0.00595744385999
0.00412786936835 -0.0323680102881 0.0115721125227
0.00823944929361 -0.0309651040592 0.00770974382178
0.00864183518958 -0.0317341915615 0.0144491036335
0.00894540635264 -0.0304539205409 0.00492401631804
0.00531276900651 -0.0306690060567 0.000292396241729
0.00748909084009 -0.0318266670842 0.0232104253941
0.0063842853126 -0.0319453636744 0.0280190516982
0.00451931391266 -0.0326876889102 0.0174082486067
0.00594509735236 -0.0322280915898 0.0217911373899
0.00919336764323 -0.0315791181648 0.0180196683369
0.00732472624806 -0.0320761340818 0.0159154133003
0.00717538128038 -0.0320036484977 0.0196247135575
0.0083735014761 -0.031500613345 0.0273447654619
0.00701243222749 -0.0318771163619 0.025311373172
0.00609987314274 -0.031810981037 0.034956602129
0.00746371459792 -0.0315969871579 0.0313519438087
0.00532421636546 -0.0322387960368 0.0264286765123
0.00954182867375 -0.0314175496679 0.0207924961123
0.0182468771198 -0.0278105876925 0.0157867285464
0.0167922969582 -0.0286620869269 0.01897280703
0.016322937675 -0.0287454978358 0.015040215535
0.0148946609042 -0.0296769709247 0.0206411717985
0.0142344696158 -0.0298402591967 0.0163012806491
0.0130593821545 -0.0280785604009 0.00011441694307
0.00753732324321 -0.0296077561288 -0.00357364989011
0.00971910751558 -0.0291124693451 -0.00146929287742
0.0153877589114 -0.0256915613987 -0.00868408130457
0.0120249815912 -0.0276155639407 -0.00503023226285
0.00956168462372 -0.0283695626082 -0.0062484263957
0.0121797872787 -0.0280983537218 -0.00180296882812
0.0137823369701 -0.0267620851739 -0.00603647755031
0.00818766517664 -0.0285199273005 -0.0085337473557
0.0117027334466 -0.0294671594641 0.00522782536667
0.0100934721093 -0.0293433169733 0.000768703591791
0.0102337292486 -0.0285784881866 -0.00345200110743
0.0113435563442 -0.0302679203921 0.00915557768401
0.0100262851016 -0.027725905872 -0.00899863940918
0.0117467336031 -0.0291126117172 0.00322262789072
0.00974574956953 -0.0298330533985 0.00287461018994
0.0138348721196 -0.0273435934552 -0.00245916392359
0.0110734471934 -0.0307824822689 0.0115885809715
0.015311401358 -0.0282539558283 0.00799200762028
0.0184425818386 -0.0275089250836 0.0136123540751
0.0154013806518 -0.027096989332 0.00040230935177
0.0169931611241 -0.0258180407548 -0.00288520030928
0.0175662401227 -0.0268785194373 0.00631295183808
0.0120188984155 -0.0306796899601 0.013292409281
0.0132119343883 -0.0292378847064 0.00752990253356
0.0140665247768 -0.029727110801 0.0137912558151
0.0175135649576 -0.0276926754033 0.01169020376
0.0153215724687 -0.0276850634298 0.00414357625801
0.0160624970132 -0.0260150476719 -0.00472249436647
0.0151594907665 -0.0289548543972 0.0122568778132
0.0138772278723 -0.0293279646693 0.0104194933809
0.0141853969519 -0.0279831489517 0.00229356891051
-0.0169530647447 0.0273557498585 0.0103227844155
-0.015195024841 0.0258787804544 0.00263380413264
-0.0157146140566 0.0247104319176 -0.000186634048771
-0.0160337586093 0.0228638510406 -0.00550165722538
-0.012911735436 0.0262648226219 -3.99453197784e-05
-0.0135068734524 0.0243407711256 -0.00512954358154
-0.0149930165791 0.0265854146339 0.00453131289522
-0.0183588243211 0.0292094059623 0.0186056148082
-0.0168863661874 0.0230174832275 -0.00355825035622
-0.0116333209741 0.0251158239078 -0.00586915382739
-0.0185791883447 0.026796573896 0.0113249661739
-0.0104215003792 0.0246675700977 -0.00936089201027
-0.0186571980501 0.027594134258 0.0139891657271
-0.0165441802413 0.0286360662189 0.0136875770518
-0.0122076518557 0.0259859227553 -0.00212726752129
-0.0169285928267 0.026407863313 0.00727295496182
-0.0175479465457 0.0245697634731 0.00249746688633
-0.0146510159436 0.0229845649116 -0.00747967919492
-0.0126261372625 0.0239702279415 -0.00780933115777
-0.0145150664774 0.0276595243626 0.00712379245627
-0.0141753468248 0.024658251316 -0.0029805958899
-0.0183288972 0.0250166820359 0.00539313960108
-0.0221858989178 0.0273720297759 0.0216757578081
-0.0221354310254 0.0281259879411 0.0237331370721
-0.0218944355622 0.0243629795141 0.0122547971938
-0.0253607313521 0.0259715195974 0.0254177054975
-0.0194931867943 0.0255272156606 0.00972832256982
-0.0232003642849 0.0253820213026 0.0184088447636
-0.0216370356418 0.0239230153424 0.0103500607443
-0.0204008099631 0.0295013350789 0.0234539003467
-0.0197398815707 0.0234691961538 0.00437988191508
-0.0202617457818 0.024332248456 0.00815787287182
-0.0196424584937 0.0278730992926 0.0168816209794
-0.0179884195164 0.0235919907894 0.000435552906133
-0.0233727586647 0.0246286810203 0.0166525649293
-0.0187546583065 0.0220968042616 -0.0020091547741
-0.0201473782451 0.0259774495412 0.0126368358745
-0.0239182036352 0.026837944787 0.02438315735
-0.0206323122007 0.0262671524824 0.0146654157487
-0.0237055632202 0.0261971441632 0.0220072605845
-0.0222281702681 0.0249698555058 0.01482981578
-0.0205589931741 0.0279270436491 0.0192876466505
-0.0244969978867 0.0249185712557 0.0202510883378
-0.0227543891578 0.0284905837417 0.0263073988154
-0.0198410234076 0.020516554764 -0.00331976025651
-0.0234811136275 0.02310155856 0.012757448849
-0.0216999574066 0.0227804861186 0.00732813866238
-0.018532810722 0.021401631751 -0.0044125685705
-0.0176922969487 0.0214552266912 -0.00644490032748
-0.0174719401763 0.0207385161416 -0.00886501306532
-0.0209324767867 0.0219492604656 0.00319924743218
-0.0235150450716 0.0222708376368 0.0106996238344
-0.0225635228405 0.0200398357131 0.00248029222995
-0.0222085804176 0.0216648153753 0.00576034889334
-0.0257132814484 0.0234439731869 0.0194066810916
-0.0218522347385 0.0189723211271 -0.00211372430208
-0.0206502464823 0.0181009734885 -0.00746841528413
-0.0203416369176 0.0215596598181 0.000667117467292
-0.0188811641027 0.0200042958 -0.00712171932064
-0.0202565366878 0.0193249711542 -0.00532407542899
-0.0206022922925 0.0205700359837 -0.00121555010442
-0.0249384095467 0.0221382170052 0.0140331565416
-0.0219621901021 0.0174655529452 -0.00572119713344
-0.0249943550707 0.0232440919265 0.0170337271482
-0.0175211108029 0.0171996577506 -0.00990878885186
0.0316091376878 -0.00857674294391 0.0217191430868
0.0319897962835 -0.00770527655773 0.0175022365428
0.031712719522 -0.00783459480856 0.0245371731712
0.0317824432564 -0.00877142454689 0.0151551035551
0.0316602032503 -0.00864307891172 0.0197145586125
0.0311848654349 -0.0107744410129 0.0167892633644
0.0320049031719 -0.00622754474495 0.0286669027816
0.0280953108874 -0.0153657135671 0.00898947515129
0.0289799963516 -0.0153273814527 0.0145744766487
0.0274139760832 -0.0170119199313 0.0108885961866
0.0277328360315 -0.0181175476477 0.0171948858052
0.0269964376331 -0.01840702723 0.013533869774
0.0287390925816 -0.0163503475032 0.0169369430825
0.025193345345 -0.018661777001 0.00282838148237
0.0269475196825 -0.0163069094479 0.00516246910976
0.0261188584413 -0.0168334727109 0.0018129403965
0.0238447301703 -0.0188164919152 -0.00531613669879
0.0295949744834 -0.0136432018607 0.0120997840371
0.0275500891381 -0.015781765007 0.00705255560469
0.0284185004319 -0.0156350421339 0.0121164097601
0.0300191196899 -0.0139178462576 0.015901213515
0.0262291811144 -0.0181190845971 0.00745836698166
0.0248363177604 -0.0184682430139 -0.00022710470556
0.0281504200634 -0.00842261839334 -0.00921298413229
0.0249678443496 -0.0160204783939 -0.0069805665639
0.0276645359568 -0.0116019691222 -0.00371674331989
0.0287939050885 -0.0109992277991 0.000835528353923
0.0292612684045 -0.0135980299647 0.00999081747988
0.026497524201 -0.0133621579691 -0.00551711140813
0.0285803953216 -0.0132347319676 0.00539116441834
0.0287066663051 -0.0137425183832 0.0073685448306
0.0253390323824 -0.0145398985939 -0.00875849831152
0.0267528562038 -0.0151978623964 0.000546463717741
0.0275046710345 -0.0104605632527 -0.00749291447708
0.0285543132929 -0.00976332038322 -0.00361189440105
0.027257493442 -0.0149584096971 0.00265681947084
0.0273389947727 -0.0134486122928 -0.000758076780147
0.0258077229463 -0.0165342040581 -0.0011393094557
0.0292615537064 -0.00950094279634 -0.000467361370871
0.0298978054908 -0.0116754542325 0.00851559814424
0.0262839195547 -0.0129514600667 -0.00771764667042
0.0253601745439 -0.0164837639922 -0.00368185276685
0.0287037224916 -0.00872017416785 -0.005469197949
0.0263474783769 -0.0149123052907 -0.00236888562305
0.0313166524388 -0.00708853883378 0.00861512015959
0.0306957234938 -0.00755211809189 0.00536088696773
0.0323981164283 -0.00652239167229 0.0147445698994
0.0305497050336 -0.0103879221895 0.00981261360801
0.0304759266185 -0.011558526664 0.0115602077319
0.0318651933575 -0.00657960252536 0.0112997959221
0.0301420430766 -0.0100979468728 0.00653899552004
0.0297226705816 -0.0101856486621 0.00390986257052
0.0308825071866 -0.0120828935132 0.0152750606176
0.0298527473367 -0.0085508692588 0.00164966244737
0.0293128014416 -0.00835672126968 -0.00232285839235
0.0312100428174 -0.00843565729648 0.0104814659884
0.0310963304639 -0.00984803211397 0.0124252924327
0.0277657392715 -0.016757603456 0.0314543468175
0.0286027034989 -0.0159533515888 0.027898485952
0.0275998190465 -0.0179680782601 0.0246454921659
0.0293235101428 -0.0137395225498 0.0357109840533
0.0276503750083 -0.018562265862 0.0198356263007
0.0275908071481 -0.0162869202433 0.0367641076438
0.0290407734437 -0.0144460067265 0.0338038713326
0.0264807593215 -0.0186597169123 0.0321427521935
0.0258619739627 -0.0199327302949 0.0299217727112
0.0270420008088 -0.0174136374503 0.0348109569782
0.0279651082931 -0.016186915568 0.0333175484721
0.0270900387297 -0.0184992313679 0.0265160748416
0.0286701643138 -0.0145092764275 0.0374719971147
0.0272532940329 -0.0188042560156 0.0225204125511
0.0259885594854 -0.0190747173491 0.0346482381751
0.0271707054156 -0.0180722657929 0.0286715540284
0.0264357654723 -0.0138693561913 0.0379011216329
0.0208523840908 -0.0143670346931 0.0386211583159
0.0212371510536 -0.0120611136856 0.0387713585316
0.0253161739381 -0.0193211554198 0.0375747239925
0.0238339759823 -0.0133617288926 0.038301702669
0.0229843848047 -0.0181925440129 0.0379929925404
0.0250467033993 -0.0156303452451 0.0379362444814
0.0153667975253 -0.0116701673387 0.0396088199419
0.0186801287636 -0.0128902099122 0.0390482324847
0.0223116141047 -0.0162142587065 0.0382590453768
0.0300141827294 -0.0118394566293 0.0361883199152
0.0304221705452 -0.0112081208868 0.0314771853459
0.030407489223 -0.0115967352378 0.0292148404295
0.0308826282945 -0.0095599219359 0.0323789565436
0.031567697274 -0.00740151227359 0.0317680423388
0.0317091042069 -0.00651662921382 0.0345620832744
0.0305919626189 -0.0114266984401 0.0263175305383
0.0308896209457 -0.0108191370189 0.0238571036531
0.0313483842905 -0.00845614699128 0.0295466215553
0.0301707420107 -0.0116640029159 0.0339364354396
0.0306803582459 -0.00975436981769 0.0355025593587
0.0310005732961 -0.0111043969656 0.0195388465507
0.0313067040328 -0.00892410120629 0.0273463982659
0.0290646693214 -0.0148311514686 0.0298313357343
0.0303574502566 -0.0129435732697 0.0201910011738
0.0293908236934 -0.0144936476785 0.0257986279552
0.0300284878595 -0.0129863447309 0.0276928037598
0.0288355449516 -0.0158076019509 0.0241331037416
0.0297342026921 -0.0133125274168 0.0310815716277
0.029908531714 -0.0136628186807 0.0228026290537
0.0293223375978 -0.015159603699 0.0197788530278
0.0296731162012 -0.0145959273322 0.0177574125345
0.00579851380231 0.0301235303675 0.035171820485
-0.000497407405002 0.0262758159184 0.0364139371245
0.00174456287906 0.0309606709286 0.0347401781571
0.00276569724993 0.0293615028874 0.0353646728557
0.0047571845753 0.0316851502478 0.0345606743865
0.000521891717993 0.029341627794 0.0353052865779
0.00166904674736 0.0275455052865 0.0360067020592
0.004750844899 0.0158774081444 0.0382411359726
0.00973573125995 0.0155503911532 0.0383740974314
0.00323246335662 0.0173175015743 0.0380219324829
0.000371044900108 0.0222367777851 0.0373148322414
-0.00180571301147 0.0202463832076 0.0375411537889
-0.00866530066952 0.0171641645145 0.0378290786527
0.00759933935692 0.0157941214237 0.038303305175
-0.00738154647356 0.0186730938715 0.0376509333779
0.00382266445527 0.0197786813747 0.0377044064427
-0.00283863746365 0.0173222806485 0.037912456497
-0.00284407296956 0.0229652067491 0.0371600847202
-0.00836683332723 0.0146098747487 0.0381749489324
0.000954477162662 0.0202031378947 0.0375964018951
-0.000108135567311 0.0168299250935 0.0380270445187
-0.00304212664942 0.0144164898623 0.0382961876046
0.0024892525936 0.0148885951911 0.0383324130022
-0.00569170324898 0.0204479710541 0.0374446139598
-0.00514688310444 0.0171262458527 0.0378972096715
-0.000195174560057 0.0143079075065 0.0383617013886
0.00833292022976 0.0194506923202 0.0376415708883
0.0017007993386 0.0246526380582 0.0368021364913
0.00786055606485 0.0278520540669 0.035899511731
0.00926194988857 0.0293867619123 0.035525149068
0.0116339386468 0.0193810989224 0.0375315926946
0.0119138393625 0.0254469654815 0.0362503784871
0.00435639772743 0.0241335546263 0.036810669062
0.0120545203979 0.0160279988224 0.038218116639
0.00568710699661 0.0278178316405 0.0359886906026
0.00899839066307 0.0251080388926 0.0364313831829
0.00947669116146 0.0178850912593 0.0379263690007
-0.00192653493457 0.0248670036176 0.0368941011854
0.00992711661971 0.0272871026619 0.0359398785232
0.00929943840732 0.0219224478307 0.037087328363
0.003253799015 0.0260118009964 0.0364588257562
0.00252168621332 0.0222049956941 0.0372838842778
0.0110575496841 0.0232503042139 0.0367428361822
0.00672521536004 0.026012715849 0.0363276482103
0.00711275573648 0.0235598259922 0.0368268465528
0.00581866588608 0.0210242941984 0.0374068088349
-0.00276035827163 0.0313437239751 0.03440421938
-0.00865061569168 0.0280417251885 0.0353890765131
-0.00256250903947 0.0294274736694 0.0351401205672
-0.000569431647145 0.0311188105375 0.0345891184054
-0.00262117889934 0.0275747244471 0.0358402741723
-0.00524123659909 0.0274047500813 0.0357856669474
-0.0064537138188 0.0294429744199 0.0349573800324
-0.011494830374 0.0283700894945 0.0351352417066
-0.0104797595053 0.029872278554 0.0346115389923
-0.0090592222898 0.0203092797142 0.0371398795509
-0.0110815518505 0.0188355707663 0.0372345483751
-0.0103053687942 0.0220194634276 0.0366395447696
-0.00895679548078 0.0238987005667 0.0363851252522
-0.0111314802405 0.0250224763997 0.0359090032453
-0.0064059166803 0.0232827875452 0.0367937667013
-0.00777337908838 0.0260519029911 0.0360543001396
-0.0135399114812 0.0265336918904 0.0353248091512
-0.00578516441477 0.0252777465678 0.0364355577449
0.0196664294899 0.0193957465668 -0.00934226157183
0.0151608556546 0.0261869994324 0.00242371482217
0.0199695400188 0.020051963191 -0.00702483694321
0.0172667452175 0.0223309186155 -0.00580739503516
0.0158027220137 0.0269182193817 0.00658874328446
0.0181222034146 0.0223821728708 -0.00348836617941
0.0181714849824 0.024730925087 0.00485670381672
0.0201030059602 0.0212099325463 -0.00263754779894
0.019269370259 0.0223915606559 -0.000586289333372
0.0175238239297 0.0233039117139 -0.00175844376051
0.0150631653982 0.0237943912629 -0.00619594948394
0.0140091106087 0.0240303092181 -0.00800644777828
0.0159269694601 0.0249302878059 -5.92547222531e-05
0.014416655986 0.0247118495631 -0.0046013903784
0.0145397014385 0.0253444726554 -0.00207913955265
0.0188203241461 0.0213557812619 -0.00533515979438
0.0159814995592 0.0275747881158 0.0093342091436
0.0164783173003 0.0258342949137 0.00448421672285
0.0215399156045 0.018440273851 -0.00873884215106
0.016052676827 0.0240506726826 -0.00282393802792
0.0177264975811 0.0238992083487 0.000832306330089
0.0100443449661 0.0260848880452 -0.00541633525049
0.00607299332814 0.0263474965385 -0.00926836536638
0.00950345543661 0.0257621339054 -0.00740567504906
0.00788805995558 0.0280248018267 -0.00016502751917
0.00885106830179 0.0281302453239 0.00145998252949
0.0115517430151 0.025281960534 -0.00682728529301
0.0057162429329 0.0276737327924 -0.00429256563434
0.0119372792724 0.0246520308802 -0.00892269554966
0.0110531486728 0.0274002307807 0.00120838994102
0.00807362606169 0.0295806239134 0.00642125166903
0.00814065551413 0.0302175690473 0.00910655177441
0.00939484045298 0.0267696268276 -0.00342435593493
0.00743046926794 0.0265561572437 -0.0067324905282
0.00767016704757 0.0274681919171 -0.00270921244013
0.00915113448541 0.0288004172588 0.00457001736698
0.0130015680441 0.0256593376293 -0.00332885415697
0.0160746304044 0.0282269952958 0.0120596069413
0.0103032086282 0.0289840573769 0.00681857647416
0.0149491651417 0.0289300752538 0.0133930015261
0.0130720487573 0.0267462691745 0.00138359247188
0.0115927142875 0.0289248607368 0.00845584476312
0.012452431861 0.0263491894877 -0.00120760276855
0.0146815064785 0.0268927228876 0.00436146505869
0.0139425647205 0.0282513702226 0.00904086470892
0.00976590317621 0.0308639692028 0.014003715933
0.0136217664544 0.0289284824713 0.0114424609077
0.0121893775432 0.0298645413626 0.0133143790897
0.00998751180638 0.0297865618635 0.00975938084556
0.0136439080045 0.0276799952062 0.00618055383355
0.0104929898451 0.0301286818621 0.0119503741506
0.0118007722647 0.027945892316 0.00460910636799
0.0294412674692 -0.00110703046138 0.0373764437783
0.0299844037078 0.00498361890065 0.0369161509102
0.0273198105159 0.00504264068208 0.0376034954194
0.0314356959957 -0.00143879141211 0.0368770600367
0.0282296920209 0.00145734935808 0.0375558385985
0.0311247612808 0.00307895694742 0.0367205965405
0.0259923544323 0.00174959868334 0.0381202372391
0.0266665400745 -0.000552598070897 0.0380663332984
0.030264083629 0.0107574988648 0.036294712623
0.0271846041982 0.00708239608725 0.0373622621333
0.0263978736132 0.0110319235234 0.0369277462437
0.0238753141914 0.00807024675474 0.0377951721628
0.0280965502739 0.00919754660427 0.0368975635941
0.0241696202911 0.00268595385599 0.0385229512099
0.0240110284784 0.0103997339334 0.0374345314013
0.0247472198969 0.0143981463024 0.0367279480686
0.026645779815 0.0151926305347 0.0362826461121
0.0238014415639 0.0179585293786 0.0363774078461
0.0282780808806 0.0124620685968 0.0363936714896
0.0251104118258 0.00587160975861 0.037898354697
0.0101703322587 0.00645352701484 0.0393105081853
0.0163694937701 0.00599877098209 0.038955765458
0.0165462896799 0.00887643053409 0.0387859166468
0.00910885513466 0.00486273037951 0.0394634583389
0.0180290373542 0.00217277224935 0.0390654909556
0.0139996188864 0.00191010290996 0.0393269201374
0.012428721898 0.00571811602691 0.0392127564169
0.0123893579322 0.00353952665931 0.0393355541186
0.00804335382214 -0.000125414223944 0.0398043874053
0.0189053562141 0.00542206969367 0.0388322406689
0.0144913823423 0.00462598300401 0.0391467104518
0.0163486809456 0.00102208854851 0.0392320447818
0.0120765131307 0.00813944241597 0.0391005402051
0.0144153180741 0.0099076695763 0.0388595134887
0.0102266737574 0.00213000804603 0.0395459668241
0.0181673356872 0.00741926943939 0.0387671028056
0.0209768384873 0.00359878939338 0.0388060562148
0.0220159420151 0.0119747963078 0.0375401565503
0.0216140015038 0.0165440990926 0.0369469155845
0.0149599173864 0.0122488981774 0.0386325429001
0.0204412401041 0.00809493350081 0.0383512268319
0.0211784496696 0.0139607493604 0.037388634442
0.0165234941717 0.0141649412199 0.0381059336483
0.0232342761437 0.00503458980209 0.0383437146576
0.0179138867843 0.0105188965814 0.0384077234393
0.0221907516507 0.0196141641868 0.0364124885566
0.020229556068 0.0114572188895 0.0379012079496
0.0224542149226 0.0215670946224 0.0360891179614
0.01867711698 0.0156198633512 0.0375510511739
0.0185752238647 0.0136431573046 0.0378519269739
0.0202896797433 0.0206128322038 0.0365736848207
0.0177207276981 0.0183026142215 0.0373183024699
0.021274044394 0.00558455429423 0.0385789879779
0.0226774954796 0.00120409102781 0.0388313527009
0.0145246522967 -0.00012513549025 0.0394033748939
0.0102988543612 -0.00023273042395 0.0396705655241
0.0133303399667 -0.00818284023386 0.0398834635163
0.0196461756504 -0.00271041155247 0.0392164185423
0.0211281527154 -0.000690112799066 0.0390227945326
0.0156801253883 -0.00249588312472 0.0394512840995
0.0118242986629 -0.00456632135565 0.0397944837033
0.00931022281226 -0.00235066962335 0.0398385502098
0.0164077988439 -0.005110831565 0.0395380011081
0.0143165732029 -0.00537781226965 0.0396809982575
0.0186977461079 -0.000198276189003 0.0391485580707
0.0127602251786 -0.00169569545469 0.0395918285811
0.0156936181389 -0.00700038780014 0.0396774744275
0.0290435321609 -0.00332522422421 0.037572133498
0.0302818072062 -0.00485047353373 0.0373108818172
0.0277217673809 -0.0056528776835 0.0378849096078
0.0279626293729 -0.0083994849106 0.0378550939132
0.0306823026813 -0.00845036399207 0.0372530156228
0.0212959465953 -0.00508204559102 0.0389409080778
0.0225207105941 -0.00698404623179 0.0387191353149
0.026375919204 -0.0117998474949 0.0380445613775
0.0240810377083 -0.0092488964699 0.0384397769998
0.0228154613928 -0.00169270671684 0.0387811403379
0.0162019141008 -0.00916560980588 0.0396225926052
0.0282209163725 -0.0109431003739 0.037785175268
0.0217648518506 -0.00883439862619 0.0387953103834
0.0192268372325 -0.00952282036419 0.0391619634746
0.0263540094885 -0.00964319745477 0.0380911270803
0.0254990674921 -0.00688642665993 0.0382746147081
0.0181447849663 -0.00765424440807 0.0393616718068
0.0183738979766 -0.00465904273629 0.0393874358584
0.0253129957982 -0.00365778280527 0.0383673031854
0.0230676893767 -0.00384782766715 0.0387000787568
0.0201332550843 -0.00729254898006 0.0390708428794
0.0231115844769 -0.0114007206856 0.0385419214428
0.0285983233651 0.0177422268866 0.0158263702075
0.0286428331896 0.0134927781115 0.00745740171623
0.0287054684513 0.0184424870705 0.0177250286585
0.0281572580277 0.0135207426983 0.00531009713758
0.028601359825 0.0161300252438 0.0125884040057
0.0283781803845 0.00743804173114 -0.0059558471514
0.0282596714098 0.0215508798413 0.0219713522987
0.0256979266402 0.0227276334411 0.029097685961
0.0279069747393 0.0216935100997 0.0255145091167
0.0246688175893 0.0231158982965 0.0314867260523
0.0259618006145 0.0228415318972 0.0268417844413
0.0235236749319 0.0185186168846 -0.00198324498345
0.027520953892 0.0184286442204 0.012643543473
0.0251071335158 0.0150063110509 -0.00309876533949
0.0248884196865 0.0143859502176 -0.00514179896928
0.0267774580831 0.0149040602712 0.0028847663574
0.0269246899704 0.0111359012456 -0.00405891878389
0.0271211970478 0.0201035980596 0.0144917595806
0.0238368247376 0.0169290752979 -0.00398249428136
0.0268454708858 0.0169415586465 0.00718610260141
0.0278690208519 0.0162677606987 0.00963811212117
0.0263268930622 0.0143979176132 0.000209976981972
0.0272198472325 0.00868048020359 -0.00784570148903
0.0245715472841 0.0167076931791 -0.00170112566598
0.02750545356 0.0152721725499 0.00631280794257
0.0252019692144 0.0129647464896 -0.00680500497541
0.0261977334387 0.0110290098924 -0.00696394917425
0.0267707806258 0.0183968416741 0.00980175524237
0.0280340412306 0.0128496079509 0.00345593344352
0.0260606752259 0.010053571109 -0.00941023585875
0.0253237151293 0.0173268797325 0.00231544553851
0.0257701884686 0.0192703210187 0.00783163603406
0.0278555362398 0.0111399313578 -0.000603128339619
0.0280636492727 0.0117844572682 0.00144866761607
0.0281230165211 0.00926721399309 -0.00333433108927
0.0269747050721 0.0119663576747 -0.00222317778391
0.0257827639143 0.0175928610023 0.00454434981623
0.0262725308179 0.0203842006825 0.0119060502693
0.0238983380737 0.0149254968587 -0.00773666186165
0.0242994837678 0.0195114783048 0.00286354996938
0.0275939576364 0.0209746751724 0.0179740478578
0.0273670353918 0.00948560878231 -0.00570037697296
0.0203095691446 0.0221450300982 0.00122306480536
0.0178779995922 0.0266745110533 0.0109933573069
0.0258005282608 0.021663921641 0.0138166794154
0.0241969354403 0.0203235937746 0.00487368778341
0.0215249633261 0.0231436881056 0.00793996812907
0.0198113186666 0.0243638903773 0.00781429344442
0.0208860827368 0.0201538127547 -0.00435489657595
0.0226593991019 0.0233262911852 0.0115444742999
0.021878628593 0.0252764456315 0.0164443371137
0.0212888965503 0.0226662276292 0.0056273846162
0.0176014036151 0.0261015661757 0.00823569697939
0.0213348649631 0.0208463926915 -0.000723318643262
0.0207004690106 0.0245088480196 0.0106459706949
0.0201957039167 0.0228623146735 0.00347675772336
0.0218831332937 0.018802525311 -0.00656205831768
0.0243399976237 0.0212309403875 0.0084724572543
0.0272256822905 0.0224483531398 0.0203183310097
0.0232509726021 0.0214591895396 0.00644704008827
0.0266201014098 0.0217065789484 0.0161033743132
0.0205523112917 0.025203093572 0.0127284144546
0.023689383993 0.0194813846458 0.000557004241098
0.0240924640638 0.0220140367554 0.0106119328688
0.0246742600434 0.0234224663246 0.0171352329749
0.0222774151891 0.0208176297567 0.00162980140627
0.0228096735236 0.0238399960562 0.0137624322858
0.0208423971745 0.0252353510398 0.0345808221616
0.0160439529742 0.0284011395969 0.0337520408242
0.0220752116116 0.0250030689561 0.0297528479037
0.0215885227053 0.0250084336077 0.0324078055035
0.0207515294609 0.0260456309541 0.028055872306
0.0197964521823 0.0264519702584 0.0298322120069
0.0180715819796 0.026994993675 0.0346957321146
0.0235591072015 0.0242175568154 0.0283305585723
0.026144198446 0.0230281449354 0.0242996966999
0.018049273022 0.0272592998766 0.0325266563903
0.0187561014007 0.027147011821 0.0248857511637
0.0190988098065 0.0269791839868 0.0267853803745
0.0139748687966 0.0297417037292 0.0321639294756
0.0238541955217 0.0243944128834 0.0189989257454
0.0158631006555 0.02864515337 0.0197079089444
0.0160680730874 0.0285527269588 0.0219044999261
0.0179162671363 0.0275421530934 0.0180786447411
0.0168284921863 0.0280935195374 0.0145394927445
0.0155469352915 0.0288519034583 0.0248803668522
0.0175266571315 0.0277691090382 0.0207418982926
0.025786372809 0.0233857299017 0.0213761946798
0.0221886057521 0.0253077807572 0.0227989178617
0.0159947419276 0.0286628326943 0.031393805688
0.0209055803843 0.0260061010645 0.0250247051659
0.017336908003 0.0279315296705 0.0289595435094
0.0235915116991 0.024549398204 0.021056837512
0.0189495428366 0.0270257286112 0.0224164742691
0.0241085016044 0.0242997622504 0.0243945676561
0.0199777728644 0.0264406349341 0.0172379656463
0.0192916161319 0.0268211720449 0.019372376183
0.0140866944286 0.0296515964205 0.0280695904602
0.0216195846282 0.0255811510657 0.0189399225924
0.018650024116 0.0271332041822 0.0155276693003
0.0126686171197 -0.0295960361944 0.0329137630224
0.0150564166858 -0.0282945418764 0.0370932165857
0.0104001143022 -0.0304352969572 0.0334086314802
0.0115056860136 -0.0296795918429 0.037064959239
0.00831802514519 -0.03108082915 0.0352654401565
0.011972029277 -0.0300673521271 0.0306643350079
0.0140440633232 -0.0289043768791 0.0346687420838
0.0152250319068 -0.0291313923203 0.0269470856997
0.0158174781123 -0.028258580073 0.0341660812023
0.0148553419408 -0.0288623349608 0.0315901428322
0.0138537001469 -0.0294553636745 0.029307719894
0.0161227244131 -0.0285363749843 0.0297068866134
0.0148951092926 -0.0294981203629 0.0242684374986
0.00684149693301 -0.0314561934417 0.0375087851333
0.0165071868086 -0.0287500167222 0.0225048992587
0.0180480359101 -0.0275600845231 0.0229266467764
0.0174774788202 -0.0277173834024 0.0275257365734
0.0168006175445 -0.027994441492 0.0314635539615
0.0203238269034 -0.025718394182 0.0221723413187
0.0191323304841 -0.0267810775608 0.0211033296452
0.0179498776161 -0.0267790871205 0.0361365929772
0.0207182444699 -0.0244732740361 0.0361335391488
0.0192205359317 -0.0269197425974 0.0178720463495
0.0188931270722 -0.0263134025665 0.0312619241544
0.0180431436255 -0.0271406198822 0.0294463994494
0.0232469758875 -0.0224529470926 0.0348224761276
0.0210081645761 -0.02494174295 0.0253193590305
0.0194358237149 -0.0256936096199 0.03381682941
0.0210588720624 -0.0246080593827 0.0297586223823
0.0212238250012 -0.024253231793 0.0330704049808
0.0223178098477 -0.0230519588803 0.0374876258837
0.0200580367695 -0.0255583841617 0.027981941523
0.0193593873187 -0.0263956894516 0.0240926340877
0.0180575163805 -0.0273948191172 0.0253920973938
0.0167885523703 -0.0141349089369 0.0391688520709
0.018263510598 -0.0228228456035 0.0379713739545
0.0145739397036 -0.0134510199077 0.0394729325985
0.016461907953 -0.0197847476543 0.0385186843635
0.0162230674803 -0.0229362434413 0.0381616818632
0.0199338604751 -0.0180795333262 0.038377630988
0.0182029625737 -0.0163919655965 0.0387546498881
0.0191979645038 -0.0203251962322 0.0381798033677
0.0212959291455 -0.0202299763061 0.037981547249
0.0184327784206 -0.0249507054437 0.0376972812996
0.0116467009723 -0.0276322801127 0.0377874079314
0.0141016498401 -0.0200122586935 0.0386497497011
0.0124009461197 -0.0254371034428 0.0380334622277
0.00920021865874 -0.0288635910939 0.0377513399421
0.0105554718167 -0.0245366317643 0.0382429660577
0.0137878172385 -0.0267678664945 0.0377913849346
0.0150633509504 -0.0177801923577 0.0388901250385
0.00892497460321 -0.0261468533933 0.0381167542564
0.0135691739933 -0.0157629279377 0.0392264422523
0.0123698530055 -0.023223415936 0.0383214804167
0.0116962098523 -0.0198774440677 0.0387883907463
0.0157949056612 -0.0253857879384 0.0378691007571
0.0087225135344 -0.0249741990585 -0.00990870201265
0.00414424559634 -0.0276121460302 -0.00990766873143
0.0162458740907 -0.022990244325 -0.00990947912575
0.0139927185043 -0.022821748814 -0.00990954512527
-0.00498708017058 -0.0293478552212 -0.00910572780871
-0.00874304788513 -0.029546332229 -0.000532589265771
-0.00759613162132 -0.0311074788255 0.00732530215471
-0.00776268985605 -0.0320576838372 0.0137865066032
-0.00819942152329 -0.0290104620159 -0.00504934682398
-0.00813852388663 -0.0293566915249 -0.00293107953411
-0.0103753251054 -0.0277771580897 -0.00879206108712
-0.00589014978891 -0.0304955530853 6.09015137496e-05
-0.00738466864841 -0.0304624912412 0.00274849138185
-0.00675709841007 -0.0291934958994 -0.0066668649222
-0.015794056986 -0.0162203004548 -0.00991042768288
0.00247692791994 -0.0262213448502 -0.00990816815899
-0.00959657809228 -0.0157752067325 -0.00991078464399
-0.00359893743516 -0.0274659689959 -0.0099075815873
-0.0101746217579 -0.023584250626 -0.00990847744583
-0.010544719513 -0.0177708357415 -0.00991016575726
0.000238481509935 -0.0227651606151 -0.00990909807169
0.000808668008212 -0.0247639880766 -0.00990853377889
-0.00596416992538 -0.0271167588671 -0.00990759731241
0.004042199425 -0.0174654058369 -0.00991078866198
0.00624057956133 -0.018000586209 -0.0099107123927
0.0171600335868 -0.0194084122804 -0.00991069961931
-0.00148443594901 -0.0210836559522 -0.00990952731071
-0.00587179242452 -0.0234744429544 -0.0099086669601
0.00275881982364 -0.0190318967648 -0.00991028314244
0.00663474720806 -0.0224261071645 -0.00990943126034
0.00655532275595 -0.0245162579666 -0.0099088164747
-0.0178344059519 -0.0154395407462 -0.00991058162396
-0.0145543792471 -0.0225690541967 -0.00990849985986
-0.00857042013904 -0.0271639693569 -0.00990738990448
-0.0187965395065 -0.0184999105906 -0.0099096088895
0.00219194052939 -0.0305636767698 -0.0012188350434
0.00468746650242 -0.0296027951311 -0.00793142822737
-0.000503059689474 -0.0309208091759 0.00127604513544
0.00295395363345 -0.0294728687219 -0.00883907709266
-0.00240986901043 -0.0295383975068 -0.00838130159005
-0.000929156916702 -0.0298159681636 -0.00644222936318
-0.000916995912648 -0.0303438318533 -0.00275464281528
0.00310650607429 -0.0320666797775 0.00928094696731
0.00300033444961 -0.0314901397762 0.00525331408648
0.00278975336582 -0.0297775218244 -0.00671081045011
0.000769881677615 -0.0314858983615 0.00522368411923
-0.00235594180405 -0.0301482067358 -0.00412125424497
0.00476273285721 -0.0301564632759 -0.00406357513798
0.00206048675605 -0.0309388357833 0.00140197665202
0.0252492946751 0.00773423516503 -0.0381547407143
0.0268160441902 0.00827499661326 -0.0365375601171
