0.0380781797976 -0.0379406842462 0.002165780901
0.0386273470298 -0.040882675156 0.00846184231057
0.0373040077738 -0.0369321451173 -0.00117269156586
0.0387329310565 -0.0392528204538 0.00579929258411
0.0418759994209 -0.0379222499304 0.0103638531329
0.0418759994209 -0.0393924452474 0.0133835448534
0.0418759994209 -0.0407917427223 0.0238210213748
0.0355421208095 -0.0412669630253 0.0221761181117
0.0267042404098 -0.0482700175189 0.0239304040534
0.0384134265726 -0.0398313255641 0.0231807939156
0.0373004764738 -0.0377908861475 0.0179207849701
0.0322666183442 -0.0442668435266 0.0235847633035
0.0407968748548 -0.035973146744 0.0190137218451
0.0393045896994 -0.0418879421396 0.026007918534
0.033519853471 -0.0460148058454 0.0263340503154
0.0313794946187 -0.0491263878155 0.0267927517707
0.0248194493912 -0.0531344723775 0.026791661927
0.0284009700795 -0.0516556419013 0.0267919917985
0.0350497008317 -0.0432712010709 0.0250273657857
0.0299807061938 -0.0465128007469 0.0248473951868
0.0192557220014 -0.0541681672682 0.0252648297357
0.0346022409595 -0.0347674802798 -0.0104315863119
0.0409070209003 -0.035127597719 0.00294509797154
0.0416915062549 -0.0350207896543 0.0111301378158
0.0305671823962 -0.0516950932939 0.0180228605257
0.0296604641102 -0.0509054671169 0.0150014579301
0.0260669854713 -0.0495775670301 0.00715010828218
0.0281000360674 -0.0478131489655 0.00583465885686
0.028551330903 -0.0503007517996 0.0121321746878
0.0270893703834 -0.043180658368 -0.00612076468375
0.0274852618743 -0.046664087173 0.00238161327411
0.0384217386616 -0.0481640910353 0.022770067557
0.0404844543353 -0.0465028636454 0.0248594999737
0.0418065270004 -0.0446477872389 0.022555191855
0.0189839992672 -0.0457626213515 -0.00406403189019
0.0189839992672 -0.0415325217731 -0.0110890076407
0.0189839992672 -0.0509607354034 0.00796809539277
0.0189839992672 -0.0468154847987 -0.00036102711057
0.0337609829318 -0.0379826225439 0.011609962115
0.0253308598412 -0.0416727091419 0.00483161256506
0.0258448487915 -0.0452637190314 0.015319067056
0.0196493907895 -0.050043845031 0.0157975761258
0.0200618406283 -0.0521961707038 0.0222879436419
0.0300183306565 -0.0439732407103 0.0200908035344
0.0269659726032 -0.043480274053 0.0128078129869
0.0200537100028 -0.044202417052 0.00116861683135
0.0229770298743 -0.0416619779296 0.000190589964042
0.0353721028973 -0.0356867548927 0.00870614256066
0.0379496864805 -0.0349835290183 0.0119008084907
0.0204393422073 -0.0427135289896 -0.00200632033977
0.0210187667948 -0.0394977708667 -0.00936040338013
0.0276930974021 -0.0396301994931 0.00406858507438
0.0238087313932 -0.0476234177377 0.0175585517413
0.0285394648041 -0.0409120678399 0.00911128618274
0.031630234581 -0.0370447690937 0.0049585130505
0.0211265186772 -0.045197421066 0.00589774681537
0.0221492432965 -0.0497403786995 0.0198952754299
0.0299930849989 -0.0416440255943 0.0138922366865
0.0386913923155 -0.0357628508481 0.0154116936292
0.0212769522437 -0.0480267465449 0.0136619227504
0.0265251516337 -0.0393875830597 0.00113931159251
0.0312414700989 -0.0391733689051 0.00981614177218
0.0201860186774 -0.0410891979153 -0.00679095726975
0.0345461745547 -0.0399304500106 0.0182909022709
0.0297714029287 -0.0428632306744 0.0166765002391
0.0239932959438 -0.0446877332644 0.0101700700119
0.0360234534614 -0.0375376467981 0.0148688920733
0.0196829924513 -0.0477083644567 0.00969778894497
0.0297383926743 -0.0373462629727 0.0020470969174
0.0241126540348 -0.0494258945525 0.0227409146036
0.0323448215573 -0.0420741876938 0.0195599080225
0.0354940815696 -0.0407751173501 0.0025920369789
0.0393561866928 -0.0424981008758 0.0129000080543
0.0335008869603 -0.0370358551467 -0.00831071714041
0.0346612260118 -0.0381202484414 -0.00410359760505
0.0350880908737 -0.0392898639245 -0.00104619376923
0.0324803558429 -0.0408449215555 -0.00257890216989
0.0395418091907 -0.0460569414613 0.0204178361751
0.0347773051034 -0.0442022104534 0.00829249005475
0.0346612586757 -0.0427330548702 0.00509164680592
0.0378034814942 -0.0455972806215 0.0164367537181
0.0370931355481 -0.0434803078569 0.0108736906174
0.0252539929908 -0.0486095283327 0.00385116155977
0.0251011927274 -0.0415603516011 -0.0124822020082
0.0249191402848 -0.0456671131016 -0.00332726776099
0.0248072358367 -0.0433292490542 -0.00882570611999
0.0245872082818 -0.0474517634027 0.000314745917497
0.0198184888241 -0.0462649278738 -0.0079564704227
0.0192664594455 -0.0498298825661 0.000359932747691
0.0254976650029 -0.0561414227731 0.0220178996556
0.0295026056979 -0.053417507504 0.0206303553451
0.0272624974102 -0.0528551618962 0.0162832813204
0.0195992316088 -0.0592044307002 0.0253815457139
0.0217851088084 -0.0522327346047 0.00843022815357
0.0218630411322 -0.0535411939666 0.0117261449274
0.0213205876845 -0.0475984400861 -0.00342857888213
0.0202541466605 -0.0551462554996 0.0140932138464
0.0219194936062 -0.0498329304171 0.00265796789377
0.0205092027627 -0.0575561088251 0.020273122254
0.0229121446833 -0.0548140438603 0.0158893680261
0.0231528753173 -0.0506022384723 0.00586093093798
0.0248417571013 -0.0550748992246 0.0185678517875
0.0249839670141 -0.052243313651 0.0119053275381
0.0365455989624 -0.0478535415104 0.0265018273995
0.0299175280105 -0.054123400604 0.0238288769958
0.0228811696227 -0.0576431727896 0.0252250693205
0.0255126202022 -0.0562800752823 0.0257871696963
0.031295564411 -0.0490712074715 0.0131677578371
0.0325504123421 -0.052019305499 0.0215914225727
0.0302542497448 -0.0483751301463 0.0100742441053
0.0287348508976 -0.0446040088056 -0.000573904684409
0.0298101594303 -0.0415471837427 -0.0055190126334
0.030114188392 -0.0399352493254 -0.00847811082265
0.0288303285623 -0.0387690956532 -0.0130101168463
0.032018759001 -0.0454404905166 0.00630771598092
0.0329742036403 -0.042355371061 0.00137087982067
0.0342546525222 -0.046666961192 0.0125621848013
0.0357725788295 -0.0500252506376 0.0221531194242
0.0350102873539 -0.0478821603071 0.0163791625191
0.0335124058182 -0.0520748829265 0.0249599380146
0.0339063372745 -0.0341049771138 0.000749369398669
0.0342242112526 -0.0341045386182 -0.00585695131059
0.0355829458166 -0.0341047506203 -0.00266295281141
-0.0532069888148 0.0150300003588 0.00921508325223
-0.052229249718 0.0150300003588 0.00167472763762
-0.0469658133301 0.0150300003588 -0.00895063455776
-0.0469957094558 0.00107200001366 -0.0146396481558
-0.0605419833733 0.00107200001366 0.0188650738219
-0.0593371336758 0.00107200001366 0.0141667257602
-0.0490531693389 0.00525186682237 -0.0174233396977
-0.0502557350403 0.00326457422688 -0.0146427007763
-0.0526829183886 0.00380149470155 -0.00831301848681
-0.051351512355 0.0040559356023 -0.0116985034698
-0.055304936436 0.00427167433428 -0.00149256712185
-0.0589419708569 0.00464618436597 0.00792436440995
-0.0536791760965 0.00199499357261 -0.00602671561563
-0.061985688748 0.00224213903689 0.0156262269946
-0.064265372472 0.00408690885835 0.0215687762831
-0.0574873043639 0.00215957371432 0.00390009558493
-0.0642620344984 0.00685151993902 0.0252651041158
-0.057643174755 0.0150300003588 0.0141446849714
-0.0631578575535 0.0128637675461 0.0258734492602
-0.0510755454652 0.0133904801761 -0.00855769820412
-0.0604788982137 0.0144884168817 0.0157876733665
-0.04833582418 0.0127005245629 -0.015910772624
-0.0496417949028 0.0127123424973 -0.0126283971875
-0.053611445059 0.0145169277418 -0.00140904278785
-0.048322213391 0.00957652773132 -0.0175937678323
-0.0554966622506 0.0128338309075 0.00224316513486
-0.0584072841185 0.0125800302694 0.00949306450703
-0.0539631922662 0.0108978437071 -0.00262467731812
-0.0526112911573 0.0121231433723 -0.00543119307938
-0.0618391001563 0.0139649746205 0.0188941434061
-0.0508669744298 0.0090656538188 -0.0114015230969
-0.0581722116242 0.0147367708965 0.0241071835104
-0.050195015911 0.0112877664952 0.00167809219784
-0.0568742286365 0.00513438936496 0.0171673825194
-0.0524368579523 0.0119883210179 0.00795570841115
-0.0479104195766 0.012965884464 -0.00378633754958
-0.047286444257 0.0113840280163 -0.00607448374341
-0.0582788622935 0.00667353287316 0.0215297320731
-0.0511877268668 0.0118861373078 0.00457026925629
-0.0532008256278 0.00801174440976 0.00845097807615
-0.0510461631271 0.00855152427674 0.00289059545354
-0.0546440393255 0.00672862146084 0.0118159568094
-0.0560183004472 0.0134126963647 0.018103512946
-0.0537859676809 0.0126016842767 0.0118082866045
-0.0439421162892 0.0141200884624 -0.0139646219488
-0.0560267049505 0.00927042464615 0.0165105120205
-0.057507747703 0.0117947367855 0.0214617321586
-0.0547783275706 0.00948065243551 0.0132489339095
-0.0572636892605 0.008968578037 0.0197058438231
-0.0579910060497 0.00309070106978 0.0193614316574
-0.0591404010618 0.00386563192829 0.0227074065331
-0.0604164226454 0.00594942809716 0.0254530903346
-0.0601046619932 0.0118528570806 0.0255732822605
-0.0619371367375 0.00251694443806 0.0262048823543
-0.0636297554296 0.0121629419722 0.0228231168453
-0.0554780963754 0.00960760349025 0.000598612034563
-0.0576899433483 0.0111079310881 0.00695074627533
-0.0631943472148 0.0101278237004 0.0205961489199
-0.0596767820944 0.0106807505006 0.0118424381596
-0.0609995391302 0.00903682233276 0.0144754291839
-0.0569744079665 0.0091838129824 0.00423577414723
-0.0641853089352 0.00726014678705 0.0221889132301
-0.0587761836481 0.00780344959721 0.00833067584784
-0.0531131917345 0.0065758789122 -0.00669677759424
-0.057663048729 0.00587986936526 0.00489097615764
-0.0542465704562 0.00716540898556 -0.00358991041693
-0.0616513675963 0.005686375493 0.0151689044555
-0.0631538922303 0.00640135103488 0.0192684654699
-0.0502257619359 0.00667643639297 -0.0141491219265
-0.060287973666 0.00520060388334 0.0114960297407
-0.0453794291582 0.00494417131348 -0.0149891441067
-0.0445365751855 0.00796553018047 -0.0156283218473
-0.0464078043127 0.00574799351045 -0.0115363654649
-0.0492594976037 0.00623302223434 -0.00325506015687
-0.0477668147153 0.0021089816332 -0.00973481680213
-0.0493174393291 0.00879166062711 -0.00167414989641
-0.0513913575245 0.00319805799645 0.00105277479411
-0.0437658620335 0.0114853498035 -0.0157796084531
-0.0476177919381 0.00706678790726 -0.00740569615984
-0.0505579894887 0.006047401179 0.000290468866781
-0.0496161670389 0.00246414203347 -0.00434179521195
-0.0517252242944 0.00570004357738 0.00337755976475
-0.0454318354935 0.0116872791112 -0.0109867589034
-0.0564085860915 0.00303133359716 0.0150574139215
-0.0553883100668 0.00200253132917 0.0116205088967
-0.0532424412988 0.00438912068854 0.00691395506112
-0.0507505251807 0.0273139998317 0.0122595218123
-0.0513268805574 0.0273139998317 0.0168381369853
-0.0534702374586 0.0273139998317 0.014351808576
-0.0470880773376 0.0273139998317 -0.000149676246892
-0.0426017620069 0.0273139998317 -0.00589137445479
-0.0501369248355 0.0162721820543 0.0051160381707
-0.0468116677792 0.0189748029635 0.000369399195104
-0.0446867578351 0.0209485479278 -0.00228773943981
-0.0458421750034 0.0162556484361 -0.0063604035848
-0.0466244599337 0.0208723217695 0.00276263083669
-0.0380064739599 0.023079134694 -0.0168519544729
-0.0546745160811 0.0157248564907 0.0163804850778
-0.0469980204932 0.0168572778869 -0.002361468356
-0.0537297090938 0.0152878135054 0.0131951284466
-0.0487078213437 0.0154578724182 6.43170287412e-05
-0.0425276724697 0.0222815379823 -0.00601270471775
-0.0425126190585 0.0164252349125 -0.0149796125023
-0.0440990013741 0.0193912291836 -0.00622871773382
-0.0387301262473 0.0242750528845 -0.0130995157841
-0.043577758729 0.0168784409353 -0.0114487713503
-0.0506915190411 0.0172109896624 0.0080257974741
-0.0418434954126 0.0206216409847 -0.0103671327359
-0.0484273447013 0.0197662461652 0.00588373217108
-0.0584616001729 0.0150300003588 0.0204669732247
-0.0561751509685 0.0150300003588 0.00803111340978
-0.0618888033259 0.0191506594604 0.0231203026774
-0.0605130176546 0.0225927934274 0.022928514525
-0.0520928354985 0.0159020609064 -0.00375676148526
-0.0618863791338 0.0165152835077 0.0207430843991
-0.0602322989802 0.0175218267035 0.0172311667966
-0.0548932890626 0.0162998701438 0.0033743863731
-0.0525925169543 0.0206262055877 0.00116298622979
-0.0584948404 0.0206462541602 0.015527925463
-0.0483131465768 0.0190707065185 -0.0107489956083
-0.0566023401752 0.0233442719415 0.0135492005506
-0.0559314852815 0.0192190201512 0.00791128121437
-0.0591937205531 0.025351576174 0.0217974611648
-0.0505427671204 0.0195971159924 -0.00481857985274
-0.0588790236493 0.0233590601349 0.0190969939114
-0.0582984368126 0.0186787471758 0.0131392621509
-0.0602852237191 0.0201725664471 0.0194192538123
-0.0577465722614 0.0265104161003 0.0194059398953
-0.0541741036795 0.0226074268155 0.00693162827352
-0.056721147028 0.0205773810506 0.0111500980589
-0.0526551532639 0.01825577307 -0.000980957895199
-0.04758323196 0.0158658336897 -0.0148796326407
-0.0490197961589 0.015733843634 -0.0114294395931
-0.0504134052167 0.016967984845 -0.00726324699803
-0.0616046438719 0.0169951171002 0.025393145454
-0.0587800191402 0.0260613334645 0.0252311209407
-0.0599259322531 0.0226699433598 0.0259931401184
-0.056093440433 0.0230826973945 0.0252022120494
-0.0582035637638 0.0201899315212 0.0257974229794
-0.0507343847363 0.0260533940756 0.00276757043981
-0.0413515065314 0.027149354447 -0.0167780584584
-0.0527491200662 0.0270122267558 0.00867022037663
-0.046026234425 0.0252873288135 -0.00891980387241
-0.0430748607235 0.0259656700823 -0.0145913389915
-0.0485612427116 0.0239903500697 -0.00480279984413
-0.0448876350155 0.0224999858897 -0.0150084323126
-0.0544291016503 0.0261279141116 0.0112318465708
-0.0506361720496 0.0218412859082 -0.00232258538325
-0.0476438725723 0.0227286966841 -0.0083280454479
-0.046992940223 0.0192093190244 -0.0137109114058
-0.0458370779665 0.0237282087988 -0.0114450817857
-0.0562348775646 0.0263865038886 0.0157279786941
-0.0501001624196 0.0245634509831 -0.00058378897877
-0.0521300138698 0.0190824680015 0.01404390613
-0.0394937161472 0.0252178256893 -0.00990890318027
-0.0544562121718 0.0215158904407 0.0218191121252
-0.0555848632159 0.0184736517562 0.02160227968
-0.0510436889454 0.0235144810071 0.015673273343
-0.0442742984679 0.0233346154379 -0.000433341797676
-0.0427195718708 0.0258682136276 -0.00170009060559
-0.0496058571259 0.0211075781966 0.0100145386131
-0.0531648561274 0.0209863284216 0.0182786977391
-0.0525256878642 0.0242888223448 0.0198937425058
-0.0441070729426 0.025965972196 0.0016587559973
-0.0474375246446 0.0229182825929 0.0066203186791
-0.0488753870368 0.0238629489826 0.0108977826663
-0.0541068283634 0.0245646766899 0.0236609567406
-0.0441261200487 0.0204774281913 -0.0184269994497
-0.0409819348374 0.0225326092612 -0.0184269994497
-0.0235631258384 0.0274850727758 -0.0203272401053
-0.0156340003014 0.0306859053351 -0.0306581061299
-0.0156340003014 0.0324191127182 -0.027825828976
-0.0156340003014 0.0341949132089 -0.0341020502636
-0.0255206876092 0.0400353590173 -0.0134060001001
-0.0156340003014 0.0341320855646 -0.0222437822872
-0.0156340003014 0.0377156507414 -0.02189812825
-0.0248054336479 0.027317000553 -0.0313159284525
-0.0213298679222 0.027317000553 -0.0340095222908
-0.0227455083295 0.027317000553 -0.027013011276
-0.0260429926529 0.027317000553 -0.0285805811982
-0.0214232355749 0.027317000553 -0.0302265639203
-0.0346149988472 0.0349816495833 -0.0163152356274
-0.0294036601855 0.027317000553 -0.0307869770191
-0.0156340003014 0.0415955238808 -0.0229519854184
-0.0315254074761 0.0287990116973 -0.016692718058
-0.03161303129 0.027317000553 -0.0196901837917
-0.0340164282618 0.0320865789445 -0.0230671925866
-0.0331255447526 0.028323014195 -0.0316761115238
-0.0332405675277 0.0305619342559 -0.027607087835
-0.0248102364114 0.0307006993374 -0.0374150015414
-0.0176111713561 0.0354815715014 -0.0374150015414
-0.0183258832877 0.0313610107679 -0.0370799836789
-0.0200301823571 0.0383437197144 -0.0141100821663
-0.0252094737553 0.0343892296612 -0.014511288819
-0.0231516221149 0.0368434119552 -0.0138837601589
-0.0291138985523 0.0324088777353 -0.0142831768703
-0.026560939756 0.0283491126595 -0.0180685244619
-0.0248262017077 0.0316087272822 -0.0163748969949
-0.0202682692424 0.036560030974 -0.0347637894799
-0.0195141190555 0.03895320075 -0.0306286679736
-0.0200813035043 0.0437806618819 -0.0175862546047
-0.0169599339062 0.0455694843563 -0.0160009403345
-0.0191887794155 0.0422653506328 -0.0223766701922
-0.0175208297856 0.0385010340108 -0.0333599772717
-0.0168552450784 0.0402710977868 -0.0294597653235
-0.0231426229067 0.0431517454101 -0.0158936741303
-0.020940894015 0.0403452816335 -0.0255071621723
-0.0230702451092 0.0404852201189 -0.0227558721801
-0.0240119212856 0.0379021576905 -0.027515124079
-0.0245172404983 0.0412679791433 -0.0191267953601
-0.0237548993782 0.0358084042812 -0.0326608374805
-0.030037789887 0.0302417354746 -0.0343749565737
-0.0318488742679 0.0328302960268 -0.0261126167598
-0.0301217987007 0.032812311854 -0.0292562157151
-0.0311214484405 0.0308382000452 -0.0312716624337
-0.0279970101343 0.0304809064814 -0.0365780233126
-0.0214261681411 0.0336858238266 -0.0371746431132
-0.0277807296556 0.040282279432 -0.0167319714608
-0.027905996243 0.0386242624177 -0.02028913347
-0.0256423685549 0.0386534177061 -0.0235647800856
-0.0304471650624 0.0377502339872 -0.0182936357845
-0.0320176423066 0.0346332049487 -0.0222650297925
-0.0293553716304 0.035013161411 -0.0258942653548
-0.0280227010196 0.0328323937996 -0.0326745014164
-0.0255005806902 0.0334387053839 -0.0352995693948
-0.0289322682287 0.0366958152028 -0.0229567400784
-0.026769882354 0.0357213023273 -0.0284182543461
-0.0162315204135 0.0347184155119 -0.0187778279807
-0.0171816088454 0.0384735866819 -0.0152038476808
-0.0188882679703 0.0348645526279 -0.0166908618507
-0.0225029554876 0.0302950026258 -0.0182556164273
-0.029403193472 0.0365667977059 -0.0134060001001
-0.0197807396383 0.0289546915766 -0.0226488733933
-0.0168621720535 0.0287653026221 -0.0281700357979
-0.0163954064793 0.0309252115976 -0.0242351460051
-0.0162131350162 0.0277033083384 -0.0316413187736
-0.0174376983309 0.0321242128047 -0.0202387950155
-0.0217976194027 0.045126083807 -0.0129244168457
-0.0323784124101 0.0342321088078 -0.0134060001001
-0.0346160009503 0.0369280562526 -0.00678577814766
-0.0346160009503 0.0383746632476 -0.00379200451439
-0.0183096430775 0.0439321155265 -0.0134060001001
-0.0274154180104 0.0461078230751 0.0136239066481
-0.0330237132085 0.0399888775936 0.00571810916355
-0.0307723213756 0.0448830039814 0.01417508278
-0.0337271311949 0.0435651297805 0.0141405989947
-0.0331226467742 0.0353216296846 -0.00430266494671
-0.0247063910839 0.0478387533651 0.0147883130036
-0.0332683888188 0.0328030368047 -0.00962199321124
-0.0283069390565 0.0394768274277 0.000104022493743
-0.0322417639886 0.0455913110095 0.0171134435245
-0.0336862917786 0.0464688729214 0.0203948350206
-0.0292186817312 0.0492372639189 0.0221283376021
-0.0299255681544 0.0373746808795 -0.00290620073928
-0.0254453875025 0.0510590985831 0.0224734273233
-0.03198008979 0.0382846281431 0.00102789846185
-0.0227553703306 0.0517970358245 0.0215038892905
-0.024477116933 0.0492554905192 0.0176398372128
-0.0221369663952 0.0477603508484 0.0121646958278
-0.020332265403 0.0500393128794 0.0153804372924
-0.0291673004434 0.0416808807142 0.00570244221864
-0.0261817882038 0.0450258868708 0.0101009770649
-0.0319581772028 0.0417116518992 0.00843430654278
-0.0186914963761 0.0536390292898 0.021615176973
-0.0201863031686 0.0519196893075 0.0193163589873
-0.0293190841992 0.0477088016767 0.0189116061533
-0.0291296560972 0.0431833906815 0.00892285918546
-0.0277512231319 0.0410341534635 0.00294850404427
-0.0156340003014 0.0548452814484 0.0132150290172
-0.0156340003014 0.0549409422865 0.0199794391241
-0.0156340003014 0.0565619070802 0.0168379387965
-0.0346160009503 0.0478094864597 0.0159746874001
-0.0255707979098 0.0367284641815 -0.0121870918929
-0.0191006988196 0.040988283229 -0.011724298185
-0.0165503951191 0.0428721191651 -0.0103137323811
-0.0160655230357 0.0451565542887 -0.00488456523247
-0.0215939546062 0.0432995149264 -0.000624454441693
-0.0176995676989 0.0432772924776 -0.00721255057473
-0.0212587111434 0.0453283578523 0.00428403919042
-0.023288742314 0.0414081732883 -0.00288318736973
-0.0255895012775 0.0382720291813 -0.00748254704272
-0.0250484184182 0.0431816410438 0.00484844854654
-0.0171825427978 0.0522530135456 0.0161224129908
-0.0213942986659 0.0412023515479 -0.00661381774897
-0.019920865387 0.0429345321822 -0.0044131807094
-0.022771049711 0.0390768845916 -0.0100369598302
-0.0177109758846 0.0497409469239 0.0102348253714
-0.0287689843692 0.0362695145487 -0.00755223994291
-0.0243110987957 0.0423970271681 0.00149688573009
-0.0308248838253 0.0344196568146 -0.00909378478799
-0.0179498373137 0.0476472748241 0.00498996422224
-0.0232180002266 0.0453891992704 0.00773245304626
-0.020831675894 0.0473792246487 0.00909804586247
-0.0194085001483 0.0451182809031 0.000616082670809
-0.0168742450059 0.0466271729668 0.000436396312745
-0.0259114724116 0.0399849945356 -0.00232407729203
-0.0170873057521 0.0607620372521 0.0244860942899
-0.0346160009503 0.050709086115 0.0232574549002
-0.0156340003014 0.0481364764758 -0.00754939069882
-0.023935969167 0.0557515869015 0.0146489704046
-0.0220171479993 0.0580123747188 0.0184268697495
-0.0239344584203 0.0538564617966 0.0100031772592
-0.0252729111709 0.0578121477924 0.0209269336456
-0.021452517475 0.0537172069997 0.00738197896737
-0.0222986864856 0.0502403103928 -0.000361596789068
-0.0178786326576 0.0571764598337 0.013463044748
-0.0176085375579 0.0550265999929 0.00784297862108
-0.0171286854113 0.0595987225871 0.0191232168659
-0.0167038406036 0.0539464552796 0.00452915006698
-0.0204867575275 0.0599061844039 0.0222290617562
-0.0195440296914 0.052119679087 0.00184413421959
-0.0189353307107 0.0490143112068 -0.00630214815729
-0.0209354077772 0.0553878548199 0.0110332205454
-0.0187852626067 0.0504738093524 -0.00283115321354
-0.0173083180872 0.0477379541433 -0.0107795547936
-0.0277633560948 0.0469276920565 -0.00215481309874
-0.0324080586842 0.0531072786702 0.0178927509705
-0.0298005997984 0.0474600288843 0.00169034400631
-0.0309340229073 0.0500315402467 0.00899847618419
-0.0298503754564 0.0520569064312 0.0121974170034
-0.0330597411423 0.0545157530846 0.0219355339258
-0.0272807526388 0.0526880810079 0.0106633884947
-0.027350829604 0.0500376387802 0.00459106946218
-0.0261518203627 0.04642067502 -0.00512930279247
-0.0261590927997 0.0451479501101 -0.00807440169289
-0.0269669724464 0.0490672117444 0.00191426387968
-0.0213105998104 0.0465942508719 -0.0100877544401
-0.0261846232861 0.0558496668415 0.017066304117
-0.0274025321294 0.0541755149987 0.014305115419
-0.0248078138149 0.0523502555489 0.00726601396118
-0.0291757275243 0.0553840890678 0.0190225986
-0.022165759535 0.0481979443702 -0.00539840937456
-0.0230894008145 0.0514918084473 0.00344386355158
-0.0203594341096 0.0583062301693 0.0259346520715
-0.0247489033997 0.0534399512217 0.0253393301439
-0.0308714532706 0.0505509251542 0.0249853904508
-0.0227341466704 0.055945227213 0.0262359995395
-0.0284066521339 0.0538516004935 0.0262359995395
-0.0337176142395 0.0517316597368 0.0262359995395
-0.031432411616 0.0546610499066 0.0260594776279
-0.0252017988071 0.058279585127 0.0250884665651
-0.0281232744003 0.0571945167275 0.0230874480515
-0.0315244611379 0.0449702089273 -0.00131332676179
-0.0324080390761 0.0402611417316 -0.00976102953393
-0.0343735128776 0.0449191392553 0.00323201209411
-0.0345891017176 0.0401183503012 -0.00649918688403
-0.0310513796637 0.0422050983565 -0.00789354296359
-0.0329273554802 0.0424408008654 -0.00433495397006
-0.0339848213346 0.0378264354727 -0.0122997861509
-0.0344480003931 0.0430033086736 -0.000670232429578
-0.0332687906764 0.0479007373498 0.00769031532856
-0.028435710872 0.0422004011122 -0.0117590948374
-0.0331500052377 0.0499005072669 0.0117051985106
-0.0310248093813 0.0481974217391 0.00500689379394
-0.0292380529894 0.0444030863342 -0.0058081238866
0.0414611693881 0.0174036563708 -0.00674799989656
0.0418750010431 0.00775305674444 -0.0132258687997
0.0418750010431 0.0144850452874 -0.0101457336872
0.0418750010431 0.0116050218439 -0.0116431100528
0.0418750010431 0.0173126205545 -0.0156570097772
0.0418750010431 0.00398439097979 -0.0164826343872
0.0389513870729 0.00866018780444 -0.0234559997916
0.0367890607338 0.0138744594618 -0.0234559997916
0.0418750010431 0.00333974590987 -0.0222766380706
0.0418750010431 0.00204046444056 -0.0191202477696
0.0418260697239 0.0154178154208 -0.0183993222862
0.0418012947009 0.0126812409556 -0.0196635576202
0.0364119692324 0.019130891825 -0.0234559997916
0.0412058602439 0.0184862365154 -0.0191907805661
0.0404824592815 0.0164015114738 -0.0228111812179
0.0361629235677 0.0154840424666 -0.0201530338482
0.0374695701817 0.0135030938006 -0.0182665980965
0.0376628519188 0.0159348610923 -0.0160889534219
0.0397271897896 0.0175239543094 -0.00982066382999
0.0395475407565 0.01428274477 -0.0125282340449
0.0399453231599 0.00926265972947 -0.0150316702852
0.0394647904392 0.00639431409608 -0.0182316702508
0.0376947005882 0.00955234487367 -0.0205472123274
0.0389133106686 0.00427147355808 -0.0212982844489
0.0326179939777 0.02717383639 -0.0234559997916
0.0360502472044 0.0200549997389 -0.0195128981511
0.0392376064402 0.0200549997389 -0.021099156233
0.0418759994209 0.0246289267119 -0.00903034089508
0.0396842794285 0.0241391218098 -0.0160791106292
0.0415856942515 0.0210661971394 -0.0151079466014
0.0411747973892 0.0235277379077 -0.0130716502533
0.0410504932865 0.0285330694196 -0.00713141848739
0.0397263403769 0.0221109370376 -0.0185071424746
0.0336994474723 0.0317800007761 -0.00941417852114
0.0286016008091 0.0309095528765 -0.0234559997916
0.0333931641804 0.0313755760525 -0.00445970117383
0.027687816566 0.0305516880151 -0.0169277918415
0.0339779398902 0.0263222054643 -0.0102733670757
0.0361590441654 0.0254014042302 -0.00716160661445
0.0377996438107 0.0264942610202 -0.00218964202765
0.0317867623941 0.0286530077508 -0.0113277792232
0.0390236412029 0.0278209279773 0.00227333784702
0.0363488419324 0.0291355180951 -0.00126959160888
0.0384773100775 0.0236603581197 -0.00497765505622
0.0299350301864 0.0292382054328 -0.0142592957676
0.0329025138722 0.029655994955 -0.00756360326212
0.0392918570543 0.029591981605 0.00543296382615
0.0328931222633 0.024758569101 -0.0153015069768
0.0312970006671 0.0245900725032 -0.0194981309086
0.0335897324021 0.0225964378837 -0.0179946647554
0.0370314170676 0.0210869223113 -0.0127359774194
0.036021265175 0.0205125049787 -0.0163386624346
0.0281604954465 0.0279261509387 -0.0203228781548
0.0354422297704 0.0236142157977 -0.0114598927943
0.0385086915747 0.0214838506726 -0.00836412299692
0.0323533935483 0.0315879136683 -0.0204434912576
0.0343967914265 0.0303416461041 -0.0184588284689
0.0371683579207 0.0297789704635 -0.0137955761295
0.0357853861517 0.0277855114221 -0.0199029875486
0.0393241090316 0.0284349087474 -0.0112509437697
0.0371455212436 0.0276369680426 -0.0171492021468
0.0367974063016 0.0248798337157 -0.0218675577325
0.0418759994209 0.0217507323186 -0.00675191970832
0.0417077649172 0.0291663172553 0.00847241330622
0.0357833132296 0.0317800007761 -0.0119822196343
0.037639638826 0.0317800007761 -0.00904300992266
0.0405344407008 0.0317800007761 -0.00270248734748
0.0406009475564 0.0317800007761 0.00728852493857
0.00893300026655 0.0457252038164 -0.0163184162516
0.00893300026655 0.0479246682736 -0.0100822572436
0.00893300026655 0.0499206772644 -0.0036238143911
0.00893300026655 0.052821762706 0.00978567985716
0.00768242464819 0.057394654871 0.0245173749742
-0.00307037846203 0.0576846872834 0.0254384856026
0.00493326474154 0.0579068548254 0.025409454945
0.00183745812529 0.057644146984 0.0251557218814
0.00433932381271 0.0454355247501 -0.00675191566221
0.00568493000571 0.0523224537596 0.0120866030083
-0.00608155427225 0.0454140422635 -0.00595975105044
0.00311369956727 0.0509788999784 0.00860004034853
-0.00521353454727 0.042808081847 -0.0132006010642
0.00775004423391 0.0453361694464 -0.00730389635708
-0.0080219313969 0.0444624569742 -0.00841939996075
-0.00545595773319 0.0466080443475 -0.00272572254197
0.0073042725413 0.0537218847133 0.0158046627739
-0.00939993264943 0.0432791185971 -0.0115626255827
-0.000880828623215 0.043078329219 -0.0128109867694
0.0028964059685 0.0467674234266 -0.00296950881245
0.00387197407553 0.0442516700449 -0.00997095206794
0.00780744324559 0.0551588941935 0.0197172936166
0.00446283701215 0.0498451460281 0.00537046233869
0.00664221786207 0.046435447015 -0.00418888783017
0.00501499331659 0.0485165722295 0.00166996882061
-0.00571154997964 0.0438129827172 -0.010395071892
0.000672113989907 0.0481183594587 0.000929106350835
-0.000923315379792 0.0470543234854 -0.0018681136055
0.00855550558279 0.0496242684692 0.00442842220198
-0.000763057535205 0.0455153670129 -0.00611543239404
0.00116644323676 0.0497997843898 0.00551493500673
-0.0117444829682 0.0422642351049 -0.0141634143205
-0.00309286071555 0.0480027458746 0.000918568323188
-0.00191516588246 0.0442030273279 -0.00963204036489
0.00893300026655 0.0523502676378 0.00228247839999
0.002073547359 0.0422966362738 -0.0301383733016
-0.00998559771515 0.0559696187028 0.0229938600452
-0.0125546848934 0.0465380536467 -0.00243552528324
-0.00597819508655 0.0558055510138 0.022364008291
-0.00308158613541 0.0547565138469 0.0193265441478
0.0018144275462 0.055791277513 0.0218323362394
-0.0137502727657 0.047677680685 0.000740840933989
-0.00258642342124 0.0559804263108 0.0226253085431
-0.00695925109703 0.0477337274147 0.000463844751397
-0.0133278171148 0.0537895510411 0.0173435966523
0.00598719962376 0.0560166992902 0.0221817722786
-0.0147708272559 0.0512536876139 0.0105351579964
-0.00838107880371 0.0461867453062 -0.0036553372829
-0.00707683866091 0.0488738236731 0.00357331067832
-0.00192661896348 0.0511364678841 0.00940390275958
-0.00331776998208 0.0494247670312 0.00483460585767
-0.00986547031102 0.0517416646223 0.0115526355101
-0.0089700049758 0.0549864019562 0.0203244415736
-0.0117994303375 0.0527976457057 0.014548111305
-0.0058780585654 0.0502525928455 0.00724891719867
-0.0121368854024 0.0440723922155 -0.00917063984098
-0.0098158424029 0.0493220195343 0.0049660090672
-2.0039550528e-05 0.0539226676017 0.0168641506043
-0.0122272679742 0.0452717578562 -0.00590163145286
-0.00676442907092 0.0542239121525 0.018110333042
-0.0108279008813 0.0481386886691 0.0018103515702
0.0028949055645 0.0544526331659 0.0181217540688
-0.00472070861993 0.0514891290559 0.0105401495785
-0.00326410992632 0.0529991639031 0.0145566046578
-0.0128069534585 0.0489536067431 0.00415278326015
-0.0129867988574 0.0500891078226 0.00725368383099
-0.0131964428003 0.0557800222154 0.0227510585929
0.00138526836735 0.0528098556563 0.0137474806746
-0.00750097511972 0.0528949543818 0.0145410223069
-0.0121242597505 0.041832998395 -0.021298812251
-0.00720093921779 0.041832998395 -0.0206305789585
-0.00936075209618 0.041832998395 -0.0239881928088
-0.0123300295872 0.041832998395 -0.0243356309297
-0.00457877068996 0.041832998395 -0.02362222977
-0.0151016777929 0.0420631837986 -0.0148435728246
-0.0155254917326 0.0479957698566 -0.00315287379171
-0.00689501021106 0.0418885374652 -0.0263873414678
-0.0156340003014 0.0525142935264 0.00779137148203
-0.0156340003014 0.0503645091796 -0.000517465364366
-0.0156340003014 0.0577006954397 0.0255592961622
-0.0156340003014 0.0576833381836 0.0213659776024
0.00469388724244 0.041832998395 -0.021422890484
0.000354703069602 0.041832998395 -0.0184691205762
0.00354751669665 0.041832998395 -0.0182548640414
-0.00548406597766 0.041832998395 -0.0165518662163
0.00633112472763 0.0425208348952 -0.0150080551867
0.00254299474457 0.0425834576841 -0.0144690123368
-0.00226870157002 0.0420806451646 -0.0155261771299
0.008577714591 0.0558845830818 0.00685922907661
0.00767643176445 0.054867988575 0.00383636506947
0.00322045418483 0.0434887889441 -0.0274485114325
0.00541129304097 0.0481627191599 -0.0144351240319
0.00605039140749 0.0496228004786 -0.0103904108134
0.00876007189537 0.0450374790115 -0.0209560693159
0.00471170673779 0.0454464813737 -0.0217379731319
0.00472757805817 0.0468597975339 -0.0180958452307
0.00880156364921 0.0431428470732 -0.0258101194293
0.00253619812968 0.0607036489798 0.0262359995395
-0.0132098892595 0.0616857889588 0.024445274798
-0.0097526312295 0.0619058715373 0.0249731373985
0.0064990407564 0.0613879104546 0.0257348855763
-0.00365023296868 0.0617941326433 0.0260941606357
-0.00256608318443 0.0624787518783 0.0233479206085
0.00303851172976 0.0494820736995 -0.01180922659
0.00537619829985 0.0603329898646 0.0174382477009
0.0067702242954 0.0617585256442 0.021585772568
0.00251072685243 0.0529800756135 -0.00274048334881
0.00477309604077 0.0549805529653 0.00316574446857
0.00345196929669 0.0571891413011 0.00861427234918
0.0033606959488 0.0515880866546 -0.0061696219313
0.00551305167903 0.0585903737482 0.0128850338004
0.00166007881053 0.0588521768895 0.0124931531457
0.00601689556423 0.0532841315193 -0.000911291875794
0.00670811359699 0.0571051182524 0.00932466603754
0.00227501952185 0.0623273592348 0.0229289857079
-0.00443585416598 0.0440385252352 -0.0264177657253
-0.00282506553488 0.0455918064685 -0.0223614263225
-0.00417993324437 0.0536457117027 -0.00132893558839
-0.00440078769091 0.0565963480947 0.00637654774786
0.000528105501161 0.0468501043328 -0.0190754256307
-0.00130655225394 0.0503916661597 -0.0098267612696
-5.93614506517e-05 0.0434199219389 -0.0280332265133
-0.00379184063189 0.051357268367 -0.0073051250089
-0.00148229833542 0.0529355015896 -0.00318362436223
-0.0018686586312 0.0484387459017 -0.0149267439531
-0.000949268018322 0.0445456360915 -0.0250934635294
0.00133332560488 0.0485119335886 -0.0147067241173
-0.0039653096393 0.0618083367953 0.0199944051785
-0.000804117858126 0.0597001410447 0.0145511590673
0.00127058918159 0.0453354366098 -0.0230304169743
-6.78050096062e-05 0.054997395437 0.00224907278821
-0.000574634823878 0.0562869986951 0.00561487564235
-0.00115607645111 0.057977619739 0.010029416471
0.000809331764041 0.0609026372766 0.0177424188172
-6.29102035448e-06 0.0518896414692 -0.00589137521277
-0.00634442090773 0.0608377140297 0.0177503347798
-0.00620878191933 0.0554614448704 0.0036380728784
-0.00609695505329 0.0482122697569 -0.0153785753166
-0.00487831847413 0.0599759341324 0.0152476507722
-0.0063959255287 0.0543158677586 0.000667013813327
-0.00528515387724 0.0524998262681 -0.00427733135792
-0.0064547059951 0.0624889992177 0.02230202485
-0.000930693835015 0.0619826322991 0.0207113449601
-0.00880822349978 0.0590157555731 0.0136313941891
-0.0111546123661 0.0573048556528 0.0100036451476
-0.00974083786645 0.054874191534 0.00317919255255
-0.0128782849528 0.061176926673 0.0206890930917
-0.0102351660031 0.0604660002177 0.0179084743857
-0.00942614520126 0.0617716791974 0.0210224334716
-0.00944470125654 0.0533951045635 -0.000775040454642
-0.0103752564981 0.048195728865 -0.0139814226389
-0.00870688471309 0.0516335848381 -0.00561986270652
-0.0138908518528 0.0600417803834 0.0180906526235
-0.00603571137359 0.0427054926137 -0.0297500154388
-0.00805149731334 0.0562649464474 0.00620670895783
-0.00731903874133 0.0446643213081 -0.024223537659
-0.00660830365427 0.0466851510861 -0.0192031975984
-0.0070587209296 0.0504286481806 -0.00931177191416
-0.0142881690421 0.0474454805809 -0.0137202441496
-0.0148777474028 0.0533094914359 0.00138241320643
-0.0128194656589 0.0458072432444 -0.0187088940356
-0.0151005767763 0.0504527759917 -0.005674061847
-0.0134263616446 0.0522237671574 -0.0022058077244
-0.0131815287627 0.0492350006059 -0.00987048058077
-0.0119266058949 0.0515263773185 -0.00472682254837
-0.0142645587047 0.0559732806429 0.0078017556345
-0.00990302328333 0.0451241844719 -0.0221213759104
-0.015128011895 0.0574326367789 0.0119593695531
-0.0110510690376 0.058409642533 0.0261506379911
-0.00658608886627 0.0605104679868 0.0262359995395
-0.000288485162282 0.0595043476534 0.0262359995395
0.0254639228148 0.0418143085614 -0.0115815769982
0.028221312469 0.0426167052009 -0.00586438082551
0.0249648221548 0.0399524155122 -0.0163564348049
0.0271606610692 0.0394861683358 -0.0142114966717
0.0278643442775 0.0445038771547 -0.00226669150145
0.0282713090121 0.0317807162967 -0.0204861533359
0.0319052025224 0.0317813263243 -0.0123228870006
0.0244159072525 0.0317800690841 -0.0276659026628
0.02400900051 0.0424628318972 -0.00140967338916
0.02400900051 0.0429528865082 0.00204664447384
0.02400900051 0.0326466086255 -0.0213546093884
0.0381020103262 0.0317823943495 -0.00043055170167
0.0365625348603 0.0317821743831 0.00293143197455
0.0369875339592 0.0373219294328 0.0166812592534
0.0274596756684 0.0487450043743 0.0238425071931
0.0376164503558 0.0404497799635 0.0228690769728
0.0322196804989 0.0438414880177 0.0216431651326
0.0401373745023 0.0354451583931 0.0175731668077
0.0348875563613 0.0423451344034 0.0225585952605
0.0368461634018 0.0389996172176 0.0193752835179
0.02400900051 0.0422534470077 -0.00616641488355
0.02400900051 0.0345378446851 -0.0258002128102
0.02400900051 0.0473824015136 0.00507800848155
0.02400900051 0.0542137837219 0.0215194262063
0.02400900051 0.0499440980618 0.0137524241904
0.0366535148296 0.0440127729335 0.0262205189762
0.0282058412449 0.0515855992729 0.0261311233315
0.0302540112594 0.0479027569289 0.0258879597492
0.036522805977 0.047246348419 0.0170549416633
0.038959138092 0.0467972289457 0.0206604169393
0.038190185731 0.0450713051081 0.0149425369835
0.0354769552264 0.0495303733637 0.0206353388106
0.0418730005622 0.0374773983652 0.0110021574057
0.0418656677386 0.0335765131219 0.00430201207369
0.0416697094875 0.0363873673767 0.0142370772382
0.0416157421692 0.034103218253 0.0108538284651
0.0414477768069 0.0401503367 0.0251337475071
0.0416669944105 0.0402493988604 0.0219191836412
0.0317898687852 0.0512117610704 0.0262326140831
0.034484449772 0.0462853880033 0.026233628882
0.0407568435811 0.0443770223958 0.0262356585886
0.0405929344369 0.0427363787421 0.0150158155787
0.0405075702803 0.0401755197552 0.010303901392
0.0411596235182 0.0446240381682 0.0196709125421
0.0272474124614 0.0539809832989 0.0192134421874
0.0307691755891 0.0525341709623 0.020493750227
0.0385132180601 0.0350765177415 0.0148060453677
0.0241368145423 0.048138783721 0.0164076767738
0.0259521775308 0.0336385578865 -0.0140170905844
0.0270138462504 0.0463082903223 0.0179459882504
0.0327096744122 0.0354612372853 0.00399865212763
0.0254448724739 0.0489554782763 0.0209863050978
0.0321025145894 0.0417228029205 0.0174959250405
0.0270560363334 0.0348713945512 -0.00887429106338
0.0316768778721 0.0349574560448 0.000715361712635
0.0273780855427 0.0361487112183 -0.00521508709704
0.0285069364526 0.038002907239 0.00144026902012
0.0347505055469 0.0356435183698 0.00857340501635
0.0268015840216 0.0384027683714 -0.00108343791174
0.0319425263569 0.033387273145 -0.00243892645891
0.0295022585119 0.0446738150889 0.0191559682384
0.0295009699612 0.0432956679492 0.0159111761873
0.0357979854786 0.0335336713934 0.0057378063552
0.0307447846002 0.0385783373002 0.00734016647819
0.0339931406015 0.037544034445 0.0115059054411
0.0282865427914 0.0431373557755 0.0130716420222
0.028164658772 0.0419011046151 0.00991568048547
0.0254873183568 0.0427555735837 0.006486883222
0.0257160712224 0.0443226602215 0.010638258065
0.0277823784359 0.0399567909284 0.00456496688891
0.0285908268185 0.0321256474118 -0.0122159173212
0.0303214470174 0.0333330084806 -0.00585979191029
0.0392875197776 0.0323465153152 0.0100338998948
0.0261606555324 0.0454385126662 0.0141665363838
0.0295111145796 0.0357812805821 -0.00174626522184
0.0367375974001 0.0355429394435 0.0123735418978
0.0318639095574 0.0404562567923 0.0140315753305
0.0340625048411 0.0393653143081 0.0159314889864
0.0244420781532 0.0396944179894 -0.00283806396788
0.0331271811376 0.0518405281577 0.0231284221965
0.0373855548588 0.0486604460566 0.0233921485205
0.0345492937758 0.0496585733115 0.0260157971231
0.0269052513685 0.055105062431 0.0244109393224
0.0301905135282 0.0536721174254 0.0237539477453
0.029901306116 0.0507836154235 0.0148769388812
0.0295735140757 0.0521821651685 0.0177739359909
0.0328622230064 0.0411187704402 -0.00190631815825
0.0328971034876 0.0470726055948 0.0108727510021
0.0293949867637 0.0406176832539 -0.00834618912388
0.0352296709271 0.044639908292 0.0092852827867
0.0286102946065 0.0375244205833 -0.0161724514854
0.0353320535706 0.0429989975004 0.00593672077409
0.0318726139731 0.0464432362395 0.00794121871561
0.0379311103545 0.0433450437222 0.0107008767084
0.031234683598 0.0453926891553 0.00470808287105
0.0309010324731 0.0443258296724 0.00191124934983
0.0335226385306 0.0421097549967 0.00123433296476
0.028135476711 0.0360179338037 -0.020127487156
0.0264109382441 0.0355206335634 -0.023860753001
0.0356008215942 0.0457055677905 0.0121456584353
0.0320304792528 0.0487585259693 0.0132075976455
0.0338534253171 0.0495374292363 0.0178294674137
0.0340056816305 0.0391320675966 -0.00418463782415
0.0329615302818 0.0329079463216 -0.0168276152089
0.0340150291988 0.0372425248716 -0.00741211751856
0.0270264532959 0.0337299155263 -0.0265232998367
0.0318933346058 0.0351880851398 -0.0149109475507
0.0379383762524 0.0418158873302 0.00778426721124
0.0366610631547 0.0347671310395 -0.00671123644276
0.0356162539951 0.0388817247413 -0.0016004325959
0.030744039632 0.0339840088704 -0.0191296104222
0.0337654687255 0.0350727536761 -0.0116053796158
0.0359221616064 0.0409314995736 0.00249220743935
0.0319142252625 0.0375160890481 -0.0108738944407
0.0412483848214 0.0333040028929 0.000234908556018
0.0397643457923 0.0393697992235 0.00728675862796
0.0386685234902 0.0334157295467 -0.00491309730695
0.0391963225016 0.0350437115567 -0.00111349405087
0.0383011650206 0.0378480749473 0.0017635036542
0.0381654235877 0.0395506575995 0.00433908375948
0.040648515896 0.0369555867393 0.00504086105324
0.0245399143283 0.0480720752573 0.00221313071433
0.0299278057709 0.0485833475327 0.00969511318582
0.02636509648 0.0523659691418 0.0137638725308
0.026778925168 0.0500702826659 0.00899294724411
0.0276807856334 0.0470229937942 0.00312412214408
0.0293243318366 0.0473985106246 0.00615719739891
0.0252312258045 0.0464716656199 -0.00137708140585
0.0255065988501 0.0449769496968 -0.0044756128567
0.0284902118746 0.0504270511217 0.0120717839131
0.00338341821078 -0.0364246980333 -0.0314088220344
0.00265131632343 -0.0321610409777 -0.0321728555158
-0.00111917682182 -0.0348563962012 -0.0314834260636
-0.00969683945867 -0.0313684898383 -0.0317193756063
-0.00658154432679 -0.0324217198241 -0.031673733982
-0.00546149645709 -0.0370008316358 -0.0313731144186
-0.0134828958992 -0.0319506388404 -0.0316702500431
-0.0161899998784 -0.0334707503955 -0.0355151121652
0.0024720766307 -0.0368733192282 -0.0368559993804
-0.00692639158954 -0.0367685355632 -0.0368559993804
-0.00319766881049 -0.0366684862354 -0.0368559993804
-0.011106299765 -0.0392929059451 -0.0358054367044
0.00080903225035 -0.0410798193775 -0.0333703251101
-0.000710768595687 -0.0399112976871 -0.0362210575665
-0.00438204730086 -0.0405049004116 -0.0354458134352
-0.0090125946729 -0.0290799997747 -0.0340244214146
0.00385460547565 -0.0290942788799 -0.035746134046
-0.00583498874251 -0.0292496849499 -0.0358237675003
-0.0136596283844 -0.0357290775975 -0.0368559993804
-0.0107939276323 -0.0335068346287 -0.0368559993804
-0.00472635887061 -0.0327852579018 -0.036714640913
0.00614502556659 -0.0324879053111 -0.0364321282697
0.000784353104583 -0.0311638410478 -0.0362771923393
0.00303516108249 -0.0335810027284 -0.0367146230768
-0.0131764753268 -0.0307447431198 -0.0364015178441
-0.00206784219442 -0.0296070714078 -0.0359781245061
0.00498639956798 -0.0408075390191 -0.0331335857744
-0.011659931248 -0.0404286395694 -0.0327927777849
-0.00620325360599 -0.0415961797964 -0.0326753736516
-0.00811947546399 -0.0406650544066 -0.0346457500786
0.00944579490238 -0.0323944398622 -0.0320519014604
0.0134958098209 -0.0307808364918 -0.0319495394622
0.0129926320348 -0.0290810000151 -0.035447180337
0.0172783760517 -0.0290810000151 -0.0329103525275
0.0100858444793 -0.0290810000151 -0.0331296322613
0.00669999979436 -0.0365572689885 -0.033503770031
0.0144353195338 -0.0359576164644 -0.0365654288117
0.0278324985887 -0.0300763805864 -0.0312984299898
0.0227651825108 -0.0313793033807 -0.0365796524379
0.0260653164216 -0.029256537247 -0.0352682511508
0.0215889372251 -0.0337372641328 -0.0347879525146
0.0172257467445 -0.0367138164676 -0.0340772005175
0.0163165182046 -0.0294525367181 -0.0364045980468
0.00669999979436 -0.0356424586823 -0.0365372759655
0.0104032769346 -0.0338719823117 -0.0368559993804
0.0139250131507 -0.0326451059463 -0.0368559993804
0.0169397082 -0.0332487661801 -0.0368559993804
0.0195279235674 -0.0308469259995 -0.0368559993804
0.0097684390528 -0.0385576378508 -0.0355574227434
0.00944648716277 -0.0402366881796 -0.0326429272127
0.00679054732303 -0.0390831366137 -0.0355962770227
0.0140309828933 -0.0382782936508 -0.0335373334668
0.0221055586292 -0.0309083621247 -0.0312729999423
0.0297079615136 -0.0327556722834 -0.0233636399998
0.0311398094492 -0.0330066702367 -0.0202879494019
0.00670599984005 -0.0427559416363 -0.0186197779889
0.00670599984005 -0.0382453492019 -0.0243729857854
0.00670599984005 -0.0461012888887 -0.0167204807782
0.0238277972249 -0.0290789995342 -0.0286265069552
0.010339560617 -0.0430673129501 -0.013964000158
0.0143368962978 -0.0409087601241 -0.013964000158
0.0191976658615 -0.0367767687399 -0.013964000158
0.0159202399258 -0.0366498159806 -0.0312729999423
0.00670599984005 -0.0386625355513 -0.0201117119995
0.0132647101097 -0.0353088309271 -0.0184993109072
0.0095447916124 -0.0391665388078 -0.0169105871585
0.0162329929355 -0.0343055096793 -0.0177804305889
0.0241940998539 -0.0322040572638 -0.0152879309855
0.019944870845 -0.0339536942345 -0.0160170394333
0.0301049330408 -0.0300540488632 -0.014001993677
0.00942786437321 -0.0361835112036 -0.0198328014508
0.014162844383 -0.0381319195522 -0.0152882101127
0.0219029347584 -0.0348072766276 -0.014091890205
0.00678902037488 -0.0451836343296 -0.020467243303
0.00924613709676 -0.0454938127143 -0.01869848181
0.00686923726747 -0.0440405917709 -0.0236592864476
0.0193146203301 -0.0356509794686 -0.0312729999423
0.0169339556324 -0.0308930499848 -0.025809156077
0.010953445569 -0.0334248665746 -0.0255707385183
0.0142950229142 -0.0323531368654 -0.0241259801143
0.0122445559431 -0.0342167049998 -0.021095744271
0.0156874215424 -0.0328333277257 -0.0211971554684
0.0184836595503 -0.0325027306171 -0.0190394641928
0.0243855306954 -0.0292790361325 -0.0216208970763
0.0278030977162 -0.0295869783009 -0.0169724146785
0.0205521508058 -0.0301904274868 -0.0232845790927
0.0222541090346 -0.0311304475554 -0.0187473482462
0.028714795691 -0.030804357524 -0.0283958068148
0.0070029946038 -0.0360009877023 -0.028266489689
0.008074378222 -0.0346938969966 -0.0251394263242
0.00997493470719 -0.0346742930705 -0.0287926839777
0.0166430256305 -0.0318725253117 -0.029957877412
0.0139031226051 -0.0340821560468 -0.0311513150864
0.00917738915701 -0.036647885526 -0.0312090155676
0.0167246584168 -0.0445996649057 -0.0148850103287
0.0196615199251 -0.0433190425446 -0.0147629180187
0.0127124622596 -0.0454592056708 -0.0170653347583
0.0169847537945 -0.0434971320042 -0.0181192733113
0.0157679606541 -0.0421084286327 -0.0228342741897
0.0182238152694 -0.0389544621294 -0.0273716165968
0.0152268215369 -0.0409053211732 -0.0263100361267
0.0186561459341 -0.0403706110337 -0.0235878398742
0.0212528723712 -0.0380676878879 -0.0258271801954
0.0231449334874 -0.0405383309969 -0.0175663345869
0.0215417823706 -0.0393138337011 -0.0225138983659
0.0201529947424 -0.0410505450691 -0.0201936516305
0.012064212598 -0.0413487164818 -0.0281512531864
0.0128574576274 -0.042430244789 -0.0246817773027
0.0114446740606 -0.0440848805959 -0.0215087043697
0.00717939249815 -0.0415362994116 -0.0305454589784
0.0100262933231 -0.0429106133465 -0.0253583748293
0.0127469980571 -0.0398139526767 -0.0311710699697
0.0251764366245 -0.0363682392487 -0.0236435336384
0.0264184248587 -0.0391094990005 -0.0156175798847
0.0274883901911 -0.0372822160476 -0.0179301027884
0.0256312067676 -0.0376255671333 -0.0201461639903
0.023513736299 -0.0357186713605 -0.0277144177667
0.0251740687322 -0.0331483276523 -0.0305513341674
0.0282454184041 -0.035105262797 -0.0214199674722
0.0259079733073 -0.0344813041462 -0.0265154041655
0.0330826464489 -0.0318619896494 -0.0181992988049
