-0.0197612095297 -0.00290908874242 0.00461086351264
-0.0146944260319 -0.0023707434656 0.00454047721817
-0.0221087109149 -0.00230759701417 0.00548380228662
-0.0176265170542 -0.00247257523422 0.00478830285972
-0.0190151709604 -0.00213495178325 0.00528672583376
-0.0211141024055 -0.00321951961808 0.00446504499301
-0.052131154283 -0.00564340796709 0.00350871008946
-0.0842011252197 -0.00729899715207 0.00363601773336
-0.0789452320545 -0.00707795995468 0.00350622108012
-0.036757724789 -0.00509215836828 0.00292268639914
-0.0420728288823 -0.00511312386736 0.00349267211249
-0.0625575334393 -0.00631747232924 0.00325594978473
-0.0688381138547 -0.00645888371678 0.00367684785393
-0.0534715755952 -0.00564295898704 0.00366487952367
-0.0674127351725 -0.00649075463128 0.00344278538023
-0.0818529579839 -0.00716421894454 0.00365605655621
-0.0248726346638 -0.00413044560493 0.00362956894534
-0.0449391650611 -0.00514970402346 0.00374531432792
-0.0354659967305 -0.00494008956807 0.00310249166311
-0.0226660803189 -0.00412177940337 0.00339285917141
-0.0494464666883 -0.0054894855099 0.0035312501863
-0.102464622201 0.00880071184649 -0.000491538486035
-0.102496079347 0.00840657568613 -0.00187526221133
-0.103880146926 0.00867994591619 0.00192530389641
-0.103697157921 0.00787700170426 -0.00139290762964
-0.103591877495 0.00839013550415 0.000278609387832
-0.101249356569 0.00905213829786 -0.00202393226868
-0.10530765722 0.00638975712151 0.000829294507739
-0.106201869346 0.00427016095677 -0.00207020800186
-0.104798195031 0.00683038126969 -0.00107195381352
-0.104736787459 0.00657888766561 -0.00271225864422
-0.105444287407 0.00564608748509 -0.00155857916596
-0.102976747256 0.00728321946707 -0.00388478534009
-0.100094645566 0.00920771010672 -0.00300909674121
-0.105835313458 0.00295333435963 -0.00304729553706
-0.105636341989 0.00175111335069 -0.00375083412036
-0.104855781132 0.00320746312838 -0.00426979786541
-0.10527964118 0.00508552222638 -0.00301903942632
-0.105298929097 0.000807073184704 -0.00454646026331
-0.104229255218 0.00497471943021 -0.00426802589412
-0.103042386181 0.00520145262803 -0.00516106356112
-0.103863065301 0.00627449367682 -0.00415173614332
-0.0186248338708 0.00753657538237 0.00575700969334
-0.0128679709994 0.00647939340116 0.00578153756749
-0.0160937910249 0.0075355446755 0.00545575018736
-0.0149817583239 0.0063064320069 0.00615008845148
-0.0107707264932 0.00681775821173 0.00530366920565
-0.0116837590122 0.00544145316991 0.00588222878629
-0.010042649948 0.00393328889205 0.0059327378122
-0.0102396978006 0.0053717036458 0.00564742738977
-0.00843846685014 0.00640345451064 0.00510608240942
-0.00845047618966 0.004843139414 0.00545470111539
-0.013657277142 0.00521678101871 0.00627418786659
-0.00677273568645 0.00402342800137 0.00505156433152
-0.00537278475382 0.00675309103916 0.00386575752979
-0.00202637929968 0.00772216546018 0.00226515711921
-0.00794650711731 0.00291685941468 0.00578325522418
-0.00509361302752 0.00473632984392 0.00419809484375
-0.00721608791193 0.00561017930282 0.00488269868107
-0.00325885277991 0.00676712751864 0.00298749590234
-0.00662822739526 0.00736074972524 0.004014629535
-0.0101745744147 0.00767923127251 0.00436074547209
-0.0178704635096 0.00943242817486 0.00371666809501
-0.00366464819794 0.00815298974454 0.00233504198521
-0.00511790803193 0.00829564940823 0.00246091764944
-0.020214080151 0.00950058604293 0.00413234806372
-0.0131274664745 0.00891275186422 0.00337688873795
-0.00884729149879 0.00752809450558 0.00427316271246
-0.0114066769139 0.00842193228083 0.00365070173151
-0.0100301204047 0.00854334944284 0.0031944565473
-0.0165404249807 0.00899119095227 0.00400958177206
-0.0143400091175 0.00899317046811 0.00353263574912
-0.00852941479909 0.00855345120201 0.00285767791055
-0.012861228765 0.0075029923307 0.0050659351819
-0.0178202229686 0.00823092973012 0.00509809720084
-0.014525891661 0.00816444393742 0.00463161878363
-0.0189601679972 0.00873476167344 0.00474638751697
-0.100055600625 -0.00638609130895 -0.00339626708781
-0.0973045779459 -0.00572502080743 -0.00473070384991
-0.0999015461217 -0.00544449621868 -0.00434654279921
-0.100852215745 -0.00457656464091 -0.00485280572648
-0.0987848027288 -0.00481915149011 -0.00516513390733
-0.101932376463 -0.00483583170918 -0.00435796304229
-0.103586158009 -0.00603045721751 -0.00199439490306
-0.104916953157 -0.00468505452586 -0.000931036816677
-0.104495795037 -0.00476091467466 -0.0024611928386
-0.104009878657 -0.00591611409436 -0.000584625557578
-0.104086297025 -0.00375175364595 -0.00375704319607
-0.101671956359 -0.006589198921 -0.00280025421747
-0.0998482550247 -0.00751053183788 -0.00178185406133
-0.0986570961271 -0.00752467364852 -0.00241796494654
-0.104131173126 -0.00616176352104 0.00097581424388
-0.10187309855 -0.00683210101855 -0.00113745991266
-0.102994038258 -0.00651400442266 7.52365203715e-05
-0.0979132208311 -0.0063141536805 0.00560083888976
-0.0954847077367 -0.00454801342012 0.00684199938266
-0.0912795235552 -0.00487926402108 0.00647415388279
-0.0607039315109 -0.00416413906893 0.00578267628468
-0.0563460750865 -0.00367362743604 0.00593082461433
-0.0863305165579 -0.00415218591123 0.00675034458514
-0.0578812736123 -0.00362448824691 0.00601953668299
-0.0942069673808 -0.00505207856958 0.00647411316849
-0.0715861456804 -0.00476762228135 0.00580723535973
-0.0853851054423 -0.0053986523658 0.00592357925411
-0.0379274030767 -0.00292376755062 0.00571684855932
-0.0789313839147 -0.00521180883358 0.00580041739001
-0.0811694237712 -0.00495349160529 0.00604826206282
-0.0825595330449 -0.00441724891103 0.00644078670098
-0.0877642932157 -0.00509306829246 0.00620672030264
-0.0837697642078 -0.00497345090782 0.00613301014826
-0.0349654423049 -0.00292295302422 0.00560639818004
-0.0630093696559 -0.00435401981818 0.0057484977758
-0.0273950511694 -0.0025890540374 0.00553476252343
-0.0676097067329 -0.00407848659152 0.00609577398063
-0.0436021336517 -0.00298258179555 0.00589210831765
-0.048088701744 -0.00342323759568 0.00578043412453
-0.0645148936853 -0.00437589264924 0.00579101459226
-0.0767565765796 -0.0047997897337 0.00598051922682
-0.0799879731769 -0.00445679511338 0.00631933849651
-0.0928938728773 -0.00489591634006 0.00652406210738
-0.0893619596544 -0.00492910033396 0.00637067421605
-0.0950750444871 -0.00643385034038 0.00544737943542
-0.0966057007797 -0.0067001092563 0.00514973247793
-0.032262066459 -0.00353337399514 0.00481531083066
-0.054181432468 -0.00456033963093 0.00504244431414
-0.0469926014901 -0.00403768479968 0.00517069909736
-0.0228467271796 -0.00311702319483 0.00469071695792
-0.0681362886009 -0.00519557085027 0.00520731915364
-0.0730329834055 -0.00530605716582 0.00538781079794
-0.0261457883913 -0.00386808857087 0.00407415100502
-0.0391614554706 -0.00354377227537 0.00522811066759
-0.048149748206 -0.00465592271717 0.00456736634793
-0.0617258795197 -0.00493999501329 0.00509205702417
-0.0558067992437 -0.00457274920448 0.00512882639363
-0.0286725201935 -0.00394025066373 0.00415075777642
-0.0302128177041 -0.00402333703149 0.00415480505712
-0.0513648480642 -0.00406283032993 0.00541205284108
-0.0360204919309 -0.00410992498781 0.00441737168752
-0.0312389013762 -0.00293300349036 0.00540738765574
-0.0592588414053 -0.004615372637 0.00529454246161
-0.039880809544 -0.00424274990655 0.00450978106802
-0.0247452808108 -0.00294298826451 0.0049972956952
-0.053009387908 -0.00414773594369 0.00542052376541
-0.0661289920345 -0.00467850968676 0.00564800929131
-0.0414242800407 -0.00389230634747 0.00498698453049
-0.0296314007922 -0.0032301325517 0.00498441156094
-0.0445586903233 -0.00388542498002 0.00518718144688
-0.0752333009302 -0.00533089005256 0.00549598504242
-0.0338957450111 -0.00344814569707 0.00500872228832
-0.0428961920669 -0.00437774760535 0.00454787717857
-0.0699962060973 -0.00491460624756 0.00562817804477
-0.0376700220906 -0.00398309055477 0.00465714800283
-0.057619474457 -0.00463069208354 0.00517704863369
-0.0916952960706 -0.00630314542109 0.00541198604972
-0.0594978229297 -0.00564063758282 0.00410627094653
-0.0662884262809 -0.00554555520292 0.00467129361187
-0.081411577161 -0.00633745415681 0.00469161124914
-0.0608244545924 -0.00582752294401 0.00396321519617
-0.0577748173752 -0.00559144208697 0.0040533486666
-0.0769771023574 -0.00588273004336 0.00496013668128
-0.0316146155582 -0.00432187781171 0.00389451579412
-0.0728065572718 -0.00632141112516 0.00414403094347
-0.089605677601 -0.00612516754814 0.00549374690076
-0.0774132769856 -0.00661015692557 0.00409160002667
-0.0937255079764 -0.00613257146092 0.00575625395035
-0.0865096883149 -0.00631452543295 0.00505603690124
-0.0563214714797 -0.00545974365546 0.00411997535805
-0.0802711125518 -0.00582095765143 0.00525352386129
-0.0462333503534 -0.00514045921178 0.00384866155549
-0.074143108439 -0.00601583900179 0.0046090854608
-0.0827204293259 -0.00591089290249 0.00530408197045
-0.0548825252806 -0.00537692749166 0.00412725422774
-0.088409181015 -0.00672974673167 0.00466909561295
-0.0950276884211 -0.0077887412589 0.00379919406382
-0.0647997475753 -0.00570336053459 0.00437848191989
-0.0939078746915 -0.00722901141098 0.00441579748521
-0.0385364820513 -0.00476932801867 0.00379896838472
-0.0866761562044 -0.00735317100366 0.00378582268243
-0.0511404614549 -0.00491601911029 0.00444906201346
-0.0707751764498 -0.005681452994 0.00479949363351
-0.0632224802396 -0.00551256637845 0.00450983365081
-0.0902005675567 -0.00689713728353 0.00458073059254
-0.0853621929122 -0.00670009859869 0.00450476482831
-0.0786178974752 -0.00616197614874 0.0047238663766
-0.0753491121895 -0.00659565287787 0.00397339090231
-0.0340427994374 0.0058374867985 0.00704524339846
-0.0286169590794 0.00667573252747 0.00649487503603
-0.0257339189815 0.00673157779454 0.00637897295105
-0.0172883528002 0.00642857307889 0.00625089956749
-0.0213693276278 0.00663920113669 0.00628368597673
-0.0195322118392 0.00648132430724 0.0062975034427
-0.0246830226452 0.0076923215185 0.00591056668262
-0.0274007808581 0.00705156924556 0.00628633948748
-0.0298756932649 0.00636344008509 0.00667595124302
-0.0316688760393 0.00623392314675 0.00679099252743
-0.0246596468749 0.00607475611388 0.00664287007777
-0.0230465637259 0.0068656915145 0.00623375072285
-0.040996488994 0.00453582952318 0.00772147021214
-0.049246909459 0.00552506950025 0.0073320718106
-0.0590367370947 0.00553507877269 0.00733731051804
-0.0671629263186 0.00542085186958 0.00739085941973
-0.0687049376722 0.0052253346338 0.00747082182
-0.0641683711109 0.00535457335198 0.00741463984919
-0.0475691060821 0.00475810993842 0.00763843534627
-0.051997321886 0.00470667419907 0.00766327535084
-0.0578244799926 0.00476060420181 0.00764713172376
-0.0424246891524 0.00467539212566 0.00766678350093
-0.0812612629567 0.00510089405354 0.00753266103136
-0.0388763975991 0.00561263029432 0.00728710758559
-0.0538389320518 0.00515011556137 0.00748696596727
-0.0558024907299 0.00510448685895 0.00750714365184
-0.0656019618646 0.00517198928982 0.00748930678601
-0.0463504466669 0.00515881631664 0.00747639103434
-0.0438015351091 0.00528990957795 0.00742134402909
-0.0270139080689 0.00579559416304 0.00683889855683
-0.0375210374577 0.00491008358647 0.00753135006918
-0.0323274647241 0.00512843200798 0.00727715189537
-0.018455526405 0.00585125295244 0.00654213437063
-0.0353831235311 0.00557792811471 0.00719464658223
-0.0878460132674 0.00554761519497 0.00733214687535
-0.0953587619059 0.00677276608698 0.00671986852565
-0.0791970339196 0.00604173440767 0.00708509093186
-0.0930658376191 0.00559869879115 0.00730666626609
-0.0797814340864 0.00710075101668 0.00655578065918
-0.0911807111427 0.00564956185861 0.00728122521477
-0.0568427693586 0.00576545951056 0.00722295589724
-0.0964385020395 0.00754125754307 0.00633577302366
-0.0520902717703 0.00585441335357 0.0071784478528
-0.0866222179215 0.00614747069531 0.00703231583142
-0.0923147525943 0.0065501874104 0.00683108718832
-0.0622051774949 0.00632959644197 0.00694104316147
-0.0812526538709 0.00624068665113 0.00698567136679
-0.0854992558751 0.00550323314586 0.00735430650321
-0.0839936375862 0.00591416178248 0.00714890179648
-0.0505458309398 0.00562723141902 0.00729198222375
-0.0715993694321 0.00558920125664 0.00731119980231
-0.0960200690252 0.00540973069575 0.00740114539771
-0.089045811783 0.00668452754422 0.006763908992
-0.07757306876 0.00661002807875 0.00680103109374
-0.0828051072144 0.00612434817131 0.00704383493123
-0.0908831420802 0.00755717839332 0.00632776023424
-0.0674434489382 0.00672024885507 0.00674583996147
-0.0877123112835 0.00732083702102 0.00644585648536
-0.0811705715023 0.00742112029024 0.00639566798825
-0.0973640163972 0.00573019156677 0.00724098649521
-0.0606618505936 0.00559396578948 0.00730870961528
-0.075899779922 0.00543417773914 0.00738872619537
-0.0755256445264 0.00678238914885 0.00671486147965
-0.0733976519106 0.00623741075561 0.00698723059349
-0.0940923886353 0.00685362884585 0.00667943922796
0.107294158638 0.0036211970219 -0.00048205359847
0.0699731100769 -0.00138354399171 -0.00881545622814
0.0755662793216 -0.00155435260062 -0.00879057462359
0.0781203338704 -0.00179300003219 -0.00320194433326
0.0843933845014 -0.00179300003219 -0.00338884375644
0.0873854822999 -0.00179300003219 -0.00514926540348
0.0795612716551 -0.00179300003219 -0.00562105680593
0.0932186831104 -0.00179300003219 -0.00134282894061
0.0947301637691 -0.00179300003219 -0.00183330912861
0.0721683562356 -0.00179300003219 -0.00723953605025
0.0858688769748 -0.00179300003219 -0.00566413602096
0.0873744584119 -0.00179300003219 -0.00364085848003
0.0816514435388 -0.00179300003219 -0.00459231038695
0.0846060627973 -0.00179300003219 -0.00609429741453
0.0767758478771 -0.00179300003219 -0.00382379129391
0.0822315603188 -0.00179300003219 -0.00718868429809
0.0717757345793 -0.00179300003219 -0.00498566800397
0.085026819558 -0.00179300003219 -0.00469183445815
0.0791480462973 -0.00179300003219 -0.00422877704798
0.0830368500183 -0.00179300003219 -0.0029741042443
0.076008005695 -0.00179300003219 -0.00582082996843
0.0711428790379 -0.00179300003219 -0.00629033802966
0.0837559933617 -0.00179300003219 -0.00459892504386
0.0961138903045 -0.00179300003219 -0.00181333500244
0.0734235994679 -0.00179300003219 -0.00547888518398
0.0742954915858 -0.00179300003219 -0.00454931368374
0.0874928756063 -0.00179300003219 -0.0016991756755
0.0783106858236 -0.00179300003219 -0.00816870800712
0.0796787749308 -0.00179300003219 -0.00707623394541
0.0805727784572 0.00423628574977 0.00191764737229
0.0657091265122 0.00723574638997 0.00201568972026
0.0631082785561 0.00684848509583 0.00198381903977
0.080489582979 0.00574844574678 0.00199857293217
0.0758882245455 0.00514702347654 0.00194668759173
0.0746119159549 0.00528548609724 0.00194870490036
0.063933980601 0.00494600917607 0.00188506996431
0.0653918559412 0.00547677480844 0.00191979570921
0.0824689481506 0.0049681997013 0.00196504794395
0.0669542945184 0.00552959058867 0.00192927592143
0.084322661444 0.00549316519536 0.00200114448856
0.0728356812378 0.00512662509602 0.00193261594832
0.073106960755 0.00643195303316 0.0020039309448
0.0774539547173 0.00532128520174 0.00196270956246
0.0605446499396 0.00410109556614 0.00182524874665
0.0880499473582 0.00518673707219 0.00200051715826
0.0618795215811 0.00521872245404 0.00189099567133
0.085243529099 0.00463199538197 0.00195877053815
0.0627813003429 0.00291383979789 0.00177094044974
0.0712444362641 0.0046737224821 0.00190150846666
0.0609756448088 0.00647877778857 0.00195488209682
0.0785666374805 0.00467114216342 0.00193249371841
0.0710572465474 0.00681307631951 0.0020157039007
0.069255595822 0.00352030968349 0.00183105825792
0.0660240510406 0.00332205019002 0.00180666564148
0.0693244945408 0.00684158284464 0.00200987085545
0.0620505820695 0.00397590039562 0.00182492061264
0.0686483264001 0.0057044123579 0.00194587335743
0.0735578914743 -0.00178012361282 0.000507389460979
0.0728177144602 -0.00179300003219 -0.00201656262154
0.0660307792249 -0.00179300003219 -0.0018628784875
0.0740306565645 -0.00179300003219 -0.00182473708601
0.0675852449119 -0.00179300003219 -0.00133716982868
0.0923617586521 -0.00179300003219 0.000431818569139
0.0710880063934 -0.00179300003219 -0.00386478579198
0.0801329994061 -0.00179300003219 -0.00052794412787
0.0783004959214 -0.00179300003219 -0.00179471581749
0.076528961356 -0.00179300003219 -0.00113145826213
0.083533464517 -0.00179300003219 -0.00160975476031
0.0605471251978 -0.00179300003219 -0.00213065734699
0.0633924420026 -0.00179300003219 -0.00497865544783
0.0664879672267 -0.00179300003219 -0.000421370383253
0.0694737266255 -0.00179300003219 -0.00214603314419
0.0867591574518 -0.00179300003219 -0.000410975882441
0.0881162617656 -0.00179300003219 -0.000507609696813
0.0674267843802 -0.00179300003219 -0.00272088397061
0.0593119310359 -0.00179300003219 -0.00130129610112
0.0707304966454 -0.00179300003219 -0.00259854195533
0.0688949954448 -0.00179300003219 -0.000802874270436
0.0750547974391 -0.00179300003219 -0.00301243708623
0.0646477849106 -0.00179300003219 -0.0027910000787
0.0855161872309 -0.00179300003219 -0.00101204630373
0.0631132927253 -0.00179300003219 -0.00168954329996
0.0749873090907 -0.00179300003219 -0.000421950232304
0.0625623715025 -0.00179300003219 -0.00367375296166
0.0802258299914 -0.00179300003219 -0.00189159854129
0.0668257825463 -0.00179300003219 -0.00443004187432
0.0936900827959 -0.00179300003219 8.95747805647e-05
0.0763892907011 -0.00179300003219 -0.00248556721221
0.0737816355495 -0.00179300003219 -0.00325410908863
0.0613051689264 -0.00179300003219 0.000201483194086
0.0761405138245 0.00173169802063 0.00158367996941
0.086825875224 0.00207235739292 0.00160884873401
0.0800729669403 0.00214713164315 0.00163319650312
0.0974529442384 0.00193428634135 0.00156770174576
0.0903875766882 0.00323697108172 0.00176310060974
0.0819479890356 0.00172431995185 0.00157064115907
0.0795894453749 0.00343574871526 0.00181302612772
0.0710392371972 0.00302131352435 0.00177320168684
0.100722624119 -0.000556348560167 0.0012152965479
0.0886626897841 0.000649333263495 0.00140756683197
0.0871254505779 0.000746887810936 0.00142428542174
0.07490761358 0.00138679724328 0.00153836668686
0.0979569277729 -0.000226745203829 0.00126675948972
0.0816496839968 0.00312839034252 0.00176610975873
0.0610351559272 0.002376908159 0.00170447075098
0.0751020911357 0.00364972072567 0.00185200408581
0.0647704208405 0.00266046666232 0.00173609412365
0.0948853362024 0.00269552342722 0.00167865532421
0.0915818662471 0.00411376636338 0.00188230802996
0.0721895548287 0.00248036379622 0.00169575092329
0.074459956687 0.00257365117143 0.00170399981753
0.0831767505231 0.00377188098695 0.00185225159365
0.0868954673387 0.00333176785473 0.00178348085823
0.101955312632 0.000625266813801 0.00137672627633
0.0901257675158 0.00446583331668 0.00193417899561
0.0954025726947 0.00122198932759 0.00147309387964
0.0775867295949 0.00146598942205 0.00154381392798
0.0884838250461 0.003791873454 0.00184404642408
0.0768825104664 0.00275869379718 0.00172466736718
0.0855662401647 0.00165332391864 0.00155330291405
0.0931473749826 0.001448081805 0.00150913582773
0.0843151345681 0.00216573550123 0.00162700178159
0.0941808686581 0.000487946978374 0.00137375387493
0.0730454040154 0.00342610468546 0.00182522653673
0.0958701973856 0.00367843339061 0.00181302220862
0.0900281119761 0.00168539741304 0.00154852291705
0.0960733067909 0.000165422388188 0.00132507995445
0.067633985991 0.00304967923027 0.00178418319119
0.0986568036214 0.00117548672234 0.00145990784802
0.0913163779095 0.000680014589834 0.00140633453205
0.100176608409 0.000677731472813 0.0013876870259
0.0930586648776 0.00430707624729 0.00190607952199
0.0921737423534 0.00255720513326 0.00166506998246
0.0583509989083 -0.000681967313572 -0.000137718105772
0.0583509989083 0.000934453239244 -0.000457730362158
0.0683169664047 0.00783057346953 -0.00301553114272
0.0768762411364 0.00750442580318 -0.00400652774443
0.0713764197928 0.00774062231275 -0.00332421152642
0.0816056901103 0.00791092703229 -0.00355059177733
0.0663535457964 0.00869983172615 -0.0014293951437
0.0696393795307 0.00767502887735 -0.00334849646716
0.0849276290203 0.0076749431295 -0.00412232916969
0.0648572304735 0.00839435647011 -0.00187615474643
0.0775790121936 0.00811227882457 -0.00300242450274
0.0834886752279 0.00773565846351 -0.0039456615025
0.0754473588682 0.00708006081339 -0.00466004817546
0.0755491867878 0.00808238100533 -0.00295083902521
0.0707717252347 0.00662706383613 -0.0051982335956
0.0722299700215 0.00686029608649 -0.00487311136733
0.0737964240843 0.00743381128352 -0.00397144737419
0.0730498811389 0.00792394097813 -0.00309535256229
0.070315020467 0.00853024214806 -0.00191993680843
0.079732408941 0.0080748298531 -0.00317545304148
0.0681717228239 0.0085605114651 -0.00175969938778
0.0787529052948 0.00766208090302 -0.00383184698512
0.0804091537627 0.00752781069548 -0.00414531899782
0.0902681921437 0.00648929918957 -0.00493441727744
0.102331812762 0.00670759078084 -0.00143508584285
0.0997870923028 0.00751025570671 -0.00102637165784
0.0962912499194 0.00691655968381 -0.00275720618779
0.0930437556587 0.00666950310735 -0.00395365831759
0.0914427809997 0.00680804037678 -0.0041917048302
0.104009436426 0.00670570950584 -0.000992015698744
0.0976903961467 0.00641232064338 -0.00306694449095
0.0993258628009 0.00689162205247 -0.00198484719871
0.100964162583 0.00641952060029 -0.00218763355171
0.101132894122 0.00727177211532 -0.000991162489991
0.0888163762787 0.00658082831478 -0.00518923693499
0.0939796867683 0.00724289551851 -0.00292827167564
0.0888251402459 0.00736248933747 -0.00408725525031
0.0948861844112 0.00775199369423 -0.00197860390915
0.0977981657168 0.00808749944075 -0.000673601018015
0.0886589356099 0.00816191366655 -0.0026201170533
0.0923319118425 0.0080676927965 -0.00199844875349
0.0909034844349 0.00811828682573 -0.00220537451423
0.0871025496678 0.00800351009458 -0.00337885018499
0.089783054166 0.00788240210419 -0.00305589278172
0.0740576502106 0.00840905545142 -0.00229747580729
0.0809291728079 0.00847599308277 -0.0022140843977
0.0939075520798 0.00294176750402 -0.00630169857854
0.0910618933575 0.00386992278707 -0.00650509293161
0.0923846538007 0.0039965665598 -0.00621808160144
0.0894769200297 0.00328092038932 -0.00699979527292
0.0658025254887 0.00263428677832 -0.00745326464137
0.0634740605882 0.00249032337633 -0.00636145191025
0.0645825642453 0.00329503771249 -0.00651326356663
0.0623230412907 0.00194574872056 -0.00605836539441
0.0617262475952 0.00332600244322 -0.00507019558147
0.0618253419519 0.00458364069048 -0.00449111838323
0.0920087514182 -0.00179300003219 -0.00475867128262
0.0906322483741 -0.00179300003219 -0.0047814960547
0.0831183785485 -0.00156291275178 -0.00815279087008
0.0878185008172 -0.00135839899133 -0.00716315509074
0.0891111650991 -0.00173734347662 -0.00674426400911
0.0982161531531 -0.00158779149796 -0.00329594517649
0.100521734017 -0.00159389378379 -0.00180525364061
0.0591913604568 0.00663228226099 0.00167405720143
0.0599981150376 0.00561396346032 0.00190340007769
0.0586438597887 0.00314656710362 0.00170778305111
0.0591048844299 0.00825469393293 -0.000111429798163
0.0584453707376 0.0076159589637 0.000867977977385
0.0583509989083 0.00460117705342 -0.000309569239125
0.0583509989083 0.00622303323169 0.000443071645228
0.0825926879064 0.00755245329485 0.00196014620202
0.0976007024443 0.00774864109339 0.00174500597398
0.0792519896324 0.00643281959562 0.00202344768634
0.0956627937278 0.00707308634934 0.00202304905039
0.0641596462164 0.00757386644004 0.00202390557115
0.0942053016547 0.00651359156505 0.00202305793344
0.082711454177 0.00627831871657 0.00202334837846
0.0743896285595 0.00722629163525 0.00202361767497
0.0896084188314 0.00726163541965 0.00202321852982
0.0913381348071 0.0059787394463 0.0020231052612
0.0811944520016 0.00684706563015 0.00202341836053
0.075846916288 0.00692876208948 0.00202356357697
0.0875517659229 0.00720812304535 0.00202326989839
0.0848115217149 0.00666527249933 0.00202331345975
0.0928122705002 0.00624757618646 0.00202308060322
0.0865498758738 0.00608897103776 0.00202323724652
0.0892506949579 0.00555198888077 0.00202313774733
0.0779485605752 0.00660167300109 0.0020234909407
0.0989360994993 0.00752742477171 0.00177053361258
0.0627238442774 0.00890287875352 -0.000532757180156
0.0640848932226 0.00892500020564 0.000315517309201
0.0671796243655 0.00892500020564 -0.000276171541895
0.0616872772917 0.00865753822056 0.00050191577295
0.0603488902447 0.00859942044363 -6.53112593459e-05
0.0609868824179 0.00781479863018 0.00193712235033
0.0597634622325 0.0078420093247 0.00133304043282
0.0583786928696 0.000986293097703 -0.00226159248262
0.0600339299623 7.45184652293e-05 -0.00469645927862
0.058799266135 0.0024876104982 -0.00260950321477
0.0590092517739 0.00382964264373 -0.00269064759074
0.0587021837473 0.00534627442724 -0.00202842162434
0.0589595465332 -0.000388390744097 -0.00328081937024
0.0591158332243 0.00106952410102 -0.00326948848333
0.0598838345136 0.00144883176844 -0.00427386722967
0.0614569536353 -0.000519807149615 -0.00602208241578
0.0599183508925 0.00398592236055 -0.00367399535254
0.061236169359 0.00178869851306 -0.00540979630847
0.0597622549245 0.00534072838698 -0.00305046457889
0.106872392309 0.00214355428059 0.000896841141809
0.107108157934 0.0022582802462 -0.000522682747641
0.104281197508 0.00113859585143 0.00137615912372
0.0997616928134 0.00238629202432 0.00160759107985
0.104825574745 0.00292261629741 0.00153261718663
0.0991866403285 0.00402306471435 0.00177788918936
0.0949682327462 0.00462520359087 0.00194030433764
0.105803749119 0.00178463435261 0.0013998152782
0.103572683338 0.00210551403197 0.00148594492215
0.101554841686 0.00335118731449 0.00165489590568
0.09767519818 0.00331929492987 0.00174845478729
0.101174088088 0.00468648989944 0.00175927589037
0.102849413549 0.00354353991173 0.00163526869062
0.0990154153787 0.00555371216251 0.00188113117634
0.0959503125589 0.00578381103655 0.00199143087304
0.0977850582544 0.00581616826152 0.00193606150576
0.0966775999876 0.00478183431125 0.00190591214766
0.100061315485 0.00657919096578 0.00190573543432
0.104254573568 0.00544630511896 0.00169145711144
0.105280521631 0.00455302033904 0.00160819396744
0.102244236005 0.00532519977688 0.00176094132781
0.103085354608 0.00631204038108 0.00177872530011
0.0641584432824 -0.00179300003219 -0.00720235024147
0.0708463199093 -0.00179300003219 -0.00789257533683
0.0674527439096 -0.00179300003219 -0.00686635102226
0.0936463034039 -0.000910674571045 -0.00593685978135
0.0951250981684 -0.0009153286906 -0.00534296520062
0.0974604568135 -0.00102901766319 -0.00423134888077
0.0997713941422 -0.00119765528903 -0.00301729434772
0.102079096296 0.000920740813983 -0.00315828753279
0.103280012186 0.00196475008442 -0.0028556450982
0.100346784535 0.000722911443358 -0.00402990496395
0.0957849710014 0.000299755178098 -0.00571240087985
0.0989219168936 0.000741042801007 -0.00460549921782
0.0974758421858 0.000718799798651 -0.00517612007141
0.102657203151 -0.00152250392783 -0.000229916349133
0.105425658893 -0.000661526185046 0.000421419009277
0.106346080492 0.000914979056901 1.77511078954e-05
0.104311785397 -0.00128454623017 0.000924611499641
0.105493422872 0.00117581842994 -0.00111093517499
0.10276737132 0.000238060035696 -0.00230945255998
0.104023074341 0.000356233599645 -0.0015258234134
0.104351466544 0.00142107216622 -0.00208386755891
0.104676782351 -0.000346838645422 -0.000553650943166
0.101448338118 -0.000628552583768 -0.00251126804624
0.102733728003 -0.000831298657022 -0.00147490472795
0.0775734013143 0.00682127136326 -0.00507864111231
0.0733735329278 0.0065273824624 -0.00537149662351
0.0709052461214 0.00580636157399 -0.00623302755084
0.0660164890246 0.00682271920129 -0.00415167704918
0.0624755898585 0.00814861801149 -0.00177307719039
0.0615215198127 0.00861763151731 -0.000988653605007
0.0643673190628 0.00739163681345 -0.00310628466364
0.0670708658445 0.00634663223679 -0.0049643293246
0.066891191826 0.00766897610584 -0.00319888108783
0.0695583975458 0.00606621109304 -0.00577900473481
0.0686905308731 0.00687770681228 -0.00455334003145
0.0781912456468 0.00591324339048 -0.00618813805037
0.0809958218568 0.00617544599792 -0.00590158420377
0.0767530924892 0.00607759819568 -0.00597866568584
0.0873982771308 0.00675376913523 -0.00527157415667
0.0752151863633 0.00593380919958 -0.00613580949302
0.0862980996985 0.00632397942476 -0.00577394267291
0.0823650577552 0.00609277660449 -0.0060129800754
0.0838540154255 0.00696850008437 -0.00498234187571
0.0799780430907 0.00675768971258 -0.00519758862522
0.100910600458 0.00790361031505 0.000123438145622
0.105141901409 0.00674340429838 -0.000444358401465
0.103434130622 0.0073703634729 0.000512517061843
0.10450421503 0.00675607107284 0.0013597025034
0.102095088985 0.00766785371677 0.00103389548997
0.0962476222895 0.00807286855891 0.00141423026191
0.0995839216478 0.00802698106161 0.000259129305455
0.0726160386485 0.00892500020564 -0.000133241314333
0.0750300810818 0.00892500020564 -0.00014616426161
0.0732668762708 0.00881185899265 -0.00121303367208
0.0823345469347 0.00848500121363 -0.00219248036352
0.0692316606977 0.00891940397163 -0.00089076943175
0.0847678355941 0.00840421056172 -0.00243457384207
0.0654945060252 0.00521853431487 -0.00577540470068
0.0621397289294 0.00633916738467 -0.00368830833309
0.0606473914526 0.00781308259539 -0.00174819516245
0.0614681159095 0.00702522651525 -0.00279159540192
0.0657813553556 0.00382418734959 -0.00679531645343
0.064157157214 0.00528278725713 -0.00522821972123
0.0600189811108 0.00674642581853 -0.0025039840724
0.0588511483323 0.0075258115024 -0.00152889597308
0.0670369059004 0.00264542021642 -0.0078600927377
0.0687644906133 0.00288706013813 -0.00798243064683
0.0675044937994 0.0038321279853 -0.00744841169644
0.070147733671 0.00361906944473 -0.00784041384342
0.0676849560705 0.00546080328136 -0.00607716787455
0.0629554275555 0.00725647995679 -0.00294188295306
0.0642664902785 0.00643140798349 -0.00416263659678
0.0684208740265 0.00466866203379 -0.00708698925094
0.0897379075804 -0.00040568817638 -0.00703146259896
0.0914063948457 -0.000387027416491 -0.00667796177279
0.0943799245755 0.000136040329668 -0.00617094391474
0.0861511536333 -0.000702241362076 -0.00772699866538
0.0909084854795 0.000839907320542 -0.007005281664
0.0835952456667 -0.00024684780041 -0.00822814382507
0.0891246616599 0.00182365199446 -0.00738932044423
0.0874689581868 7.65574397945e-05 -0.00756309037664
0.0941111590686 0.00139725005211 -0.00643930585841
0.092672444078 0.00157226647634 -0.00672381454475
0.090423992875 0.00219931565127 -0.00713121163033
0.0718445492545 0.000172896367606 -0.00898372842906
0.0755774654941 0.0016473107696 -0.00870330487423
0.07377501713 0.00103013607987 -0.00885766971984
0.0743527279531 0.0022633402944 -0.00854912220988
0.0725376850473 0.00249181563687 -0.00849189145295
0.0714474187762 0.00138080348816 -0.00870859668
0.0690652448791 0.00162563479416 -0.00836480504715
0.0734582807275 -0.00133285606658 -0.00892022382411
0.0769225162021 -0.00106954675107 -0.00891719821086
0.080892156269 -0.000569586290861 -0.00863895241364
0.0858596658372 0.0014038789303 -0.00791802789808
0.0823414800858 0.000906812473712 -0.00839501961348
0.0795331188078 -5.55426473008e-05 -0.00882136440759
0.0801636466191 0.000958414314782 -0.00864955516681
0.0744892246997 -0.000365512661342 -0.00898400042206
0.0760696493217 2.7457476487e-05 -0.00895808785867
0.0780273207202 0.000201648137194 -0.00889641768852
0.0819685782649 0.00316221748171 -0.00793361494827
0.0866513787484 0.00502968275914 -0.00660223345276
0.0847985100632 0.00409106886181 -0.0072430984823
0.0879681701876 0.0053406198504 -0.00635019661653
0.087640133838 0.00398178823316 -0.00699916853598
0.0844137682286 0.00266721830028 -0.00784338412061
0.0862714777175 0.00367248605358 -0.0072662805529
0.0891480810957 0.00469666833952 -0.00656777681763
0.0866802761219 0.00236030845458 -0.00770122341963
0.0811624829241 0.00211477485366 -0.00836944643437
0.0794092494948 0.00217077818882 -0.00853340439476
0.0776426260239 0.00232042296044 -0.00850591024337
0.0954460854228 0.00372078218651 -0.00573121452304
0.102235337701 0.00546451255531 -0.00266901162552
0.0995494106741 0.00491719735859 -0.00381876095208
0.0986382126277 0.0039595569371 -0.00461172541766
0.0964924968863 0.00454019957516 -0.00499896601008
0.0933888986486 0.00478911590761 -0.00569235429535
0.0950362190088 0.00551984339155 -0.00461447775321
0.0981641685406 0.00544439189009 -0.00385128581455
0.0965173110253 0.00572899764632 -0.004033768657
0.103397772054 0.00597045635501 -0.00199007111304
0.0918829386004 0.00569270536785 -0.00529714847027
0.100941336665 0.00549378552953 -0.00306943840245
0.0937006932631 0.00578153039905 -0.00473479990644
0.0743643995419 0.00847750842275 0.00130036681016
0.0913762416267 0.00797289366691 0.00160542713181
0.0673605486309 0.00791724731005 0.00184229567243
0.0883500194377 0.00809824941181 0.00152022671679
0.0843971188963 0.00807333859771 0.00157290507998
0.0786858627632 0.00833399400721 0.00139118338636
0.0775330164017 0.00778009345453 0.00188165842229
0.0724612822105 0.00818008315196 0.00157381374101
0.0701225232466 0.00790463874662 0.0018315752877
0.06650440942 0.00876616425856 0.000836564023853
0.0688277339751 0.00848944955648 0.00123001523434
0.0630074788808 0.00844142932609 0.00119355102917
0.0701394551762 0.00879306485191 0.00083832574518
0.0714562818383 0.00885789289235 0.000708446078506
0.0861013012558 0.00846324853641 0.00116546482197
0.0811185700132 0.00872426855417 0.000808354202314
0.0760623738559 0.00890418937559 0.000605203516076
0.0829961449156 0.00853345283633 0.00112851436646
0.0866518238433 -0.00166970702653 0.000874687411029
0.0978506350457 -0.00165067094604 0.000935281726981
0.0961919046803 -0.00151765250638 0.000990460188425
0.102115779686 -0.00112896315313 0.00109806359247
0.0702791907163 0.00162081681607 0.00158022136364
0.0679688600244 0.00182515818863 0.00161345557575
0.0934821444047 -0.000696407336462 0.00120887141611
0.0831359761378 9.1592511185e-05 0.00133968180581
0.099264423938 -0.000706859909633 0.00119672673109
0.0897047888511 -0.000938612395304 0.00118149421286
0.0909665523215 -0.000510879453661 0.001239816534
0.0732233308992 0.000770925452121 0.00145428469603
0.0879384978279 -0.00080384547212 0.00120386012179
0.0716952348921 0.00056244724651 0.00142754202168
0.0793865112135 -0.00055004360932 0.00125561711797
0.0819609832368 -0.000936448613092 0.00119608069381
0.0818288604315 0.000372495247471 0.00138192185142
0.0767801272678 0.000211293682309 0.0013683747165
0.0804847383363 0.00082841902462 0.00144904668776
0.0947440546255 -0.000768839477863 0.00119627415333
0.078685075343 0.000700603997755 0.00143424216458
0.0850507426319 -0.00107470200692 0.00117077993967
0.0706727038134 -0.00128778533819 0.00104233008624
0.0676461284283 -0.00103372227415 0.00114962699317
0.0662636375527 -0.000429895778751 0.00125121683138
0.0643464987452 -0.000759945535521 0.00119209526901
0.061996687199 -0.000938393162244 0.00115740829313
0.0662228719961 0.0012198751718 0.00152679376621
0.0606367044489 -0.000915791921576 0.00115836615857
0.0692758772465 0.000705555611861 0.00144718315484
0.0777485857445 -0.000894087156874 0.00119745754939
0.0697150864373 -0.000515628461486 0.00124404489418
0.0679643919542 0.000300577499544 0.00137679698867
0.0720995716451 -0.000737418990516 0.00121192764879
0.0651147918854 0.000311325261111 0.00137268698518
0.0747374911605 -0.000480122725164 0.00126038661046
0.0624381224836 0.000328636857547 0.00137003213996
0.0760048367911 -0.000896359267795 0.00119346394516
0.0602131396309 0.0013867223373 0.00154221708591
0.0595677362591 -0.000136901908654 0.00128629599605
0.0934217907527 0.00825601654461 -0.0011832852147
0.09143389727 0.00845714573881 0.000141656322842
0.0898675561807 0.00849556131424 0.000637812499878
0.0927096420305 0.00840192581806 0.00104989582616
0.0876363376019 0.00856466741166 0.000555791993703
0.0942348722392 0.00835608708692 0.00102912285611
0.0958278317645 0.00831678722738 -0.000275527598359
0.0970501233145 0.00820798612396 0.000410307018732
0.0767777824453 0.00888272002507 -0.00046330331747
0.0841419128084 0.0086752730921 5.61679539484e-05
0.0866028880576 0.00859789339903 -0.000465101583639
0.0778659565175 0.00885933012079 0.000240138578093
0.0888317949957 0.00853611585186 -0.000220686802969
0.0824021753017 0.00871894883329 -0.000526610884409
0.0788377150002 0.00878842956406 -0.00102742732809
0.0882483007082 0.00845242595295 -0.00131126485545
0.0903367738818 0.00843948356932 -0.000860463981981
0.0852733238169 0.00857258369532 -0.0011053422031
0.0863384895768 0.00843911996516 -0.00193310916308
0.0630648834819 0.000893529869988 -0.00682758686666
0.0632414397979 -0.000574339296136 -0.00687008981747
0.0651013017492 0.00128527517133 -0.00763453390288
0.065464392871 -0.000479070910442 -0.00786291033476
0.0690979121616 -0.000462770359859 -0.00865943901358
0.0671833825639 0.00072464936733 -0.00830187413258
0.0704085892427 0.000613057361762 -0.00875843881357
0.0723567282431 0.00379737299157 -0.0078030556903
0.0705303997533 0.00475769672842 -0.00714644154475
0.0722423492435 0.00518155705442 -0.0068542279513
0.0738550066626 0.00544386658878 -0.00663002763872
0.0796996516339 0.00564847721078 -0.00640915869133
0.0753498546927 0.00499434060677 -0.00697155071525
0.0774320811026 0.00506330655365 -0.00689597953097
0.0803527017206 0.00470361282191 -0.00707131639803
0.0775839105997 0.00393655486511 -0.00764585360722
0.0789733786436 0.00454973466 -0.0072183182012
0.0852716584522 0.00537838598936 -0.00647021873397
0.0820142233411 0.00483967257441 -0.00692430923726
0.0832803513334 0.00450220249942 -0.00708135789959
0.0804421893391 0.0032504650227 -0.00795418952339
0.0762358766901 0.0039023889167 -0.00771863351428
0.0745957977071 0.00413510858757 -0.00762718566857
0.105353047667 0.00436510080119 -0.00163909626659
0.105129254006 0.00266393472347 -0.00194719466996
0.101997962302 0.00292196528088 -0.00348308143422
0.100257651612 0.00292140274171 -0.00435330193342
0.104873626542 0.0057943544757 -0.00164291755283
0.100883944012 0.00408355510565 -0.00374583286839
0.102088189649 0.0042839522668 -0.00322524903342
0.0956698027122 0.00206832352528 -0.00601352536028
0.0979783391115 0.00240879499883 -0.00530144829819
0.0992520127946 0.00229698719564 -0.00486065878858
0.105604997532 0.00609839519658 0.00122474502533
0.106603705825 0.00593840864744 -7.66654156915e-05
0.107120610088 0.00423236536563 0.000728755283815
0.0519465679221 -0.00773072107916 0.000568199312818
0.0532615496823 -0.0074294814122 0.000233431538721
0.0573336191898 -0.00812624540321 0.000842645064893
0.0505527534511 -0.00737964624124 0.000245967443206
0.0469700613728 -0.0079391114005 -0.00238917266953
0.0521482106027 -0.00764047350021 -0.00257576111356
0.0425100451215 -0.0075590772145 -0.00208707030495
0.0447866582032 -0.00729800015688 -0.000163844438343
0.0491705028157 -0.00729800015688 -0.000380625675217
0.0418019280784 -0.00729800015688 -0.000769493522962
0.0538099980973 -0.00729800015688 -0.000873913405073
0.055982885782 -0.00729800015688 -0.00130497690661
0.0480634448663 -0.00729800015688 -0.00113726871193
0.0497774239744 -0.00808122605729 -0.00245091830973
0.0380257739837 -0.00816882053826 -0.00178366296208
0.0401227040228 -0.00806446390188 -0.00195157949005
0.0392158016895 -0.00772532353228 0.000546961645948
0.0416645822181 -0.00796262247899 0.000908025763375
0.0405236668354 -0.00752954646132 0.000371994310117
0.0429904279915 -0.00798348000149 0.000967781619833
0.0556695783044 -0.00849754605406 0.00125295081669
0.0483551067303 -0.00775863709769 0.000671455183857
0.0457110718878 -0.00831973312231 0.00124196274825
0.0497129941151 -0.0084162193378 0.00126997349306
0.0430402880322 -0.0100057131195 0.000274620356106
0.0407655755455 -0.0100662534723 0.000586240844368
0.0386812172837 -0.0100103812942 0.000498323201195
0.0400721405315 -0.00982966214565 0.00155585435924
0.0420964819992 -0.0101281224462 0.00141206249284
0.0447276050581 -0.00989806800454 0.00159296598837
0.0464617748046 -0.00986022098727 0.0016118895122
0.0433976220466 -0.00989626260154 0.00159386869059
0.055110709371 -0.00869558229446 -0.00178763181731
0.0543227120045 -0.00947342904129 -0.000640374979314
0.05318514724 -0.00894578138509 -0.00147259589073
0.0517857177771 -0.00930623221574 -0.000974355101524
0.0515065574704 -0.00858334428164 -0.00203724925099
0.0487898608443 -0.00870335442113 -0.00181112484741
0.0446816634267 -0.00871414174961 -0.00166817759667
0.0434481577599 -0.00853270243846 -0.00184056099444
0.0494035175619 -0.00945723010601 -0.000727351862844
0.0573073221564 -0.01006357326 0.000347514872853
0.0513730267681 -0.0099684729106 0.000159489445517
0.0485616104737 -0.00994957098996 0.000115360075413
0.055904855507 -0.0100961476514 0.000397693609725
0.0530148841843 -0.00978544506427 -0.000148285994382
0.0471938893597 -0.00972467609613 -0.000276836056226
0.0452870564598 -0.00997191547933 0.000140204047761
0.0440772463092 -0.00965061944806 -0.000417025159014
0.0411102916632 -0.00946332044295 -0.000630067156515
0.0425464554246 -0.00940200548153 -0.000755100479821
0.0396522852798 -0.00958376508137 -0.000431705148801
0.0571435413642 -0.00882628318696 -0.00139143415903
0.0583500005305 -0.00849716675036 -0.00147764497476
0.0562681161355 -0.00817875971758 -0.00225184445499
0.0512512499469 -0.00865063329495 0.00145627570659
0.0470691533447 -0.00869985622366 0.00151442606108
0.0484214848159 -0.00896268539971 0.00162243423075
0.0577550361346 -0.00919700182346 0.00160041517961
0.0537130749902 -0.00894623134094 0.00156060156839
0.0527955158578 -0.0101939998567 0.0012013069566
0.0549185390817 -0.0101364394036 0.00127935645248
0.051305964122 -0.0100499981357 0.00143586565156
0.0500211041699 -0.0101524345678 0.00135965691221
0.0562466919176 -0.00978272974431 0.00160352242357
0.0718752680088 -0.00613899994642 -0.000709898449406
0.0649793197058 -0.00613899994642 -0.000272711436335
0.0902272563637 -0.00613899994642 -0.000672694749683
0.0847935446863 -0.00613899994642 -0.000112737236496
0.0741133307943 -0.00613899994642 -0.000143513159198
0.0765915376018 -0.00613899994642 -0.00101799813001
0.0829928566879 -0.00613899994642 -6.3312933939e-05
0.0785926615733 -0.00613899994642 -0.00305622068028
0.0799823257329 -0.00613899994642 -0.0019387438142
0.0892656173381 -0.00613899994642 -0.00210686165162
0.0857646593554 -0.00613899994642 -0.00117379815396
0.0876393205636 -0.00613899994642 -0.00115814113147
0.0915407522385 -0.00613899994642 -0.000245064332334
0.0829851636308 -0.00613899994642 -0.00179302576019
0.0934128078662 -0.00613899994642 0.000801756672918
0.0777478780538 -0.00613899994642 -0.000333408251667
0.0846112389767 -0.00613899994642 -0.0017614473539
0.0866757835222 -0.00613899994642 -1.31728934703e-05
0.0627357497288 -0.00613899994642 -0.00080131254513
0.0784342370101 -0.00613899994642 -0.00467515896371
0.0691732731119 -0.00613899994642 -0.00552969487782
0.068856289984 -0.00613899994642 -0.00216849400237
0.0612501129882 -0.00613899994642 -0.00182393961782
0.0643444543779 -0.00613899994642 -0.0030163499198
0.0771795773252 -0.00613899994642 -0.00438498921858
0.0663327490725 -0.00613899994642 -0.0043645650925
0.0598580632961 -0.00613899994642 -0.000555838571782
0.069392835407 -0.00613899994642 -0.0038752348143
0.0707467781794 -0.00613899994642 -0.00308473366784
0.0677865864134 -0.00613899994642 -0.00452927518342
0.081248017209 -0.00613899994642 -0.00434329382942
0.0726409062464 -0.00613899994642 -0.00341503822883
0.0644142677432 -0.00179300003219 -0.00123388842209
0.0681144622902 -0.00179300003219 -0.00576722811177
0.0808045589916 -0.00179300003219 -0.0057822835112
0.0659930025051 -0.00179300003219 -0.00316210246257
0.0724875666971 -0.00179300003219 -0.00379615547107
0.0782606790328 -0.00179300003219 -0.00572990011089
0.0618416161281 -0.00179300003219 -0.00550582951058
0.0610015336249 -0.00179300003219 -0.00331915887796
0.0681896820755 -0.00179300003219 -0.0038920898413
0.0697498274516 -0.00179300003219 -0.00378418875833
0.061742131288 -0.00179300003219 -0.00133140534785
0.0691925382606 -0.00179300003219 -0.00506294341633
0.0828544860664 -0.00179300003219 -0.00558279751774
0.0652214620685 -0.00179300003219 -0.00527548430412
0.0815443063343 -0.00179300003219 -0.00326405894614
0.0983223977315 -0.00179300003219 -0.0011789120716
0.0784731001109 -0.00179300003219 -0.000303580087558
0.080198662122 -0.00179300003219 -0.00333603067095
0.0916734002363 -0.00179300003219 -0.0024708925825
0.0819405971515 -0.00179300003219 -0.00187643339032
0.0890609423627 -0.00179300003219 -0.00145327429551
0.071733750532 -0.00179300003219 -0.00114230243137
0.101013550797 -0.00179300003219 -4.08508929696e-06
0.0838571680277 -0.00179300003219 -0.000151943597735
0.0995252424886 -0.00179300003219 -0.000300071348087
0.0858119478955 -0.00179300003219 -0.0033840371131
0.0904648491901 -0.00179300003219 -0.00102940786886
0.0703311688006 -0.00179300003219 -0.00109820248493
0.0886314079888 -0.00179300003219 -0.00331061038503
0.0847135553124 -0.00179300003219 -0.00212140847341
0.0650509826385 -0.00179300003219 -0.000151750720055
0.0919075715931 -0.00179300003219 -0.000861304381294
0.0897875815677 -0.00179300003219 -0.00377929396959
0.0943628707889 -0.00179300003219 -0.00424994453546
0.096663044263 -0.00179300003219 -0.0032177114303
0.0948814972958 -0.00179300003219 -0.00052837510135
0.074504726767 -0.00179300003219 -0.00743907152972
0.0686076645867 -0.00179300003219 -0.00737866722413
0.0772856153791 -0.00179300003219 -0.0069474552624
0.069835374138 -0.00179300003219 -0.00659780434651
0.0677018902125 -0.00179300003219 -0.00834631450585
0.0922157173494 -0.00560331502565 0.00127143328759
0.085611772539 -0.00584932014571 0.00102239478567
0.0797448077766 -0.0057846807936 0.000887749273973
0.0814123695508 -0.00574193765269 0.000944708831058
0.0801822788426 -0.00613899994642 -0.00519140061207
0.0830493178131 -0.00613899994642 -0.00496181925697
0.0908308046324 -0.00179300003219 0.00025491824193
0.0812005606996 -0.00179300003219 0.000468641282189
0.0643042702193 -0.00585349187216 -0.00566158033689
0.0629828210931 -0.00528100525822 -0.00555485518312
0.06096559112 -0.00512830460718 -0.0048552194329
0.0648863924153 -0.00461294555558 -0.00681946342632
0.0657026528518 -0.0058143956098 -0.00625445151372
0.0672479238918 -0.00574478795061 -0.0066177472481
0.0763140218443 -0.00179300003219 -0.00775132241108
0.0845495345134 -0.00179300003219 -0.00748743543093
0.0816165582852 -0.00237892798326 -0.00828400384041
0.094433586144 -0.00566394832666 -0.000157973441684
0.0928904434033 -0.00577427382704 -0.00109537831003
0.0906508245258 -0.00591635473463 -0.00252063505332
0.0939551194807 -0.00466293383249 -0.00233268375883
0.0973797398332 -0.00393807311183 -0.00113945352343
0.0918909028749 -0.00571251201627 -0.00215629258272
0.0998587561788 -0.00362361752827 3.16666565743e-05
0.0964990982044 -0.00486665700655 -0.000361329700798
0.0866124792656 -0.00294046210659 -0.00698040974418
0.0879509576187 -0.00279929438299 -0.00665098149866
0.0769425037377 -0.00244527419888 -0.0087946822991
0.083041638123 -0.00351142536387 -0.00767410306714
0.0798337528335 -0.00257403867115 -0.0085219716251
0.0789439738982 -0.0037358134415 -0.00828319385636
0.074930652108 -0.00355491584239 -0.00856148890213
0.0766760489416 -0.00613899994642 -0.0063409664355
0.0906894228809 -0.00300597960084 -0.0056725212512
0.0874122459323 -0.00550981812863 -0.00491367581836
0.0864385309794 -0.00485613881289 -0.0057816761856
0.088188610474 -0.00398484977757 -0.00582247366386
0.0852650487605 -0.00417612644091 -0.00671434674178
0.0832516321768 -0.004679023467 -0.00704410795414
0.0895308877998 -0.00293314939821 -0.00611972469726
0.0790762441089 -0.00501115027175 -0.00751706033517
0.0812631971131 -0.00433127831472 -0.00758228969743
0.0836235742693 -0.0056874840475 -0.00605094662133
0.0850931921017 -0.00578645074234 -0.00549006453564
0.0817774875193 -0.00575191130793 -0.006489903888
0.0583520010114 -0.00301322447654 -0.000435273585228
0.0583520010114 -0.00421458855668 -0.00156062987152
0.0593899445982 -0.00187986129427 -0.00326314436962
0.0587297975728 -0.00613899994642 -0.00171287179305
