0.01594042623037742 -5.10549545512136e-05 0.0013682773693668687
0.009333899764730003 0.0021032273284539754 0.0018369380790064149
0.0052202077928913525 -0.003283887315591584 0.0012037834288643407
0.004501953638341463 -0.004633039428295073 0.0010433582099865504
0.008569315978130678 0.0010413946365383812 0.0017118641099669115
0.009582793819468598 0.004656882315298297 0.0021472013234547036
0.0128956368709271 0.004686661109815395 0.002070729687744438
0.011322072065312898 0.004620431487597685 0.0021101440492139268
0.014822222183809101 0.005622786386692454 0.0021167125154703246
0.014947923116640026 0.004283261156316961 0.001958616089619822
0.01596620007123176 0.0029724606471958617 0.0017638807991013144
0.01750172923918332 0.003068076073938342 0.0017248155219654598
0.012191841973946505 0.003635396978948333 0.0019702236662885665
0.01725765783487103 0.004631934473393301 0.001925021217853521
0.010889609940999445 0.003107095971596301 0.0019412481862589963
0.010067950926851773 -0.0008468073615602687 0.0014254189608720411
0.00815881847910451 -0.0024288390414850384 0.0012572659502313676
0.008738194804911179 -0.003860586306857149 0.0010492607050143908
0.007003101547408334 -0.004844298328842334 0.0009579622820939491
0.010472085308931098 -0.00381347830572387 0.0010136885946346592
0.00812258631576786 -0.0009379404973501278 0.0014601431578110508
0.000247902612058891 0.004836757377414725 0.0020941884051913326
0.0014415370473481281 0.0038580031357906136 0.0020116930355479155
0.0017506820807626688 -0.00030464526064037916 0.001516280156962519
0.0032812128153981057 -0.0019082129739647694 0.0013682318333915707
0.003053721948596264 -0.0006008867886474297 0.0015198677013334328
0.0018681426369153778 0.0012410365590473486 0.0017072802280248681
0.0025214187473232693 0.005443878083797392 0.0022367502393975613
0.0009560468517551131 0.00676418511940546 0.0021772750065512498
-0.0004793159163548139 0.006207135243881204 0.0020668332385388043
0.0014445412657754155 -0.0030653573583807113 0.001165182931866596
-9.658308552916125e-05 0.0015883044352278826 0.0016868003716453606
0.0027531997750817813 -0.004605476654149025 0.001023564121768872
0.0002698515207697146 2.506192745116648e-05 0.001505707415085748
-0.0010359999723732471 0.003515530849230848 0.0017813961000923233
0.0001379632607109015 -0.002748943866085482 0.001105512068660104
0.0008940712580737593 -0.0047780134794969805 0.00020310166521879928
0.04321568807813703 0.008086319104519771 0.0013131245603407453
0.03749600052833557 -0.0023699574393743917 -0.0011018761192871658
0.05835000053048134 -0.0007829025190077259 -0.001486120054658517
0.05425331156333889 -0.007296803514481367 -0.000822864814416648
0.052813877596597135 -0.007296734505668534 -0.0009119838253411755
0.05779747594498301 0.0011240971965943158 -0.0017419999931007626
0.05373391730552653 0.0005936641290717045 -0.0017419999931007624
0.05677104588340534 -0.00487716993229915 -0.0017419999931007624
0.04812456451065282 -0.0021774249130128744 -0.0017419999931007624
0.04275031508780711 -0.006203024710016182 -0.0017419999931007626
0.0505288475389148 -0.0018151352381908735 -0.0017419999931007624
0.05520843472329463 -0.0019142884685606912 -0.0017419999931007624
0.05024148437727551 -0.003980444294513163 -0.0017419999931007624
0.049485129992678276 -0.002985622081539268 -0.0017419999931007624
0.05206739429370885 -0.004585856254860665 -0.0017419999931007624
0.05413327008442528 -0.003599924999351551 -0.0017419999931007624
0.0569453486608361 6.009739926190723e-05 -0.0017419999931007624
0.04558022964237839 -0.003031006886658188 -0.0017419999931007626
0.05527914435440046 -0.005264696576880716 -0.0017419999931007624
0.056685094237282706 0.0017869464276873337 -0.0017419999931007624
0.05305804881411273 -0.00172503964999121 -0.0017419999931007624
0.046531502985277445 -0.00561164186052599 -0.0017419999931007626
0.052336033416161006 -0.00020331082807546546 -0.0017419999931007626
0.05000201652877246 -0.005506192007419633 -0.0017419999931007624
0.04800469675221103 -0.006559837732971998 -0.0017419999931007624
0.048594997990336106 -0.004027269464772901 -0.0017419999931007622
0.05434698234782891 -0.0009017323621824541 -0.0017419999931007624
0.05835000053048134 -0.003944429259520441 -0.0005933700184974852
0.040043798770747756 0.005324564037345369 0.0017350000562146306
0.0453220778192817 0.004123303332758689 0.0017350000562146306
0.04344945164048763 0.006197408406384756 0.0017350000562146304
0.03933708612611321 0.004193316534942905 0.0017350000562146308
0.043265550739402386 0.00446724899239731 0.0017350000562146306
0.049690621163402456 0.006174319239810408 0.0017350000562146306
0.04647084574796078 0.005273263414134329 0.0017350000562146306
0.03873195407506476 0.005302750607467973 0.0017350000562146304
0.049365506063620807 0.0046584827182759685 0.0017350000562146306
0.04173509184794848 0.005726473278800045 0.0017350000562146308
0.04172305937742628 0.004238334503703912 0.0017350000562146306
0.040887573657363896 0.0031312374779456954 0.0017350000562146306
0.05552467065300323 0.006083191124918026 0.0017350000562146304
0.05116709107238762 0.0056105694965237814 0.0017350000562146306
0.04783573825170753 0.005772106855643659 0.0017350000562146306
0.03749600052833557 0.004474543078309461 -9.650337060375792e-05
0.04026131667517659 -0.003000356730044505 -0.0017419999931007624
0.039827996032230015 -0.000752540019127077 -0.0017419999931007624
0.04216776012260075 -0.0032250146051219283 -0.0017419999931007624
0.04250666285569961 0.0026436770226805194 -0.0017419999931007624
0.038222907174409314 -0.006314103390388059 -0.0017419999931007624
0.041763571459272654 -0.0008823228270699258 -0.0017419999931007624
0.050832395820793755 0.0012799719137590432 -0.0017419999931007624
0.0536495730802787 0.0037319383666964308 -0.0017419999931007624
0.056395898676466445 0.003134724779989335 -0.0017419999931007624
0.05226831992781097 0.0036753152224958934 -0.0017419999931007624
0.04370732690242559 0.0017333302652924037 -0.0017419999931007624
0.05465819290411675 0.0021580463584795033 -0.0017419999931007624
0.052632083383153686 0.0023816622991040272 -0.0017419999931007626
0.047771313815709045 0.0024582923093112077 -0.0017419999931007624
0.04445398511005655 0.003034338476921963 -0.0017419999931007624
0.05065456922245933 -9.171735991988077e-05 -0.0017419999931007622
0.048363033206778774 -0.0005414805964628084 -0.0017419999931007624
0.04283073654165609 -0.004478071908591135 -0.0017419999931007626
0.046494369048359206 0.00034138432811901495 -0.0017419999931007624
0.043060751007759884 -0.001651554813807178 -0.0017419999931007624
0.04578331382721186 0.0029734777514774644 -0.0017419999931007624
0.038290063190484606 -0.004959945293756195 -0.0017419999931007622
0.044269331966582136 -0.002267694827923762 -0.0017419999931007624
0.04557532798061271 0.0016760135551923943 -0.0017419999931007624
0.04142735656620001 0.00361274048786621 -0.0017419999931007624
0.03749600052833557 0.006464917483594788 0.0005745591896153459
0.05835000053048134 -0.00048252949516253856 -0.00016298025764234855
0.05835000053048134 0.004522618916159824 3.463202101917288e-05
0.05835000053048134 0.005718507276668903 -0.000408848056742591
0.05835000053048134 0.0010215685382655964 -0.0003229067790185725
0.041624421654801874 0.008348247655685797 -0.0005779798900354431
0.04736676154709513 0.008547707201127021 -0.00037926472694033625
0.04583617384694423 0.00849686048510409 -0.00042991672786357445
0.05191323181609102 0.008283166230527482 -0.0006437215232206568
0.03850382819781474 0.008209836228647845 0.00038676338917740204
0.044140049912946094 0.00852294043839994 0.00039025126883291604
0.05662662660259155 0.008172882272464719 -0.0006004819636395411
0.05320005549476052 0.00837986951655631 -0.00020485359545603538
0.05807190880945226 0.008156652621578128 -0.0004136884964113986
0.049217618539410604 0.008492925896372632 -0.0003795219911514695
0.058136085747967706 0.006093485759221662 0.0015081320525706728
0.03783826756094355 -0.0026393306316114624 0.0008820977400510662
0.050882883594609865 -0.006161574892091905 0.0005500708184505268
0.04377364150908368 -0.005975277628727882 0.0005010933409805381
0.03949865682448446 -0.005652878408048378 0.0005129260963815702
0.042222514954889614 -0.0061200043813891426 0.00045402892547144263
0.045754689212708345 -0.006425687145094517 0.0004365393085722659
0.03749600052833557 -0.0010053312400284218 -0.0015335130712797217
0.03749600052833557 0.0014809647607904699 -0.001707661487264752
0.038264393300816955 -0.0033930112587174867 -0.0017419999931007622
0.038090812218159485 0.003121763810289923 -0.0016079096018667399
0.038084940838690025 0.006226506872253914 -0.0012802028386766804
0.03785952301927629 0.004437640877808001 -0.0014504693316580654
0.039250503947524766 0.004769984668985859 -0.001528208641924708
0.04650490576282281 0.0068951114653770205 0.0017350000562146306
0.03944712712703439 0.0066296095799812296 0.0017350000562146306
0.042106815847813166 0.007028797257313851 0.0017350000562146308
0.053809255005693966 0.006286626109861327 0.0017350000562146304
0.05235311219605842 0.006557367818056237 0.001735000056214631
0.04455169722647265 0.006802092720381805 0.0017350000562146306
0.04078764659184479 0.007949994711183518 0.0013563921833897846
0.05734885830182211 -0.004031375737145894 0.0007070548706026292
0.054453646193141025 -0.004801334059797867 0.0007003342111514059
0.05607274003513653 -0.00486967429044599 0.0006314442611093663
0.05609609580626205 -0.0035399178022662427 0.0008242195184500706
0.057402049726809456 -0.002674899287830268 0.0008946852300414371
0.05762110004684721 -0.0013518768216943182 0.0010446603493431698
0.039280865824568106 -0.007296056292942067 -0.000739654066984333
0.048749416360501945 -0.007296531249242725 -0.0007092955516563704
0.03801963825619191 -0.007227972557607731 -0.0007522424663353756
0.03831548103674785 -0.006319745662307584 0.00024395264896026386
0.040227434358418114 0.0056483818412592845 -0.001486009780058923
0.03918233421850426 0.006807351336474131 -0.0012596727897503971
0.0399981026135058 0.00832017012401716 -0.0006045413951015063
0.04478412682791405 0.008010414453061492 -0.0008341645947583913
0.043421670214742046 0.008165883349760135 -0.0007241095709969833
0.04776933168123594 0.007637179812859846 -0.001081050149396037
0.054223052766077265 0.007880466988605445 -0.0009596167533438068
0.04608563438392302 0.005399951202200224 -0.001623652546294001
0.04954565144533055 0.006789014074406789 -0.0013146167054905698
0.050876886950458375 0.007157992308693455 -0.0012325271894920542
0.04113169830168624 0.007025780762146581 -0.0012619413414851394
0.051465848897774905 0.005982153268370983 -0.0014941254322687262
0.04832448557714181 0.006311293667411268 -0.0014208989556311266
0.04400324784748348 0.006602093769415207 -0.0013562023491443705
0.05543198805622108 0.007345711771818026 -0.0011907637507862765
0.04633211767291509 0.007046629410025072 -0.0012573029773364315
0.04947605059495359 0.004175237291884607 -0.0017419999931007624
0.04694913575320693 0.0043809948426511746 -0.0017419999931007624
0.0543474833200308 0.006349157326318096 -0.00139862626718311
0.05460706549079963 0.004754330000464409 -0.0016401437930901818
0.0561720653628456 0.00444910867170128 -0.001662425373677054
0.05675936417033416 0.006726532096314085 -0.0013024016519027782
0.05092027136279431 0.004848552166733436 -0.001683880316451789
0.05318651659756109 0.0054347503828460885 -0.0015577957892394852
0.04164291486756667 0.005652809670315324 -0.0015150448446982696
0.05086437701755598 0.003974526264406471 0.0017350000562146306
0.05458976334456196 0.004698755219167548 0.0017350000562146306
0.047377908771818494 0.0037950114309296505 0.0017350000562146306
0.056668365568855995 0.005402512260812703 0.0017311506370562596
0.05616361834220106 0.004041111560277995 0.0016450254004320736
0.058092705230169746 0.0031279065610362385 0.0015175548911036353
0.05693447911165575 0.0027399129406851944 0.0015241874965307173
0.05153586445074243 0.0001779596490993725 0.0013480881255602474
0.049818792007100925 0.0023193240549163768 0.0015904024947046074
0.05191514049014803 0.00311256507716783 0.001653513468826246
0.04438157671037213 0.0025519794747574966 0.0016679430868181712
0.05488354464815233 0.00012927546508292712 0.0013103074342261309
0.04719053741244272 0.0020100950934831153 0.0015834643323181408
0.04833861408597924 0.0026184934446384462 0.0016363535958954924
0.05113971721683775 0.002038721858841022 0.0015479605296147597
0.05254569206068652 0.0018798650254226914 0.001517513393697852
0.05353159584047782 0.0026214718456053702 0.0015860163289557292
0.04555707525200578 0.001929315550049283 0.0015908875664714167
0.044287671989243674 0.001292812231908871 0.001536221177451476
0.04841812737983742 0.0007143348008410362 0.0014349982753517477
0.053983398952086106 0.0009816466436328097 0.0014088740769301407
0.04214283147900437 0.0027614420276776464 0.0017118435424858449
0.054690598914179114 0.0033657963791122337 0.0016373090527798135
0.057529325901926366 0.0013458260321113067 0.0013751664528054135
0.056869789105450194 -0.00020094262092428848 0.0012403712115541933
0.0555979319924476 0.002053084009124024 0.0014887684041028403
0.05231609221089131 -0.006356964364293213 0.0005018472682642947
0.056066208427961194 -0.00689809587965378 0.0002617953639407916
0.05747908546873297 -0.0070624296926255145 -5.400040225808586e-05
0.0547996665865067 -0.006059873814089799 0.0004909778275527883
0.05731586072437754 -0.005459520866658444 0.0004859992744076242
0.0410244004757475 -0.002126855282041708 0.001096026654471595
0.038872299960932645 -0.004157320580904951 0.0007512142941343671
0.0409182775850561 -0.0005718694422154932 0.0013279667613274246
0.0424798586593617 -0.001977976988810754 0.0011450737798746583
0.04028067593153295 -0.004056596081765816 0.0007921564245602795
0.03889108957452231 -0.0012813656650148676 0.001184127386325175
0.03996310924051079 0.00041517484591784503 0.0014589344646487755
0.03938944879903404 -0.002868704814663568 0.0009545042718924926
0.038696468019177956 0.0008789018860313803 0.001505486482595587
0.045302222477509445 -0.005024017550546387 0.0006850211998414958
0.04915278374388784 -0.005843122722986957 0.000589048906588536
0.04586821304659034 -0.0035892667836759356 0.0009269094171490823
0.040972256846890334 -0.0054246320025319325 0.0005753756681691288
0.04205373462763434 -0.004307217226311645 0.0007702293633684319
0.04334934070534484 -0.0033148197510645336 0.0009466648925003315
0.0444119295397573 -0.002530175150318318 0.0010865502668284024
0.046668757289905875 -0.005057673847314654 0.0006932726692172297
0.04751732887126536 -0.004071374497756251 0.0008641927096669612
0.04875946912438318 -0.004480126610911012 0.000809443776096096
0.05538543517933169 -0.0023438207768621882 0.001022315917567369
0.04934211911148988 -0.0022672396247428 0.0010843075298885198
0.05084349258418807 -0.0034805316420164307 0.0009203319210975929
0.05388948408816034 -0.0028938793040921354 0.0009668719202498445
0.052216106705205156 -0.0025993636695848497 0.0010180388717812084
0.04711795093046777 -0.002172875115072328 0.0011153559826082946
0.05034622028814351 -0.0049270754740847866 0.0007446892670223456
0.052525843368776956 -0.004193708592149308 0.000817002816582576
0.04282142234207509 0.000545385207877396 0.0014634044336269214
0.050096590564746406 -0.0010726276317510487 0.0012205473469538942
0.05173225435038948 -0.0012451968326966435 0.0011877911866436306
0.05386599415975358 -0.0013402762260763708 0.0011599171929835843
0.046629836064188135 0.00019968273721279262 0.0013935457310171112
0.04453285680563185 -0.0012485887399934484 0.0012448011130104836
0.045104872336430415 0.00011230195777914157 0.0013957204334215639
0.045924939341568535 -0.001126247982554203 0.0012476799359044412
0.038415747701681095 0.0023132566899239882 0.0017005055097145262
0.05451353060839917 0.007368573296470434 0.0017350000562146306
0.05085335264935149 0.007498950890659887 0.0017350000562146306
0.05718783948779934 0.007241100257647389 0.0017350000562146306
0.049500424920644694 0.007632824948631271 0.0017350000562146306
0.05304764817975559 0.007953091669729202 0.0015438366835686798
0.04187184466931817 0.008347548181509158 0.00072918178362082
0.05072959470224027 0.008423362104804452 0.00068873309344872
0.04624846269695691 0.008385553622234731 0.0010032176796876196
0.05625120561185612 0.008277360421483847 0.000847882805635159
0.047595009080684245 0.00827226516197618 0.0012267350087930855
0.07015844790504634 -0.006138999946415424 -0.0019197447866951738
0.08003271736428327 -0.006138999946415425 9.025248583231884e-05
0.06299332845590887 -0.006138999946415424 -0.0027537711445189805
0.07831273647094114 -0.006138999946415424 -0.0014769873785383221
0.07530796516680294 -0.006138999946415424 -0.0008300728740532939
0.06172879174924978 -0.006138999946415424 -0.002089106865399484
0.08294183725172682 -0.006138999946415424 -0.0007931548059939253
0.07421383731788185 -0.006138999946415424 -0.0019206761966539757
0.06720792327563194 -0.006138999946415424 -0.002883959194814196
0.07692587822852634 -0.006138999946415424 -0.0012842159843253812
0.06475719706333916 -0.006138999946415424 -0.0022451887749058855
0.06431277199662211 -0.006184954757441895 -0.0044505050733748275
0.0758366952129024 -0.006426645965967469 -0.006463981273598542
0.08065690405396775 -0.006299402285664396 -0.003979753033242163
0.07440694242440693 -0.006217240696031556 -0.003541272622987824
0.07051967232284587 -0.006275875349545939 -0.005145038735951698
0.07050309935820064 -0.006191157156156411 -0.003698925744863482
0.08062069942241339 -0.006212332354123093 -0.0024964612566357796
0.08185828748890539 -0.00619091413347721 -0.0019388336663253584
0.08415995247227837 -0.006266254348732863 -0.0028712232043379485
0.08174048877091647 -0.0062739907639509885 -0.0033776549179054738
0.07778622113371793 -0.006286864579882027 -0.004209273902355358
0.06787201712754647 -0.006214451931848192 -0.004504128578606955
0.08803337500571257 -0.006190517512414145 -0.0009771521901055405
0.08648957316520361 -0.006151670530051132 -0.000551600682795691
0.07193950381663608 -0.006266730291338528 -0.004769099809235698
0.06564644898370052 -0.006141243925165883 -0.0035964322584185206
0.06887333733573517 -0.006174613661076716 -0.0036680551268018237
0.0853478145087279 -0.006208771369789448 -0.001704580012685107
0.06653538446333863 -0.007411083245078247 -0.0048608751123022376
0.06466754145600392 -0.008011001771427863 0.0002479357254751645
0.07912090319850527 -0.007226262049393683 0.00022815986674887463
0.0714397655702014 -0.008075694816320329 0.00017100839363971054
0.06221726189818387 -0.00860320232001673 0.0001781140699505147
0.07939874403980397 -0.008334027014308285 -0.0005037384135802699
0.07278178249964332 -0.008925465190301757 -0.0010751702179786478
0.07532264975769451 -0.008684972601463056 -0.001050393579562835
0.07595715768927419 -0.008545277663074264 -0.002202390592378262
0.07699674005527002 -0.008528579507131956 -0.0010041219013839089
0.05962932666624559 -0.00940225960505625 -0.0007799660845822188
0.06458776531307131 -0.009370981423417928 -0.0003494968687386485
0.06437882051941446 -0.008130910661265964 -0.003582874605677957
0.061449664647391475 -0.00845224700013069 -0.0026594324541219542
0.06258320148238299 -0.008239954771326677 -0.0031279293292542656
0.08486572207365539 -0.0064279650459606675 -0.0047526382580358045
0.08878710986817268 -0.006307188635541572 -0.0021775795031153677
0.08570891249530531 -0.006317519655481116 -0.0032202977321041356
0.08295041273525615 -0.006450335726966775 -0.005307983185950046
0.0894518463246757 -0.006416381537397207 -0.0010793923450093884
0.06525189418636038 -0.006138999946415424 0.00015444521454423808
0.06042706885332485 -0.006138999946415424 2.0178872165181343e-05
0.06289666949118657 -0.00730753559695687 0.0002859999949578196
0.07440855047644974 -0.006669474325349713 0.0002859999949578196
0.06817770934355212 -0.006938993303532228 0.0002859999949578196
0.07580415926208812 -0.006864603259907761 0.0002859999949578196
0.06934698788637453 -0.006500794607961995 0.0002859999949578196
0.07801417430674881 -0.006406626086289358 0.0002859999949578196
0.059366698344729456 -0.00782247742788636 0.0002859999949578196
0.060803403836613076 -0.0073686412111682136 0.0002859999949578196
0.07226446945774688 -0.006975400453743743 0.0002859999949578196
0.0663266318898937 -0.007182635673136473 0.0002859999949578196
0.06492892088976024 -0.007265641202533287 -0.00469311818749135
0.06746106447332802 -0.006608596503761454 -0.005912168616533297
0.06283654415987742 -0.006310390590625587 -0.00432492545000601
0.06177944991353943 -0.007036276412152202 -0.00375376796485986
0.05855631342428359 -0.006723843250866283 -0.002137483639958377
0.058715338764270375 -0.008277719918711035 -0.001997123380595556
0.06043421606546538 -0.007607468764547105 -0.0029788068945759156
0.07711737122830373 -0.006760736959504771 -0.006118769316657158
0.07584838365917931 -0.007349155800655316 -0.005387699991169333
0.06928779291306578 -0.007335554636542659 -0.0054285434316287
0.06583779477298847 -0.008194606503895207 -0.0036795723787579194
0.07352396211113298 -0.007537060028800684 -0.00531381707840816
0.07033063559455066 -0.007735331325031428 -0.004817224231168612
0.06680986502661602 -0.008636762590273935 -0.0028078120586085458
0.0718290396920623 -0.007951663044132983 -0.004387904209233657
0.06778602526216576 -0.00813601491695836 -0.0039019261255556423
0.06938427477660619 -0.008233955756008937 -0.003728328775895896
0.06526452581442135 -0.008713214066080227 -0.0026092400581713324
0.08059424572274496 -0.006827564486192157 -0.0054060361938320905
0.08345032384963386 -0.007131295617191592 -0.004090976535933326
0.07737601677348604 -0.0076317098721271105 -0.004787183218877455
0.07869989105944444 -0.006880133558230041 -0.005779811597726784
0.07664439012574602 -0.008072215326268638 -0.003779086594930553
0.07836783391808516 -0.00784582185878735 -0.003975516430437125
0.07984580061041513 -0.00780455167314326 -0.003513610119558694
0.08258347052576534 -0.0075558655883125325 -0.0032469005954803916
0.08125184558451204 -0.007695053449383234 -0.003314319305895745
0.07257093280143576 -0.008585090360504952 -0.0027159219898691485
0.07381691897923207 -0.008472364029042766 -0.0030028784336718368
0.07396412789250145 -0.008771715284147694 -0.0016648503931744054
0.07524483980746471 -0.008217490262856116 -0.003610754255133513
0.06952581552402795 -0.008848971367537439 -0.0019661725438639304
0.06626002733956304 -0.009034136077954532 -0.0015689352425914877
0.061369489149886124 -0.00931617241866604 -0.0009543006275798206
0.07062777389274176 -0.008616224744699235 -0.0028087015712630584
0.06278012698531228 -0.009288338223194546 -0.0009089003147535456
0.06749240362214184 -0.009005612800533259 -0.001546775492495508
0.08538243240664628 -0.00742787006812227 -0.0022404539980730082
0.08339433371186569 -0.007851142441426368 -0.0007588693510777704
0.08422466929565217 -0.00763288960390923 -0.0017648239452746665
0.08250867531882938 -0.007819186182290001 -0.0019460768278350559
0.07852116689058078 -0.008242745237461564 -0.0024470305440951797
0.08051384018961714 -0.008064520700446116 -0.0019112094962884657
0.08165380636640898 -0.008057548327645951 -0.0007937777528560146
0.08492679997440666 -0.0076264893875921105 -0.0004930285898930045
0.0863631670484075 -0.007391371404087151 -0.0009284580167197008
0.009870124997560384 -0.00914466255653338 0.0005067804824927591
0.007334721606818447 -0.009040150229809422 0.0007250448742672904
0.011116397632005589 -0.0064280000515282145 0.0005394842431251086
0.005980508556802393 -0.006428000051528215 0.000575329662543478
0.012382273667158734 -0.006956332744598318 0.00030094502644560433
0.011525092640789773 -0.00834094584912793 0.0004084823942201874
0.0024887787471643426 -0.008578337392967376 -0.00021826525737486907
0.0029630732313746114 -0.00742669139881621 0.000650175708406838
0.0059313299812218 -0.008524536450497862 0.000784689871942919
0.00823760837234358 -0.007800669370352436 0.0006980061414261279
0.006969428629190489 -0.007402923823285682 0.0007229153086725678
0.00454787505077667 -0.008867442500522238 0.00083407706651687
0.002411698000302958 -0.009982016863561986 0.00020826304090775983
0.01142067137228859 -0.01021035832844703 0.0001789779473816785
0.006091601811113945 -0.009912501595987295 -0.0011538223896894683
0.01089559295613016 -0.010028289724199217 -0.001037900939857826
0.008233344369434388 -0.009455551292863167 -0.0016112988378984454
0.012031532024241148 -0.009131492334242498 -0.0012154252375462928
0.005586962535247694 -0.010392470209939662 0.00011898342813348444
0.007211995815801913 -0.010251052388096286 -0.0005871306901632962
0.008679750241630506 -0.010268650950354122 -0.0004992592103879581
0.004251191103290831 -0.01045325941105071 0.00044165724257649896
0.003021258019292387 -0.007420550900596954 -0.0009882048018198713
0.004261945697427946 -0.008980611163309312 -0.0012581674711496585
0.007166671107282027 -0.008852195232343589 -0.0016205421514235623
0.0052237425821348975 -0.008115833750680418 -0.0013966484505516107
0.003517575084808027 -0.009902940255938096 -0.0008319402424874005
0.009506262103403999 -0.007703815693725295 -0.0013861910559909893
0.006379466716725174 -0.007484642480367799 -0.0014087442434842995
0.007713572977758172 -0.007354056646109148 -0.0013251786630106331
0.012177971583020935 -0.007583829336149777 -0.001071189666718422
0.010975246448834557 -0.007744113309906497 -0.0013008054284830172
0.016539505154268858 -0.00655413553102568 0.0002859999949578196
0.015828119887431574 -0.007771897186759977 0.0002859999949578196
0.018128899231106176 -0.008956914035689673 0.0002859999949578196
0.01897818987214133 -0.007032576573788593 0.0002859999949578196
0.01402186539909689 -0.007140295083916866 0.0002859999949578196
0.017458977748323536 -0.007578087385837564 0.0002859999949578196
0.014485957157397459 -0.008352951776543842 0.00022950362422536973
0.01605588663046064 -0.009032208563737534 0.00027921725359805044
0.014081846616024093 -0.009960168798399146 8.682371616463613e-05
0.01631219668745318 -0.008296334358239994 -0.0011620000004768372
0.018834183584980888 -0.009101144784951522 -0.0011620000004768372
0.015458862306207802 -0.010152030861714597 -6.920953068759086e-05
0.012836389305406957 -0.010182772483994887 -0.0007780867673376035
0.017695423996725447 -0.0075791736718498 -0.0011620000004768372
0.013785071184855276 -0.008350810489360986 -0.0011320794669491124
0.014957956206767849 -0.007778999560921955 -0.001156960800559403
0.013989811264145443 -0.006890135180427862 -0.001009290269026627
0.018037655132641214 -0.010127542027512036 -0.0003973071962852734
0.016913069939171344 -0.009691102499379682 -0.0009752360122606833
0.01811140794260329 -0.006428000051528215 -0.0009684419711205817
0.02016896067929334 0.004854891725666908 -0.001010351288577699
0.020813033925024992 -0.004378691387426355 -0.0013784622891909726
0.02025349548855603 0.00021827621795080546 -0.0011878396823990242
0.021336731820381215 0.0020515746172734793 -0.0011520536125833078
0.021285973681157765 -0.0006362062650509238 -0.0012518685733220287
0.020125730818656803 0.0031446485302463467 -0.0010735271488578092
0.019241999834775925 0.0074570176538196215 0.0006746044141548011
0.019241999834775925 0.0045395898884461735 0.0005906046632910759
0.019241999834775925 0.003166823361578364 0.0001452391777648692
0.019241999834775925 0.006200489301014512 0.0002565395257629823
0.02652787368216577 -0.006428000051528215 -0.0007496477387421926
0.027643000707030296 0.005882748261082275 -0.0007031624110582541
0.027643000707030296 0.003235475845707994 0.0003727259808703
0.024565039972245316 -0.0053087285438391685 -0.0012849484397149248
0.02282354456869593 -0.005928814407766755 -0.0013878571528258565
0.026146687098371355 -0.001020829194211692 -0.0011178608888077464
0.026202695434427194 0.0004971568263137435 -0.001084940263956093
0.024835991657084854 -0.0010674643302706654 -0.001187009659741119
0.02559797022705531 0.0029420681750733932 -0.0010680914675508155
0.02402864919202514 -0.002168136554655839 -0.0012507914385481511
0.022753195267795186 -0.004548330518645548 -0.00136423187676297
0.02745473530401196 -0.001165858346208133 -0.0010526384360607763
0.0268520221294766 -0.0024513263182780326 -0.0011094211910318962
0.027396279838056932 0.004507458314015856 -0.0009435400550021874
0.026175714272586623 -0.005139406720701005 -0.001197759486677209
0.022932250108241257 -0.0031383844115214004 -0.0013270417507752926
0.02652386741841871 0.0019462428859912929 -0.001039578712810026
0.025454219278854724 -0.003014787524575681 -0.001193320059295366
0.024644617561011432 0.00018467458989339857 -0.00117222113221803
0.0276430007070303 0.0046277490163043064 0.0006045886140476009
0.02139475239280207 -0.0012510135155699325 0.0011824013923911643
0.020972813444648943 0.004142588867095481 0.001820545901881472
0.02196051367503394 0.0023549443163520005 0.0016481820515749988
0.021663581301234434 0.0005038433209589824 0.0014087756584411973
0.02070748652487709 -0.002328730616727652 0.001019271166217873
0.023566042029948754 -0.0010178405478767191 0.0011960878792017528
0.022267296346615697 -0.0027255025533118975 0.0009824379758953566
0.023018130248452735 0.000986571135543806 0.001510299329189737
0.024099120350778207 0.00012925614854433407 0.0013499910642975111
0.025962432993988482 -0.0006227460279455709 0.0011813635927529205
0.022069454850670193 -0.004039378238981937 0.0007935244387255913
0.025393080416952735 -0.001738421141109009 0.0010332334917148656
0.02675320217025356 0.0008590621910742841 0.0013189521900531607
0.025409448064136794 0.0007271648993565977 0.0013942889723250432
0.02595952436677144 0.002101299818419179 0.0015072819006597092
0.0210607080353981 0.008475931125968544 0.00048772299275707837
0.023971906693915995 0.008424315011541696 0.0007616985213140435
0.022504617927879333 0.008406971307170653 0.0007693403917657495
0.022528896082692634 0.006405658028060106 0.0019275378078574034
0.025049200438751466 0.006305289000858971 0.0018343222723413708
0.025908151682881922 0.007647497681739602 0.001749572003584009
0.02717894302600759 0.0038488352052025426 0.0015748955123984162
0.024498322446560222 0.0026411817270749027 0.0016608058237904057
0.021641153402344633 0.005181369459958991 0.0019310312829263108
0.026940535857490525 0.005941708726968173 0.0017453581666674696
0.024969197834013683 0.004093269358422558 0.0017385587611855303
0.023385794479759907 0.00458601365732557 0.0018289235962038052
0.022471443753955118 0.003735992530028325 0.0018261249185138064
0.026306137909544707 0.007951822036428966 -0.0005859467225131546
0.02506702224544559 0.007852405008530405 -0.0006806968415275726
0.02325434238328515 0.00791131174290301 -0.0006829986168553325
0.02752684667207667 0.008351484376544614 -0.00015065445557891407
0.025512393390404165 0.0084639348435967 0.0004463578973569694
0.02756322043858947 -0.00018470821416494295 0.001056671564113221
0.024305609685688685 -0.005656164410975138 0.00044436903084784046
0.02554506683978285 -0.005192950729809693 0.00046767376598739053
0.02533611521401489 -0.003783487573468413 0.0007046962307377699
0.0229412232265589 -0.005438089203595397 0.0005366319003772819
0.026315650828830146 -0.0029391594743471356 0.0008005804179553443
0.027034863080229767 -0.005497953414581425 0.0003560968568809689
0.021014926604943234 0.008037229342562052 0.0017341077408909642
0.023838643338231363 0.007558000327607889 0.0017810807094278134
0.020192401615285342 0.0067715246743385495 0.0018984071031884014
0.020092888212580366 -2.807212341044145e-05 0.0012648670086165834
0.019886172124516502 0.0024202435442525864 0.0015494775423453015
0.020308132601127845 0.005529187514148768 0.0019569224922338984
0.01983859727821798 -0.004177384375930668 0.0006898614516342017
0.02023284479031572 -0.0055718944164712915 0.000579046451051254
0.019275265711254538 0.001080404697247226 0.0012984415450469652
0.01999916645124504 -0.001096193443025326 -0.0011856120517932155
0.021540604682579272 -0.0031953582549797584 -0.0013530879139653517
0.02077684389746493 -0.005707078819300636 -0.0014273837211788163
0.02192912623590185 0.007121628779350787 -0.0009000059636139663
0.021585262142047167 0.0038431887452054815 -0.001066959688726645
0.020517494392291957 0.0070335069864871915 -0.0009069414801211209
0.024287158169180742 0.006569773150093244 -0.0009238919785004478
0.022589113691503196 0.005783076198418036 -0.0009667743059929937
0.02298219413007025 0.00439694143515562 -0.0010364229462121624
0.023496038752734302 0.0010054561114278412 -0.0011705044092736516
0.023659027077781287 0.0028018707969431635 -0.0011015857868898046
0.024879703956300375 0.0017565010067602407 -0.0011231296902203195
0.02626303041579036 0.006058125533473945 -0.0009440886435857141
0.022496267051731234 -0.0017814088999390317 -0.0012879597881151053
0.025046738179724647 0.0046749665596820455 -0.0010125434020929911
0.0224919359066217 -0.00016853197893079014 -0.0012282083287774585
0.030027335936566965 0.007326665909628774 0.0017789365002112449
0.031459730443532105 0.00739283841829082 0.0017749296511205244
0.02792186747723701 0.0003379719222832054 -0.0009276120315962221
0.0276649396307814 -0.003894316672004023 -0.000876191003384952
0.03749199956655502 0.0004954642867648702 -0.0005250038148997293
0.03749199956655502 0.000962090565586508 0.0008614346338594235
0.03749199956655502 -0.001229240497970216 -6.706581926969443e-05
0.03749199956655502 0.0034653669311923057 0.0009752207941028189
0.03749199956655502 0.002286331612902301 0.0004372077927285819
0.03749199956655502 -0.0036469839103082735 -0.000626030993417085
0.030946827318538223 -0.006428000051528215 -0.0003257792540788044
0.03448555923370701 -0.0063349715979423874 -0.0001964833594486104
0.032652225886115174 -0.006398452761055381 -0.0002079310897748618
0.027643999084830284 0.00668370436456861 0.0002574361450262932
0.029678726564240542 0.004342682025941638 0.001926509744600249
0.03187480973737614 0.001809838539173159 0.0018005768375718508
0.0335150525692485 0.003312033614983105 0.0019354211445686358
0.03529033891500659 0.002450959203945019 0.001913637313374999
0.03208543685944277 0.0031954641679028083 0.0018983348504070076
0.027696124397517757 -0.0030718696548574726 0.0007276243424745958
0.027643999084830284 -0.0016694669157936413 0.0003335682558653375
0.02783199798680041 0.007006671736264439 0.001717714866408264
0.03126120752326228 -0.0018478740625814502 0.001226835738752131
0.029607000136979186 -0.004946500099993782 0.0005908679903376188
0.028937462966280317 -0.003851819714153313 0.0007387457610046866
0.02941997149456424 0.0016826718537276894 0.0015722450921454487
0.028540462441594836 -0.0009404950840483862 0.0011624238123825923
0.029907685659612653 -0.0010137639001574646 0.0012756388981468069
0.029348735071730865 0.002949530076242554 0.0017257421512744163
0.029821266589387267 0.0004439549201570882 0.0014518626866315697
0.030810510950518705 0.0028962312975632934 0.0018499465012709053
0.03240211806630009 0.00045673812353309433 0.0016846417316195156
0.02806300542108569 0.0048633836939743665 0.0018521084574932923
0.027978642685912436 0.0015681298674269529 0.0014286906509317179
0.031319155752752126 -0.0003659158440452886 0.0014838222034534519
0.03730287353303101 0.007676377373147111 0.0010660210586074643
0.03749199956655503 0.00524658720894184 0.0011017736067613514
0.03057797907922353 0.007644978862502428 -0.0007291558699421088
0.02913032307917664 0.00806246478532387 -0.0004782162864189651
0.02941997147724811 0.004033062303295292 -0.0010699438693114703
0.029180109610943437 -0.0016483232258893477 -0.0011142843058207933
0.029015989515998805 0.0014864532576531837 -0.0010629009966085482
0.029783041280602777 0.0026686628754910083 -0.0011187876475626994
0.0283185610817654 0.0031358537676073597 -0.0009803821170794287
0.02917047448074914 -0.004455122031526358 -0.0011460744536327572
0.03582139968043992 -0.0061622375868097224 0.000301276344198418
0.037438316718192026 -0.0011585071690703515 0.0012085538749764936
0.037239011717741896 -0.0039967523355150985 0.0007559294609091644
0.03332160905425149 -0.005346510078769273 0.000566985095913192
0.03647362380069821 -0.0050884305682009166 0.0006637770873077456
0.0351062374420545 -0.005018081284907625 0.0006582295730566184
0.030878336058553325 -0.0053757153673355505 0.0005261077957644221
0.03406120412612115 -0.0033301183927968592 0.0009806557690659845
0.031538961216374985 -0.004240803267330859 0.0007624437187203623
0.03282759459404591 -0.0037724999263802263 0.0008745350997375247
0.03275527808266898 -0.0015242609963417519 0.0013229068337960626
0.03451073252699298 0.0015335584209176152 0.00183347960983752
0.03574519141094475 -0.0034829216601422503 0.0009625265677984456
0.036631623796626864 9.882461974463491e-05 0.001514090410188159
0.03683393587066696 0.0028064039489962378 0.001949638531876723
0.035093510875134015 -0.001265840896373318 0.0013516712664072214
0.03633453962426329 -0.0023176371336539074 0.0011300054935107248
0.0338096558448823 0.0002490964110073617 0.0016509179894430661
0.036778059726367635 0.006941700591992871 -0.0011383027555330544
0.028815883183191976 0.006905161866543971 -0.0009298052890546498
0.03022730571255755 0.005779756654025705 -0.0010707818117307725
0.031556860947413404 0.006355896774913879 -0.0010552550393318567
0.0332494731221526 0.006350297121353491 -0.0011024839213791993
0.03294819573925539 0.005008588569205861 -0.0011944354519553058
0.0368716317170899 0.005212583244169975 -0.0012485867644797825
0.035439311620231596 0.006222021413700787 -0.0011695723048175371
0.03433884637940346 0.003816428176027793 -0.0012827438014444506
0.03519844738284778 0.004954974420021511 -0.0012348190340022679
0.036433320958855236 0.0029852976628401934 -0.001363032990586089
0.03335010537137838 0.005055664058063269 0.0020240000449121
0.03451544212626598 0.004634640322302928 0.0020240000449121
0.030877107633385362 0.005524736571397485 0.0020240000449121
0.02913158168305495 0.006176341084533024 0.0020240000449121
0.03253313332589976 0.00619180215905938 0.001988731416867836
0.0360569614138651 0.004113798977484028 0.0020235822375542297
0.03667742949889708 0.006048487664801658 0.0018218387876984792
0.035389242772615466 0.0059950396216667135 0.0018825694451980563
0.034301402871475574 0.006734452138581372 0.0018629632772908745
0.036246887880307756 0.008110792013063436 0.0003969592533621648
0.030868967308875263 0.008345999754965305 0.0003699701772954978
0.03480633167593952 0.008091348528308465 -0.0004050898601934222
0.032777264463041085 0.008283197814710782 -0.00015206630208261285
0.03478116350964845 -0.003821207467558149 -0.0012806207181413616
0.036311155937097786 -0.002820680130608553 -0.0013261491853779781
0.036979022376594436 -0.005596822312856321 -0.001199822303821693
0.03500196908811119 -0.0024335538600513493 -0.0013437651615483374
0.03167869423267413 -0.005494926194053217 -0.0012044590328096378
0.034149701149223444 -0.00494859198619311 -0.0012293196819535552
0.03547256738562276 -0.005667967458455991 -0.0011965848816035713
0.03242074537401557 -0.00399213658233328 -0.0012728426791868742
0.03295861733687509 -0.005562814834253628 -0.0012013697961471735
0.03338554126816415 -0.00120574706765057 -0.0013120571573463327
0.030667506513710845 0.00019305434872598837 -0.0011920616867962539
0.032788635147822064 0.001571274504012848 -0.0012725938739342093
0.03107592350064832 -0.0015812881771100989 -0.0012183957801831335
0.030977110347185387 0.003239333341185697 -0.0011887129890006684
0.029728911558321 -0.0029927839662979294 -0.0011701009919766426
0.03485881374986675 -0.0012125761145864557 -0.0013731103440733955
0.031262930962009404 0.001970553508490658 -0.001207285852509306
0.032799358002309875 -2.0500654028378242e-05 -0.0012814879370545563
0.030674340144683003 -0.0042746695367947615 -0.0012160616982226802
0.03147470745142625 -0.003101575938125643 -0.0012429822583607556
0.03494750395650636 0.0009364890052290308 -0.0013653751807970467
0.036132711355019484 -0.0005842675780743979 -0.001422534597988105
0.0322533891040599 -0.0020253563934544143 -0.0012695189448007624
0.032231383054209965 0.003707132974045282 -0.0012371956499785393
0.03510456338319261 0.0027684713381451957 -0.001352477428953202
0.03339209080502245 0.002896849529885378 -0.0012889799918816669
0.03485607024491348 0.007916043421984714 0.0013304400511325015
0.029222517051731386 0.008262741294239952 0.0012371090170555646
0.03316764071957253 0.007456620241068953 0.0017025858881541695
0.03911488908970166 -0.00029671693653255424 -0.002943353747294133
0.038599692759942794 0.0007099008780404387 -0.002459124873104312
0.04506813639753969 6.987153547915624e-05 -0.0017419999931007624
0.04553129656181769 -0.001661845301569178 -0.0017419999931007624
0.04317880950965273 -0.0004227424638980129 -0.0017419999931007624
0.041944412737755336 0.0012971538073775996 -0.0017419999931007626
0.04410667190604746 -0.00436481206846997 -0.0017419999931007622
0.04704233407531358 -0.0010623785418881382 -0.0017419999931007624
0.0475676259462792 -0.001492651740617401 -0.003149873224574841
0.04758825791001751 -0.00022900720929018627 -0.002956447554142328
0.04747344900842905 -0.003203060429161817 -0.002257897342582783
0.04597262989960467 -0.007296999916434288 -0.002062566147474249
0.04240918332896801 -0.005094047417082102 -0.003061817286603026
0.0410878242631235 -0.006836487985868687 -0.0022597497703542757
0.04145675802747663 -0.0035404499782837055 -0.003680295916886676
0.04402868568139108 -0.005382920118834424 -0.0030122592456649547
0.04733550371755726 -0.00483677919162376 -0.0025676191338764223
0.04061703162919035 0.002548908314698241 -0.0017419999931007624
0.04040031239117166 0.0011618770553471092 -0.0017419999931007622
0.046716856735178246 0.00018034250469263429 -0.003952997637358334
0.045562894153970926 -0.0045602768106807285 -0.0032350584983229244
0.04329777291817103 -0.002014693742906655 -0.004153806254629221
0.04377083631482116 -0.003183797540660508 -0.00376563669605357
0.04555359802778985 -0.0029108879122107766 -0.0036316498473438906
0.04534436952521426 -0.0014187665519514877 -0.004031976893667038
0.046691605087305035 -0.0038603289159576024 -0.0031498069992606883
0.04653879791944983 -0.002073957560040936 -0.0036070022875560152
0.04201696680592346 -0.00013784331347295776 -0.004324497670449814
0.04410523783281564 -0.0006749918800556558 -0.004315045727176379
0.042491607847553306 0.0030463368067807912 -0.003015868359529538
0.04183603072746507 0.001819887552129572 -0.0036242941643104916
0.04326409407255613 0.0016716495973605606 -0.003923050126545165
0.04545159400582377 0.0015217306049533582 -0.004069314588474665
0.044251248008225344 0.002486948494550718 -0.003689269400811178
0.04019108479242614 -0.003667085233950519 -0.0030736911394427064
0.040960266009198235 -0.0047266926356447445 -0.0031202048019776415
0.040249843048497255 -0.005980288224536685 -0.002376006832831877
0.03920401552576312 -0.0018483687879522219 -0.003101141858414454
0.04151152389286878 -0.004659589501113828 -0.0017419999931007624
0.04467569174619314 -0.006572161975802154 -0.0017419999931007622
0.03876644877416417 -0.0016392954185669502 -0.0017419999931007624
0.03920931395193646 0.0018246588195836941 -0.0018804642797340533
0.04761969525978507 0.002192219911342705 -0.0033530278527887664
0.046258648089585255 0.0025931011744522153 -0.0035982142808575084
0.04493229665457656 0.0035801820564781784 -0.003010593070195174
0.04275649391180114 0.0041757325264473455 -0.0018275397789781491
0.04429322551355562 0.004362747342187302 -0.0020227012399990627
0.04037518533219037 -0.0009614798820743707 -0.0037985450703578137
0.041232937772172844 -0.0018820378634246007 -0.004035027194668269
0.03977222627022604 0.0012141529105746051 -0.002954293120360942
0.059918515357870974 -0.00979252061870663 0.0012127319075782147
0.0734449884160517 -0.009163948085446684 0.0014663484218469048
0.06885976249049242 -0.009653656507284194 0.000634541754202695
0.06569689510003571 -0.009941507363486623 0.0013632446571031395
0.07430230056247367 -0.00894031135912305 0.0002859999949578196
0.07048445409826629 -0.009409274644842229 0.0002859999949578196
0.05866173041093249 -0.010185291202519613 0.0006035467551871484
0.06122256469872174 -0.010134199520879298 0.0009245393631853551
0.06340982508357873 -0.010039878076903182 0.0009727252699233126
0.07216658349531385 -0.009248917042164616 0.0003109824088714264
0.07597725128422342 -0.007877161084053686 0.0011470397033817084
0.07342564983035609 -0.007827269869842264 0.0010288279835433225
0.06731125849448749 -0.007862375770595568 0.0009179255971216605
0.060793668031027294 -0.008570058045423996 0.001328202043240502
0.07018999494470841 -0.00775802701212203 0.0002859999949578196
0.06955206340280085 -0.009312436618791366 0.0017320236255053453
0.07220221817403209 -0.008505158642951201 0.0014230899879498656
0.0672965195061431 -0.009513430067154703 0.0016643011077183715
0.06501500777955695 -0.00873531753770483 0.0015849001386876234
0.06852164110039029 -0.008437192753610415 0.0014355802638995486
0.06324834181767931 -0.008861366421762412 0.0016480334349144189
0.06690562550435271 -0.009588988911570017 0.0002859999949578196
0.08301752323915301 -0.008212687815576823 0.0005203082064768597
0.08752971404869793 -0.007506200479568244 0.0002859999949578196
0.08896594926200771 -0.006905576768543852 0.0002983534902854853
0.08979473997917818 -0.006540881215944034 0.001539530437771853
0.08848271028015792 -0.007210020147633967 0.0016598150597086372
0.08155629352893523 -0.0077854405481697486 0.0015389127270244718
0.09130910880504571 -0.006671274675052144 0.0010480233399014053
0.08696508541317477 -0.007779589533939866 0.0014418095423495072
0.0770140286151157 -0.008735889005135104 0.0013248414594785414
0.08553822675609907 -0.007850036370293075 0.0016134986013024422
0.08418178041130854 -0.008039528543845048 0.0015694664830783254
0.07874103120727323 -0.008063551926084874 0.0014915451419495703
0.08190510895207218 -0.007196217148097362 0.0002859999949578196
0.080052538409134 -0.007590778962037836 0.0014087679967622125
0.08325799666884878 -0.007067593799738197 0.0013857291260807856
0.05114837352606204 -0.007095798460002225 -0.002491889790119134
0.053895121075465666 -0.006384502717874847 -0.0017419999931007624
0.05680108287846933 -0.006115739598741978 -0.0017419999931007624
0.056401782034545885 -0.0032754565275214557 -0.0017419999931007624
0.05835000053048134 -0.003783921854380793 -0.0024676624948158105
0.05595340853932971 -0.007296999916434288 -0.002497500408932968
0.05633497965297962 -0.0032131738653457228 -0.0036235134949019797
0.056062811314771165 -0.004592700414560056 -0.003610581182797756
0.052344937399968865 -0.005716220372671555 -0.0029152963808609417
0.054725607947472346 -0.004785940623697006 -0.0033547991459190523
0.055129054975471284 -0.0029433967491809894 -0.003383655346941734
0.053562635345470545 -0.004079350329037647 -0.0031086593898873574
0.04933769535534713 -0.0071470866158094525 -0.0023670457137436023
0.052511444387717696 -0.002932033075024772 -0.0026469093559604614
0.05103872491364977 -0.005228187101753456 -0.0025751100574494534
0.05796406703839782 -0.004413285766216355 -0.0037690000608563423
0.05388803913388293 -0.005993566104609301 -0.0030964378734773
0.05601453927036541 -0.0007466144985708789 -0.0017419999931007626
0.048990435059279 0.0007086154850890362 -0.0017419999931007624
0.053113320464336415 -0.0005011652608592826 -0.0036260957224216067
0.05036178673783816 -7.792337758231874e-06 -0.0037334388019707853
0.049192721869950315 0.0012901545615502795 -0.0037272811621088422
0.051236548951178976 0.0029857045117275315 -0.0018861144160189894
0.04872087504563791 0.002986745463063672 -0.003030114363064404
0.05650814927573739 -0.0020830000285059214 -0.0023830779707190775
0.051698291407344346 0.0005984051327305653 -0.0035507081153613425
0.05716207189372031 -0.0007215779090540674 -0.0028957335370602333
0.05494221015504391 -0.0002517211591292499 -0.003267708060301542
0.05016028525495996 0.002513220063254298 -0.002900379680662476
0.05167755451629415 0.0018418921673344414 -0.002884361342259056
0.05297527553129579 0.0015199182663236384 -0.0026903752296453293
0.055345244468636555 0.0007183216317573305 -0.0024887846878660237
