0.0850494631229 0.0193769316334 -0.00168787102368
0.0777101647206 0.019376565354 -0.00191787335258
0.0693554109997 0.0193761303421 -0.00527986954318
0.0699491208385 0.0193761493219 -0.00692164841797
0.0749988068423 0.0193764097199 -0.00528788715469
0.0766656771812 0.0193765233611 -0.000385331253375
0.0811996974808 0.0193767331534 -0.00270310832067
0.0725149403995 0.0193763083814 -0.00187607633621
0.07139470295 0.0193762418772 -0.00361542582779
0.0688336895944 0.0193761262519 -0.00185321366354
0.0794291058457 0.0193766471197 -0.00244528750244
0.0756136692646 0.0193764560615 -0.00278248063292
0.0738524879824 0.0193763681684 -0.00289114268434
0.0829258815762 0.0236785058445 -0.00262465310068
0.065270202547 0.0193760003895 -0.00643134095347
0.0620694767418 0.0193760003895 -0.00409736007708
0.0706676937775 0.0263472778957 -0.000121585787883
0.0726224206762 0.0263355218337 -0.000505242080071
0.0661786840439 0.0263111280477 0.000793108021378
0.0627439785227 0.026780831993 0.000361120612147
0.0679008575657 0.0269140057767 -0.000480982903928
0.0643388612505 0.0267025939835 0.000313023622925
0.0709477911182 0.0272743621237 -0.00189554566171
0.0726277306494 0.0268622726611 -0.00196307996527
0.0826443183384 0.0232924380723 -0.00443935433936
0.0792623174176 0.0237254774433 -0.0057454219894
0.0777322160753 0.0206997698441 -0.00762921313068
0.0689142699853 0.0273620001972 -0.0037243714973
0.0608719145517 0.0222204980913 0.00221071228327
0.0709620890467 0.0225708169978 0.00234592651099
0.0752703402837 0.0221378209438 0.0021925831007
0.065039907916 0.02233949261 0.00257219484284
0.067316633919 0.0235070892086 0.00246500533143
0.0634776081592 0.0232883241059 0.00261297147752
0.0621824794419 0.0241160344211 0.00264600431816
0.061038030841 0.0253486128831 -0.0061443399487
0.0633344226419 0.0270250929404 -0.00445676947161
0.0782853232362 0.0249233140105 -0.000378047137767
0.0824047898301 0.0230822509038 0.000927570758082
0.0840578117566 0.0230372746297 -5.98903076129e-05
0.0815801116124 0.024173995452 -0.00140493488917
0.0759217426951 0.0258754952507 -0.00112080465463
0.0796566574597 0.0248443462603 -0.000942792884621
0.0777758903368 0.0255439224753 -0.0026042563487
0.0742294734702 0.0264574512364 -0.00220166365371
0.0723674284735 0.0195903125896 -0.0085409479878
0.0759532945582 0.0201179103793 -0.00813189223777
0.0683433188964 0.0218398066834 -0.00868262569829
0.0650875684131 0.0204281700925 -0.0085528834218
0.062013803442 0.0221303322857 -0.00780168132857
0.0605227364841 0.0218383705258 -0.00723865756932
0.0661167847556 0.0220977761971 -0.00850719114249
0.0640728967724 0.0219157412725 -0.00832954868617
0.073659445246 0.0214947004044 -0.00841256593083
0.0724813227166 0.0227431836042 -0.00822149933167
0.0719275645678 0.0213200211414 -0.00863477717398
0.0699249215886 0.0224757074535 -0.00848795007831
0.0703273846352 0.020916711775 -0.00886262457682
0.074632121581 0.0197008873487 0.0019353467847
0.0824628627586 0.0197705194841 0.00156414361466
0.086067329382 0.0195129900797 0.000373359652881
0.0807680684234 0.0194377111295 0.000594381926025
0.0769610691824 0.0194853417144 0.00135184552998
0.0840485956585 0.0196205262096 0.00125932129944
0.0851861091304 0.0227796198106 -0.00281362935519
0.0856728251672 0.0220005312416 -0.0013085193916
0.0855374664586 0.0220099254641 0.000450579619811
0.0725077468875 0.0200557455754 0.00215445735164
0.0668427042047 0.0197619880464 0.00221482887764
0.0621271011133 0.0207663994818 0.00233278921519
0.0657191866079 0.02075227501 0.00240451496146
0.063584953729 0.021126365038 0.0024982561381
0.0790565811343 0.0203391081071 0.00201656465474
0.074015217077 0.0212719457123 0.00224305111487
0.0692943923134 0.0218079821228 0.00242044104781
0.0702169129032 0.0203671491311 0.0022484184433
0.0769679061948 0.0208526435324 0.00212346163919
0.0675694742465 0.021208929236 0.00240353455425
0.0766456248915 0.0239312405644 -0.00660966312777
0.0758387033797 0.0217022237909 -0.00810803525874
0.0784593194634 0.0219836716093 -0.00717707302592
0.0720078731836 0.0260929356548 -0.00561430034834
0.073990288329 0.023026493993 -0.00783337711308
0.0652664350753 0.0244207369686 0.00241915467802
0.0706512117944 0.0245431401434 0.00182471712209
0.074321913869 0.0239029120244 0.00175201933615
0.0688610809986 0.0243117800054 0.00210994399939
0.0738784730989 0.0254972744556 0.000257065989507
0.0791337851907 0.0240166395089 0.000675574250744
0.0806719209573 0.0233148427296 0.00113038547997
0.0772388027143 0.0242902205077 0.000846924867514
0.0692711402432 0.0257753726975 0.000944061484798
0.0717997678835 0.025154586779 0.00119752484775
0.0675982016318 0.0252765296648 0.0017254487606
0.0647232197744 0.0254215651759 -0.00674774199111
0.0628702623645 0.0255418261879 -0.00651948630907
0.0622309544204 0.0236446267471 -0.0074609952457
0.0640503779315 0.0237579556237 -0.0077344750017
0.0689266916071 0.0241507291903 -0.0078401738377
0.0704351908645 0.0240985127478 -0.00788736302498
0.0670613214748 0.024184034124 -0.00780007411722
0.0805448375437 0.0239399691751 -0.00486873774307
0.0782063785297 0.024748237789 -0.00504406239479
0.0757597194412 0.0259798383328 -0.00370816103283
0.079637841574 0.0247783583348 -0.00371312279545
0.074248846701 0.0257722908467 -0.00527919476681
0.0766602249214 0.0250050529787 -0.00551881228417
0.0709514272809 0.0270091588845 -0.0042838069621
0.0732234968251 0.0265564607323 -0.00405033028623
0.0839732018519 0.0215641186524 -0.00475744854618
0.0813770707285 0.0220222389333 -0.00597335952145
0.084026930824 0.0198170232816 -0.00512196465648
0.082278164906 0.0201639471284 -0.0058432232705
0.0807614871836 0.0207900117092 -0.00646001910262
0.0864970534124 0.0201889361733 -0.00261358056148
0.085781641287 0.0213321152268 -0.00377220435431
0.0603629983962 0.0249820619187 0.000559759299958
0.0616417394051 0.0255748950713 0.00185967779506
0.0633327965045 0.0255102320357 0.00196505669471
0.0657868201291 0.0272816017982 -0.00133987608525
0.0659349187516 0.0273620001972 -0.003196165968
0.0644015598604 0.0273620001972 -0.00242284795018
0.0690847209443 0.0273620001972 -0.00179540075191
0.0625187382372 0.0272796370996 -0.0020164680224
0.0618967675942 0.0269747001047 -0.00404350837223
0.0662028541853 0.0259096635345 -0.00634840143077
0.0677375173882 0.0254304206019 -0.00688404126499
0.0653686476889 0.0270524136039 -0.00485193319162
0.0689690141028 0.026256016982 -0.00609112291989
0.0734984030949 0.0248261339184 -0.00684053758933
-0.0759700015187 -0.0122541209762 -0.00221187497213
-0.0759700015187 -0.0134104194529 -0.0009131293911
-0.0759700015187 -0.0138423518415 -0.00254715179878
-0.0862366377629 -0.014451035306 0.00174072225632
-0.0876010021932 -0.0126514642509 0.00148054328407
-0.0904899151796 -0.0135076663261 0.00125290466868
-0.0825957483413 -0.0111410003155 -0.00082733956681
-0.0843044688333 -0.0111410003155 -0.0016077082321
-0.0852990692608 -0.0111410003155 -9.16571160234e-05
-0.0862494489843 -0.0111410003155 -0.00132877068281
-0.0910460936938 -0.0147231675335 -0.00243012785081
-0.0894350219884 -0.0157050006092 -0.000494231815834
-0.086513141162 -0.0157050006092 0.000908104633391
-0.0849416585008 -0.0156019657339 -0.000532722253471
-0.0795898376253 -0.0153019164643 -0.00114303810783
-0.0869404098241 -0.0156829897453 -0.000774219987026
-0.0825487554947 -0.0155606101523 0.000598079332416
-0.0812068122372 -0.0154128975342 -0.000651204748022
-0.092513684352 -0.0129298724536 0.000966422400655
-0.0890794992885 -0.011751672076 0.00103026779069
-0.0908555578785 -0.0115656977578 0.000222209014417
-0.0928118770236 -0.0120907595241 -0.000626604922833
-0.0882052659605 -0.0111410003155 -0.000346321515879
-0.0895471653165 -0.0112291486126 -0.00130715663689
-0.0915510605856 -0.0115233222472 -0.00156895475481
-0.0879674142686 -0.0147964557421 0.00155955188603
-0.0927569777705 -0.0145960846884 0.00100735666079
-0.0918019234314 -0.0156798693558 0.000110026976851
-0.0901325501263 -0.0154022222958 0.000802793787174
-0.0822070521953 -0.0144844911305 0.001788539743
-0.0781880098123 -0.0139863194483 0.00176522562379
-0.0771347235416 -0.0147287173612 0.000867951935712
-0.0841170828209 -0.015078001754 0.00170535282656
-0.0809192599375 -0.015313423291 0.00125456258739
-0.0792600609547 -0.0150836834347 0.00126880149684
-0.0794479029763 -0.0111410003155 0.000261722110324
-0.0785163602722 -0.0111410003155 -0.00109764344296
-0.0759700015187 -0.0119136252787 -0.00035644502744
-0.0836362583256 -0.0112383887549 0.00146457007642
-0.0817180633117 -0.0133915866818 -0.00284443525285
-0.0796858080335 -0.0129072831465 -0.00279508971314
-0.0856654968001 -0.0119856383889 -0.00263415475502
-0.0780556755029 -0.012615685558 -0.0027509575575
-0.0836695648731 -0.0124652210786 -0.00273335657818
-0.089662530277 -0.013439180374 -0.0029620582116
-0.0874926936508 -0.0117718436287 -0.00259247279405
-0.0827501734741 -0.0111916889829 -0.00236517991906
-0.0917776401858 -0.0133921941831 -0.0027618737592
-0.0853289413461 -0.0139664181015 -0.00288166844662
-0.0857143474522 -0.0153006554296 -0.00185399321245
-0.0888878496236 -0.0149011038033 -0.00225282477735
-0.0873059811568 -0.0149283469213 -0.00219232994276
-0.0795510913325 -0.0144557279082 -0.00238342752124
-0.0770237235337 -0.0148063017785 -0.00167068423116
-0.0821952542168 -0.0150875427254 -0.00183323712766
-0.0839963152814 -0.0152075978563 -0.00185472936977
-0.0844741402477 -0.0129729332947 0.0017164956981
-0.0823131574446 -0.0121712032432 0.00171423267794
-0.0794777720258 -0.0119759100026 0.00177537001148
-0.0802390403724 -0.0137428636923 0.00182500004303
-0.0772495307243 -0.0119048183871 0.0017335881067
-0.077047499856 -0.00903627945123 -6.2226510063e-05
-0.0825399167263 -0.00899760308618 0.00117480394089
-0.0794985826656 -0.00953753882046 0.000593450136448
-0.0856012555606 -0.0111410003155 0.00140562688986
-0.0787317165798 -0.00832633355627 -0.00153099206188
-0.0775252383209 -0.00969800485249 -0.00172704888014
-0.0821091023385 -0.00854217874677 -0.00219942457503
-0.0809203886064 -0.0111410003155 -0.00141933729009
-0.0855089487018 -0.0102864926255 -0.00243994356074
-0.080071973151 -0.00997652918102 -0.00216077080082
-0.0871719277619 -0.00966686650437 0.000727665266814
-0.0873804902527 -0.00986585749954 -0.00191020443474
-0.0882742939111 -0.00965237505087 -0.000532077264843
-0.0808818725208 -0.0100378553472 0.000898597911847
-0.0773518228776 -0.0107719099124 0.000340266531242
-0.0808595272835 -0.00835602366027 0.000536399724823
-0.0826234067292 -0.00353254018062 -0.00224306969933
-0.0833117972671 -0.000898066171894 -0.00220105763076
-0.0877943884177 -0.00144756346867 -0.000604996099713
-0.0869822759775 -0.00587000340053 -0.00198490342458
-0.0845957039283 -0.00828900001943 0.000169116770643
-0.0864575079154 -0.007777466978 -0.00176915409993
-0.0845698181065 -0.00224657493644 -0.00228740320249
-0.0838344725519 -0.00597792897126 -0.00238960745541
-0.0854874491604 -0.00378469945221 -0.00234809754835
-0.0850225282073 -0.00713485302867 -0.00244283042453
-0.0812056864072 -0.00315622324149 -0.0013005698652
-0.0835629824309 -0.00828900001943 -0.00125896614571
-0.0873414221541 -0.00465060657505 -0.000170202530007
-0.0860695939353 -0.00782098312914 0.00060351661549
-0.0864611439754 -0.00621174289849 0.000616250408891
-0.0864495789916 -0.0030009449405 0.00109462633628
-0.0871327201391 0.000538527266293 0.00122437000328
-0.0857888774425 -0.000787395922138 0.00136039057937
-0.0850849077558 -0.00500744380517 0.00131806023325
-0.0873066941593 -0.00151572680608 0.000780805157323
-0.0866903505805 0.00143677042874 -0.00122211790097
-0.0872988766362 -0.00303486174511 -0.00153662128384
-0.0880555974342 0.000496471570599 -0.000441429121096
-0.0850661679885 0.000338052642117 -0.00209473122693
-0.0860384632465 -0.00132517527324 -0.00209690363025
-0.0841017900189 -0.00116064842131 0.00143326689436
-0.0844429695701 -0.00724086631851 0.00127185323009
-0.0825652929989 -0.00422313884459 0.00123259860763
-0.0827180022796 -0.00233120139239 0.00125750465394
-0.0827570633317 -0.00596765143821 0.0011644603719
-0.0821518710911 -0.00721759827016 0.000423912820134
-0.08128859434 -0.000329155845307 -9.65893191568e-05
-0.0812897522034 -0.00238528491654 0.000101476419069
-0.0817462071294 0.00128613529981 5.16557496962e-05
-0.0830761445254 0.000841824042708 0.00094333442932
-0.083390055256 0.000681733921188 -0.00210933556824
-0.0814761961168 0.000397367633616 -0.00159279602282
-0.0818328428206 -0.00499764961703 -0.0018892038418
-0.0834222870148 0.00169299996924 -0.00027401254393
-0.0851555681105 0.00169299996924 -0.000411276747188
-0.0815100021719 0.00239728879964 -0.00151563507417
-0.0843975116392 0.00238938431991 -0.00185382965667
-0.0953629985452 0.00477423749845 -0.000196254340672
-0.0900069829081 0.00291628473836 -0.00177287498723
-0.0926178923622 0.00472967447713 -0.00182271386738
-0.0910653374288 0.00450811350036 -0.00188200001139
-0.086850219366 0.00519054089712 -0.00188200001139
-0.0835876721143 0.00403829311206 -0.00188200001139
-0.0881200003446 0.00367059276263 -0.00188200001139
-0.0857603874085 0.00367825607553 -0.00188200001139
-0.0951697192037 0.00686423558327 -0.00107319467989
-0.0833622672715 0.00639843527093 -0.00183411540998
-0.0816023021016 0.0071164379751 -0.0012495366282
-0.0921936184366 0.00672896511231 -0.00176026648324
-0.0887197472895 0.00578068090761 -0.00188200001139
-0.0813010314282 0.00559263777402 -0.00188200001139
-0.0848744636806 0.00627143246946 -0.00188200001139
-0.0939659310273 0.00649947185299 -0.00188200001139
-0.0811019986868 0.0060366435604 -0.000138934875268
-0.0820656643059 0.00739621027478 0.000182635543422
-0.0909125101602 0.00778221877896 0.00161432068565
-0.0941497098352 0.00718557537742 0.00181105774358
-0.0852362874228 0.00182285951677 0.00138811327452
-0.0831590978873 0.00340143997098 0.00159660626919
-0.0926568664057 0.00728386660427 0.00211100000888
-0.0869878865859 0.00783177896145 0.000552539525159
-0.0853194179083 0.00761343517648 -0.000468424344049
-0.0885012015667 0.00778745789011 1.69760036537e-05
-0.0875057297975 0.00745325651788 -0.00113563454263
-0.0896294932512 0.0073783826134 -0.0012496829121
-0.0913112384113 0.00774412953888 -8.33053696619e-05
-0.0930751873513 0.00768019905575 -0.00017933266832
-0.095104625973 0.00767687495945 0.000568651815134
-0.0901272969112 0.00213543863473 -0.000265262327325
-0.0939162578383 0.00310363310996 0.000350806483067
-0.0879059541769 0.00173722254771 0.000544029139358
-0.0861735772373 0.00348798786769 0.00177308964835
-0.084739584107 0.00427150098719 0.00184166504875
-0.0840437456038 0.00687931970878 0.00152028500766
-0.0827289681788 0.00541402862994 0.00182109811767
-0.0889470931884 0.00756115167821 0.00181861332097
-0.0854912434852 0.00755180750019 0.0014231770002
-0.088415321261 0.00383121703495 0.00183520755261
-0.0904764330778 0.00454305600571 0.00194079291508
-0.0869721757161 0.00494453113345 0.00197930921377
-0.0857456514849 0.00581006448767 0.00209086810886
-0.0880856203855 0.00624260107229 0.00211100000888
-0.0914959223001 0.0060276920691 0.00211100000888
-0.092153116031 0.00324301784381 -0.00159942214631
-0.0939716579023 0.00352976477991 -0.00140461332679
-0.088203513564 0.00195318476008 -0.00138658426409
-0.0811850150929 0.00330666867978 0.000180209076205
-0.0898352463968 0.00268050836801 0.00140300515346
-0.0919389333804 0.0028794334808 0.000851059054495
-0.092561075974 0.00417432129846 0.00158606833425
-0.0944655479863 0.00455891760516 0.00132464977671
-0.039928845014 0.00528974350067 -0.0019238958144
-0.0574929703848 0.00768199982122 0.000603528903867
-0.0653427047616 0.00768199982122 0.000928288316694
-0.0515616544568 0.00699245695614 0.00144761138427
-0.069574336005 0.00636223899754 0.00191805866526
-0.0680533194263 0.00619251147208 0.00193823737625
-0.0657805978541 0.00582180012036 0.00197071731206
-0.0529681254543 0.00610437354738 0.00210664508512
-0.0602702162943 0.00539494941892 0.00204008195398
-0.0793762620268 0.00548585786526 -0.00194839924046
-0.0714160698319 0.00523988805304 -0.0021066570584
-0.0764523387216 0.00543384669088 -0.00204873843058
-0.0673844088281 0.0053124464361 -0.00211288867088
-0.0636753262866 0.00595112825642 -0.0020178714871
-0.0537885161963 0.00555770293457 -0.00213380313686
-0.0526368148458 0.0042582205411 -0.00216799997725
-0.0507873635157 0.00423796189021 -0.00216799997725
-0.0543971966297 0.00415377220746 -0.00216799997725
-0.0587806264318 0.00449197539345 -0.00216799997725
-0.0455124563561 0.0046135258641 -0.00216799997725
-0.0435551993546 0.00525078449643 -0.00216799997725
-0.0479845026324 0.00539486495333 -0.00216799997725
-0.0424413976517 0.00415295906122 -0.00216799997725
-0.0567647973022 0.00463314682589 -0.00216799997725
-0.047146635088 0.00374442801698 -0.00216799997725
-0.0416439539237 0.00618327002836 -0.00171404746568
-0.0459295651595 0.00626629555384 -0.00172723655983
-0.0569728659444 0.00703469411932 -0.00125739603925
-0.058928476047 0.00757018821261 -0.000159529937043
-0.0552966733257 0.00747221161653 -0.000343410291867
-0.0537444006143 0.00722307552829 -0.000846546851005
-0.0482728435981 0.00678530912826 -0.0012522871803
-0.0441996234088 0.00657830354909 -0.00135664671033
-0.0507557419785 0.00736372643428 -0.00043666499754
-0.0560627821374 0.00277955877202 -0.00164490356491
-0.0781334643393 0.00344701571587 -0.00152780201416
-0.0575883757172 0.00293179408764 -0.00175908454165
-0.0640599138764 0.00350733271373 -0.0019030668939
-0.0717809739167 0.00356711890975 -0.00174592183695
-0.068705713418 0.00351630278643 -0.00179434295507
-0.0602973680302 0.00354573666792 -0.002015083075
-0.0765786065959 0.00380643114115 -0.00175435314897
-0.0798607419678 0.00412463173035 -0.00184117979141
-0.066134921563 0.00418172441435 -0.00211121460315
-0.0701905511787 0.00400367409471 -0.00199275264634
-0.0732861634568 0.00450792829015 -0.00208331267409
-0.0748393382569 0.00473307418154 -0.00212087458433
-0.0624157739666 0.00399102069414 -0.00211977310595
-0.0438886069551 0.00354906518743 -0.00216799997725
-0.0491167566958 0.00361797702965 -0.00216799997725
-0.069398885313 0.0044080308233 0.00169574375335
-0.0546238552107 0.00365625846564 0.00142285659056
-0.0474256532426 0.00384736018548 0.00161771482407
-0.0570217892922 0.0044585137582 0.0018672274891
-0.0490653568525 0.00405992533172 0.00172394925427
-0.0530305349146 0.00369430653139 0.0014634874758
-0.06744736566 0.00420165728849 0.0015967230597
-0.0789303235109 0.00343393757478 0.000798688508446
-0.0592465481117 0.00280108132719 0.000646393338112
-0.0462690117193 0.00293446784708 0.000939936848714
-0.0648005583982 0.00318123404706 0.000889070409362
-0.0609889359965 0.00333728105396 0.00107911254435
-0.070710001436 0.00318593733827 0.000786708701149
-0.0631774201809 0.00358122553034 0.00123002393009
-0.056775353461 0.00322236366361 0.00106512457355
-0.0760913978959 0.00285728824448 0.000433941868791
-0.0752349119982 0.00399966638114 0.00133989996465
-0.0733094782414 0.00387473593645 0.00127705147334
-0.0669637096241 0.00296104536247 0.000678601010225
-0.0403516990591 0.00663786453932 0.000794104956408
-0.0497524623984 0.00718102400367 0.00110894484399
-0.0440737675151 0.00670142294745 0.00112866988905
-0.04781390163 0.00697441904964 0.00117509403493
-0.0391799993813 0.00329842176056 0.000392044253775
-0.0532232102068 0.00754295338126 0.000828744680859
-0.0401967271931 0.00660548242478 -0.000701416053621
-0.0454293989124 0.00725828638704 -9.76264836781e-05
-0.0419736249635 0.00696594005901 -1.12599616199e-05
-0.0792665704615 0.00676060118135 0.00143167274267
-0.0800151260602 0.00499121679775 0.00143442942827
-0.077789728683 0.00660370059374 -0.00166707431794
-0.0754566605712 0.0069330442863 -0.00145238235342
-0.0719181273553 0.00670432904305 -0.00167309125802
-0.0691090289142 0.00609761701095 -0.00196576670915
-0.0501325539422 0.00590009189654 -0.00208664170217
-0.0704288932699 0.00698758069348 -0.00143541953139
-0.0665449961603 0.00711771333188 -0.00130528689298
-0.0518785335613 0.00649437830215 -0.00164279240394
-0.0612137755801 0.00709318109183 -0.0012909930913
-0.0559290170695 0.00622005174212 -0.0019735484005
-0.0592738613999 0.00674867998125 -0.00156325928164
-0.0650836386623 0.0066063668299 -0.00181037209769
-0.0446341172378 0.00371930230006 0.00149127554262
-0.0509747373604 0.00440896822448 0.00187547623322
-0.0425980167182 0.00351942353679 0.00137253661391
-0.0410829520174 0.00362148467834 0.00123262775656
-0.0436982459998 0.00505266445172 0.00165643760852
-0.0458965823276 0.00613044477998 0.00168796716499
-0.0417183919653 0.00562141573112 0.00145891023602
-0.047628045096 0.00559521009423 0.00186487009654
-0.0494534561642 0.00558889896474 0.0019482574926
-0.0759550964747 0.00594601009759 0.00183910764639
-0.0739338605056 0.00528020397935 0.00185620668267
-0.0627317819084 0.00510589996168 0.00200733013937
-0.0721054085712 0.0050141999684 0.0018770657099
-0.0780034842157 0.00493169794029 0.00161838850696
-0.0586069384046 0.00478962488904 0.0020386620143
-0.073025832689 0.00768199982122 0.000236040515121
-0.0697622174025 0.00768199982122 0.000537504839397
-0.0773265850686 0.00768199982122 -2.29880821862e-05
-0.060979751791 0.00768199982122 0.00028975088447
-0.0801006816122 0.00752738195694 -0.000428382025292
-0.0643623884625 0.00755568357429 -0.000434854535338
-0.0686061435762 0.00753034823115 -0.000711062530785
-0.062908780237 0.00741615239292 -0.000987695598439
-0.0682694862422 0.0025490000844 -1.28791194638e-06
-0.0440865641617 0.0025490000844 -0.000701953526205
-0.0496295176323 0.0025490000844 -0.00121798739513
-0.0616128443138 0.0025490000844 -0.000460030692292
-0.0520470026092 0.0025490000844 -0.000425083224403
-0.0701070130559 0.0025490000844 -0.000873461347922
-0.064951749523 0.0025490000844 -0.00106972205897
-0.045786060215 0.0025490000844 -0.00143991575021
-0.0593957160876 0.0025490000844 -0.000954160855497
-0.0413766409522 0.00272903257321 -0.00177696913222
-0.062675534187 0.00754014665357 0.00131645973952
-0.0712251973506 0.00765091529275 0.000929441345708
-0.0679075555898 0.00765215338558 0.00101507765852
-0.0726846935202 0.00711825071434 0.00154910139866
-0.059103211113 0.00690870814094 0.00170755892899
-0.0563863628356 0.00680926804527 0.00177329002188
-0.0542950799643 0.00681337187751 0.00177617172882
-0.077320555288 0.00702666609361 0.00158555955004
-0.0642295030776 0.00657561288387 0.00188426000023
-0.0616619886341 0.00655978629643 0.00190672975517
-0.0315893852489 -0.00465227578195 -0.00206138015565
-0.0276696294638 -0.00168319164452 -0.00188361890649
-0.029149975926 -0.0019983197771 -0.00194735523252
-0.0287996293242 -0.00357859071869 -0.00193924510253
-0.026458774139 -0.000618081105966 0.000401407623553
-0.026888597262 -0.00304989118232 0.000767600640246
-0.031334842362 0.000492243578052 0.0003522238705
-0.0288193181257 6.24716819268e-05 0.000597777065458
-0.0263727718586 0.001408000011 -0.000246239874155
-0.0339633644729 0.001408000011 -0.000235330926098
-0.0391750000417 -0.00231297558428 -5.08749890963e-05
-0.0362740565321 -0.00570168391974 0.000369656958479
-0.0325896149175 -0.00594134534929 0.000359935242755
-0.0287088833506 -0.00555340376059 0.00053247556504
-0.031386192141 -0.000145921622544 -0.00181367221638
-0.0355644637008 -0.000298773719862 -0.00183373430509
-0.0334739745268 -0.000171969359809 -0.00180889614776
-0.0294552931853 -0.000183539864112 -0.0018362365795
-0.0270617589905 -0.00482261396182 0.000693313880205
-0.0283649696869 -0.00400742079478 0.000723444270262
-0.0331964631265 -0.00217544245198 0.000753417082379
-0.0314841177974 -0.00359059059568 0.000690203630858
-0.0360244789951 -0.00226670992993 0.000691060629388
-0.0291033017386 -0.00228470269015 0.00082709593091
-0.0305530992186 -0.00116464359714 0.000875253484175
-0.033412485949 -0.00424617289198 0.00060355761521
-0.0354771671773 -0.00383849847996 0.000590040606339
-0.0302438781786 -0.00460722647373 0.000643258078985
-0.0373810612598 -0.00344803678761 0.000578617566125
-0.0344771138116 -0.00105758974115 0.000791931455085
-0.0379383591431 0.000478404276336 0.000166656613965
-0.032908990373 -0.000233309950659 0.000619110672518
-0.0368627197399 -0.000699225616564 0.000571083970197
-0.0254870001227 -0.00738486687656 -0.00149951044622
-0.0255870384435 -0.00388830726384 -0.00021711325638
-0.0308985550492 -0.00743399979547 -0.000519470032286
-0.0326048473684 -0.00743399979547 -0.000396333735319
-0.0340907183245 -0.00664933167974 0.000109168685195
-0.0268099700964 -0.00634878426202 0.000105433918053
-0.0266774574643 -0.00298516160471 -0.00172136332399
-0.0349919118526 0.00120379668376 -0.0013586604457
-0.0267175984908 0.000477448831718 -0.00157090117555
-0.0346411420265 -0.0020482195456 -0.00213259581801
-0.0323852393264 -0.00296129023562 -0.00207437713604
-0.035850140183 -0.00601940871668 -0.00190422487633
-0.0317986741013 -0.00647668423496 -0.0018707242495
-0.0339084672557 -0.0067572541892 -0.00179050118783
-0.0389962792601 0.000612389264737 -0.00118484341983
-0.0380949664849 -0.000632727891099 -0.0017189714272
-0.0384290311373 -0.0052178555827 -0.00176625291394
-0.03679548624 -0.00463800605546 -0.00197586844618
-0.0377775568684 -0.00335354833365 -0.00197496828878
-0.0356396411655 -0.00355149285995 -0.00212098911622
-0.0362316740105 -0.00171598400222 -0.00214434951183
-0.0343210601495 -0.00528104128902 -0.00215345863269
-0.0264519534529 -0.00515760048799 -0.00173091351931
-0.0298695843268 -0.00601450402529 -0.00195542498247
0.00534059938923 0.000106604843791 -0.00167864086572
0.00167728780163 0.000300758227458 -0.00181249732342
0.00378083486426 0.000737701915499 -0.00166985432888
-0.0165142032114 0.001408000011 -0.000271076895711
-0.00983543931447 0.001408000011 -0.000877635509263
-0.0136258205337 -0.00666766926416 -2.63267095369e-05
-0.022971014114 -0.00678029874545 -0.000158305680465
-0.0176627672572 -0.00670752960518 -7.96267986338e-05
0.0017083276784 -0.0073289974107 -0.000166980768943
-0.0118559198146 -0.00661061735194 1.37492262886e-05
-0.0208136333749 -0.00630802181804 6.05661478147e-05
-0.0157258497576 -0.00719490815107 -0.000267883627713
-0.0243958896319 -0.00506490053817 0.000222509028938
-0.0219769725091 -0.00743399979547 -0.00119883301002
-0.015281456182 -0.00564313644532 0.00039077163089
-0.00466479481627 -0.00639676028316 0.000168598073146
-0.00903179573144 -0.00625291565052 0.000190052553594
-0.0059547612122 -0.00489194782395 0.000276014900237
0.00254034258012 -0.00400326399462 3.67446216324e-05
-0.00173505274294 -0.00321903676976 0.000191264319687
0.00470877015773 -0.00656770953341 -0.000101622696421
-0.00256324229578 -0.00581430182462 0.000145125732773
0.00129418973373 -0.00300397805603 0.000103123839469
0.00416669947116 -0.00485584695838 -3.73823721956e-05
-0.000498900494883 -0.002246465541 0.00017979742515
0.00304084445326 -0.00671947015785 -5.40152359523e-05
0.0029637959394 -0.00132127673211 9.78566685487e-05
0.000127244532494 -0.00672135556607 3.64359803698e-05
-0.000175382620622 -0.0041514208683 0.000116999045257
-0.00743990585515 -0.00580151752552 0.000296960640502
0.00389390028112 -0.00306775824968 2.06044700171e-05
-0.00480877305486 -0.00358019880937 0.000276740716585
-0.00344411978283 -0.00430214628667 0.000214360226804
0.00125210577291 -0.0055338780529 3.43769114891e-05
-0.0180348856757 -0.00394767028263 0.000399000011384
-0.0224702198869 -0.00500777557034 0.000399000011384
-0.0199794168948 -0.0047647416216 0.000399000011384
-0.0134811429077 -0.00287636845843 0.000399000011384
-0.0156932219746 -0.00221855726862 0.000399000011384
-0.0141944303068 -0.00421676511579 0.000399000011384
-0.0177162273834 -0.00202663264971 0.000399000011384
-0.0184285181689 -0.00544960594604 0.000399000011384
-0.012391475474 -0.00424463818653 0.000399000011384
-0.0122669229589 -0.00190104226743 0.00037218703095
-0.00728255366442 -0.00333371177024 0.000317864531721
-0.00255957087681 -0.00105711333636 0.000218339516108
-0.0110551730759 -0.00306666137535 0.000369787489217
-0.00944971044698 -0.00237933558617 0.00033710074867
-0.00383411490661 -0.0022213121747 0.000252467372057
-0.00594109939085 -0.000755058281554 0.00026405096776
-0.00403544463049 -0.000210878470897 0.000228844389428
-0.0131755676235 -0.000253956779956 0.000363765170944
-0.00979925786611 -0.00456790751426 0.000371176483751
-0.0153845536915 0.00108094642347 -0.00158706167603
-0.0192491516025 -0.00417008034833 -0.00209077580234
-0.0220558901381 -0.00384137497412 -0.00197613293499
-0.0241449167373 -0.00640672518286 -0.00172264993755
-0.0201433650961 -0.00567374727883 -0.00195800218358
-0.0224812408873 -0.00552428844464 -0.00185506976311
-0.0176666013193 -0.00458652634019 -0.00214158602498
-0.0241336938372 -0.00403139043179 -0.00168338752937
-0.0205857985249 -0.00223331529269 -0.00213981765715
-0.0247633178351 -0.00244062698002 -0.00154082803321
-0.025122928058 -0.000584588255681 -0.00142886561257
-0.0232884801924 -0.00118711282698 -0.00171425137021
-0.0249764734256 0.00118610835803 -0.00138055180654
-0.0216930645217 -0.000706152058668 -0.00188616873462
-0.0193312758245 -0.000431275451078 -0.00202389271537
-0.0228927042169 0.000387532008348 -0.0016458642456
-0.0161037406346 -0.00150481093694 -0.0022136870888
-0.0128010026886 -0.0019382532127 -0.00227185033847
-0.0145597334532 -0.00194594310987 -0.00224714873108
-0.0171697180416 -0.00040505221334 -0.0021696776206
-0.0188242140444 -0.0020235534385 -0.00218880383715
-0.0110006771031 -0.00297805735707 -0.00232468190491
-0.00919981597245 -0.00307997611529 -0.0023528619401
-0.0204000776866 -0.00743399979547 -0.00147849190982
-0.00496974249814 -0.00743399979547 -0.00182111882278
-0.00121882625082 -0.00743399979547 -0.00109857019562
0.00719915693486 -0.00712432601436 -0.00146820264205
0.00548040870292 -0.00401012079781 -5.55415141288e-05
0.00628607442305 -0.00575164920816 -0.000129107772234
-0.00115963351315 -0.00461576142298 -0.00234293536975
0.00457946702197 -0.00613244580046 -0.00221699757899
0.00101306794547 -0.00530236069995 -0.002303574573
-0.00338306049136 -0.00421028505196 -0.00240519880717
-0.00837192213387 -0.000703869178549 -0.00219076669951
-0.00662698853084 -0.00121086514519 -0.00222365827591
-0.0112200746116 -0.00138811247271 -0.00225334099893
-0.014348335225 -0.000425150087169 -0.00219021845971
-0.00484269235112 -0.00332589279024 -0.00238007542749
-0.00504220378933 0.000744479950941 -0.00185356962332
-0.0105654857121 0.000132703368676 -0.00206309711167
-0.0124592434453 0.00022989153854 -0.00206039443268
-0.00065564442611 0.00092497009875 -0.00176132638312
0.00202254857248 0.001408000011 -0.000194415198156
-0.0148888760346 0.000782335277441 7.89151346439e-05
-0.00593203409211 0.00113564414834 -6.2210346408e-05
-0.00829870039452 0.000499376533276 0.000191940003751
-0.010759784569 4.8362250838e-05 0.000313079508826
-0.00189660529942 0.000591225299376 8.55344320985e-05
0.000435714425965 0.000158994915571 0.000128694188208
0.00623693719237 0.000397472523884 -0.000221775840004
0.00648065934054 -0.00119014090946 -0.000193032784821
0.00670816453067 -0.00302903824915 -0.00015512866717
0.00465888082193 -0.00124507592058 2.93884174799e-05
-0.0244063294905 -0.00269117296385 0.000219829074524
-0.0246238549353 -0.000782539546438 0.000101215525267
-0.0230720603756 -0.00090002156364 0.000253220213315
-0.0201577051736 9.04178467118e-05 0.000219240405078
-0.0223918194181 0.000679136934944 5.03713496703e-05
-0.0183802540139 -0.00035041217623 0.000349607814211
-0.0164903088048 -0.000346162673942 0.000399000011384
-0.019340069637 -0.00156511086599 0.000399000011384
-0.0208887943814 -0.00311426475557 0.000399000011384
-0.0175944162973 -0.00620551256969 -0.00200032544867
-0.0122580604871 -0.00426444868241 -0.00229943404571
-0.0139717748704 -0.00448645636559 -0.00224948905473
-0.0159310821841 -0.00331684478577 -0.00223703139766
-0.0159081869777 -0.00501868203341 -0.00218422880228
-0.010345999246 -0.0043635046548 -0.00234428388171
-0.00471204248032 -0.00539216612074 -0.00245206201571
-0.00654585453367 -0.00434260727263 -0.00241581215573
0.00206532644055 -0.00687395125002 -0.00223563179548
-8.34853722192e-05 -0.00659992661715 -0.00228261823834
-0.00774825140618 -0.00577776925602 -0.00231667742123
-0.0186312829049 -0.00733275904579 -0.00175989300062
-0.0112584647028 -0.00632771610986 -0.00212674162332
-0.00318278897863 -0.00618588628468 -0.00232347265861
-0.0133608293166 -0.0063562734712 -0.00207731505555
-0.0158218552685 -0.00687894589883 -0.00191483060444
0.00637264356285 -0.00573117146339 -0.00210853471819
-0.00162443484934 -0.00196004457787 -0.00216564840103
0.00517071518363 -0.00158638167321 -0.00183103893871
0.00234975908835 -0.00190543109819 -0.00198305629668
0.00678802974906 -0.0025846970927 -0.00183832975853
0.00166414779845 -0.00334682610186 -0.0021290498938
0.0049302961485 -0.00389805177531 -0.00202665051509
0.00340549648501 -0.00394165518344 -0.00209851752638
-0.000706680253547 -0.000759771614415 -0.00202852311394
-0.00314065154894 -0.000902982743465 -0.00214912670185
0.000515438551796 -0.00189900756029 -0.00206480407621
-0.0205260477359 0.00330038309311 0.00135557896337
-0.0254944379516 0.00328966117296 0.00139906065615
-0.0158025742921 0.00283784720977 0.00101239295876
-0.0300344690757 0.0035500183368 0.00161129302699
-0.027104622891 0.00327093812063 0.00140341613663
-0.0197053980511 0.00140900001861 -0.00119782371765
-0.0306416115049 0.00140900001861 -0.00115502564105
-0.0216935118466 0.00140900001861 -0.00136986841597
-0.0139996251806 0.00521355574434 0.000902601273201
-0.0366527111494 0.00621213534301 0.00160904281402
-0.0391759984195 0.00502188945124 0.000542590555491
-0.0314876945552 0.00379366335254 -0.00257230201166
-0.0297564669701 0.00418567702842 -0.00263383818481
-0.0264170227228 0.00365658292125 -0.00261050308724
-0.0208661383627 0.00380196885109 -0.00268497199547
-0.0281992342773 0.00390326685375 -0.00261901304989
-0.0352262517562 0.00464463410662 -0.00238197632875
-0.0331453877382 0.00477213313099 -0.00246303192716
-0.036588988504 0.00540104073964 -0.00220858668201
-0.0349186337475 0.00631364433401 -0.00164991045006
-0.0309216324124 0.00683707552852 -0.00109372751267
-0.0242434048867 0.00684040751088 -0.000834679225478
-0.0333553526644 0.00709763252393 5.99406045626e-05
-0.0337481686849 0.00491168299249 0.00209380280978
-0.0352984202474 0.00520743561284 0.00189896424603
-0.0261639118679 0.00621760561918 0.00145601374673
-0.0326393480391 0.00607907213833 0.00178889173671
-0.0131678560715 0.00164811591471 6.81159318697e-05
-0.0238009297037 0.00140900001861 -0.000342800603932
-0.0281980471694 0.00140900001861 -0.000534063347635
-0.0315915822182 0.00423769842459 0.00200585731988
-0.0292850242293 0.00498853692405 0.00196782222089
-0.0264090577882 0.0046700130817 0.00185134745231
-0.0106549998745 0.00380101886306 -0.000989833545585
-0.0194324104231 0.00448550764449 -0.00267422854555
-0.0161734001093 0.00393248811418 -0.00271973204961
-0.0381881921217 0.00583800209358 -0.00186937340436
-0.0370323778472 0.00680710701177 -0.000973261766912
-0.0384808288249 0.00664757994634 0.000334947587327
-0.029822559429 0.00589468949412 -0.00200132860856
-0.0246794601516 0.00559834219172 -0.00227354494778
-0.0277733313908 0.00548073224724 -0.00230047458371
-0.0200650051717 0.00644301470234 -0.00137684293708
-0.0154470515537 0.00600501914928 -0.00170877281821
-0.0281898636141 0.00680442372024 -0.001086327974
-0.0262000402329 0.00661320014959 -0.00136183341233
-0.012053966507 0.005625165226 -0.0019524962582
-0.0171209776163 0.00591321036393 -0.00192843106925
-0.0214674058081 0.00544400564239 -0.00230804803099
-0.0231065408735 0.00586153358733 -0.00210751272265
-0.0146387735588 0.00486392713493 -0.0025054267239
-0.0368501730739 0.00140900001861 -0.00113700301679
-0.0373254362186 0.00385375050224 -0.00224285988034
-0.0343996720459 0.00265645519991 -0.00216553531951
-0.0290958115463 0.0021871026146 -0.00191460514519
-0.0362903910762 0.0026659390223 -0.00215241660237
-0.0326449447582 0.00165896944131 -0.00153518999826
-0.0263779964077 0.00214960272551 -0.00191795186429
-0.0174066189211 0.00538497983455 0.00129071612536
-0.0225219591507 0.0057030179928 0.00156227793048
-0.0156959581444 0.00476197675364 0.00130761424184
-0.0185417861497 0.00389043473516 0.00151146102356
-0.0279405968761 0.00557428794146 0.00191998302915
-0.023894119449 0.00497174509927 0.00174760606896
-0.0208743616071 0.00490700587036 0.00161613391632
-0.0189392497814 0.00206441238309 0.000484412409664
-0.0207103364806 0.00195628892149 0.000376288949384
-0.0295109080208 0.00222792380036 0.000647923740992
-0.0252075812888 0.00203418968053 0.000454189670901
-0.0311985201453 0.00242873711698 0.000835650844588
-0.0372773296864 0.0025276612657 0.000727637360415
-0.0329203941161 0.00330067477956 0.0014399971496
-0.0350510456412 0.00330017331171 0.00137567322111
-0.0247432367727 0.00337942859529 -0.00258841801927
-0.0231413096962 0.00300116243508 -0.00246268500274
-0.0180587497234 0.00277460969941 -0.00236869754116
-0.0196111661985 0.00257771797342 -0.00223907332691
-0.0328868339358 0.00303794268413 -0.00242358601156
-0.0164821886768 0.0023195602036 -0.00210531052014
-0.0117100939222 0.00172250918916 -0.00177868005626
-0.0143644070228 0.00263093198015 -0.00230793919523
-0.012654399501 0.00342330329961 -0.00257700869589
-0.0112684891366 0.00432296419531 -0.00248937058219
-0.03786845918 0.00490812104555 0.00144303720345
-0.010934121456 0.00482228196227 0.000613081647523
-0.0140960990228 0.00610441857006 -0.000650759087671
-0.0344755040098 0.00675077874565 0.0010039279821
-0.0314546677388 0.00677653419766 0.000911860459471
-0.0243656578173 0.00679590609186 0.000796191540585
-0.0293362733519 0.0070128737502 0.000313746186302
-0.0225884239153 0.00687521007928 0.000403462323887
-0.021163390797 0.00685042348465 -0.000204024625034
-0.0126559503225 0.00592509275694 -7.58750404834e-05
-0.0182867413436 0.00663468574195 -0.000558885974053
-0.0197572752007 0.00675726178559 0.000595820350152
-0.0161542359836 0.00634173501957 0.000118329862961
-0.0140746314682 0.00299302203919 0.0010921188537
-0.0227407798843 0.00365382281925 0.00158778810239
-0.0119491248079 0.00349630130158 0.00101974839313
-0.0174074616725 0.00273365319586 0.000961634719701
-0.00192730264901 0.00291352853703 -0.00252583426915
-0.00732475204362 0.00345227547654 -0.00262964886674
-0.0101675375118 0.00317572949751 0.000638671831032
0.00143524529989 0.00589618076834 -0.000480472994897
-0.000675459558591 0.00585562622593 -0.000165171428047
-0.00542181768523 0.00577729988479 -0.000494364247046
0.00435810410904 0.00595112851607 -0.000819372264831
-0.00754342139545 0.001408000011 -0.00111254885653
-0.00401019737745 0.00356323225012 0.00160562681457
-0.00864110308352 0.00330529243212 0.00132508515177
-0.00567126619263 0.00375922663116 0.00150499876533
-0.00737485083127 0.00250547755115 0.00100730956413
-9.93249752317e-06 0.00361579824656 0.00182161105281
0.00387056754115 0.0035685762415 0.00154239110228
0.00193865064393 0.00399253981515 0.00170047865519
-0.00209811788443 0.00362445849286 0.0017124123528
0.00638834561429 0.00199166274991 0.000321199438058
0.00280372985768 0.0025972094051 0.00112497837707
-0.00196031170196 0.00216232515161 0.00070897253967
0.000517865508252 0.00173911822896 0.000215272338749
-0.00360597204456 0.00184655198968 0.000340601265129
-0.00645398089698 0.0021998111631 -0.00214404908933
-0.00456567615058 0.00216306199903 -0.00215865299494
-0.0020549728515 0.0014496499625 -0.00151724649929
0.00585800219927 0.00157478818523 -0.00156047622593
0.00455316544881 0.00205781077129 -0.00222469519793
0.00759699987248 0.00381803472547 -0.00105314251497
0.00539663436941 0.00402226219741 0.00143825664766
0.00693400942687 0.00330877216713 0.00131021692732
0.00384389499072 0.0034341476163 -0.00265992882226
0.00688573756917 0.00291952794128 -0.00256365790674
0.00494624442843 0.00555778856657 -0.0021131197668
-0.00925397173367 0.00450990512911 -0.00253496041636
-0.000931621630477 0.00440444707479 -0.00273699988611
0.00136779488725 0.0039486608989 -0.00273699988611
-0.00554910729105 0.00374651758236 -0.00273699988611
0.00561139525431 0.00407812484101 -0.00273699988611
-0.0038281104544 0.00394385295704 -0.00273699988611
-0.00716574301013 0.0057148930681 -0.000169873459814
-0.0025929876859 0.00570398632112 0.00047679707714
-0.0095287914923 0.00462194519207 0.00118150294658
-0.0069716956155 0.00463656498839 0.00139287288716
-0.00417449771369 0.0051124614842 0.00115438941118
-0.00106022104907 0.00501661979201 0.0014977675922
0.00584027537912 0.00591253480845 0.000210275540602
0.00326943181799 0.00525220694699 0.00118146444872
-0.0104076482063 0.00543596044028 -0.0011126331947
-0.0077512098683 0.00530830191177 -0.00220714257766
-0.00878314161974 0.00570052085916 -0.000854229804315
-0.0029698072077 0.00580698275268 -0.00140544414719
-0.00586088936454 0.00541823505778 -0.00228569597918
-0.00251257813939 0.00501652876309 -0.00262349734335
0.00307094731165 0.00576697465746 -0.00208582912246
0.000191413531549 0.00579032349699 -0.00206261717419
0.00670349248854 0.00506364140437 -0.00208290892039
-0.010215951997 0.00300612528023 -0.002413761301
-0.0086105553763 0.00220258358706 -0.0020787252386
0.00245582529457 0.00238186124138 -0.00240153836443
0.0157402914853 -0.00743399979547 -0.00181528395048
0.0181489996612 -0.00397764957828 -0.000491702333356
0.0143392738084 -0.00743399979547 -0.00128326332204
0.0179620112868 -0.00153188465142 -0.00139986923386
0.012518097642 -0.00435694921815 -0.00196928976637
0.0171854778909 -0.00305972033631 -0.0018855171347
0.01658518491 -0.00473464933751 -0.00199368093853
0.00864854309471 -0.00664435532896 -0.00211700620431
0.0139762907303 -0.00288648451797 -0.00187432988732
0.0147478985892 -0.00436477422092 -0.00196979509052
0.0151216277389 -0.00109718714604 -0.00175878038654
0.0128632213984 -0.00649071779957 -0.00210708457803
0.0170367822173 0.000780327621548 -0.0016375339702
0.0103255076206 -0.0064870349023 -0.00210684674337
0.015808333586 0.001408000011 -0.000459837126075
0.0106017981777 -0.00675391287632 0.000102580818541
0.00777296659525 -0.0014549645118 -0.00174585794424
0.010872294442 -0.00400574714098 -0.00194660978856
0.00962341123004 -0.000187526274466 -0.00170003617709
0.00869504330636 -0.00350220638333 -0.00191409206173
0.0105800145257 -0.00234017610493 -0.00183905030474
0.0115181206638 -0.00010151483064 -0.00169448171781
0.0129728957231 -0.00131440765884 -0.00177280808378
0.0135715278681 -2.40983064186e-06 -0.00168808170099
0.00786629499249 -0.00481147024261 7.03729526469e-05
0.0134404954406 -0.000992300861452 0.000291138816484
0.0147565488517 -0.000167302425269 0.000346817413988
0.00880567194712 -0.000818195331064 -4.77444240626e-05
0.0107706644247 -0.00260113445688 0.000175180348815
0.0110668705733 -0.000873851962346 0.000116229173615
0.00873143713146 -0.00243288326571 2.18290044618e-05
0.0134141153061 0.000654718751072 0.000138448696918
0.0172135406106 -4.87566640746e-05 0.000219449397318
0.0079460270114 0.000659305728853 -0.000279070996609
0.0100466672254 0.000689592628772 -0.000116889527735
0.0117988890256 0.000826243908165 -3.9323617385e-06
0.0168173268995 -0.00272192107224 0.000333273481126
0.0161164384683 -0.00535385511563 0.000141919228693
0.0144695760113 -0.00545905010639 0.000218164502678
0.0151528867096 -0.00683864793872 4.56088313436e-05
0.0127194948114 -0.00612142905538 0.000174536595064
0.0106324971768 -0.00512389213582 0.000186589860414
0.0124586919724 -0.00453594095971 0.000243663008274
0.013077067419 -0.00285307607175 0.000296525263071
0.0152207559226 -0.00190994947757 0.000369510631534
0.0229051311972 -0.00378640895948 0.0011104643171
0.0219300758508 -0.00519169622082 0.000923600998875
0.0326940007508 -0.000882651158497 0.00106160384962
0.0280478342517 0.001408000011 8.07042659152e-05
0.0257308935735 0.001408000011 -0.000115170418665
0.0326940007508 -0.000720301022772 -0.000877225826126
0.0326940007508 -0.00273835209572 -0.00113270404408
0.0311920624836 0.001408000011 -0.00144206964719
0.0269865948952 0.001408000011 -0.00159485609397
0.0286176051869 -0.00743399979547 1.69429504013e-05
0.0311795717604 0.00018623956012 0.00108031681126
0.0275157834824 9.24369580323e-05 0.00108886333758
0.0295037229455 -0.000264320016412 0.00112136811684
0.030122884919 0.001408000011 0.000752746543355
0.0218523415137 -0.00743399979547 -0.00192993977618
0.0212076778656 -0.00743399979547 -0.000107200270382
0.0198162326771 -0.00743399979547 -0.00163899417332
0.0208970301674 -0.00257868489951 0.000705803081643
0.0205975348631 -0.0041135348675 0.000644781805515
0.0206180981142 -0.00596528896876 0.000656043657353
0.0192832800027 -0.00218697391467 0.000178913220326
0.0189120065104 -0.00518119714524 0.000239411309159
0.0206712970846 -0.000318465382952 0.000553907175642
0.0186933136366 -0.000669049094793 -0.000129526151376
0.0316241644266 -0.00285986349605 0.00117998714566
0.0291926547122 -0.00464436865752 0.0010877108573
0.0311915893281 -0.00516985423048 0.000964074236119
0.0282242517675 -0.00615834536066 0.000967754889145
0.0263702063385 -0.00660894469828 0.00086752417692
0.0247541950138 -0.00521782672749 0.00117696259229
0.023073755198 -0.00625445928645 0.000946375436419
0.0181510001421 -0.00583849343956 -0.0020813365261
0.0192624747374 -0.00465431401227 -0.00246260782941
0.0203974492583 -0.00600715555713 -0.00293421077596
0.0215788671377 0.0011829107831 -0.00246997935359
0.0201470857768 -0.00147741270088 -0.00238651703543
0.0201960070516 0.000288192406578 -0.00221063054265
0.0186584407595 8.05123848593e-05 -0.00183825800617
0.0294831966697 -0.00137835331508 -0.00292680653818
0.0278268079636 -0.000862361762336 -0.00296124454696
0.0308083398574 -0.00367224802086 -0.00295988780779
0.0321895645387 -0.000466979172554 -0.00281398798881
0.0315106910376 -0.00207231298089 -0.00288666297476
0.02895875842 -0.0036164459456 -0.00301511540261
0.0311666989065 -0.00552527370649 -0.00300856660937
0.0300878000831 0.00100634531791 -0.00278257606883
0.0281432358199 0.000692848277341 -0.00281736838975
0.02591950678 0.00136944789714 -0.00274227845889
0.0218458463269 -0.00171800213943 -0.00284052603964
0.0233007361881 -0.000554235684256 -0.00285726990897
0.0212140475471 -0.00380938178615 -0.00290674013395
0.025462846144 -0.00183085655843 -0.00302143605427
0.0218364414193 -0.00546411097811 -0.0030136399497
0.0250473766718 -0.000388068505664 -0.00293440674644
0.0268141390177 -0.0066096333132 -0.00302299996838
0.023794467577 -0.00440461071431 -0.00302299996838
0.0258857024221 -0.00389846351402 -0.00302299996838
0.024770362173 -0.00650372383884 -0.00302299996838
0.0274301936104 -0.00474323776619 -0.00302299996838
0.0229413799064 -0.00681911220582 -0.00302299996838
0.0295712177592 -0.00590485182403 -0.00302299996838
0.0228343490276 0.000234621428725 0.00107590865088
0.0247653191719 -0.000520327594272 0.00114469343464
0.0220530489723 -0.00138267933917 0.000950644797113
0.0251021266103 -0.00209143721963 0.00125500001013
0.0258443604344 -0.00390057899211 0.00125500001013
0.0300421045638 -0.00220913930194 0.00125500001013
0.0275850947671 -0.00221447252004 0.00125500001013
0.0181840287199 0.001408000011 -0.000505710046617
0.0200464837581 0.001408000011 -0.00118816764424
0.0201469995081 0.0034998126561 -0.000528735228053
0.0153287315263 0.00575079367133 -0.0020375260677
0.0193367970606 0.00571974844144 -0.00209956216347
0.00759800011292 0.00201726984496 -0.00144928068611
0.0106483924709 0.0036099519842 -0.00271187257546
0.0201469995081 0.00425134716103 -0.0022367997934
0.018169654305 0.00193628794129 -0.00227135711372
0.0201143169499 0.00483985087951 0.00153293201219
0.0165192303984 0.00525464444829 0.00120158664073
0.011481622468 0.00542524813503 0.00101119947416
0.0134058069739 0.00356677553393 0.00153999996837
0.0149182740449 0.00405384994422 0.00153999996837
0.0181979407144 0.00327369473797 0.00153999996837
0.00991024402144 0.00470639386779 0.00121650769424
0.0185341138175 0.00474349004468 0.00150523761391
0.0163534149144 0.00275578334646 0.00136325496561
0.0114852502687 0.00332681738046 0.00153834799287
0.00851147968205 0.00245008802977 0.000851280032692
0.0105299074877 0.00202739747399 0.000429127848085
0.0126699026164 0.00237545948111 0.000898351496133
