0.07950804111757721 -0.021953120731959593 -0.005964736647461044
0.07837290988014199 -0.017038672858956924 -0.005875319243095201
0.07929106552780976 -0.018771097470160886 -0.0058548582545311185
0.07794326080865106 -0.023244203921463827 -0.006229881607967511
0.07846254862818564 -0.025012121522524102 -0.00625706015538412
0.07858997951763269 -0.020598018772816872 -0.006025356100877948
0.07946727963269226 -0.014070875541135525 0.003564390483075476
0.07931232042442699 -0.015796033374546013 0.0037370208881865727
0.08004199713468552 -0.02394084321907375 0.003227590031877788
0.07830688678278476 -0.011682886768201409 0.004345602734069827
0.07943607171785069 -0.011303069457092429 -0.002162413228939488
0.0788307415098481 -0.011376032221549025 0.0025941098692122784
0.0789936121413513 -0.011290898465724956 0.0004951908999960313
0.09321120503549614 -0.019768667485996153 -0.0019433244137732025
0.0914887043064715 -0.021742427717103174 -0.0023869753267970893
0.09266813162868882 -0.020272859833539797 -0.0005444682057986403
0.08004400134086609 -0.027457079511467954 -0.000680590109292566
0.08004400134086609 -0.01777635847928875 -0.0034910567429174808
0.08004400134086609 -0.028781173910562244 -0.0030963639403664882
0.08004400134086609 -0.023751599065057947 -0.0017930490826730055
0.08004400134086609 -0.020711654667282264 -0.002907251787112033
0.08004400134086609 -0.013342162566914523 -0.002036283743709385
0.08004400134086609 -0.02411543855461843 -4.163930457141323e-05
0.08004400134086609 -0.01788885481391433 0.0008053463552149854
0.08004400134086609 -0.01621344788697681 0.0012492741119719034
0.08004400134086609 -0.02030123237425415 -0.0012287014018966499
0.08004400134086609 -0.015041520589424968 -0.0026668491792828956
0.08004400134086609 -0.02002117677249703 -0.0046293292613994175
0.0918092370715028 -0.012035056563740808 -0.004131982137237908
0.09351643321242412 -0.01450595754951456 -0.0038231803991184404
0.09264660962605226 -0.010243514022447683 -0.003925426830165449
0.09461805947896647 -0.012012362593741695 -0.0035489343730894874
0.09297968552118785 -0.017129741910714872 -0.003982642057682116
0.09329624011411825 -0.012992250586094893 -0.003841090955434878
0.08004400134086609 -0.02096823363907971 0.0021389856808801608
0.08788417170459319 -0.006839012757542855 0.0014661264537121368
0.0862985064762879 -0.008143570516949368 0.0020121407883679954
0.08377899857679116 -0.008579628119856447 0.0013359111748085526
0.08235744122700134 -0.010026678138488277 0.0020871581939583455
0.08942421062142741 -0.006404285184774942 0.0017208344789725548
0.08590328712214258 -0.011872086648718244 -0.004694691180326738
0.08211400017308154 -0.01449516661968206 -0.005184409514228665
0.08263552067792629 -0.016386797976781133 -0.00536579289645971
0.08220765625749146 -0.01247310641276844 -0.004956148347734743
0.08384470956850457 -0.015058823761264616 -0.005155301624627677
0.08687891518353502 -0.013196495043915549 -0.004789459318082855
0.08398944591757126 -0.013233484504295323 -0.0049460700613062816
0.08774136312650417 -0.01113767925965153 -0.004516556845325044
0.08220696877342865 -0.024860311557806616 0.003316617314439989
0.08364077412413866 -0.0238372174395936 0.0032762050472583295
0.0806122441816599 -0.028830792317481112 -0.004680007020450079
0.08353126922505358 -0.028087100249975308 -0.0035307699810312966
0.0974979448991884 -0.010856390557951286 -0.0010649337560473995
0.09633279818130208 -0.014228450386243464 -9.582075302867787e-06
0.09705960932753971 -0.012257025546317343 0.00011291599292092807
0.08897426019053756 -0.00832143563934607 0.0023552883902446245
0.0907165988237308 -0.008752030132253893 0.002284971415744206
0.08623374863895802 -0.011307286773050231 0.0026848864976606523
0.08436605121028246 -0.014023541822305233 0.002950246507236548
0.08488851410011981 -0.017233679897448055 0.003113357085749085
0.08729663964216305 -0.012587584284604068 0.0027028280106215987
0.08758965593905788 -0.009188719463930017 0.0024834750629452074
0.08565439729462734 -0.013267367994632014 0.002834009414474217
0.08342023035079786 -0.01649749199024851 0.003150295058729326
0.08756747276950731 -0.014126678748703091 0.002779909701196909
0.09221550878619694 -0.008178309611590332 0.0021680331977725472
0.0893352973108764 -0.01000557315317075 0.002436068171553927
0.08562459750140294 -0.015387764655730411 0.002962418434310275
0.08794799232976054 -0.011114510995880789 0.0025788508188751428
0.0828539704988189 -0.011876169337906455 0.0028251051530477017
0.08136229370556536 -0.013009620296370353 0.002900949293339188
0.08250433776932209 -0.015055985920095955 0.0030894866690571866
0.08147548369460741 -0.016184445701326815 0.0031972729196824094
0.08225691384724161 -0.01904054689218906 0.0033571072555328915
0.08434238400600372 -0.012163594848702875 0.0028398798517626916
0.0809773536172362 -0.0178930373580212 0.003325111355439663
0.09230910168406917 -0.006451194808378252 0.0020453540533315376
0.08456787827208909 -0.010000455351268405 0.0026258216924606127
0.08295406935837549 -0.027979318471726855 0.0016248692118663907
0.08446078355601161 -0.02705068949918501 0.0016055623625559432
0.08776613431493555 -0.016135871249265386 0.002871175244857604
0.08992991943966963 -0.012303202844030105 0.002534641556078927
0.09224540869830997 -0.009817973468297497 0.002253730848864049
0.08641336831131079 -0.016955660772401224 0.0030043049634894377
0.08916097059190466 -0.01474614405451249 0.0027072187436080085
0.09422524282234604 -0.010411570951495672 0.00198052061572855
0.09441471523950659 -0.008349631754751079 0.0019489295905277385
0.09320164635477006 -0.011783151178241726 0.0021511864165203185
0.09497444320801385 -0.006372776415081952 0.0018556052923332973
0.09184679541407734 -0.013039073334851244 0.0023770827810265143
0.09154455910311614 -0.0181486788194986 0.0021778370959614967
0.09057627321724865 -0.01553148497374421 0.002551029588870976
0.09300764348495094 -0.014902750090453512 0.00204570295615813
0.09192615600657561 -0.016379230201011057 0.002198711082375461
0.08783012929169468 -0.01808706495636056 0.0029132318653294883
0.08314915314293611 -0.021905775245607457 0.003414652082273292
0.08622766487606146 -0.019244179484689483 0.003085360982065237
0.08489361245388238 -0.021251530921650164 0.0032253548908648434
0.08499845326687937 -0.022705886737560688 0.0031995186190009843
0.08898537710531797 -0.01924231036096135 0.0026258360661307496
0.08949449552164679 -0.017143061280991523 0.002668725329183631
0.08151487064192083 -0.029659546309489318 -0.0018203800586381622
0.08139705981848927 -0.029033977238443764 0.001470289578824535
0.08537175553474124 -0.027286276061507728 0.00013660924224774795
0.08379859094902406 -0.028172860736256453 0.00025344057560272587
0.09106894615459998 -0.020849784576535427 -0.004054547882122951
0.08983865040848077 -0.022171421355135376 -0.004012339806222424
0.08426837431858483 -0.026577791881317692 -0.004558301405160341
0.0886423887185022 -0.023539211137947352 -0.00389118486676891
0.0874562916853134 -0.024655592756920544 -0.003765421291463543
0.08585742096536896 -0.025604705657138394 -0.004178760066939645
0.08032379676711406 -0.011222893647252721 0.001851696969974591
0.08075145941288955 -0.010472497089128277 0.0006284751797116777
0.08075030383798498 -0.01034256289375212 -0.002658038746811166
0.08179271321831467 -0.008785158763270988 -0.0018107608536182267
0.08172608482380506 -0.009015390500905964 -2.921779589534453e-05
0.09115526965442507 -0.017251191295117478 -0.0043444672801728965
0.08956305536326106 -0.016762626037519237 -0.004635406118725609
0.09170942938835959 -0.013715996945973082 -0.004181671625857261
0.09012047528782896 -0.013392535232112718 -0.004474740156769125
0.0913540980581367 -0.015393216103946256 -0.004276265808797745
0.08266381304112214 -0.020072748756252156 -0.005625426630081046
0.08407746411393394 -0.021315551959551947 -0.0055759774039614044
0.08309420953799697 -0.022870709169470715 -0.005738643245398349
0.0853150424242789 -0.017073668830825346 -0.0052501277959799645
0.08358497789935178 -0.017831401269414376 -0.005431448745158815
0.08816955833133892 -0.014358620626261698 -0.004817743324666245
0.08650163354212599 -0.014856480987048313 -0.0049767967939086345
0.08907498180777092 -0.011919520787470422 -0.004529459303912353
0.09046462438598153 -0.010648952234605507 -0.004317260996379937
0.09656903994747237 -0.005308207608878424 0.0012873395776120994
0.09502852654619187 -0.00461327599782874 0.001336367356948189
0.09076952051385029 -0.02051933481335186 0.0018178056669108241
0.08762766666432004 -0.024810030995252984 0.0015622572585411334
0.08359035804038029 -0.02620614998965557 0.002790579802940462
0.08651211552877144 -0.02404072174940429 0.002466511087224574
0.08661931301000163 -0.022599925793590415 0.002756507240828366
0.08808794370449052 -0.02116637910383888 0.0026320813912607474
0.0811528462701185 -0.027667064200983787 0.002963918652755484
0.08514240812678153 -0.025875054546802265 0.002312085445880427
0.08047658346876911 -0.01131934714804191 -0.004627139908157613
0.08475465094253502 -0.007430945285271093 -0.002570556607043093
0.08297824326764702 -0.008314350182966255 -0.0030501243791856035
0.08230014099626676 -0.009751434662183733 -0.0040513637780290115
0.08426453724462907 -0.008507101472490461 -0.003712553830801969
0.08712095630158066 -0.006829692533280168 -0.0030295682891248133
0.08605916122889459 -0.007767974287646489 -0.00364380873450013
0.09199370312886013 -0.004784016504472454 0.000980675009949416
0.09317750565586716 -0.004107060569237453 0.0003347087986339769
0.08984185876020881 -0.005211709450104853 0.00043985732403426474
0.08400604677021697 -0.007492537304975572 -0.0009843944625676092
0.08673981186898333 -0.0064052859309083506 -0.0003747098295695092
0.08478916029607667 -0.007423941713907403 0.0004923408351157176
0.0880636284298627 -0.005922357132833738 0.0001645640576407096
0.08892995286833619 -0.01021254075173174 -0.0043507656583409385
0.08336144128977159 -0.010782883291308533 -0.0046571627257763195
0.09089802623925206 -0.008994568220783497 -0.004035677432851521
0.09260654244128676 -0.00761248295740892 -0.0036960711189437273
0.09328544809198921 -0.006257677332170654 -0.0032595909436854455
0.08578516304008897 -0.00962159676952656 -0.00433364796200628
0.08810891599422367 -0.00802041394708564 -0.003913203193869782
0.09360019974129787 -0.004328435500643757 -0.0025707448955325143
0.09059345029261545 -0.0066069797575903574 -0.003428540211265336
0.08165427059263591 -0.02443404377490834 -0.005874999798834324
0.08086443620755401 -0.02588163921788507 -0.005874999798834324
0.08125383790457079 -0.02224087526566796 -0.00582754513555719
0.08113329203835361 -0.016832344287330152 -0.005469235261087342
0.08094476301663862 -0.019230796776210257 -0.0056690148626655015
0.09795679844657654 -0.007536022566791983 -7.76988913408173e-05
0.09801100194454193 -0.007474551237625607 -0.0019521028961179193
0.09584997845058679 -0.009562646910837237 0.001590920825895174
0.09629722355908761 -0.0074166238508034 0.0014100405289788646
0.09464545572257912 -0.014481539128548765 0.001591057901100482
0.09392393971140771 -0.01630697743322817 0.001609653219817472
0.09335885393660842 -0.017738456458616717 0.0016239722483746002
0.09590267628834298 -0.011772443653314604 0.0014773121255359338
0.09446380943142581 -0.012780711496186325 0.001833790767901267
0.09690330072022738 -0.010735854050095705 0.0008015903653363827
0.08066688525539728 -0.02595782853045564 0.0033333025021681077
0.08131933164654452 -0.022650304861305523 0.003433738086697986
0.09511015228373161 -0.0039591644560213295 -0.00226705604082774
0.09067196185168094 -0.004958161349608535 -0.001840444140588616
0.09169530734228122 -0.004499326171801217 -0.0007224576192429047
0.08801174104583703 -0.0059437998172959475 -0.0018230114067950436
0.09490018265454775 -0.008463447205503695 -0.0033795692275443373
0.09730388008975975 -0.006042795447295997 -0.0022566697059134685
0.09576017215816021 -0.010458277521865665 -0.003232908585245253
0.09672243604711858 -0.008031593823707594 -0.0027036115828516227
0.09550508586958831 -0.006318380832553245 -0.002900253284379299
0.08059874736425422 -0.02734704859613376 -0.005874999798834324
0.08737382762477165 -0.023133294351351717 -0.004889905563472768
0.08588044565434572 -0.02386647470872854 -0.005247940224938544
0.08212428470379506 -0.0270635922253038 -0.005546039512795807
0.08604099558303972 -0.020809860828191452 -0.005247858793853958
0.0870566034483057 -0.01727037698384059 -0.005083407434591902
0.08946816413120773 -0.020282923579024458 -0.004654237541913746
0.08426804536582155 -0.024187778033808192 -0.005544431607937132
0.08995593268148017 -0.01857506869843663 -0.004575282966502888
0.08759199127039635 -0.021471751375856857 -0.004976159843478026
0.08506940472085403 -0.022426460383409397 -0.005411177619610333
0.08708409662940109 -0.019254304636378276 -0.00507190959951694
0.09268953243336651 -0.01913334315319665 -0.0038018837359910644
0.09436768882686997 -0.015838428699705722 -0.003493338128744488
0.09539090521601015 -0.013826707515541499 -0.0031902192706722877
0.09698824356514266 -0.010004284875348358 -0.0026298693211322197
0.09538340247459247 -0.0164270271476157 -0.0016290369609744558
0.09684299611702214 -0.012833772514577513 -0.001613814413566885
0.09381595991836372 -0.018490093821695253 -0.002611873495429744
0.09606234739935554 -0.014615342689552776 -0.0018337564428881313
0.08425149937168029 -0.02807898942353481 -0.001476615445867861
0.08623603854828088 -0.02657806365221374 -0.002180132149633277
0.08505615924548077 -0.027234314547035343 -0.003000327880199567
0.08713893025352325 -0.026026312937408383 0.0001106301492698092
0.08948620694487064 -0.023714451915951843 -0.0023707869595547514
0.08838745911718889 -0.024816189056619104 -0.001878569338883068
0.09575257640160062 -0.0035718742700196907 -0.0006634160191801654
0.0969961014413358 -0.0042179193815597565 0.0001786735677007798
0.09733867920394085 -0.004563701633085558 -0.0015233713404322743
0.09781876305455565 -0.006191893190785459 -0.0007416148992770066
0.09435084482737932 -0.018363976442544755 -0.0003717115197105753
0.08892576698320756 -0.023853840541258685 0.0009150429203845411
0.08996065093558858 -0.02248245662173512 0.0013094688467100374
0.09328892649938134 -0.019175587362886277 0.0009252828551202158
0.09540977179255475 -0.016535561688521022 0.00039148002151359146
0.09109281162052663 -0.021850758305935997 8.888958103092724e-05
0.08917521886942603 -0.02403026603813639 -0.0005319331124048228
0.060533092074531225 0.010235589749880775 -0.00635119476361232
0.06204764312163383 0.009931019377928934 -0.006136167395158865
0.0525894623595185 0.007397000212222338 -0.0038803474633353234
0.06049192815388352 0.007397000212222338 -0.0030263268925323585
0.054558145534637253 0.007397000212222338 0.002154819777481229
0.04630520854828087 0.007397000212222338 -0.0004967061093721704
0.04610419523164752 0.007397000212222338 -0.002285109309547431
0.0593338825345448 0.007397000212222338 -0.004398234429104402
0.04814876480727144 0.007397000212222338 -0.001489001968458847
0.05648492208964777 0.007397000212222338 -0.0011364748726950223
0.06024377322394686 0.007397000212222338 -0.0010034124248042516
0.05564688201688113 0.007397000212222338 -0.0024337560108907636
0.06340898105333345 0.007397000212222338 -0.0002871271171683747
0.054776539628193746 0.007397000212222338 -0.0009134575212958546
0.04091203911890715 0.007397000212222338 -0.0024583346063573952
0.05640175918685379 0.007397000212222338 0.0018422149619098484
0.06196271953581519 0.007397000212222338 -0.004920556538936
0.0542211953303348 0.007397000212222338 -0.0036026806748472584
0.05491641925784792 0.007397000212222338 0.0006677321028786134
0.053107158225861845 0.007397000212222338 -0.002055534189318713
0.04818672847416283 0.007397000212222338 0.0005652559801498324
0.04247304312193732 0.007397000212222337 -0.0013408131768102667
0.06038381066928364 0.011959999799728394 -0.0008927761686217148
0.05337206134174699 0.011959999799728394 0.00015502305696464829
0.04413050057694027 0.011959999799728394 0.002459770092466846
0.059056219918051434 0.011959999799728394 0.0003466925248454332
0.06313464023370857 0.011959999799728394 -0.000759247927393198
0.057853973981642604 0.011959999799728394 0.0014628810960214426
0.05528569336793124 0.011959999799728394 0.002526516508902841
0.05788598834186489 0.011959999799728394 0.0030159021885134284
0.05141192049559143 0.011959999799728392 0.003107018865712394
0.05052939451878832 0.011959999799728394 0.0012058236102301663
0.0650078720980879 0.011959999799728394 -0.000898785494504653
0.04738261543410978 0.011959999799728394 0.0018469039995215617
0.05497659975434473 0.011959999799728394 -0.00043216719266157074
0.05962881742948229 0.011959999799728394 0.003247681737906842
0.04088727560152587 0.011959999799728394 0.0004189284348497127
0.0641180386655487 0.011959999799728394 -0.0026486670428835096
0.03962489862946894 0.011959999799728394 0.0023283555845956243
0.05364542993074238 0.011959999799728395 -0.0017311507105362664
0.047187526414804844 0.011959999799728394 0.0003810769784227023
0.05588621516611525 0.011959999799728394 -0.003015467461094241
0.042778422402034826 0.011959999799728394 -0.0026784792758613256
0.04609942472598722 0.011959999799728394 -0.0021449730594715346
0.05201034157322704 0.011959999799728394 -0.0026463155341088515
0.06226079711096632 0.011959999799728394 -0.002451290764082991
0.05873227737212894 0.011959999799728394 -0.0015444049357141037
0.05221961310108633 0.007397000212222338 0.00231093654505667
0.04285967561912793 0.007397000212222338 0.00045510961692002227
0.04525415397430502 0.007397000212222338 0.002343496446914811
0.035846672204580834 0.007397000212222338 0.0003486453205834505
0.03885893916014291 0.007397000212222338 0.00025745343217514023
0.050652557868885194 0.007397000212222338 0.0019367519037515762
0.033591472874486494 0.007397000212222338 0.00015443579053912805
0.04676410887738593 0.007397000212222338 0.0013362666825573349
0.044606408399523664 0.007397000212222338 0.0002986429665056845
0.042386444206781324 0.009481725844038828 0.0032987791731274715
0.03771803184221912 0.008929406051768039 0.00235267403648893
0.04380944754291617 0.010585819732244584 0.0036680458062788752
0.04061797732501084 0.010229091621153513 0.003023061795345419
0.03848541342523678 0.010826060764208322 0.002664280055868777
0.034199406640556644 0.008317902515175488 0.0016227127583106063
0.039150374553257344 0.009329268897284327 0.0026628685847223717
0.06388918342973249 0.007397000212222338 0.002857330262450478
0.05125353021725752 0.007397000212222338 -0.00511554154166817
0.05506338947936108 0.007397000212222338 -0.0053120623369461405
0.05610689885423771 0.009000716461751823 -0.006132702073799033
0.053239042252537956 0.011556407330172176 -0.006321689503387783
0.05645152577319297 0.010675939701889027 -0.0064590311876394964
0.054781970328916865 0.010470626011280446 -0.006270933546719031
0.0462070612752378 0.011959999799728394 0.003651701118108186
0.051182560033762696 0.011959999799728394 -0.004171563055792224
0.05634373728818891 0.011959999799728394 -0.004494799458258612
0.0529030074240313 0.011959999799728394 -0.004420028663816871
0.06485178844919842 0.011959999799728394 -0.004337038879201406
0.05753862142155532 0.00797619002887614 0.004440469215725643
0.05692342422289766 0.009323649291035473 0.004611170973136545
0.06011935476985468 0.00938838605135229 0.00467321297736977
0.05402562547759335 0.009742499992187754 0.004618777312910566
0.05183916270633955 0.010674294019009534 0.00467800023034215
0.055917715957840064 0.010703515010699964 0.00467800023034215
0.04927881789366581 0.010817579881268751 0.00467800023034215
0.053316001034395044 0.011224864351389488 0.004678000230342149
0.038735465555552094 0.011959999799728394 0.0009364899625019758
0.06722111642034177 0.010186401708249998 -0.0031523874493380533
0.06658069583153392 0.008502205362301592 -0.0026620032928810237
0.06623634228323752 0.008191241238246213 -0.0010470510931022553
0.06698592974588269 0.010127201323256884 -0.001336596319733688
0.03938563723120639 0.010743044557609958 -0.003684305901609559
0.044589039393742175 0.010603950843557338 -0.004886796300194434
0.04625928325308633 0.01130547912635886 -0.005116100138593807
0.06375388019365197 0.011233885575236559 -0.005682004559204557
0.0655395641145056 0.008370388674123975 0.0020714897541899728
0.06628185589049519 0.008985199603056004 0.0006346425119836892
0.04165789567573847 0.007397000212222338 -0.003940358494934807
0.04363832308331133 0.008219386441287524 -0.004403238412157629
0.04804609088538115 0.0095040993649955 -0.005262219850193453
0.0501725082502996 0.008854673256635111 -0.005393840760563675
0.03696744399491272 0.008024447342158196 -0.0034929814255549602
0.04516737857720017 0.007885890764430505 -0.004527625063822602
0.046100165027324454 0.009274086166807437 -0.004958116967730891
0.053472072346393035 0.008052523837475458 -0.0056438762482871685
0.05239568340719085 0.009362091737213096 -0.00579577460856824
0.05084877144024772 0.0104097901835102 -0.005828189002788356
0.038910408002853905 0.008626168572750045 -0.00386545266324059
0.0408935036653182 0.009106447499949898 -0.004234124412403406
0.043087914144414846 0.009858744294756923 -0.004654716740642265
0.03884217880690112 0.007397000212222338 0.002083523801681396
0.04108829045381857 0.008307490640669966 0.0027455978336027444
0.03588366092278904 0.007981059005405754 0.0018972458429536458
0.0456718761081393 0.010035367450939432 0.003956945703013394
0.05481340985365121 0.007521462759312916 0.003807124915202207
0.05208349242162391 0.008287251636292445 0.004062245104510304
0.049639466906931544 0.009396270327669515 0.004207437380482834
0.04994743119919294 0.007805471267752026 0.003627930680347929
0.043991483027111936 0.008562152735332774 0.0032291449741117767
0.04655660940532923 0.00758384447112847 0.0031485652883465106
0.04790435460896336 0.009191622015114639 0.0039268539669537065
0.06238524686233161 0.008668903540020605 0.004194769164098087
0.06402510026429703 0.011758381251280859 0.0026693174745559527
0.06536861415687292 0.01036907997805983 0.0016288634189757759
0.06653730015183558 0.011542293831503063 -0.0003692124041122177
0.06407838394354758 0.010156636332119691 0.0034168959648089832
0.03632169906478494 0.010193770720366731 -0.0028238537635283103
0.03780680681273835 0.010909714833687825 -0.003038803604592397
0.039334561737814806 0.011846106508355578 -0.002549487580028227
0.035442556867229816 0.010258566952374176 -0.00044240308689802893
0.03749967190024128 0.011594716263599888 0.00010932593676254075
0.0367996306961135 0.010876527679695745 -0.001228509705175191
0.05167326478797206 0.011714897503021383 -0.006138671560891004
0.049427095378453356 0.01180025592766068 -0.005553350527450025
0.0622297510147894 0.01186178549503324 -0.00598398729468494
0.05052421017146459 0.011959999799728394 0.004666351788717141
0.06462432332381801 0.00815913527765851 -0.005450305169546619
0.06633356329847971 0.009033884644212151 -0.004481398790993223
0.03680639548493471 0.010919422058067958 0.0016532761214340214
0.03526543235099203 0.010118483086949256 0.0015061810573550837
0.05885878901459943 0.010857117437382335 0.00459020637560534
0.05728796850329443 0.011456823003956191 0.004602084570723015
0.06284399073626266 0.011393708547695176 0.0038915484050235398
0.06108464317744419 0.011437694152878502 0.004296415937288332
0.03360912401643386 0.008747569896470877 -0.0015771420122646794
0.0346720614403965 0.009104944519471707 -0.0025637303427854586
0.05855493520016914 0.009743200044687223 -0.006461760329088554
0.0587311473879487 0.008085870963184643 -0.006019922849368914
0.056760899231091747 0.007498789836321073 -0.005893913114851426
0.06393952483922533 0.009626426040274083 -0.005857719253721181
0.05877756335283396 0.011197053502344434 -0.006649877464148805
-0.10134095479482245 -0.012207544820178122 0.001133722973827716
-0.10001033322640038 -0.013476009627376639 0.0003935063922120781
-0.09980910381010218 -0.00834335083395418 0.00019648922975993614
-0.10249709830756895 -0.010697494585890406 0.0015399999683722854
-0.10235461307405169 -0.008993856947771448 0.0015399999683722854
-0.09308099746704102 -0.013769186042319737 -0.0012178131367023355
-0.10095237272563479 -0.013082111374336559 -0.0013968381414944046
-0.10203009339066613 -0.011868464318164174 -0.0003364482263703397
-0.10335009246323337 -0.010410132444797953 -0.0006971863535981932
-0.10243794389367941 -0.009206077759374962 -0.002319578596627022
-0.09520016421815095 -0.011626490101867785 -0.002319186068421405
-0.09434073133773319 -0.013573898267311028 -0.0026803655426995165
-0.09969442498130593 -0.009378009428088623 -0.0022882213793888953
-0.09817253617211225 -0.010880292493686623 -0.002437420091535017
-0.09353072114192014 -0.015374754210825951 -0.0017694047901991553
-0.0992678927176046 -0.014603549515952684 -0.0007180928345016334
-0.09531019324517517 -0.015481073576287786 -0.0020795812611400367
-0.09470710829464118 -0.01585230872706658 -0.0005798933428177774
-0.09832921970331658 -0.010195285288153985 0.0012600076612284932
-0.09394907044090878 -0.012316289858739754 0.0007656081900083336
-0.09640172294252108 -0.011602316565655859 0.0012061155237732253
-0.09804419307661036 -0.011921137793108274 0.0014087395066740007
-0.09988968649494465 -0.011143997663378476 0.0015399999683722856
-0.09503786252829519 -0.01319173837369471 0.0011648235009151435
-0.09712129493882839 -0.009596379295510318 -0.0001492422809189546
-0.09436264757353652 -0.011131906151292129 -0.0005957439257534234
-0.0956883067299002 -0.010405147850819557 -0.00031437362276215885
-0.097998080216881 -0.009162982396239198 -0.0016289928562170694
-0.09351872105482986 -0.011846643121311493 -0.0019770527654787823
-0.09646157124967239 -0.010301354655551272 -0.002079789569165893
-0.09644554458514117 -0.014437837904959921 -0.0027324103136676624
-0.09788226105560197 -0.01292264362026983 -0.00264105413984386
-0.10018902206851914 -0.011476150368102874 -0.0025497753480980445
-0.0941579806077932 -0.01502914291556637 0.0008809492611041536
-0.0976551515924564 -0.014871767657112744 0.00048482681192690174
-0.09648412260560438 -0.015726885333109897 0.00025162905317764676
-0.09674357156048231 -0.01351322594772502 0.0013086735061906176
-0.09875291267823474 -0.0132665736305591 0.001322382876640053
-0.10197471849117148 -0.012141957488855621 -0.002283858751217699
-0.09682912539398926 -0.015610432249533094 -0.0014137849501655304
-0.0993717397841716 -0.013897908098131254 -0.0022959078319685082
-0.06332234610611026 -0.009184921103977669 -0.0017129794053287466
-0.06879211645938381 -0.009063247225325826 -0.0015475220025788548
-0.06540427891105542 -0.00941007205980067 -0.001784515205117947
-0.059698450448801635 -0.009257472347814662 -0.0018186055743409384
-0.06170259014319081 -0.00930505790960117 -0.0018036514137706045
-0.05435284225684754 -0.010633422043936249 -0.0026031837069070895
-0.07596299797296524 -0.01208629782127889 -0.0006356674183927952
-0.06816026426285272 -0.014845217899512443 0.0006422199801634352
-0.06442773670122941 -0.014711967005402074 0.0004857594615913873
-0.05906863517828311 -0.01395964719145602 0.0010924406624736073
-0.0632208085221661 -0.014183648268659877 0.0011542130051042433
-0.056783163619654034 -0.014139056112626924 0.0006098721870952142
-0.06780467052447525 -0.008289000019431114 -0.0003739885335825606
-0.07594747127936474 -0.01020622540306333 0.00034802095058071645
-0.05244441829905538 -0.010423779349128508 -0.002491791018260634
-0.050340922289023565 -0.010944376960586581 -0.002409822637139809
-0.07305684696558722 -0.00880499267760317 -0.001329363178090483
-0.07341623384539755 -0.010571145425664352 -0.002119193890913233
-0.061588933186891216 -0.010730483476489347 -0.0024764292674987073
-0.07052345022420216 -0.009384741517904562 -0.001652562815222756
-0.05996385073975439 -0.010651894088115992 -0.002480084484816178
-0.07471216622691332 -0.009760169354051974 -0.0017212934447779077
-0.0674089499058132 -0.010731785841843264 -0.002336677449648345
-0.06944134232386072 -0.010991281366613929 -0.002404990208947038
-0.06390918607611856 -0.011378367647379598 -0.0026325295386465533
-0.05792853249403769 -0.011022663892783498 -0.0026822748479725313
-0.0683513876406316 -0.012468974539095526 -0.002700555211556972
-0.07426912392694876 -0.011942093450293149 -0.0025396975189203013
-0.07213123293883782 -0.011769315495166747 -0.0025516842713261814
-0.06549483551591541 -0.01227512202625797 -0.0027212720132287357
-0.07596192384365835 -0.01074289737482443 -0.0018025887331717004
-0.05263939162845396 -0.012321562273793801 -0.002736999886110425
-0.058790193265982144 -0.012704980353608529 -0.002736999886110425
-0.05592659079182058 -0.011333682366824437 -0.002736999886110425
-0.052957817762365855 -0.013803494944440772 0.00035266993826251874
-0.054488807674289624 -0.01394349423151503 0.00046718849314674507
-0.05783284098123249 -0.012792606266856504 0.0015584074303321535
-0.052108295983471366 -0.012464587224179912 0.001153159589115399
-0.054973341612723686 -0.012106589494844701 0.0014294959757423118
-0.05037066480366166 -0.011952144838301912 0.0010882794793739745
-0.04917982496397126 -0.01125003176926874 -0.000946353696226565
-0.049206394050572276 -0.00978594451207646 -0.00040799565524594883
-0.06993104455076854 -0.015007899360929975 0.00011086594488512905
-0.07150156914619332 -0.015075964373190615 0.00019932040426888037
-0.07154544763045001 -0.014304500608786885 -0.002025760397695053
-0.06412391080319536 -0.013736204870210794 -0.0024011369592348304
-0.06749935310104407 -0.01364124357753574 -0.0025834282649967975
-0.07374015394674996 -0.014152417245007612 -0.002234520023743169
-0.07539823216829619 -0.013844982634840016 -0.002584548017073426
-0.06966766122345104 -0.013747770862041306 -0.0025331955492440103
-0.05455043908928261 -0.012680933458689661 -0.0027007541343669695
-0.06219265407819576 -0.013183853900667505 -0.002669566687834748
-0.05084104019363247 -0.012854446539613377 -0.0024613025875452133
-0.056834420584190165 -0.013631299596472031 -0.0023026400123757488
-0.06552865570153169 -0.013927154119764073 0.0016251007741310427
-0.07083969235409351 -0.014135066103169957 0.0013759680451665597
-0.07261815729420318 -0.013970586542100281 0.001443125979005106
-0.06070748740035947 -0.012765598211014782 0.0017193049461576393
-0.06255003267481729 -0.012663711699224525 0.001787109163722567
-0.07304164597967053 -0.010989952793582062 0.0011433430689857427
-0.07468597867729203 -0.010858321849682042 0.0010432172716644185
-0.06758500902541677 -0.011203236304460601 0.0013720284263030419
-0.0658865308087824 -0.011761361029704499 0.00167106970911052
-0.07412876810878588 -0.00894881573192481 0.00017165838209410426
-0.0706977389418697 -0.009973682502883174 0.0007282072633969865
-0.06991586519358249 -0.011633208920190227 0.0015157985823259787
-0.07163641306941573 -0.01138709028921232 0.0013608082077829408
-0.06895334891221945 -0.010189134261805241 0.0008599425575898087
-0.05513658314167814 -0.010222050347983297 0.0010241902578588076
-0.06299682290691971 -0.01114634488401663 0.0014067280607373302
-0.06538245101801127 -0.009988500080093905 0.0007968305802584098
-0.05287877674117819 -0.010326880613026095 0.0011012268631434272
-0.06041159714827382 -0.011120753881348151 0.001421434779286833
-0.06228768097076235 -0.009986519747887394 0.0008288990105215918
-0.07239934892014649 -0.008734850409346477 8.909121283460906e-05
-0.05893656899120804 -0.010417218346423918 0.0010820954205224202
-0.07397160929139374 -0.012663898065863988 0.0015873902575485135
-0.06714852920335203 -0.012875965714495313 0.0017435577515091314
-0.0642690305285182 -0.01248845834350883 0.0018117368722671912
-0.06881500187349084 -0.013574244742915572 0.0016972318271613572
-0.050152518437742946 -0.010366364188195256 0.0011249175105341885
-0.050867491722380115 -0.008347422531433862 -0.00022524719745943534
-0.05355617134050542 -0.008289000019431114 -0.00031766413037926755
-0.055544487859621905 -0.008499881356189821 -3.922228106999147e-05
-0.06022308432694072 -0.009619300811546194 0.0006602922061240313
-0.06395665030387837 -0.009309668465286653 0.0004668059210000409
-0.05883963582809406 -0.008923312110242417 0.00022537553824250606
-0.06978550024837395 -0.008431968636686151 -8.166028849450585e-05
-0.05728063380467135 -0.009619668837273616 0.0006605221818733009
-0.05803679157056506 -0.014480274224759117 -0.00020740050976646515
-0.06820242493742945 -0.014957162672695411 -0.0009503981858701712
-0.06078886095333145 -0.014609378831348455 -0.0003288930094604797
-0.06610116866159427 -0.014858588898889469 -0.00077618582215031
-0.05156556008459596 -0.013842894954076592 -0.0012050694399894227
-0.053929314008440574 -0.014112641771631058 -0.0010879735839426806
-0.05900095871797693 -0.014034136997504306 -0.0017889970935283798
-0.0626280879053909 -0.014568488905004614 -0.0011299631234577467
-0.055651332950648086 -0.014285292931198318 -0.0009343389715208619
-0.0730450572119666 -0.015122997993997127 -0.0007579479926638713
-0.075389919360839 -0.015037183209975357 -0.00038813111717786816
-0.07421746440473642 -0.014763596557169033 0.000833373533170611
-0.050603635952095966 -0.009118263319721391 -0.0017714864964455184
-0.05822179605087002 -0.008696651281954997 -0.001537367052912487
-0.052262481421951563 -0.00875504585208266 -0.0015697933193352064
-0.05681286623835611 -0.00954733257055232 -0.002009746899952618
-0.05390741802682984 -0.009158179074596672 -0.0017936515521899165
-0.04520864756371097 -0.01128783505450574 -0.00297032989921582
-0.04688197735126888 -0.011785710555897302 -0.002875619804710688
-0.039177000522613525 -0.00939168593360717 -0.00091941092520339
-0.04289559472830033 -0.009136084464966087 0.0002673539861308504
-0.03975084852239655 -0.009831852184621827 0.0006630446095302138
-0.04459144028328464 -0.008574907465551507 -7.889341515040532e-05
-0.04592235228043116 -0.0098111761318161 0.0006818573781208121
-0.041688021570206776 -0.01036073044936641 0.0010021002960490515
-0.04795736252581305 -0.010321100223139475 0.000958820636805646
-0.039177000522613525 -0.012666146004653281 -0.0020850140299169136
-0.04313811886780365 -0.011343764609445039 0.0012261029735511214
-0.04480436324489468 -0.01108267486437732 0.0012161673794962523
-0.04658407333626823 -0.01138147816636155 0.0012140391394222904
-0.041588063071927445 -0.012003315419765462 0.0012115538125413508
-0.03983375407059043 -0.012409775985111029 0.0011210234104915477
-0.04398160163410479 -0.013110452313166106 0.0009444920780236931
-0.046532331224869994 -0.0131553353176579 -0.002042852990611872
-0.04131914759169796 -0.013036304327622804 -0.00221696162326594
-0.04367139429974978 -0.012908186232976654 -0.0023579679254911662
-0.048820809805700034 -0.012641707832981222 -0.0026497565360140713
-0.04250244428766306 -0.008290000259876251 -0.0011198701148273059
-0.046195766356674786 -0.009956308670522804 -0.0025688595228589776
-0.04375127369377346 -0.009801320706430989 -0.0025319092975501067
-0.04034751010788677 -0.009241310021150272 -0.0022156978074919995
-0.048124519780905275 -0.011884592265834541 0.0010724999453758258
-0.04131407259243533 -0.013765879235224487 -0.0005698307377508539
-0.044066374008642314 -0.013869075257461633 -0.0008109432658459656
-0.0487456450022136 -0.013556324738053351 -0.001436737197916781
-0.04550164448822659 -0.013761884078172693 7.920702606706122e-05
-0.047412992659756056 -0.013746608843840567 -1.7982517632508747e-05
-0.048957382911327715 -0.01269260705972373 2.9593961450172453e-05
-0.0481364240536672 -0.00946743593661935 -0.002088304161929881
-0.04838472420715663 -0.010934113469382481 -0.0027974954194750525
-0.04260372599546873 -0.01155506196667757 -0.0029493624721033435
-0.0410070376811182 -0.010591241898899536 -0.002862485454874026
-0.10154899745492826 -0.006924026314253508 0.0010612690944320521
-0.10153412636036835 -0.004668317715031856 0.0009153311497964589
-0.09987271166767435 -0.006570019918219095 -0.0009986233391826244
-0.1027299762956565 -0.006936573848054522 -0.00204043596401829
-0.10106192122439767 -0.007957872093141416 -0.0021200442445448294
-0.10340272129925729 -0.0052507850496228605 -0.002058093093853057
-0.1033454394654094 -0.0026449037939289587 -0.002163994874761931
-0.10394712920232145 -0.008289000019431114 -0.0017182558321959531
-0.10558040036918459 -0.004783251956160413 -0.000529232879981583
-0.10335393797963685 -0.0017290000105276704 -0.0004780497392255071
-0.10506238877183623 -0.0031401497782931067 -0.0016705391884229447
-0.1043779138429632 -0.00635472539053279 -0.0018525095277797624
-0.10029500501328112 -0.005504443801453061 5.396688493449712e-05
-0.10134832617112687 -0.0027284873459352144 0.00047613846625008485
-0.10155266692766862 -0.008289000019431114 -6.4064569975801e-05
-0.10320662196114866 -0.0050796673198617946 0.0015399999683722854
-0.10336818342987657 -0.00709117830225475 0.0015399999683722856
-0.10388065534019035 -0.0032786727389978944 0.0015399999683722851
-0.1051388542350837 -0.0030403758953010756 0.0003638766139924168
-0.10514105447188828 -0.006720738041436913 -0.0004881077126425269
-0.1040493907503276 -0.008289000019431114 0.0005461065424230179
-0.1045980424340922 -0.004752132414893587 0.001213717993622203
-0.10081379505575191 -0.002770192259890171 -0.0013296286858347163
-0.10085509281216079 -0.004973076446516046 -0.0019460298037073348
-0.09910324511762844 -3.867928173530589e-05 -0.0011324364774663463
-0.10059609579570707 -0.0007974962246531868 -0.001824331437844274
-0.10238040043397384 -0.0017290000105276704 0.0009358921542646845
-0.10017806591525921 0.0037293506771093263 -0.0023824037285268018
-0.09980905997068394 0.0053085041209415575 -0.001927537584162589
-0.0979551477688905 0.004874416348591749 -0.0021578413932121024
-0.09649129957142832 0.0067300606661953866 -0.0012530367460962554
-0.10010264673160175 0.0026428618205179516 0.002392854914307599
-0.103302216540383 0.0012945138705048056 -0.0026127653418507035
-0.1038471172099661 -0.0012199119908606949 -0.002088270486479608
-0.1037487214586622 0.0012615825610841872 0.0012630808856169313
-0.10054654872320262 0.0013380000479698917 -0.002274986660657211
-0.10210990779095476 -0.0008880296388120608 -0.0022772065616309405
-0.09893932862376886 0.0012573285711676705 -0.0020377410031530464
-0.09607021644419664 0.005160891184317267 -0.0019577263463601627
-0.09773931694537137 0.001185674613202296 -0.00013442852698406041
-0.09659146941402708 0.007062293667267258 0.0009191278840503443
-0.10036017894533777 0.004644558142895537 0.0017834996874069417
-0.09822035878685878 0.005238739112082178 0.001630835102464671
-0.09639914528573179 0.0055285208507325784 0.001571210517180182
-0.10186922793047155 0.002274393885863859 0.0025264750761077744
-0.10345607604649848 -0.0011800698634994319 0.0020366908360225705
-0.10487492470331605 -0.001227745505742294 -1.1372744304258796e-07
-0.10173929096047947 0.004317722795774888 -0.0013286266478634682
-0.10138903112812665 0.00473905816028058 6.99137522796328e-05
-0.10282625701415526 0.0031357663661092604 -0.0019912480692091173
-0.10446323777078853 0.0003854197731109118 -0.00201581323372633
-0.10396537777348244 0.001800802570269823 -0.0008089380943402881
-0.10267294454222221 0.0032751716216765916 3.9446485622933686e-05
-0.09652206367631291 0.0023236144477152038 9.202563950537971e-05
-0.09870256263078185 0.001719524285166257 0.0013817650881728068
-0.1003827443060292 -0.00022751472455361551 0.0010476895570850169
-0.10097671909248276 0.0007145389048532528 0.0022487314925568884
-0.10252889586638801 -2.956114150132541e-05 0.0027933959773841503
-0.09753533789624075 0.003126555355340307 0.0015946951274057098
-0.09798286644548222 0.00708596021570098 -0.00026918273843441786
-0.10017217459959125 0.005991366892284716 -0.0004896330242904385
-0.09536399692296982 0.0036776365043993207 -0.0009052333554788181
-0.09722329070802624 0.002046899060788404 -0.0014088585122349747
-0.0240169174392501 -0.01122328471644847 0.0013365582571428674
-0.018926000222563744 -0.010057380841286183 -0.0004176511623420602
-0.018926000222563744 -0.01182690339768155 -0.00129489856954081
-0.024150045954526328 -0.007841711745140263 -8.802404241331484e-05
-0.01996882942522758 -0.008430507411178609 0.00026848947533396794
-0.02272523507712002 -0.00881015523527845 0.0005796927677781623
-0.029292635595428086 -0.008249136162425234 0.00027853236901245857
-0.027828462829811128 -0.0074339997954666615 -0.0005497205327670235
-0.02706209624510654 -0.00897712231488644 0.0007271317058019546
-0.03203099916506139 -0.008275208940336513 0.00031849928612686566
-0.02458796331136457 -0.009204475717938516 0.0008553175875085397
-0.02938360016877348 -0.00993442841119629 0.0013283477172136814
-0.039174001663923264 -0.010929171055590995 -0.0008936143216820838
-0.035263430034103656 -0.010732200855115013 0.0012251823317010547
-0.03791665187510607 -0.011315317923191261 0.0011507520957167708
-0.0356199941267357 -0.008590022080677814 0.00044265013301105806
-0.03802599532535486 -0.00821683275339016 0.00015879081127286257
-0.03230651901575272 -0.00975541357121476 0.0011077059514807677
-0.03745388184645543 -0.009745861957179892 0.0008323726290873667
-0.020098081562906007 -0.008429685098632147 -0.002330837236784171
-0.02106841688226649 -0.009737839767505023 -0.003197511639179322
-0.02037803244068757 -0.012413932571899926 -0.0019351686985472208
-0.021993807969013998 -0.012588650718535075 -0.0022975865983561796
-0.021483122624615065 -0.012766277357647453 -0.0005767628979109165
-0.026104482910540974 -0.010887349034919173 -0.0034617646591504486
-0.020293454666450196 -0.011377526931196586 -0.0030737898767545114
-0.02848946114144646 -0.011314328515921738 -0.003262344754885649
-0.0380870445544129 -0.011933644203672728 -0.0027768048978767074
-0.035085627583752416 -0.011719925435922542 -0.002935021454640205
-0.030926765523788542 -0.01139016536236358 -0.0031649473468924293
-0.03213591026096429 -0.012426736765220301 -0.002728188167727968
-0.02704207605978798 -0.012278009992591786 -0.002850078509057477
-0.022548025440492617 -0.010953915863652169 -0.0035425982942734386
-0.03850525963382653 -0.010076941735287864 -0.0025678270679438766
-0.03322970353793173 -0.010802321764957004 -0.003221025296155951
-0.03670872151919302 -0.010920354478602599 -0.0030826532077240613
-0.02475049639387443 -0.009712588523128346 -0.0033564502155138507
-0.032868466737391314 -0.011792845132989466 0.0014572255037171166
-0.035339112811831476 -0.007433999795466661 -0.0014502916195083854
-0.028016726594171693 -0.008104787269340741 -0.002171720794036107
-0.022959717409293534 -0.008901191988673072 -0.0028540685243752767
-0.029837923792750815 -0.007699235287923755 -0.0018242498821529752
-0.02615278009730614 -0.007972434217864373 -0.002058322666066604
-0.024593693879387174 -0.007812917288360508 -0.001921650931010982
-0.03818260907960509 -0.008361920888833174 -0.0018768781472649162
-0.0308671339961572 -0.008737287980651251 -0.002545523775224294
-0.035256908382181235 -0.008799624002833937 -0.0023154928899028517
-0.02690546546015823 -0.009255440615513926 -0.0030358464805135036
-0.03248465008597578 -0.009209999723900136 -0.002682127452461193
-0.028998925777570655 -0.009329227916326309 -0.002947832155036265
-0.036755740050714886 -0.009199870634177383 -0.0024234779037679765
-0.02711279488916115 -0.012699572039150083 0.0005866904217156403
-0.024219553942515317 -0.012914943396693336 -5.6995741119045845e-05
-0.032574800090668085 -0.013268868931117072 0.00011337427202153383
-0.031055521672317198 -0.013217198420365912 9.100684007068324e-05
-0.03426854504158236 -0.013143452718622833 0.0006194802889141997
-0.022797582411611977 -0.012108054658143875 0.0008697916930160952
-0.020684977200693365 -0.012057339668478224 0.0007579810382299975
-0.030828855335761986 -0.012201040149012412 0.0013262556316798204
-0.025151734644023184 -0.012127307007784274 0.0010215795835534064
-0.030029089583907057 -0.01277312335687526 -0.0024532423101283744
-0.036525627867527964 -0.012862905619720885 -0.002390616257140926
-0.039062702013171996 -0.013422000221908094 -0.00013701452259321683
-0.03430932747248633 -0.013422000221908092 -0.0012846657583909676
-0.03636272528431851 -0.013422000221908092 -0.0009230448279015974
-0.028922258599564918 -0.013260274224742848 -0.000499261644769839
-0.03745556672994245 -0.013390458257446875 0.00029953371370037787
-0.03184793875991128 -0.013320853504903467 -0.001479307636604729
-0.028311863934686494 -0.013001468709463601 -0.0019958032252602553
-0.02319187806081833 -0.012977639911782487 -0.001483673304721277
-0.025259970653602103 -0.013047137880027388 -0.0016401013282239772
-0.026791248882401343 -0.013180508274849699 -0.0011271968642611752
-0.026004686639099578 -0.010294019099517012 0.0014485361076483371
-0.0204626999078407 -0.009940543296638127 0.00114176660321631
-0.022011078377205888 -0.010492010680429027 0.0013358201795594176
-0.029198059823182368 -0.011610380715731373 0.0014922249464952699
-0.027642411278068758 -0.010694491921199607 0.0014959512341392075
0.013184409764505512 -0.011030114066139627 -0.0024499978572791207
0.004862205713703315 -0.011251239553615674 -0.0032489743442636
0.008107446555008701 -0.011047516463463884 -0.00300799333848111
-0.0182516447488699 -0.010611651246356539 0.0010164910464480024
-0.012419059868355167 -0.010509565883281526 -0.0038789999671280384
-0.01481759918849805 -0.012240127985953714 -0.003088868663868397
-0.016596069062495986 -0.012310368688150268 -0.0017491287678202824
-0.01368524971671044 -0.012479002570598908 -0.0015994154248322148
-0.014172807455663754 -0.01241438765917445 -0.00017449222125211949
-0.012522325443440683 -0.012557019197746967 -0.0029610418261819824
-0.011238641428175572 -0.012543817239652649 -0.0018054937736739548
-0.009190030958814457 -0.012538740628256481 -0.0003894474553578385
-0.003984198675041461 -0.012392665875811705 -0.002185786123636166
-0.008024209273732465 -0.012512991367368697 -0.001747353430716423
-0.009196881965031808 -0.012485976621332818 -0.003145379290769708
-0.0056821803152823595 -0.012422438484295301 -0.0025136927024855425
-0.01675869164436258 -0.011628841970580454 0.0009034880580638777
-0.002438483553082243 -0.010757486863136656 -0.0038789999671280384
-0.0065752713206305435 -0.01053409442761571 -0.0038789999671280384
0.005710406894218926 -0.009870451620093014 -0.0034858652644395517
0.0015615093946779266 -0.010862181544629554 -0.0037048825095240406
0.009479925865161514 -0.010165039179132423 -0.003258959363362415
-0.010817407242790202 -0.012250945800470783 -0.0034345548606513443
-0.009811980505750518 -0.011189764226577907 -0.0038594738895641086
-0.013824787509229127 -0.011331750395106628 -0.0038026196938877334
-0.004643079233289962 -0.011204005576047484 -0.003853771358973777
0.002088060089993201 -0.0074339997954666615 -0.0016881008184642435
0.006086824772100526 -0.0074339997954666615 -0.0002881652359202586
-0.012328923467637313 -0.0074339997954666615 -0.0005585576907022004
0.01168555819006455 -0.0074339997954666615 -0.0014410589736824934
0.00022702763203674703 -0.007433999795466661 -0.001154049859011557
0.009930667353845481 -0.0074339997954666615 -0.0012191438804060046
-0.010992813803784132 -0.012459444380181657 -0.00018578783314722274
0.0009305248369744332 -0.01194879874002765 -4.248599207861922e-05
-0.0033986825097329773 -0.011126369269295958 0.0008799336010176641
0.0037602556356048475 -0.011541228273650478 0.0002648691621777713
-0.001023675293721692 -0.01109373635905456 0.0007956350976886361
-0.008274453086702434 -0.01085402849516066 0.0012916579568910105
0.006756481339328907 -0.010793235450392905 0.0006556510802134534
-0.006567344194258799 -0.011491626959836732 0.0007001828479693394
-0.012971944126555212 -0.011238862452942361 0.001156614803116887
-0.015080864190345235 -0.01140120456559594 0.0010798168695715256
-0.008386498649601249 -0.009924655970334418 -0.0038010700553203374
-0.01016880630071242 -0.010679754034579644 0.0014874191829351224
0.004721227751476185 -0.01011262215568191 0.0011775409717402483
0.00041498958709271705 -0.010286517896713646 0.0012611398770890083
-0.006800679932310669 -0.00993705243146109 0.0015157103058823795
0.013588000088930132 -0.008793181958235051 -0.001852823422240034
