-0.07224641184071022 0.006007450170590378 -0.016556766828383602
-0.060565077590602576 0.007864092200094625 -0.01613665569714941
-0.07758401801790309 0.004711156311587252 -0.01684628700242191
-0.06628015741812769 0.0035576827297165332 -0.017082272581346546
-0.06698570566086762 0.005091163000260771 -0.016749239258018987
-0.07898868999821058 0.005211597048414341 -0.016739186731547104
-0.05442020504997292 0.0013204962600019954 -0.017553535856767714
-0.05204314596861312 0.004610099683924774 -0.016833873110147765
-0.06429323591237837 0.004340179250714517 -0.016909170860078298
-0.06143050726542068 0.004070040026124237 -0.016964147484415333
-0.0529741453985901 0.0029756645797925614 -0.01719109959437807
-0.0672293086470878 0.0016979838110257948 -0.017488584849898965
-0.0597343026179348 0.0045694599792790065 -0.016853090230921852
-0.057474420808958475 0.00597995266133198 -0.016542846230674268
-0.06784790301614496 0.0035639991910630976 -0.0170830098665148
-0.0670589810868937 0.00695563035811625 -0.016343266455256893
-0.05571162307979329 0.00558849353212849 -0.016625728183265468
-0.07418463043257416 0.00706683763144911 -0.016328649891829868
-0.05521057616817006 0.0041826531259246975 -0.0169312378127179
-0.061173695594745385 0.000610495654743783 -0.01771727262774637
-0.07062841685220367 0.00424516399018926 -0.016938403142978203
-0.051845785548979305 -0.015573879148734492 0.008318378005142258
-0.04851517945182712 -0.011812132314505765 0.011719298299318334
-0.0473715788047035 -0.014622328083867639 0.008318538958645783
-0.04199528115372653 -0.012403241446180494 0.009516797540535374
-0.03828309198156789 -0.010832072763933057 0.010387543120789353
-0.04479402520655145 -0.010286525576482308 0.012537175062830542
-0.04988161572968185 -0.014328544469079682 0.009240211393590476
-0.03377970384336711 -0.01024471650524332 0.009975163276413361
-0.040118207754342286 -0.012602848066387524 0.008849924670712467
-0.03976285577674145 -0.01038107155149765 0.011240315155854714
-0.026677444766039178 -0.009728519780609735 0.008868024236904649
-0.05120667539408173 -0.010458184897332906 0.01386472631139597
-0.03554974623796309 -0.01148563366016622 0.009012273817700596
-0.036807624527175606 -0.010486744780875655 0.010422716989737535
-0.04628857404282921 -0.013501143239402925 0.009310788642429577
-0.04661478005964529 -0.010709472194678132 0.012497327971085883
-0.05034017508368342 -0.013092818485244878 0.010725130116848437
-0.04854635556335206 -0.01349822268515908 0.009848763304753833
-0.04651248365778996 -0.011712890766916865 0.011355522069966066
-0.031400412836640634 -0.009543673726549573 0.010192464865966176
-0.04196564128588623 -0.01090614067972596 0.011177205227343303
-0.04355881459504379 -0.011167254716215262 0.01126370328530348
-0.04922436397351559 -0.015139089987789128 0.008181789022392388
-0.043882173433393 -0.013216790389145631 0.009057572561076652
-0.044886063387512165 -0.012272075412565165 0.01034752506636091
-0.0402032480432534 -0.011384100331003642 0.010227471100746625
-0.023375807832161463 -0.009128110386016255 0.00875479942185499
-0.03836525904890377 -0.012624713099183203 0.008410412309880504
-0.05072272472185318 -0.011317190182890638 0.012793374629789665
-0.02982689884041364 -0.010081823380704057 0.00922042608714568
-0.03128357896124019 -0.011111706044786259 0.00841119628451685
-0.024480092187299844 -0.010952751354984802 0.005648477992944042
-0.0282284631112875 -0.011558351099753013 0.006092676800454997
-0.025858747145235863 -0.012262420324793265 0.003550147077192288
-0.03671717960823483 -0.013287848783260801 0.006353627533304634
-0.02631782994245834 -0.011723800415964152 0.004879660693132137
-0.032633361412890416 -0.012516831322262098 0.006101109530464583
-0.030225509895723215 -0.011719101776393171 0.00666621940076401
-0.029779395483382307 -0.012469028676844643 0.004902909644221822
-0.027670606296307527 -0.010720445574701427 0.0075825592857046336
-0.024322871789348378 -0.011711842050583008 0.003997457109214071
-0.0331296811831405 -0.01339164708212448 0.004506443072412473
-0.02269707590681049 -0.010370915012959867 0.006048458150609095
-0.04540251000771467 -0.014739350413674747 0.00728243752771192
-0.02774986606169664 -0.012427670644638162 0.004066162404274787
-0.03285466352456349 -0.011552359105509929 0.008208630574660864
-0.02236446157833035 -0.011306183876406185 0.003951091640878874
-0.0412692512789731 -0.013901604110689211 0.007146290424115121
-0.024871652915146567 -0.009984956636475948 0.007840327411730687
-0.034183907883993656 -0.012978735196266508 0.00584498615297685
-0.02608637316804347 -0.010859858516817814 0.006572131022315745
-0.043217312915837844 -0.014049384434545939 0.007724549010149089
-0.03432063659022575 -0.012222622742316966 0.007480492478684869
-0.028956416228122665 -0.013064935117172107 0.0032104294841121825
-0.03920356161729665 -0.014423683537783089 0.005000700681717586
-0.05045809492797686 -0.016647735224383474 0.0050509506424115886
-0.036527024059153354 -0.014097425560128399 0.004458078283363116
-0.04071206449519983 -0.014968369677548134 0.004361753941705423
-0.04929087960300571 -0.015932693855242628 0.006314095255636672
-0.041974402634125385 -0.014593247160256435 0.006002845079325937
-0.04620241585552376 -0.015838815947596015 0.004947995765686721
-0.03481725519881983 -0.013727385846879906 0.004534670155198154
-0.04776977811608671 -0.015675525091979746 0.006193603516644922
-0.04405039291865159 -0.01496755212237445 0.0061062214631300874
-0.04535063790548069 -0.01623990960184589 0.003453177212528695
-0.04254563462156333 -0.015322808944524459 0.004390625625969036
-0.03255507271507661 -0.013859752336893892 0.003007399990703502
-0.04725182629218947 -0.01640906897823644 0.004002494572696157
-0.05086970797300182 -0.01615155444769488 0.0065650253612722365
-0.03578550085982975 -0.014573997994764862 0.0028231625649722653
-0.044259264848661356 -0.015528283183325307 0.004746963078939143
-0.09891406976016726 -0.011556573200517901 0.007841691355538073
-0.09670624961636161 -0.011367198663979833 0.010790826550429641
-0.09905972009266972 -0.012630112882900512 0.006290019222793184
-0.0992484648890336 -0.009420369251531942 0.010163985458668513
-0.09780951830618087 -0.011396451859461174 0.009400737878131048
-0.0994348960314618 -0.010323031488977166 0.008780872087649555
-0.09766515316998024 -0.012415675071275774 0.008274114627444654
-0.0962442405210353 -0.012558999192521878 0.009832920963320507
-0.1045488103043243 -0.0008811603293183753 0.005059595079490324
-0.10245158355761336 -0.0003749962032377147 0.009409597203038411
-0.10432762211183742 0.0021289993848127736 0.005636222017583098
-0.10408738273831662 -0.0024185540339122453 0.005950960748338329
-0.10306973296248192 0.0030769780036418435 0.00827097908511413
-0.1024006241327908 0.002342629567020936 0.009623119186597445
-0.10345606944545785 0.0015505288461734605 0.007412530113215868
-0.10494639504230699 0.000644576188406845 0.004299571480576717
-0.10296292731593712 -0.005039849387123511 0.008167980250820734
-0.10259928658267511 -0.002499338287421959 0.009019989189968257
-0.10359689663544915 -0.0007085802086989948 0.007031746327879125
-0.10372033242586023 0.0030162445430672907 0.006925363692153008
-0.10331340849276954 -0.002698356670872549 0.0075377170754536114
-0.10240504995558393 -0.004045733977576797 0.009359367155173073
-0.10455058307039596 -0.0025168367258327313 -0.005669029276069608
-0.10602329885867667 -0.0021410164725155414 -0.0010926669246901855
-0.10375065816705635 -0.003590985799565109 -0.008140987460584092
-0.10633700946638548 -0.00011869996981962781 -0.00014853582990597309
-0.10486863904896088 -0.004037166124020244 -0.004655376231625303
-0.105290885784386 -0.004470547629007236 -0.00333471958924691
-0.10422816322019339 -0.0009479112416662845 -0.006697028551050479
-0.104215044718811 -0.004499589794891562 -0.006681702037613059
-0.10503692113680768 -0.006794923490490918 -0.004088178338074344
-0.10573784971904812 -0.00010212375556235275 -0.0020130622911087755
-0.10548531298002714 -0.0017413491896111717 -0.002772908882164459
-0.10372069609390666 -0.0013380595041320696 -0.00826982723074088
-0.104857357302075 -0.0010054001416727489 -0.004738404576864143
-0.046087854963384516 -0.007812797732852367 -0.015404591984150373
-0.047880368934093434 -0.008568660272248535 -0.015306982311626503
-0.03719228966619849 -0.0094369017599659 -0.012551942338250077
-0.045871602843382764 -0.010858586197809912 -0.01346884574655488
-0.03707156575140188 -0.007984334487719742 -0.013428705954250896
-0.04873532716531906 -0.010376715048347345 -0.014361754618104645
-0.05031988351760726 -0.008848490139604532 -0.015639052670622062
-0.02978640995960882 -0.009606979462394508 -0.010910856195570431
-0.03446083322825842 -0.008647096217477517 -0.012475949237849473
-0.05097639829031452 -0.010265761742373512 -0.014895289716491827
-0.04175890818548851 -0.0075167039610825525 -0.014690873502497453
-0.03193479791297127 -0.009060275922267961 -0.011695700623836855
-0.04736873751946907 -0.01112621456970852 -0.013613102902739295
-0.025046461842104836 -0.008946236563667574 -0.010338307051769172
-0.0392538022429879 -0.007763419384404255 -0.014018309902640493
-0.04431054147155469 -0.008403669076478226 -0.014669263643427126
-0.04156543179739923 -0.008890748515408138 -0.013797714276055577
-0.04719215774922679 -0.009681068178331729 -0.01447367856358843
-0.04884103010272251 -0.007609891760096672 -0.016101390864729326
-0.040280599796156766 -0.009714467133084166 -0.013019936506856806
-0.0944060132082209 -0.008887357204205897 0.01384878360221467
-0.09667778034615081 -0.008664823083378057 0.01254430086034255
-0.09657004382447283 -0.010068105030510017 0.011851533748716253
-0.09838345245489917 -0.008001881104219552 0.011833553651626017
-0.04270589084609448 0.015197557307966906 -0.0010397657542884685
-0.041201322231129836 0.014854102635572047 -0.001646336730587568
-0.021236000582575798 0.00932057433395499 -0.0007926516558674373
-0.021236000582575798 0.007238568575272456 0.006588456127633326
-0.021236000582575798 0.008963551306378634 -0.003413772116659914
-0.048756798655713314 0.015845581744462548 -0.002666118023437923
-0.04714893792669089 0.014598880954707537 -0.007629938285784482
-0.04437724622914775 0.015313173738764573 -0.001876798077496637
-0.039087645075443204 0.014011822711745173 -0.004213396681324307
-0.03860080757108002 0.013644903119037525 -0.005663578389346301
-0.050018519978663044 0.015613622014785342 -0.004819282479008446
-0.04104513772337862 0.013804686323537922 -0.0067906083563976614
-0.04486937795591158 0.014715456723842708 -0.005251593980305039
-0.045804646794066185 0.01572537420705016 -0.0009412641367962984
-0.03608730403191236 0.013134982530051255 -0.006231880690580574
-0.048397642299271786 0.015438792428020804 -0.0044161326077564724
-0.04366451700037791 0.014738329458358821 -0.004188141977105197
-0.036091909548794224 0.013789286564120005 -0.002965600206735534
-0.03751477008519009 0.013895162376162666 -0.0035573585661603643
-0.04661978096420995 0.014979602214200092 -0.005310419568569176
-0.048647898827296414 0.014823099335723306 -0.007690224330508299
-0.049955851230893154 0.01521721151248236 -0.006750990472851361
-0.04243021207959421 0.014204269722975008 -0.005884785668842119
-0.021840489207803602 0.011008220090922291 -0.005637343327765951
-0.042469429463810694 0.01488317691635921 -0.0025228159313939033
-0.03628899495404246 0.013481526178842702 -0.004658900636773571
-0.034173593405611505 0.013312634532632858 -0.0038365081689660106
-0.04406003508501886 0.014256318042736792 -0.0069085862450065545
-0.04631289638005417 0.01549396445231144 -0.0024981230489384207
-0.030319667934024158 0.01227837847141676 -0.005969261761454537
-0.04101909133931643 0.01450841177572214 -0.003253196084970031
-0.03444961440321836 0.012838002169677391 -0.006425939986296871
-0.03155178700268354 0.01281226521742855 -0.00427176065744105
-0.029416525922865866 0.012366370723757132 -0.004818055534242256
-0.03559415746666922 0.012033979788427046 -0.00844628236948287
-0.030813826550218408 0.011673761001584272 -0.007495828051528498
-0.03960107085462041 0.013022606190872237 -0.00804215162199543
-0.02818620559263366 0.011739177791092306 -0.006512747578011298
-0.03339195518108743 0.0116057816451933 -0.008467027613493496
-0.02353989103999807 0.009760182685149147 -0.008437348727518945
-0.028125695044412338 0.01098822265873061 -0.007805936189089731
-0.026636481348319103 0.011474079483064127 -0.006463988519278034
-0.032346255057616534 0.012168025577759173 -0.0071381267190898726
-0.02434304466922127 0.01099662202335145 -0.006540711490881392
-0.0424404090559051 0.013627090237655636 -0.007923771555518306
-0.0453114738910877 0.014287675312589855 -0.007717776530187443
-0.03793299580166559 0.012905394272122759 -0.007695657476675027
-0.04878581485788769 0.016357922017527036 -4.911225597028215e-05
-0.061140789204670996 0.014385833793859354 0.007791573702256487
-0.07922827799111701 0.013243192950273578 0.009697300035884615
-0.050670168907023555 0.013907762264033355 0.008588913924130765
-0.05402761694925366 0.014121914415224203 0.00823174535605579
-0.07532606137590388 0.013001387724537508 0.010100589126136296
-0.07342010014153343 0.013171430854515862 0.009816986739199587
-0.059315705985801256 0.013062277868898096 0.009999034948182845
-0.05262627476576638 0.013687913586498422 0.008955583308078953
-0.056334156944809824 0.01295284170132124 0.010181555455456227
-0.06651817700341878 0.013422937815629907 0.009397516840520235
-0.050748994649966045 0.014713775482367217 0.007244623962806718
-0.07008177880249333 0.013292554174779942 0.009614974092496573
-0.06473521023943721 0.013307508583692788 0.009590032737538862
-0.05474147241434186 0.012853103513852228 0.010347901417439832
-0.06188457223335571 0.013526041911088062 0.009225557129012891
-0.0524533495790095 0.014666833752475694 0.00732291460969065
-0.06034758238085811 0.013688112914478004 0.008955250863652649
-0.055645468868189024 0.014163685893844709 0.008162077789690955
-0.05112598310003866 0.012944944097700521 0.010194727285674833
-0.05918387573031557 0.014318092895948546 0.007904553746455784
-0.0680581606168179 0.013814711958293185 0.008744105661759104
-0.08659089102227911 0.01281546934938287 0.010410668662874784
-0.057628878146372735 0.014577712691572603 0.007471553049842073
-0.031500641723098015 0.005619021721635767 0.011984652683218466
-0.05015677196292369 0.005759897155668591 0.015115537030225322
-0.04017485975465249 0.005476887482239585 0.013521048543813908
-0.04209591892079145 0.004536276598528427 0.014214581729323928
-0.04288172165991129 0.0075526420076479014 0.01317666107277998
-0.04862686592517726 0.005044288899593526 0.015132369375361405
-0.050799192983829664 0.0038926615679937358 0.015950804631742265
-0.02339580209034752 0.006655483260620926 0.010197962961742682
-0.039020662918532574 0.007283265099028553 0.012622040922573206
-0.03733358116327248 0.00556430895934627 0.013001916015659516
-0.044513839140078046 0.004444237318094321 0.014663218125922091
-0.03308644920851546 0.0058527916960488474 0.012164598673204494
-0.04132827719756866 0.006699820675294201 0.013242792421782553
-0.03634399163638596 0.007430193860342171 0.012107892538707674
-0.048342133130298545 0.003372168825266212 0.015733502859178485
-0.04780521202618804 0.008247279490417137 0.013747448732428459
-0.04453084699429363 0.006095979259819664 0.014024287836846009
-0.04612087749074103 0.007213821368484546 0.013861421866366113
-0.035624834018898974 0.005636244575598921 0.012682186289965388
-0.027070397938184148 0.006168317626495215 0.011014721224894827
-0.02859584739659742 0.006809500039556446 0.01102604831718061
-0.04887074685413294 0.0071015927815577485 0.014374585375796094
-0.051186571895211655 0.0073596975864735304 0.014669729408178567
-0.03363755203202935 0.007413033492140052 0.011652422879327662
-0.047218840621921665 0.006252268018700872 0.014422545196299468
-0.04254483887114774 0.008852173371263341 0.01226057785565493
-0.03801750555643414 0.008423123581498587 0.011704596386063797
-0.049340784044840935 0.010465723419567814 0.012254895651297937
-0.02723488546268779 0.007528996519180839 0.010269730208686599
-0.04855519877451422 0.009396281179501191 0.013020772122385612
-0.04455950604481958 0.01037172175004746 0.011356487762100331
-0.03034921787824197 0.007456141645500126 0.010971126083255844
-0.0338991799439387 0.008702474585086143 0.010618473383021463
-0.043009797869319084 0.010651706604824904 0.010796229516865565
-0.03943643738979013 0.009857526465620825 0.010752210651494915
-0.0466923104167367 0.00927166603007476 0.012746993279040764
-0.050004595417539946 0.008722168339421733 0.013902059214220523
-0.0319997756265418 0.00782668063992576 0.010988250034483277
-0.04478231057444785 0.009176159679889676 0.012438331074525057
-0.03662415859820306 0.009080748977579612 0.010849085654405153
-0.03985875446252282 0.008780219820564454 0.011772451406586823
-0.04903006769232429 0.011830433095992183 0.01100843710602649
-0.02545184783739667 0.007032127727638448 0.010334944509445141
-0.08074296565825344 0.012039115103442233 0.011245433443921078
-0.06629916217954651 0.010957673824291365 0.012207086021593809
-0.06869785399653945 0.012485409808356964 0.010848573751529894
-0.06160897223058642 0.011155137871471526 0.012031494601486755
-0.056106942956777456 0.011850399427007812 0.011413245529689533
-0.07248726352120412 0.01248929652237521 0.010845117559662264
-0.06468599498760237 0.011563393645373822 0.011668460357379498
-0.08410487762480826 0.012588543234985271 0.010756864171478347
-0.05378207262264223 0.009756387544658806 0.013275308651525779
-0.05734110220725343 0.009490989665800156 0.013511309032899878
-0.05136310680825373 0.010994937875374053 0.012173949621616241
-0.07422608939497409 0.01179602386572042 0.011461598038219152
-0.05819070186343958 0.012108658611434139 0.011183593106391764
-0.05705668486314793 0.010748954565675501 0.012392685939894954
-0.07605907175062018 0.011738091586743495 0.011513113295203202
-0.07728480073866024 0.012558817505072985 0.010783297252353342
-0.06410774611749334 0.010203000199421258 0.012878166227842085
-0.06333488377763413 0.012461851997687831 0.010869522119038195
-0.06657550317694179 0.012175727630641852 0.01112395316435652
-0.05421536206646891 0.011389258348134748 0.011823307098189365
-0.07296745316615197 0.011091531824043734 0.012088055156963737
-0.07913711021163826 0.011930707492954346 0.011341832998917604
-0.06783595661300826 0.01148870143415585 0.011734879088414286
-0.08245690817364486 0.01233057692235658 0.010986256163697191
-0.060240818168308306 0.012065657392941822 0.011221831181267801
-0.05180207283853676 0.009426837038402755 0.013568355624971553
-0.06150213612010036 0.009880484063521282 0.013164958011555745
-0.07023018547905323 0.01206738892448495 0.011220291447392393
-0.052024298964851265 0.012182944703856904 0.011117535509330485
-0.059911966149053114 0.0105790795888274 0.012543744265961759
-0.055490269150487166 0.009937252111466122 0.01311447802647651
-0.07700751707316578 -0.0077488874878171975 -0.016524771105637326
-0.08759600681547633 -0.005268091783358601 -0.017456420008726017
-0.07269798256474168 -0.008633907680478298 -0.016192363714448432
-0.09068533791062099 -0.008708309580598178 -0.01616590259860978
-0.06985137486072941 -0.008073719659051317 -0.0164023156801622
-0.07368593281539632 -0.004918796251957465 -0.017586350695544636
-0.0907693295750297 -0.007178280011423778 -0.016739975368021895
-0.061867770930545005 -0.00591437260795503 -0.017211855579433624
-0.09099558844397708 -0.0036415299179415168 -0.01806697971745478
-0.0859018711084921 -0.004590513423264974 -0.017710509930515796
-0.085617179831627 -0.007402875488049039 -0.016655290716188202
-0.08662258293378977 -0.009812102927055168 -0.015751431633854885
-0.07965485959730756 -0.007080587337884782 -0.016775730893286066
-0.06780376290332375 -0.006445807636801391 -0.01701294151720039
-0.07612163246901331 -0.006478477240983239 -0.01700135647241048
-0.07203197421073242 -0.006882219994971019 -0.016849541803829176
-0.06434497989218664 -0.007534966083953251 -0.01660401039199306
-0.09082353817262341 -0.005665025806498814 -0.017307751624806092
-0.08512006465526666 -0.009373139701429252 -0.015916008825106683
-0.07902416351096729 -0.008392386651039923 -0.01628349375124311
-0.07542347126295564 -0.00839258610908803 -0.016283127769710505
-0.08826527428761502 -0.008317344115513957 -0.016312396874182823
-0.0841680861649327 -0.0063321058681271025 -0.017056925525409848
-0.07775213097826802 -0.005327259740551916 -0.017433424277576017
-0.08092440020830091 -0.004706116975973256 -0.017666733093206436
-0.05714468337838481 -0.007241111982744547 -0.016713682034298814
-0.05877281108729391 -0.007207122663291158 -0.016726566449419247
-0.07375368052901132 -0.0066291065885686635 -0.01694464898308029
-0.08961478103343869 -0.004572401829304609 -0.01771760560607811
-0.06024032338393091 -0.006467224386787066 -0.01700429440312528
-0.08275742533307096 -0.007168398076381321 -0.016743035235742068
-0.06531577581859423 -0.00595469191406845 -0.017197006604211345
-0.07923295873328783 -0.004547306204986053 -0.017726182011919
-0.08247902887186193 -0.008564299399994486 -0.016219271567005106
-0.07114075670700094 -0.00569940170941303 -0.01729326229943281
-0.08212400650561788 -0.00583830309445806 -0.017242034685468265
-0.06922297703299948 -0.005916414207894171 -0.017211684300380937
-0.06753102187878934 -0.008057372713384348 -0.016408261422990233
-0.08710404496636551 -0.007108717292879248 -0.016765778881433227
-0.06189969539529197 -0.010854649373130146 -0.014816349666862932
-0.06281218222742604 -0.009550405795806413 -0.015548175695657095
-0.07703917564854725 -0.010320563893577883 -0.015335703922419602
-0.0646091184883753 -0.009769929892411693 -0.015454016341845438
-0.06226814939616689 -0.008193013722360743 -0.016287601951628865
-0.05423469415169611 -0.007245402492589956 -0.01668993967279633
-0.0526216394008857 -0.00792435093333588 -0.016292043126125755
-0.07509082542070539 -0.009957147085302554 -0.015506852822144463
-0.0716900237494692 -0.009784804453957605 -0.015551168312351017
-0.058198563151199374 -0.008584078386381684 -0.016011697766454693
-0.05092345074579464 -0.007350551476386405 -0.016582772065075566
-0.05352838360831265 -0.010782423801619943 -0.014731583544656644
-0.05953626239357661 -0.010379976996352864 -0.01504259210871213
-0.06094850575775622 -0.009406867484636353 -0.015599496547344415
-0.06055025704344056 -0.007876500262430166 -0.01643634958457855
-0.05700587839111333 -0.010032366291549182 -0.015196377556812272
-0.05291974333061705 -0.00944520130573677 -0.015458941181285164
-0.08024166716644388 -0.009315721841513684 -0.015936717292635464
-0.05574512080062291 -0.00823146903538946 -0.01616938065377683
-0.06861999093706443 -0.010336033413343111 -0.015201931638912118
-0.07346114487604843 -0.010627752810000175 -0.015113303290442179
-0.08369961926490908 -0.0098689214998705 -0.015683512926407583
-0.05465491959360468 -0.00987833564871676 -0.015246227212239033
-0.06637178188657816 -0.009647547210624616 -0.01554763619721362
-0.08966386427011631 -0.010207221229138537 -0.015585941002826544
-0.06571448306839206 -0.008114562294747654 -0.016382076888239325
-0.07011822975585724 -0.010336425441224043 -0.015224005217995674
-0.041279483884287024 -0.006435598344109074 0.01325174399460838
-0.03153351994571011 -0.007987151137627194 0.01083033495332077
-0.026624753954563186 -0.007629634215387492 0.009947965134030037
-0.038624708328302206 -0.00880277621801707 0.01201643103525926
-0.050129678441877115 -0.0067022244917416115 0.014954503376752535
-0.046166665107596115 -0.008690153262494504 0.013568104840329599
-0.0395563398902662 -0.006064759340868672 0.013014640457997727
-0.04842783660494089 -0.003991272932776921 0.01541453476487957
-0.03772256463489655 -0.007484397773744609 0.012225151124745998
-0.04464399293213986 -0.007930080295459373 0.013486601867358918
-0.03524042500884764 -0.00481225565688627 0.012516604323304582
-0.04073193660977556 -0.004014021315299757 0.013858478994057408
-0.047958571979723794 -0.0018608208961089822 0.01595083491058256
-0.03413454171641654 -0.006514441348041514 0.011789997606000156
-0.043390312387213636 -0.00236839378180316 0.014880884464717912
-0.04313797214338913 -0.007161932976666726 0.01341084171798359
-0.042866257957967634 -0.005657684413987039 0.013801509704478836
-0.029053499443976 -0.007268971837492902 0.01054369723251758
-0.04575258941789987 -0.0034690165647692293 0.015030586783776972
-0.04033667669181488 -0.008782809148702699 0.012366992227130993
-0.047535461056500146 -0.007156760307219265 0.014297665381894614
-0.04320204317193307 -0.009038540114113335 0.01286812581430609
-0.025194198069175545 -0.008919014130170362 0.009278217137310479
-0.027937003059384184 -0.008469854095752445 0.00996337681198738
-0.048582792735097954 -0.010087112127866156 0.0136409108338419
-0.04701613580526952 -0.004832630093140585 0.014881230507281212
-0.044356216007649066 -0.004847935859180891 0.014341210042942039
-0.03554274547001578 -0.00854642587764465 0.011471876153205895
-0.04615361732934513 -0.006141515957605896 0.014320063267712757
-0.03925679844647725 -0.00461927066056733 0.01338230905410007
-0.04975195633937299 -0.0033728693194665636 0.01586419666476917
-0.037155846067757334 -0.0050705378145752015 0.012825741780976316
-0.04185080802323982 -0.009521838506554232 0.012453006242381623
-0.0502070491966815 -0.008499954132692089 0.014437818516683345
-0.06005941254015612 0.001864781057636459 0.016760999336838722
-0.0535934263707978 0.001864344283287889 0.016760999336838722
-0.08513067073480321 0.00088439967962074 0.016760999336838722
-0.06892554923206119 0.0003728654396811654 0.016760999336838722
-0.07295551765742697 0.0004197443164968474 0.016760999336838722
-0.05295069027665818 0.0004387826941102773 0.016760999336838722
-0.05726995285223819 0.002049235659204719 0.016760999336838722
-0.0564812304148437 -1.192103249445138e-06 0.016760999336838722
-0.07439611780180479 0.00123140790645151 0.016760999336838722
-0.0671315749319507 0.00046201069801650604 0.016760999336838722
-0.05190270167611326 0.0018243407172286422 0.016760999336838722
-0.06459094263255521 0.001573998494378274 0.016760999336838726
-0.06288964819214518 0.00142007445726433 0.016760999336838722
-0.06048268564542482 0.0002336509860345319 0.016760999336838722
-0.08857785431524248 -0.006742013526560807 0.015377670133679739
-0.07912920457634459 -0.004530577111447358 0.015831535408402507
-0.08976680397656848 -0.005525857091382981 0.015591398350368092
-0.06422118015368977 -0.0005375032984824672 0.01663896141207255
-0.08624348701311374 -0.0004968871274496934 0.01652260600411037
-0.07555062430684752 -0.001738344050978868 0.016357683364948288
-0.06387210564998055 -0.0024608370827686804 0.016292351213964856
-0.07677127806349554 -0.002630971558132763 0.01618905259801483
-0.0875328173338094 -0.003957182046598679 0.015888243801657553
-0.058132127649890036 -0.0009707008460679474 0.016594658729800878
-0.0772977542317262 0.0005331827831584077 0.01675954361162353
-0.08959196768345433 -0.0018737492287966425 0.01625426237693991
-0.08553408137021797 -0.0025192424515442105 0.016160074112029382
-0.079560448632111 -0.0006544345074738707 0.0165315970609203
-0.08194338258087568 0.0002009520582053503 0.016673234397449475
-0.08564083343381827 -0.00417374068885504 0.015859625008671684
-0.08158248878353609 -0.0022862980033974034 0.016224490455902057
-0.09066211320859395 -0.004241193725772989 0.01581919187800034
-0.08175922463186301 -0.005221123987656216 0.015691610781200453
-0.07135148909621238 3.858579191540903e-05 0.016703311187071655
-0.0600829651690611 -0.0021601691834396866 0.016368128650829847
-0.07896189725477559 -0.002522402369358542 0.016196422490738552
-0.0775159728521622 -0.005310565290593581 0.015699238719833464
-0.0904309910881931 -0.00041936324747046157 0.016513131415343052
-0.08277461607854264 -0.0036783086819974745 0.015965515319924073
-0.07259402144583968 -0.0010974740594330411 0.016490439578980283
-0.0715998964187042 -0.0033207056973540185 0.016093101794286836
-0.08572712287472742 -0.006732619943394457 0.01539538733057869
-0.06540964683915687 -0.002546821266010243 0.016268130494979542
-0.0834174427114193 -0.002105716287775875 0.01624690943035836
-0.08797985117634886 -0.00014861029240310743 0.016575970694504113
-0.07607517511176587 -0.0002875556311072107 0.016617667043804758
-0.06873696166342363 -0.0035099023368680812 0.016074896479045298
-0.08313332977585103 -0.006158773537257525 0.015513958486647765
-0.09034364769013216 -0.0071291581505547 0.015297586986694273
-0.08330406754205236 -0.0006049407975870829 0.016519536132682377
-0.06577420952632575 -0.0007096055760116797 0.016599046258185333
-0.06685588205210055 -0.003528593556072924 0.01608207650081713
-0.0877674193394252 -0.001875425829733158 0.016264208426086283
-0.07499228677807707 -0.003563140383534936 0.016030106980706
-0.054807855422849494 -0.0011344233668030897 0.01658366185181377
-0.05136685762008477 -0.00032203019095322877 0.016750224919950676
-0.06278039616640636 -0.00016832029147047069 0.016713963494415666
-0.09138739611751871 -0.006022898271007299 0.015492214047876353
-0.0706281732264573 -0.0014620761450920134 0.016435405407323807
-0.09119025677646281 -0.0018321453197526912 0.016252823540585642
-0.06709616775925702 -0.0017762440436413375 0.016398309886938387
-0.07322608502492094 -0.003066017202517351 0.01613012414675706
-0.07044181490458082 -0.007555981888502708 0.015062461896895956
-0.04980613738468458 -0.0007770467986527353 0.016640275542374662
-0.05739972763671231 -0.007164286429082415 0.01503662958816921
-0.058695870309226225 -0.007846625520007467 0.014870102581105481
-0.0573274163880243 -0.005007090651378944 0.015602845577264296
-0.05257929223147774 -0.007899710906881083 0.014795758181624907
-0.06487669002619598 -0.009502073894048401 0.014496063627114877
-0.050716316804958396 -0.0050764075701914355 0.015519352645020391
-0.0533768955010413 -0.00633476276260191 0.015214915551104085
-0.061090274368783934 -0.007373766027094337 0.015018015766017793
-0.0548267299293128 -0.006721271448359825 0.015127652870845512
-0.0666848595040639 -0.009278164036892593 0.014572762375920936
-0.0797876323876899 -0.007038214915586521 0.015290813147204357
-0.07063403893264625 -0.006027277157489848 0.015466116862633867
-0.07579775913479657 -0.005877833298101911 0.015556376906188303
-0.05111701533039227 -0.001820918412195146 0.01637888010937721
-0.07444249393918455 -0.007412257343044613 0.015139735365950247
-0.05325829328770833 -0.0022335371045094235 0.016291582578022955
-0.0724400489489048 -0.008174391589728708 0.014919668314946458
-0.0559729572138049 -0.008053368057114294 0.014788883674817259
-0.06579900015926886 -0.008112972371345154 0.014870238277293429
-0.07416693531978219 -0.005185607810343106 0.015722197612736945
-0.06724610573676017 -0.005949816435306322 0.015453022873773833
-0.05583819499724274 -0.005057007033510647 0.015575023028682335
-0.06151518741589347 -0.002630381465111928 0.01626881427611914
-0.08487142695472034 -0.008059327007722975 0.01507265166251953
-0.06824324299425887 -0.007185896978611789 0.015138015475472073
-0.07674102835791369 -0.007965752923338877 0.015016966852031863
-0.05835491582532254 -0.0032533965332421453 0.016073876963457204
-0.05918585106301945 -0.005953340345934529 0.015372512436936122
-0.054107839825354984 -0.004791233837580903 0.015627785593282862
-0.052523079645025714 -0.0038545304343851642 0.015858312057110684
-0.07828966535831494 -0.007908257479335124 0.01504736789485895
-0.05636045038273714 -0.0027890014203256763 0.01617623137099365
-0.060046229045701977 -0.008764751910439463 0.014642143915830411
-0.06406610011922773 -0.007018789260258722 0.015140689104695185
-0.054355149382234604 -0.009493583312244792 0.014394408770412351
-0.062376817156087366 -0.005548966303056343 0.015510292038400023
-0.07230441614797589 -0.005069187715172767 0.01573440392861491
-0.06281966433412546 -0.007939565571126416 0.014886394116082122
-0.06319005139568498 -0.0038532061386709372 0.0159639822889419
-0.08328421048373613 -0.007920148822704521 0.015093557252930313
-0.08149336374783764 -0.0072271054633812875 0.015258012889239572
-0.05258894632359231 -0.009402266948150391 0.014400968599475091
-0.06870761352143243 -0.005074594238757189 0.01569746939236437
-0.065465079884119 -0.005696285886357734 0.015502067657639349
-0.07138095535945153 -0.00935292868547272 0.014599481287428507
-0.06992273998023434 -0.009208666043206614 0.014622996832438609
-0.0719784352677611 -0.006753868011814258 0.015288436545011953
-0.09274867618634806 0.015542648260728917 0.000629305738269252
-0.09438492246938128 0.015038128260691213 -0.001535579957789407
-0.09607383906297409 0.014359815922233787 -0.0006869657044051
-0.09798807605720852 0.013543282367640068 0.0012088437886753766
-0.09570377261396018 0.014594217469349156 -0.0025514366061892934
-0.09781214558213303 0.013687661894427612 -0.0003222314202608141
-0.09803828443228188 0.013695161676678206 -0.0021327201800473757
-0.09468941319576182 0.012721152921771551 -0.008539005944908412
-0.09244651056651096 0.011855037874744784 -0.01132565899879434
-0.09801274692019013 0.010677844048286096 -0.008530377030298731
-0.10061872645431601 0.008809848128104196 -0.008852760649696036
-0.09854789406474669 0.009369573311645878 -0.009741879588178296
-0.09100605599096954 0.012039479105063443 -0.012197911682176965
-0.09649836652807019 0.011543951217426693 -0.008614805936925887
-0.09910054318913425 0.011662154428612764 -0.006479984374738106
-0.10053103410087809 0.01016782633968236 -0.0072377743369586595
-0.09370346356079778 0.011987504116336149 -0.010201103964402748
-0.09570102488725421 0.010829941011376422 -0.010108457532475034
-0.09731491826628774 0.012199687278750971 -0.007178653727663567
-0.10431886032896251 0.0024354889780451587 -0.005172740928153095
-0.10400763260885831 0.0044221266371711485 -0.005261755444250506
-0.10505999931115592 0.0006391449614164826 -0.0037593552680672414
-0.10264718496470997 0.0028576496755617063 -0.009846678552377112
-0.1031854919838334 -0.0008002288954707651 -0.00978349960237785
-0.10307224245136834 0.004427378136123579 -0.007971629621786583
-0.10510993301390065 0.002399968865136455 -0.0028936859159937457
-0.10343751070805102 0.005607199941551538 -0.006429561244135216
-0.10451761429162222 0.000905431508484996 -0.005222900058533322
-0.10253138049963598 0.0044206769995777 -0.009542521635088173
-0.1039024034330116 0.0018375650763527145 -0.006624989919433525
-0.102893457910231 0.0007790681851443824 -0.009983633181425047
-0.10334733718829245 0.002858903845825894 -0.007816178193109757
-0.10356835094980635 0.00042801158338388065 -0.00817060663325273
-0.09169542596087629 0.010206389790365415 -0.013600309026964087
-0.0927616026646557 0.009133328908684867 -0.01395483202442169
-0.09418703924097019 0.009842939818925742 -0.01226821815557128
-0.09366745278027026 0.007119768186193375 -0.015366304804879358
-0.09851247907396427 0.008241866374260583 -0.010933228635039876
-0.09671539944759186 0.00947830566576987 -0.010912273377118583
-0.09527269322150594 0.00845999335885348 -0.012921713098150463
-0.09922579937331515 0.0034894746876781677 -0.012860733747765469
-0.09713219134999843 0.0064296705129787066 -0.013254118928537673
-0.0964960473017161 0.0036819285580276598 -0.014864351000096395
-0.10086056472934606 -0.00015844410339378983 -0.013107126599991133
-0.0971704445004007 0.004681375236218788 -0.013940701983890115
-0.10152696692972664 0.0035708477944147833 -0.011071958258196919
-0.10211880743743966 -3.9588635880300795e-05 -0.012098607616573456
-0.09569721141955846 0.004982521726332428 -0.014941275945189422
-0.10044297908376437 0.005338156364835153 -0.011175336588938621
-0.0976569433552219 0.002587173865213347 -0.014426954320927225
-0.09962963948025702 0.0069031208884125315 -0.011155090249365
-0.09865442054239441 0.005449680298237543 -0.01249409148953341
-0.10200375233417897 0.0018536433292673407 -0.011411275306562444
-0.1009848872947985 0.007414777188199022 -0.00991175478511249
-0.10225698834153912 0.006786370021124142 -0.009198598600558957
-0.10004054650062047 0.002199011264708186 -0.01276752361408287
-0.0912111888652826 -0.01809459636173849 0.0007001398397827347
-0.094104842854482 -0.01708064400200015 0.0016017089731540884
-0.09570486887485186 -0.016519986036309643 0.0020931457280744916
-0.09499674148095408 -0.0167681177910799 0.000313948726062581
-0.09220228030988464 -0.017747312438808664 -0.0008028540422292541
-0.05441681244719833 -0.01192680817135685 0.012397273883416745
-0.060922289116542086 -0.015475879369983798 0.008690330675111818
-0.06328448512179985 -0.013854320360964602 0.010488587879815691
-0.07797689009536718 -0.014080954337123159 0.010531728962041478
-0.05304347268251148 -0.010757959629143764 0.013633193075500644
-0.05366064986663623 -0.013112189847730483 0.011101749733744642
-0.07267599038658204 -0.014796024368042685 0.009655250091143708
-0.05926274113729876 -0.01302515172029876 0.011305598634049317
-0.0625503758137256 -0.014973977662519221 0.009264505493182758
-0.07433600611682331 -0.013758325544719596 0.01080893301017867
-0.05656034911721484 -0.013409600619941394 0.010837262918804864
-0.06812722848071881 -0.01422900796994567 0.010178697559488692
-0.060500045928342495 -0.013896147989166803 0.010388816396981611
-0.05464735365931188 -0.01085597523412979 0.013558734883114435
-0.0546039069592962 -0.014350585667705102 0.00978226030296583
-0.07260794644975843 -0.013331937004477788 0.011235735486924588
-0.0761584154950299 -0.014771511826876742 0.009749995993564162
-0.08004577184655853 -0.014404406948219328 0.010222820581570327
-0.06482065048094782 -0.014694615052082853 0.009610834272045215
-0.06721287153765498 -0.012051713075993838 0.012513152361176016
-0.058426231718736156 -0.014329835287203567 0.009879604204712546
-0.08518558948214097 -0.014070137753260511 0.010684719716902063
-0.07106185649128327 -0.01429763079273496 0.010162080916351717
-0.06716694833329312 -0.015064002591314372 0.009257735082084793
-0.05198797637022618 -0.012792017071631558 0.011414880981476791
-0.05716779638802806 -0.01116157633723407 0.013277964969840392
-0.06092564589827695 -0.012204268451616726 0.01222508781506068
-0.06411597791200299 -0.012719734904349852 0.011730707744537912
-0.061974312115656544 -0.013130671868653288 0.011244745289554972
-0.08204832498286242 -0.014576572602831234 0.010076064444430894
-0.0568730590768188 -0.014843004070793099 0.00929472474943824
-0.05261388018835921 -0.014091894550895857 0.010022745225029276
-0.06971578523778033 -0.013481203428412938 0.011017774161418591
-0.057999977504929204 -0.012253577348341297 0.01211446510759536
-0.06617510681490082 -0.013091508614553146 0.011369401440313022
-0.07629805263436173 -0.01374515149599254 0.010861626311444664
-0.06288700626578114 -0.012022648298714021 0.01245975904644327
-0.08315259114309473 -0.010683186696124928 0.013432270672553339
-0.07692405032649512 -0.01189048921670057 0.012554349424288909
-0.08920993420761969 -0.010737877501255825 0.013316153722368804
-0.06303029016474006 -0.00974757479226105 0.014413090206608534
-0.07149321508712626 -0.011700891030750168 0.012769404601466878
-0.09174131440838132 -0.011088168721753805 0.013009180832239862
-0.0755063351314641 -0.012733237781811516 0.011906235898841346
-0.0846799856639269 -0.010340223903225754 0.01368457899775695
-0.09001719306653672 -0.011978326106521487 0.012327337278382516
-0.0864089893231939 -0.009029092600559646 0.014698641341042045
-0.08646969732362084 -0.013317582160831268 0.01131297613941042
-0.08118845723065618 -0.011016995633039105 0.013192447239931814
-0.059317869819376104 -0.010691492408118166 0.013712758598033834
-0.08277160783864124 -0.01330305824869939 0.011368976384841143
-0.09013666095553849 -0.013608314667883281 0.011039337415616537
-0.08629528063170276 -0.011521947782417389 0.012732383129877019
-0.0611278480401367 -0.010405950009898936 0.013916341432904218
-0.07542118651971123 -0.010196721515480827 0.01390935095836727
-0.08253911071553972 -0.009221987884558323 0.01459299307057332
-0.07939687933226391 -0.010692335128057638 0.013470280126013959
-0.089664580568852 -0.009149610901869824 0.014564308046424963
-0.07868743582845569 -0.012171333957336506 0.01231144014371028
-0.09121360876316506 -0.009704175358297791 0.014107931449567589
-0.08375588775608239 -0.012176939803194191 0.012245975591417047
-0.0865613526250327 -0.01031929782811412 0.013678438621135259
-0.0666752248561242 -0.010913542531574512 0.013448887634788971
-0.07881313342791471 -0.009587635681175682 0.01434925704595257
-0.08177528954133782 -0.012375791331713782 0.01211287324373359
-0.07991310102264143 -0.013219974826755599 0.011468979950284869
-0.06565245293823449 -0.011765347745306895 0.012788869297539782
-0.06924892956337839 -0.011527501591317428 0.012933290201124338
-0.07420257873309903 -0.011356617670985988 0.013008512806156326
-0.05799990634930916 -0.010078013585699196 0.014212853973067669
-0.07387178904088533 -0.009300363876870027 0.014635511694854308
-0.06841417098487776 -0.010197661444395798 0.013992995180846434
-0.05635271017987199 -0.01006524985909203 0.014242765800416292
-0.07769511625586656 -0.010544910654766964 0.013607137754262347
-0.06478347375926075 -0.010700672463879375 0.013639689960256043
-0.08070333523803364 -0.009624352995210094 0.014297511949838563
-0.08821896118096449 -0.0098291071240123 0.01404538676258448
-0.09419959441739474 -0.011305897973564849 0.01256894719213641
-0.09323393124466045 -0.010163301414462228 0.013625649818802744
-0.09226295070067478 -0.013022281158439716 0.011397547712864053
-0.09019245647161417 0.0034978582379654975 0.016088029390891042
-0.06815883467482681 0.003132620263215885 0.016383060838067193
-0.09164633639647671 0.0028223507894039675 0.016259126756976466
-0.0716386252062418 0.00202544763718602 0.016653759109019686
-0.07518668319049826 0.002481108316875197 0.0164981540230082
-0.08131145736790904 0.003015620224929568 0.016298202838031736
-0.0698928439320846 0.0021324906904333207 0.016640095366573134
-0.09056153992952604 0.0013256867478654382 0.01667642791490898
-0.07254873092032757 0.0033723927165625564 0.016278789996133566
-0.06466429698072321 0.0031985258956751745 0.016396122383286974
-0.0872824564119719 0.0013405015688332327 0.016701493877336788
-0.0905440710756553 0.005190300975062775 0.015623907281311218
-0.08735602098428513 0.004034107187375628 0.015967134370838156
-0.08532020106364938 0.003934818057470831 0.016012247146246744
-0.08898648826788619 0.001164559011473731 0.016734295557464193
-0.06962442385589948 0.0036344499402893166 0.01623336143811248
-0.06257126198325055 0.0029414418083702322 0.01648472443229283
-0.07857660592004367 0.0028813806260035275 0.016359039505933873
-0.07901248393836145 0.0013931627709480034 0.016760544276661186
-0.08864625151450833 0.0025727653218841195 0.01635373619362931
-0.08887534245038789 0.004448757197681361 0.015840704825865085
-0.08365099481444499 0.0021686186929020905 0.016508153114474185
-0.08334884343200734 0.004748796712076028 0.01580802437749896
-0.08974260131827705 0.006633170615165501 0.014881659839964098
-0.07079634427269671 0.007681425265599406 0.014529044856357892
-0.0882073591740963 0.012344316579553698 0.01095807983841673
-0.06334589989535395 0.00914794008889833 0.013660494248634927
-0.07580963543828236 0.009903381723667936 0.012892068444168136
-0.068771643949703 0.00987056625270993 0.013053378406957212
-0.08942881025243847 0.011173174509379756 0.011744805764058246
-0.08619048989472963 0.01038724240905833 0.01235267347091553
-0.09048247485051795 0.009225627945653112 0.013072338607120055
-0.08347606509086251 0.011266909152758839 0.011797134767352516
-0.07967616897419448 0.009524972877709193 0.013077900283104795
-0.09105114623542061 0.0074285960500864836 0.01430522099551596
-0.08883021282894647 0.007797453524829692 0.014093596443578105
-0.0835402740977427 0.009968532177996852 0.012694733468864423
-0.08022342367111118 0.006957438328388893 0.014844621451024772
-0.07122971322189874 0.010371146102585193 0.012658424021498967
-0.0881257893379461 0.00962583510073495 0.012841683976567878
-0.061497143102418425 0.00823764233888888 0.01432709674128405
-0.0806886101212152 0.010710153078570933 0.012237466063374296
-0.06464102187514738 0.008198360085891358 0.014292382589344312
-0.08730897199824096 0.007205539384064196 0.014533333333525493
-0.05988710698634078 0.009326240483873862 0.013605167770429482
-0.09175976331702115 0.006152457721418423 0.01517473427601405
-0.0662074876688644 0.007876493075186205 0.014484363516142205
-0.08168614860450055 0.007590454107393934 0.014377582293754888
-0.08346121026089222 0.008232797298550408 0.013897935268196345
-0.07082522570331612 0.009045249696862467 0.013584303912059382
-0.08166624505386678 0.009766349064793444 0.012871607645722281
-0.08386792796675364 0.006870980642948982 0.014832708430717255
-0.07230234662080823 0.008222639172366326 0.014124707686158653
-0.07435003241373135 0.010466060859254464 0.012531269552901748
-0.08476838745811355 0.009267610840623478 0.01315579557436301
-0.07479861466253568 0.007248191018835803 0.014750159256291421
-0.0734392000827841 0.009372421284361826 0.013306329550841118
-0.08013302083157611 0.008157211809938952 0.014015801507119738
-0.07748678015601905 0.01004947969930288 0.012757898906139747
-0.08649537429750212 0.011572269704428548 0.011526278291220337
-0.0874229384246414 0.0084388019545535 0.01367730454504909
-0.07644188065335308 0.008468909240407298 0.013872699972594826
-0.06696482500391107 0.009596947051424526 0.013278384108300609
-0.07313642256446778 0.0070515774681239735 0.014895848830793769
-0.07825603977865872 0.006501273979280062 0.01512663390151617
-0.06330118500571638 0.006444970880910953 0.015117823228613827
-0.07111156341980508 0.004710136949538561 0.015827926938430256
-0.0703518956626251 0.006138512304850165 0.01525514209935707
-0.052371490978633216 0.003926808044790727 0.016101918049771912
-0.053227530097474954 0.0084359090458265 0.01430056504190049
-0.06783554816216829 0.007259226772222379 0.014801708197349196
-0.07391372364116179 0.005819550996886347 0.015390152575018006
-0.05972421126621932 0.004920585759721515 0.015719917543273176
-0.06640466286443653 0.0036854821091310878 0.016227817074905875
-0.054057445761917226 0.0038449406531025658 0.016138187580329328
-0.07467815551092344 0.0043875984366283285 0.01596437788328463
-0.055469759481689605 0.006323838554099968 0.01514985849594641
-0.07925389079449893 0.0048232515888916895 0.015799749109315045
-0.05832692717965246 0.003361292136614923 0.016340537199950215
-0.07683296610422449 0.00466416568701291 0.015858294952494675
-0.08769643120030088 0.005456291628577603 0.015564286963275224
-0.056814081152859304 0.008074032080482407 0.014452788863485755
-0.06116667098765868 0.003731686665044035 0.01619836836341857
-0.05413795723417658 0.00733915578752571 0.014741053186158842
-0.062274493056325986 0.0047904244910898066 0.015777309825536143
-0.0808932791176618 0.00492590189692227 0.01576213424346052
-0.06619431254029084 0.005515876196693509 0.015495419457740103
-0.05836123023199501 0.007356370867851201 0.014743015476303127
-0.060067999216481816 0.007801357439059291 0.014568644771263198
-0.0684120498553658 0.004784754838715969 0.01579243332577749
-0.07542227542916877 0.005655845089012524 0.015458776937683598
-0.05569024675971034 0.004592610617651681 0.015842621756364576
-0.08218814027496729 0.006351318187954966 0.015194836300862075
-0.06493783059972144 0.004716974147155805 0.015812260770627404
-0.08534369661578688 0.005599972921408639 0.015501901952883982
-0.0573642277279255 0.00611770286366942 0.015236258494964886
-0.09346951009581458 0.013510034054841214 -0.008141837249310323
-0.09214438625801605 0.014287480447324568 -0.007776916127830939
-0.09080792385891419 0.015234203616982314 -0.007138370965434479
-0.09721833128957466 0.013468246108809924 -0.005585308107272288
-0.09044769111819456 0.013098892198610037 -0.010942484842622904
-0.09326737794970633 0.014538053059365143 -0.00657347390906796
-0.0912464034098423 0.013499146001028233 -0.009717226966674593
-0.0951482628087893 0.01387002729165079 -0.00636708134123496
-0.07073478744768098 0.015470239251370694 -0.00715361814757689
