-0.0693303716808 0.0128051703731 0.0104278455653
-0.073474114018 0.0137114857488 0.00891626903831
-0.082278779849 0.0130903749262 0.00995217393998
-0.0775437608476 0.0126951430867 0.010611351956
-0.0546751125876 0.0129927269623 0.0101150337724
-0.0606527054966 0.012977433746 0.0101405401991
-0.0529949009507 0.0136771068768 0.00897360702167
-0.0515772392404 0.0147362342916 0.00720716657238
-0.0620789304696 0.0143639158323 0.00782812905282
-0.0572489219459 0.0131346612352 0.00987831207363
-0.0540079488987 0.0149535724614 0.00684468427899
-0.0604132203513 0.0139658882991 0.0084919698001
-0.0547593794575 0.0139085841442 0.0085875431708
-0.059174809917 0.0134402182472 0.0093686960841
-0.0572781032939 0.0139866346243 0.0084573685354
-0.0714403018638 0.0130516495868 0.0100167610755
-0.0652499680588 0.0141069843982 0.00825664602956
-0.0529910898597 0.0127660459138 0.0104930983635
-0.0750579461553 0.0129094224737 0.0102539711808
-0.0259033235163 0.00631241992564 0.0107594422192
-0.0287261384081 0.00710462717559 0.0109336155405
-0.0437519121466 0.00537505939245 0.014171416185
-0.0478632861705 0.0071322824295 0.0141906311269
-0.0379418231824 0.00684891417608 0.0126066039786
-0.0333607573974 0.00652246428169 0.0119512165339
-0.0359528763175 0.00487949203758 0.0130322602889
-0.0501812329919 0.00521137257332 0.0153328597457
-0.0414453962005 0.00591497974335 0.0135677648311
-0.0498142210354 0.0026182170065 0.016277839954
-0.0489071935604 0.00833625404082 0.0139010437241
-0.0472428798885 0.0055400763035 0.0147033937258
-0.029097043816 0.00554738853306 0.0116020617972
-0.0461042127635 0.00756361771682 0.0137226522946
-0.0515089402111 0.00316424636248 0.0163550452894
-0.0362935510879 0.00641757176982 0.012492764615
-0.0512696771934 0.0066165622377 0.0149726878403
-0.0430184218967 0.00666262059275 0.0135458481428
-0.0377256455706 0.00511489752345 0.0132434953904
-0.0244453318379 0.00657062799752 0.0104101484035
-0.0336940344854 0.00494546606071 0.0126209157542
-0.0400042043773 0.00712596541182 0.01285110902
-0.0454731717477 0.00613999117528 0.0141680922463
-0.0394471158585 0.00542479802398 0.0134170236429
-0.0498069014615 0.00723255810733 0.0144835478159
-0.0455674857251 0.00364574258542 0.0151534128135
-0.0462002356997 0.0112878222707 0.0108987648557
-0.0411571946648 0.00981757449013 0.0111394897295
-0.050561472235 0.0123064694069 0.0109097082606
-0.0451388864081 0.00990702549846 0.011877973909
-0.049345981318 0.0111257898788 0.0116838878294
-0.034354151728 0.00838954156448 0.0109829314914
-0.0384060971012 0.00993568899954 0.0104733093686
-0.039868535094 0.00840056397539 0.012103499754
-0.0477654717854 0.0114555271956 0.0110741971764
-0.0461545420022 0.00912286470245 0.0127657472866
-0.0357911367653 0.00816009411697 0.0114762879221
-0.0307487896921 0.00761325666645 0.0109168445811
-0.0479670232049 0.00953714824601 0.0127781429745
-0.0373687134098 0.00868223627351 0.0113470621448
-0.0416894773437 0.00867345558558 0.0122401724193
-0.0431201628388 0.0093700182865 0.0119296741456
-0.0430724598435 0.010976242779 0.0105277992675
-0.0499577140423 0.0097303833062 0.0130186415545
-0.0326751629271 0.00842858269854 0.0106050018884
-0.0537709033643 0.0116599459823 0.0115826028952
-0.0530371084784 0.00988903463247 0.013157354569
-0.0614964535398 0.0098066384422 0.0132306239275
-0.0553474347877 0.0113554075843 0.0118534082927
-0.0516761921594 0.00889838182299 0.0140382751018
-0.0734938400781 0.012437289654 0.0108913637498
-0.0727538695077 0.0113768462727 0.0118343443173
-0.0592932829478 0.0107001933292 0.0124360460092
-0.0630859395228 0.0102941828248 0.0127970836869
-0.0566762619346 0.0107398842351 0.0124007515714
-0.0692896092763 0.0107888752686 0.0123571871591
-0.0654626864537 0.0114437867269 0.0117748186994
-0.0520975724423 0.0109390340673 0.0122236610966
-0.0609426619892 0.0114566976793 0.0117633378628
-0.057894868019 0.0119196054418 0.011351705302
-0.0635019614083 0.011447552791 0.0117714697934
-0.0600172793456 0.00961619063319 0.0133999762816
-0.0847766119506 0.0123582893991 0.0109616133326
-0.0554821419096 0.0097182763401 0.0133091983678
-0.0667095733072 0.0123957773829 0.0109282778045
-0.0584251814233 0.0094995171027 0.0135037261601
-0.0827002885886 0.0120230430972 0.0112597251919
-0.0672695816232 0.0109044743002 0.0122543927598
-0.0694443952606 -0.00747780546632 -0.0166258693429
-0.0865935964727 -0.00749477619623 -0.0166208885887
-0.058910429552 -0.00720256662844 -0.0167282869979
-0.0801592591182 -0.00572003718561 -0.0172862491025
-0.0852816535929 -0.0066405208577 -0.0169412984873
-0.0567496650142 -0.00624441921908 -0.0170876084916
-0.0762821668413 -0.00560858460224 -0.0173277525363
-0.0895516388424 -0.0062872419801 -0.0170741937271
-0.0875806872306 -0.00991523810216 -0.0157128128619
-0.0825578188233 -0.00592160283949 -0.0172108157591
-0.081530886074 -0.00487752552638 -0.0176024697694
-0.0617008129136 -0.00631917746643 -0.017059959592
-0.08368823914 -0.00753417522971 -0.0166058711785
-0.0672023617882 -0.00726099254942 -0.0167070361046
-0.0710951530377 -0.00729244977583 -0.0166955481398
-0.0745265558548 -0.00681815445635 -0.0168737808542
-0.0785581787796 -0.00442942248788 -0.0177703573352
-0.0863674115302 -0.00513424899116 -0.0175065383849
-0.0843494272021 -0.00472105047858 -0.017661406995
-0.0697209223049 -0.00602740259344 -0.017170081802
-0.0791796640962 -0.00785998186154 -0.0164832642133
-0.0761727023052 -0.00794389860307 -0.016451535576
-0.0742809134248 -0.00846734156961 -0.0162549871904
-0.0657921959893 -0.00562665312767 -0.0173201250399
-0.0902428789468 -0.00769342762183 -0.0165466497927
-0.0883995492412 -0.00800811332024 -0.0164284309002
-0.0844470127701 -0.00900292191694 -0.0160548598461
-0.0631438373278 -0.00732795129951 -0.016681585066
-0.0740688216446 -0.00531373139705 -0.0174382022769
-0.089982904972 -0.00412549858893 -0.0178853131416
-0.0813186379041 -0.00706364082454 -0.0167822237426
-0.0719144908246 -0.00593010880923 -0.0172067637266
-0.088186164274 -0.00481413565597 -0.0176267917355
-0.0878070391504 -0.00656529595167 -0.0169697270149
-0.0675119681263 -0.00892233682634 -0.0159639744164
-0.0535300677549 -0.00817202713534 -0.0161691618897
-0.0744931534696 -0.0102038310647 -0.0153621115794
-0.0804932194032 -0.00965694053693 -0.0157525495029
-0.0657801727338 -0.00961321537442 -0.0155577414057
-0.0515412540103 -0.00853191670072 -0.0159413818151
-0.0590214331549 -0.00875601873381 -0.0159292516314
-0.0777884436736 -0.0103660568581 -0.0153217977561
-0.0683173554413 -0.0100755121456 -0.0153408991412
-0.0551485831956 -0.00752483269223 -0.0165496526537
-0.0606235072428 -0.00915433415516 -0.0157337323709
-0.0552374311116 -0.00914843648578 -0.0156568509654
-0.0643291811878 -0.00899611821087 -0.0158759921014
-0.0592206453988 -0.0105326858213 -0.0149537994297
-0.0572006122721 -0.0104273304665 -0.0149817666768
-0.0638358005969 -0.0110927613512 -0.0147140243431
-0.0726195170263 -0.00955130334896 -0.0156935862503
-0.0625795415524 -0.00876266978307 -0.0159785232635
-0.0525116572971 -0.0114611605122 -0.0143426752447
-0.0565481096938 -0.00794602126889 -0.0163385237542
-0.0761570603431 -0.01041769372 -0.0152690909049
-0.0699969949027 -0.00948683592206 -0.0156900730949
-0.0484492178888 -0.00183313685143 0.0160578071213
-0.0492179378608 -0.00747701317295 0.0145415591339
-0.0500893097051 -0.00958169087586 0.0140938413814
-0.0438934352874 -0.00584276023816 0.0139535025045
-0.0365810143441 -0.00634437191904 0.0123328688786
-0.0443667077787 -0.00435283519855 0.0144899086419
-0.0360021038004 -0.0091758244854 0.0113780045496
-0.033590432733 -0.00614241595931 0.0117906058948
-0.0499566395822 -0.00363497772796 0.0158277995378
-0.0361254003956 -0.00771651787734 0.0118348890384
-0.0463965308697 -0.00830952004188 0.0137270764676
-0.0350064072628 -0.00534983349474 0.0123103296118
-0.0449445523448 -0.00880945791267 0.0132867489586
-0.0422014860108 -0.00808858651239 0.0129479525276
-0.043897901702 -0.00749997157953 0.0134637445248
-0.0375555693091 -0.00885537862875 0.0117856202666
-0.0307507750723 -0.00810853335466 0.0106368164728
-0.0486609902729 -0.0058826828567 0.0149014754624
-0.038189727403 -0.00599405401152 0.0127604512399
-0.0460476068374 -0.00518586770171 0.0145816640607
-0.0427773257739 -0.00958427240578 0.0126210455738
-0.0452697010298 -0.00172259757335 0.0154504420355
-0.0411974149854 -0.00302056944777 0.0142463232533
-0.0458049046685 -0.0034117960163 0.0150580602827
-0.0281537312647 -0.0079498952287 0.010160954315
-0.0387275556978 -0.00429073321277 0.013373034531
-0.0471054182512 -0.00972066778584 0.0134519838947
-0.0426191530345 -0.00493862548822 0.0139646577537
-0.0410409121486 -0.00966930613907 0.0122462985733
-0.0476813100732 -0.00376182197536 0.0153321802484
-0.0345348918966 -0.00823680879567 0.0113606469917
-0.0397767849612 -0.00642667225763 0.0129518669479
-0.0420754103264 -0.00660160551699 0.0133628276388
-0.0389595977365 -0.00809693511557 0.0122928313671
-0.0452805708191 -0.00693504089811 0.0139093615058
-0.0430193364553 -0.00340632533513 0.0144988959389
-0.0582866987823 0.000288166184461 0.0167609993368
-0.0800330397574 0.000686261480985 0.0167609993368
-0.0683835051056 0.000379466595659 0.0167609993368
-0.0524707298219 0.00122064801455 0.0167609993368
-0.065934274595 0.00158715121289 0.0167609993368
-0.0836654437386 0.00110663347565 0.0167609993368
-0.0544411865818 0.00158401978896 0.0167609993368
-0.0723209938357 0.000966079782314 0.0167609993368
-0.0780759483135 0.000905841271496 0.0167609993368
-0.0561160908741 0.000897405106906 0.0167609993368
-0.0747307785896 0.00147570606703 0.0167609993368
-0.0614917711138 0.000760371668253 0.0167609993368
-0.0597240307277 0.00118627015333 0.0167609993368
-0.0638202795176 0.00111364336001 0.0167609993368
-0.0708051495833 0.000628809426636 0.0167609993368
-0.0736075282312 -0.00471717573759 0.0158287371537
-0.0858574510059 0.000253087516339 0.0166606946935
-0.0712025220701 -0.00431792564955 0.0159146051626
-0.0801836365174 -0.000778222937434 0.0165056616036
-0.0826696041751 -0.00339323838964 0.0160177693485
-0.0529219937637 -0.000670292847188 0.0166783718871
-0.068542415165 -0.00121562119721 0.0164917884565
-0.0762203710846 0.00027017880894 0.0167179311551
-0.0812894526643 -0.00622115136801 0.015513012065
-0.0744817512069 -0.00222870799011 0.0162748180115
-0.0817263263881 -0.0016304074323 0.0163425513114
-0.0776682701979 -0.00156028688828 0.0163780567074
-0.0631010530522 -0.000456926168672 0.0166598572565
-0.0899562496424 -0.00495849164447 0.0156931593314
-0.0850238699872 -0.00621208834633 0.0154936754612
-0.0727674243369 -0.00308242244756 0.0161297276309
-0.0879689618449 -0.00618210008407 0.0154825654518
-0.0617150040923 -0.000977135312256 0.0165733647953
-0.0810642954829 -0.00401789134678 0.0159135799917
-0.0755332969116 -0.00360782748979 0.0160189689362
-0.0865556387716 -0.00287994679134 0.0160889637637
-0.0876085819642 -0.00163167021331 0.0163092772586
-0.0898863795805 -0.000824726373816 0.0164427258152
-0.0901539436692 -0.00262253167577 0.0161154013613
-0.0649858075808 -0.000760309660893 0.0165942860792
-0.0623159073434 -0.00264028485484 0.0162685717606
-0.0890619640743 -0.0075583642004 0.0152270009723
-0.0884153677086 0.000623204401918 0.0167134022197
-0.0701574066507 -0.00299596535672 0.0161600589892
-0.0815951340957 -0.00011929426741 0.0166171516323
-0.0861716642465 -0.00125508697527 0.0163855987859
-0.0601160645498 -0.000780717813386 0.0166179445785
-0.083610031101 -0.00156688270597 0.0163434818456
-0.0888677604322 -0.00365295775569 0.0159358798186
-0.090366978547 0.000938229209457 0.0167595313435
-0.0710807569438 -0.00174466660749 0.0163816482247
-0.0779465570496 -0.00345419915361 0.0160332542786
-0.0759652577479 -0.00161229517482 0.0163781982413
-0.0871886840687 -0.00458807981756 0.0157758376782
-0.0731164863668 -0.00149416083748 0.0164156118214
-0.0666771706331 -0.000544169854589 0.0166239560084
-0.0788751699733 -0.00470898341766 0.0158006294386
-0.0790502185037 -0.00237954347315 0.0162218170435
-0.0921151847604 -0.00655694856608 0.015391338049
-0.0838011462129 -0.00511120936684 0.0157000598603
-0.0668090190414 -0.00281509936807 0.016211648336
-0.0739121329561 -2.15199677359e-05 0.0166780329261
-0.0615616886819 -0.00931812746723 0.0145116751205
-0.0556875329517 -0.00957955081756 0.0143849712764
-0.0555211709587 -0.00154132912987 0.0164958438188
-0.0647756070818 -0.00474552158216 0.0157451292247
-0.0642847873889 -0.00648147201381 0.0152840600355
-0.0516417605027 -0.00845500292262 0.0146405656885
-0.0784123947831 -0.00728723604427 0.015211789564
-0.0626411473458 -0.00608004735339 0.0153733291913
-0.0546121199529 -0.00741410226565 0.0149434518678
-0.0643896467766 -0.00823288543957 0.0148248085764
-0.0716142987412 -0.00917526543796 0.0146484767031
-0.0681228871017 -0.00408083991845 0.0159528633442
-0.0710477742636 -0.00754312638214 0.0150718234815
-0.0855493212965 -0.0081524192804 0.0150548795043
-0.0772444279028 -0.00588351361886 0.015569168003
-0.0518068926468 -0.00428795862658 0.015737331931
-0.0794301096939 -0.0060946753274 0.0155352535625
-0.0760945926831 -0.00729041528377 0.015188068811
-0.0770389187589 -0.00886619203863 0.0147832648291
-0.0584905969891 -0.00230370264304 0.0163248045171
-0.0621244940128 -0.00756235437302 0.014978664642
-0.0549671217081 -0.00312471679769 0.0160742451537
-0.0908771865006 -0.00815466485907 0.0151068949475
-0.0574766379813 -0.00916466922654 0.0145116708353
-0.0687794718782 -0.00730163476465 0.0151128931193
-0.0602067745383 -0.00618529899495 0.0153216319349
-0.0532451794192 -0.00488201996622 0.0155954085755
-0.0681771174496 -0.00936662260038 0.0145642487573
-0.0825414083941 -0.00875082318134 0.0148679145621
-0.0513314382699 -0.00122345065699 0.0165380170167
-0.06652223041 -0.00440088152761 0.0158529492415
-0.0556865212691 -0.00610571436136 0.01529791597
-0.083924499383 -0.007576709083 0.0151901382316
-0.0750197790561 -0.00522458882735 0.0157203737602
-0.052226850971 -0.00643714777906 0.0151766527069
-0.0731368058321 -0.00764936123067 0.0150645304472
-0.0528917477676 -0.0024839290446 0.0162221582297
-0.0696463552581 -0.0048584189262 0.0157635509895
-0.0721575694465 -0.0054674827983 0.0156282785718
-0.0588076708315 -0.0076824504237 0.0149143531179
-0.0700125493399 -0.00932191581591 0.0145941205474
-0.0802893220537 -0.00840840455071 0.0149356688159
-0.0624005504298 -0.00427837688651 0.0158444484134
-0.0560722012067 -0.00416057149903 0.0158129246488
-0.0872249744575 -0.00811236040186 0.0150819521809
-0.0594255842474 -0.00947676159516 0.0144488934831
-0.0563972605684 -0.00743091581089 0.0149566590161
-0.0657325774713 -0.00673269376721 0.0152323317621
-0.0590249760998 -0.00368423026435 0.0159672660373
-0.0650390893928 -0.00337087547121 0.0161089998152
-0.0605753965778 -0.00455004203906 0.015755031456
-0.058387355799 -0.00527642977057 0.0155425263905
-0.0675201272009 -0.00566445926424 0.0155307228391
-0.0994488974563 0.012943530142 0.00219820513839
-0.0961384184946 0.0143336662031 -0.000650349619821
-0.0938269539084 0.0151489146175 0.000401427888817
-0.099583457993 0.0129956336477 0.000188600859294
-0.0952287134938 0.0147711790014 -0.00251940464405
-0.0942492522018 0.0150755701452 -0.00127015476177
-0.097281684309 0.0138543761042 0.000317932214225
-0.0916836857607 0.0121959279019 -0.0114863330629
-0.0963410658521 0.0128749773178 -0.00708639274421
-0.0941929223236 0.0119867482028 -0.00982802757239
-0.0966609722369 0.0105368275083 -0.00973797907514
-0.0987266337266 0.0103568406447 -0.00838246659363
-0.10035449544 0.00997543914947 -0.00761096498478
-0.0973391886676 0.0113568629844 -0.00820403208735
-0.0993252203628 0.0111895523718 -0.0068936666991
-0.0976245584053 0.0128861238409 -0.00609182479804
-0.0989771245966 0.0132415073385 -0.00461810249726
-0.103465397365 0.00507261680215 -0.00656757024526
-0.104777961021 0.00162291249749 -0.00417432166367
-0.103539949367 0.000897963619889 -0.00806055102522
-0.102661839674 0.000982489883853 -0.0105718933796
-0.10492718416 -0.000194683535018 -0.00448580839213
-0.103080701373 0.00273943095955 -0.00863816201545
-0.104126729339 0.000213111022909 -0.0066396536612
-0.103497952573 0.00359443016022 -0.00707836157075
-0.103854064985 0.0017998277217 -0.0067805899815
-0.104526420021 0.00356850696314 -0.00410708682134
-0.104052533924 0.00287692516414 -0.00576418743354
-0.105567150947 0.00078819438696 -0.0022279228664
-0.102844246454 0.0057827083265 -0.00807778801825
-0.104066820407 0.00469716018844 -0.00497754853276
-0.0925549852654 0.0108599146283 -0.0123559170563
-0.0957984686677 0.0081249214681 -0.0129009648615
-0.0942115527351 0.0102406034284 -0.0118508144352
-0.0926388604072 0.00926203374345 -0.0139088085516
-0.0942441984613 0.00777466580105 -0.01431329852
-0.0906626687557 0.0118771575692 -0.0126207436344
-0.0959672445984 0.00940496536906 -0.0114961234654
-0.0973334414824 0.00925902670341 -0.0107119595699
-0.0976134941678 0.00799730273169 -0.0117924147791
-0.10149010593 0.00789712122572 -0.00925101806504
-0.0990139482554 0.00840690050669 -0.0104251294265
-0.1016883005 0.00230558495081 -0.0114668916395
-0.101702649226 0.00458817801588 -0.0105214355217
-0.0964975254798 0.00608055752917 -0.0138812073258
-0.0999876791757 0.00681904951145 -0.0109163767505
-0.0981164555805 0.00611840209859 -0.0126307020482
-0.0953113651664 0.00541910236175 -0.0150568820207
-0.100098910047 0.00506774095674 -0.011548521931
-0.0986525231957 0.00237181386849 -0.013755639654
-0.0976171066039 0.00440777596954 -0.0137119763881
-0.0990505859842 0.00393233054338 -0.0128130880419
-0.101949707313 -0.000217208154864 -0.0123003254698
-0.100227962795 0.00117499545521 -0.0130437913387
-0.101586056592 0.00609681873267 -0.00999273056355
-0.0938439850997 -0.0171720500018 9.90364446104e-05
-0.0916743688025 -0.0179322955503 -0.00186869567966
-0.0971494237792 -0.0160138060094 0.00214305829228
-0.0920550934236 -0.0177988875377 0.000363204363598
-0.0956471109992 -0.0165402247153 0.000922280326655
-0.0688629195976 -0.0147949812094 0.00958163361054
-0.0568262790583 -0.0125812168137 0.0117374723851
-0.0644384711059 -0.0130871619492 0.0113400562338
-0.0560742832183 -0.0149915610674 0.00911856427863
-0.074691830538 -0.0142815209694 0.0102506406553
-0.0622987093696 -0.0146649141632 0.00959348860445
-0.0637654894118 -0.0152735206895 0.00896469384271
-0.0601327156166 -0.0151502859196 0.0090266289492
-0.056025870266 -0.0114184317019 0.0129780711166
-0.0663990177876 -0.0124822933706 0.0120319946651
-0.0587796511617 -0.0133780956871 0.0109148038509
-0.0582396693843 -0.0143746114874 0.00982757043014
-0.054350127734 -0.0138151621314 0.0103557643522
-0.0623078601572 -0.0131766267998 0.0112016331626
-0.0667782907032 -0.0142950629937 0.0100808890701
-0.0690638672458 -0.0125559015636 0.0120047035839
-0.0542465839103 -0.01205149891 0.0122592195674
-0.0719218095449 -0.0131428204224 0.011426609919
-0.0735193239554 -0.0133829712035 0.0111984622214
-0.0796627308931 -0.0144355320183 0.0101816843081
-0.0530144632521 -0.0128662601176 0.0113547889386
-0.060038201999 -0.0115847838236 0.0128769915236
-0.0751602201686 -0.0129946458447 0.0116501787541
-0.0793838349522 -0.0134152721963 0.0112785195027
-0.055958036337 -0.0138649836655 0.0103334546152
-0.0526489702147 -0.0114896672445 0.0128349135649
-0.0553805479872 -0.0128670914082 0.011400270614
-0.0765571493984 -0.0139454531605 0.0106502965613
-0.0859519111082 -0.0140415470079 0.0107306309112
-0.0825046744852 -0.0139340564671 0.0107791926317
-0.0604747382309 -0.0133603480245 0.0109672056258
-0.0696760888322 -0.0136381600999 0.0108474179893
-0.0580161166636 -0.0116090044526 0.0128111864757
-0.0531173312572 -0.0147214867221 0.00935239419618
-0.0665252203367 -0.0101972805965 0.0140160445883
-0.0753395605903 -0.00946617071744 0.0144869627195
-0.0915994467026 -0.0121598826001 0.0121649782764
-0.0916908312492 -0.00943143102238 0.014317463183
-0.079152780826 -0.0104113648321 0.0136949915991
-0.0706401536221 -0.0118936974628 0.0126274946638
-0.0879801885956 -0.0118723773946 0.0124354951471
-0.074097878138 -0.0120009344723 0.0125012100744
-0.0881370977184 -0.0140304497303 0.0107302242476
-0.0543648501497 -0.0104687313325 0.0139482350948
-0.0859981553989 -0.0119752761044 0.012378146296
-0.0904914805446 -0.0138564294661 0.0108392255873
-0.0679975258409 -0.0114555814008 0.0130051280655
-0.0896804534202 -0.0125458628971 0.0118834320004
-0.0519773817294 -0.0102667448436 0.0141364169053
-0.064022768182 -0.0114042050994 0.0130935480929
-0.063132499037 -0.00982807581466 0.0143483192894
-0.0795414103953 -0.0119652418599 0.0124638255512
-0.0836267247506 -0.00994750920217 0.014007235908
-0.084198170843 -0.0117673731863 0.0125639228637
-0.0868841996054 -0.0109606900917 0.0131682952533
-0.0737807560145 -0.0101394449232 0.013974315615
-0.0896621424687 -0.00900226127218 0.0146806414774
-0.0885338866589 -0.0101577998962 0.0137821546376
-0.070208945175 -0.010593051708 0.0136592963201
-0.0781615934439 -0.0127324234231 0.0118749011644
-0.0773082105132 -0.0115709646358 0.0128019258821
-0.0846328428876 -0.0133830735757 0.0112834047208
-0.0817958709613 -0.0121406869771 0.0122981948522
-0.061996086325 -0.0111668296481 0.0133053176682
-0.0828107327207 -0.0112080774233 0.0130220878694
-0.0662785913561 -0.0114072745943 0.0130639582394
-0.091165006869 -0.0109208613112 0.0131481782369
-0.072173326503 -0.01178491652 0.0126948920665
-0.0756225733318 -0.0109627442502 0.0133022986644
-0.0807924164262 -0.00978928142753 0.0141662599994
-0.0932077995105 -0.00946043235192 0.0142059430452
-0.0930042559654 -0.0129438699023 0.0113708937275
-0.0807820265425 0.00393516681764 0.0160524277272
-0.0914666228761 0.00564175551931 0.0154927488484
-0.0672452375132 0.00288914466252 0.0164574887709
-0.0863223582204 0.00523464227835 0.0156492962615
-0.0684889674318 0.00201603405285 0.0166842759724
-0.0826664582626 0.00432166741437 0.0159304254573
-0.0567852262225 0.00262735700553 0.0166216276049
-0.0874457471516 0.0028460048321 0.0162899632361
-0.0841833633678 0.00365272340628 0.0160991756806
-0.0778308878606 0.00289916249624 0.0163608140622
-0.0857113110631 0.00314561063552 0.0162237469684
-0.0890284640907 0.00349594038651 0.016098882039
-0.0892633130049 0.00197860324341 0.0165101026642
-0.0810325787041 0.00205390480602 0.0165626378619
-0.0797287610511 0.00280037160256 0.0163708802214
-0.0773500778723 0.00445073264489 0.0159424516326
-0.0738608571791 0.00347502946157 0.016239188036
-0.0851461883881 0.00162153784368 0.0166439019265
-0.0902856963795 0.00430867236342 0.0158663456271
-0.0626475280027 0.00298515669757 0.0164721401595
-0.0828705263927 0.00239471140772 0.0164534946396
-0.0710103130714 0.00273155085783 0.0164670010296
-0.0909585432086 0.00298927929877 0.016219761441
-0.087578527149 0.00429951978879 0.0158928643789
-0.0761237979413 0.00348598928681 0.0162161194676
-0.0656054083176 0.0078858566218 0.0144897372831
-0.0905118937972 0.00757486551329 0.0142145779564
-0.078053384893 0.00735236728699 0.0146139454613
-0.0875061755634 0.0106249232157 0.0121622192097
-0.0843835446019 0.00844244560711 0.013734633696
-0.0700618561351 0.00858925226699 0.0139150220303
-0.0758153155319 0.010096486976 0.0127582703131
-0.0770737891669 0.00888338717469 0.0135733144231
-0.089320636699 0.00667249496231 0.014862745007
-0.0831511945323 0.0106009058348 0.0122646045239
-0.0805411161521 0.00870856150441 0.0136260673055
-0.0750779046851 0.00701179008497 0.0149083192564
-0.0799511048512 0.011543007958 0.0116754056614
-0.0818760190948 0.00969658725935 0.0129157727041
-0.053717391478 0.00885052338569 0.0140559993503
-0.087599540481 0.00651315246427 0.0150069491859
-0.0669709069064 0.00855405715768 0.0140002543854
-0.0784987794278 0.0104579797172 0.0124551671185
-0.0630879321394 0.00864056215512 0.0140168306043
-0.0713722830224 0.00945266826903 0.0132914764281
-0.0745181517723 0.0107977587963 0.0122983253073
-0.0883129138071 0.00928069102369 0.0130769415013
-0.0866647083359 0.00886121294165 0.0133998015264
-0.0888092333066 0.0114679465703 0.0115529364988
-0.0808835860306 0.00731115535547 0.0145867441505
-0.0737366005343 0.00958227096889 0.013155194744
-0.084626768878 0.0108295614528 0.0120772498556
-0.0900025221572 0.00890912699332 0.0133009026302
-0.090218497924 0.0120793655917 0.0111019014611
-0.0678933043973 0.00961471232187 0.013247801671
-0.0838726899306 0.00641575763976 0.0151477643946
-0.0816424696735 0.0110230878859 0.0120020387153
-0.0611191724794 0.0082125109074 0.0143519381529
-0.0655605029942 0.00975158585435 0.0131989819177
-0.0730081721955 0.0078225863911 0.0143877641233
-0.0755631795222 0.00839352642891 0.0139421906563
-0.0827614390343 0.00836397897969 0.0138208983932
-0.0861554507374 0.0111222318262 0.0118445321421
-0.0568050258177 0.00879594976868 0.0140329789345
-0.0872241136049 0.0122993060283 0.0110086025686
-0.0543295752178 0.00316183069623 0.016411926711
-0.0663745683586 0.00416429823127 0.0160362800722
-0.0562517591378 0.00655493702574 0.0150590824834
-0.0670042875471 0.00661520610364 0.0150575046406
-0.0519156489124 0.00506146407672 0.0156472251642
-0.0587755720868 0.00445992225053 0.0159021453498
-0.069970195105 0.00538651541568 0.0155550588828
-0.0700772555865 0.00393681448993 0.0161350046044
-0.063104356147 0.00639930313821 0.015135673025
-0.0533776083247 0.00738966764846 0.0147192612856
-0.0684975834829 0.00623537783702 0.0152125223005
-0.0569362878705 0.00494121298661 0.0157058290865
-0.0715112506753 0.00488625461748 0.0157583363959
-0.0636029556846 0.0045912775557 0.015859729484
-0.0552401782023 0.00546321767594 0.0154935316106
-0.0591791270502 0.00293424631616 0.0165130938102
-0.0757108309546 0.00498713333019 0.0157267927749
-0.0617928632799 0.00412014204222 0.0160443404694
-0.0730024772 0.00570510676748 0.015434008946
-0.0583637618182 0.00804939978377 0.0144658851782
-0.0813718884041 0.00583290538013 0.0154004348067
-0.0798355548922 0.00524620034295 0.0156318343729
-0.0551733445196 0.00785513093893 0.0145368884958
-0.0534506991335 0.00597427127971 0.0152854177888
-0.0716490876582 0.00685631880072 0.0149708153936
-0.0610920207225 0.00668711767722 0.0150163635448
-0.0767568837289 0.00659303332753 0.0150867999575
-0.0685124659057 0.00403936747128 0.0160907169084
-0.0655696862933 0.00612956533193 0.0152487026758
-0.0598481468708 0.00568361541068 0.0154150489276
-0.0697937433545 0.00737649108715 0.0147589171312
-0.0920728955919 0.013018490743 -0.0099377701773
-0.0913181277595 0.0143142234897 -0.00831122447992
-0.0944311241319 0.0133253179764 -0.00777547735922
-0.0932705457533 0.0146616730781 -0.00636563141305
-0.0915108465771 0.0152131834911 -0.0066809397119
-0.092943761708 0.0138966396479 -0.0078670615682
-0.0627038395685 0.0155273182716 -0.00658991791684
-0.0819096336825 0.015793328424 -0.0054174546958
-0.054855089922 0.0157635035801 -0.00490933373623
-0.0583791296132 0.0157512639184 -0.00507649192155
-0.0573966911205 0.0162631445315 -0.00184586186351
-0.0698048645107 0.0156467174142 -0.00602462717405
-0.0648544116243 0.0157069197952 -0.00552048962555
-0.0641650937424 0.0154683860454 -0.00699648321031
-0.0658736322965 0.0153756624178 -0.00762100166108
-0.0541099502852 0.0161950301605 -0.00218797557243
-0.0681661504912 0.0156707171532 -0.00583225114696
-0.0755573001492 0.0156510058699 -0.00614552166039
-0.0839244499545 0.0156441774894 -0.00640318756968
-0.060346331013 0.0155477939872 -0.00640114740157
-0.0619479567322 0.0160613265206 -0.00322654357868
-0.0517754569339 0.0161444187927 -0.00244494353073
-0.0563574899678 0.015526614581 -0.00643132120939
-0.0567213751575 0.0157817386047 -0.00484308072744
-0.063583085503 0.0158850794196 -0.00437220054696
-0.0664423572243 0.0158293088594 -0.00479487495751
-0.069578971185 0.0159135797082 -0.00434773343615
-0.0713234105141 0.015662108165 -0.00596725347834
-0.0751165104415 0.0159622502055 -0.00418518804481
-0.0785096791189 0.0156096164358 -0.00648053287329
-0.0561121809404 0.0152789667042 -0.00797579163397
-0.0641260534604 0.0161688772508 -0.00260900433679
-0.0530597196602 0.0157936040682 -0.00467473116913
-0.0775146712817 0.0159189398264 -0.00451799336577
-0.0577215888577 0.0159881325837 -0.00357633162071
-0.0530622303785 0.0155223232764 -0.00637355605654
-0.0604537979317 0.0158454978647 -0.00453968587089
-0.0741129257725 0.0157038659314 -0.00577741381377
-0.0667244021973 0.0155838480069 -0.00633919509244
-0.0596666883666 0.0153294256842 -0.00775111345656
-0.0710964355264 0.0159635828507 -0.00407358915195
-0.0811349707761 0.0155487456203 -0.0069291354082
-0.0795927240134 0.0158577869145 -0.00495430679574
-0.0607681890098 0.0162005808627 -0.00232423102761
-0.0861105978724 0.014270721047 -0.00905910550381
-0.0578400465211 0.0152401298604 -0.00806998093433
-0.0745953417195 0.0145848391831 -0.00879726636305
-0.0767072352628 0.014893299927 -0.00820579350625
-0.0827388649532 0.0153107960464 -0.00732618564024
-0.0787673042729 0.0132392965097 -0.0110438756817
-0.0874390889767 0.0130139731387 -0.01122144197
-0.0703145748649 0.0147052128556 -0.00869363757381
-0.0888341135475 0.0148139051631 -0.00804235178009
-0.0637148997896 0.014721015961 -0.008830459949
-0.0850250227416 0.0136770139064 -0.0101233099633
-0.0836463891795 0.013443606286 -0.0105654022004
-0.0893116756505 0.0155657622277 -0.00671702086064
-0.0685224767281 0.0150984964511 -0.00805125304367
-0.0786111646991 0.0149986398801 -0.00797433737073
-0.0813879141444 0.0140483370378 -0.00956525649389
-0.0652445637134 0.0145574596358 -0.00907806826741
-0.0732814533851 0.0151717307544 -0.00780475012117
-0.0755787073418 0.013464585583 -0.0107297571815
-0.0715389205121 0.01526423778 -0.00768656267013
-0.0675608211475 0.0140692895514 -0.0098731524209
-0.075168837588 0.0152634406757 -0.00759751675251
-0.0734758744476 0.0138086084499 -0.0101811689734
-0.0841580433713 0.0143951468159 -0.00889039125923
-0.0874076502661 0.0150829560016 -0.00760788198858
-0.0768815267203 0.013971425667 -0.00981188975988
-0.0852458828524 0.0152398555306 -0.00738765123273
-0.0902334249771 0.0135418188943 -0.0102297186343
-0.0885783675137 0.0135915685858 -0.010184045311
-0.0884882182195 0.012344048699 -0.0123656062193
-0.0862522998206 0.0164149520418 -0.000820699330744
-0.0765564771915 0.0161008996815 -0.00316937699336
-0.0658710969985 0.0162108801085 -0.0023468753831
-0.0849972533405 0.0160824695954 -0.00330720856873
-0.0729498315185 0.0160319146261 -0.00368528987674
-0.0835216737431 0.0165063012583 -0.000137533428126
-0.0840024640861 0.0163033959614 -0.00165498465205
-0.0584227541028 0.0164321801205 -0.000691857109588
-0.0560007603009 0.0163865217638 -0.00103331852197
-0.0824666459605 0.0161342203564 -0.00292018439201
-0.0862919129637 0.0158091708814 -0.00535110527575
-0.0896976816352 0.0162721382916 -0.00188874882626
-0.0888292781357 0.0158883804841 -0.00475872690769
-0.0761062882769 0.0162883035361 -0.00176785513657
-0.0646468799202 0.0164586277206 -0.000494065609348
-0.0786338261661 0.0160599488763 -0.00347563242597
-0.070727175115 0.0161909064132 -0.00249625102161
-0.0875137748084 0.0159914736514 -0.00398773248226
-0.0864745423171 0.0162114219054 -0.00234282349086
-0.0682876963696 0.0161293848932 -0.00295634697399
-0.0880469181842 0.0162857838253 -0.00178669909158
-0.0793795209264 0.0162380153655 -0.00214394115904
-0.0630765165465 0.0164192695498 -0.000788410337052
-0.0546180260221 0.0164835948191 -0.000307346215058
-0.0802832634965 0.0160550835681 -0.00351201820848
-0.078312926991 0.0164528234724 -0.000537473364486
-0.0676476326397 0.0163639451766 -0.00120216019575
-0.0847256567649 0.0158464700647 -0.00507215892886
-0.0741235892847 0.016150346841 -0.00279958057205
-0.0732540117455 0.0163747003692 -0.00112172621753
-0.0611203284049 0.0164836550233 -0.000306895970322
-0.0776815762025 0.016257802568 -0.00199596022852
-0.0928979902575 0.0155065950773 -0.00211192065041
-0.0940209083253 0.0150014720209 -0.00364953218927
-0.0907682298587 0.0157777321133 -0.00520213528229
-0.0905298475841 0.0160151193067 -0.00373758394176
-0.0905526265134 0.0163764614725 -0.000519446363644
-0.0969184218826 0.014099656946 -0.00410555163969
-0.0914103527748 0.0159496613681 -0.00205217632994
-0.094964725182 0.014550260541 -0.0051749711967
-0.0927328497923 0.0153101606955 -0.00425308004096
-0.0345643857607 0.00334424784071 0.0132702776174
-0.0430242033458 0.00309028853763 0.0148967388863
-0.023487292276 0.0034471516793 0.0112094655709
-0.0278614712968 0.0046432773174 0.0116524793911
-0.0370076992619 0.00342016600863 0.0136952739578
-0.0324181448419 0.0040350367564 0.012669870002
-0.0297432043717 0.00330206121447 0.0123994063195
-0.0230455170634 0.00594631760304 0.0103792786994
-0.0307263935749 0.0051730872549 0.012018665976
-0.0269197855823 0.00309010288935 0.0119455364227
-0.0401593965962 0.00297698536074 0.0144057083741
-0.0250621285094 0.00408136171648 0.0113079357492
-0.044593405292 0.00238809611542 0.0153948183544
-0.0479072946437 0.00240051459853 0.0159983910515
-0.0215884057804 -0.00931135659373 0.00752857030857
-0.0213061256713 -0.00617358252699 0.0065169704782
-0.0214053151907 -0.0105948106596 0.00475996802624
-0.0215655317446 -0.00793703490288 0.00815956180991
-0.0213417536422 -0.00499528305329 0.00764677968283
-0.0212360005826 0.00620428290229 0.00975219148689
-0.0267021070865 -0.00362475649707 0.0109343663993
-0.02420139274 0.000407696053275 0.0113506100063
-0.0337912586554 0.000967028266091 0.0135832828283
-0.0407367875023 -0.000254992740596 0.0148114946809
-0.0310865971669 0.00119133235333 0.01304489058
-0.0491373823584 -0.000287505909503 0.0166424342011
-0.0285977869509 5.04968736906e-05 0.0122275293807
-0.0224644836926 -0.00216539562704 0.0103555713973
-0.0292710677879 -0.00564866396861 0.0110130229435
-0.0351037487351 -0.000253527449377 0.0135788942377
-0.0219808755538 -0.000711470000746 0.0105971504918
-0.0375796257386 -0.00166990313413 0.0137823527365
-0.0282966568948 -0.00310451507273 0.0114076959691
-0.0356177773847 -0.0036078372441 0.0128898572006
-0.0326310213777 3.85439103797e-05 0.0131074610506
-0.0217044492616 -0.00555241246342 0.00937985377024
-0.0310835516063 -0.000399613579208 0.0126640510848
-0.0365154767356 0.000360235380359 0.0140345559615
-0.0393228687106 -0.00147207411667 0.0142111842705
-0.0248782251092 -0.00186547192645 0.0109555571415
-0.0239860259154 -0.00302530233282 0.0104831205969
-0.031211654836 -0.00263363795421 0.0121582470231
-0.0271876398123 -0.00647398220145 0.010359787256
-0.0285387979675 -0.00160406944799 0.0118192423317
-0.0224374214235 -0.00380920214748 0.00995684358199
-0.0242787983802 -0.00709228947692 0.00957535377708
-0.0218589470079 0.0021852610177 0.0112626666245
-0.0441371828718 -0.000611201206061 0.0154706481501
-0.0276789295195 -0.00490535936307 0.0108421585227
-0.0257049187079 0.0017686109143 0.0120049039833
-0.0307783053207 -0.00566618179752 0.0113387386384
-0.0472180153456 -0.00100360429813 0.0160512071215
-0.0347407330933 -0.00169764950052 0.0131543501381
-0.0243221862153 -0.00480913021258 0.0101304348179
-0.0268013098129 -0.00177087398406 0.0113990840217
-0.022858963585 -0.00720482373244 0.00923769137205
-0.0299723431581 -0.00408626282939 0.0115398688
-0.0424692273065 -0.00143591200331 0.0149084955577
-0.0318609081818 -0.00434110957472 0.0118923366665
-0.0256118226442 -0.000493524739712 0.0114439666921
-0.0380559076638 0.00175728640924 0.0143095434051
-0.0395658109016 0.00130723943944 0.0146549310649
-0.0280747616443 0.00208444958435 0.0124304900708
-0.0459365202577 0.000976747844001 0.0158728521634
-0.0351085749929 0.00171774615626 0.0137754567248
-0.0509412022657 0.00138713321376 0.0167273653999
-0.0324200969888 0.00226080475435 0.013199890733
-0.0413025935998 0.00181955337345 0.0148950203105
-0.0431321480651 0.000872073778022 0.0153749048301
-0.0258604090191 0.00795879790583 0.0094477104736
-0.0302320264688 0.00905247523023 0.00931539932805
-0.034024612291 0.00949095947646 0.00984147825654
-0.0324263291598 0.0100754794529 0.0086536965515
-0.0241130582296 0.00783494403879 0.00910716924192
-0.0280628462625 0.00817624092814 0.00979992383383
-0.0388939865602 0.0108817112677 0.00947742083698
-0.0362191999355 0.00978776726977 0.0100917985072
-0.0371283398414 0.0107311123607 0.00916527123218
-0.0280687260152 0.00937561487755 0.00829544464222
-0.0224563214318 0.00733035528716 0.00927047221734
-0.0316673378691 0.0124150243608 -0.000108627480977
-0.0282290988248 0.0117427763569 -0.000941175212347
-0.0302154764772 0.0112575301647 0.00454173933394
-0.0267397596645 0.0109078616402 0.00181123793852
-0.0224818880394 0.0107711463811 -0.00320350340356
-0.0362220339041 0.0138813662427 -0.00230248879633
-0.0241833989854 0.0114294079418 -0.00465559917154
-0.0258711728515 0.0102425157562 0.00443800137177
-0.0317007920263 0.0129981026462 -0.0034014825794
-0.0230757574527 0.00956880227538 0.00448911054891
-0.0352936899582 0.0133446463683 -0.000493536787028
-0.0380118021464 0.0139326158467 -0.00015897570882
-0.0337045803451 0.0124046369207 0.00272474761524
-0.0276937553792 0.010489060693 0.00550803371145
-0.0398330572248 0.0143914083164 -0.000305970950979
-0.0218270728774 0.00985935958254 0.00112532456982
-0.0423253933476 0.0149676779394 -0.000211838393843
-0.0219134231825 0.00950215428427 0.0032880725197
-0.0245097464936 0.0112030431468 -0.00291519728047
-0.0246629653848 0.00970463073813 0.00587256323971
-0.0265374041039 0.0113771537396 -0.00115121367924
-0.0252645193505 0.010749553869 0.000708944900063
-0.0314638861158 0.0116902297862 0.00376415404014
-0.0272880560303 0.0106881855854 0.00381554830439
-0.0237460473491 0.0103258608218 0.00106724725251
-0.0389074537661 0.0138799691311 0.00136196828219
-0.0346597056211 0.012932561434 0.00100261867873
-0.0362551449893 0.0132380116505 0.00142611240352
-0.0226667148405 0.0103284875055 -0.000417407012509
-0.02968942017 0.0121942686881 -0.00153781967913
-0.0310765638864 0.0119509097321 0.00174425829713
-0.0293332936531 0.012520077902 -0.00388813612014
-0.0278590760807 0.011343202858 0.00084275536061
-0.0294792344817 0.0115537276287 0.00184340067639
-0.0441995647334 0.0154910674374 -0.000656632319729
-0.0217353108455 0.00912419831833 0.00520953673899
-0.0407064874791 0.0143421729981 0.00116518460454
-0.023826822486 0.0107579878818 -0.0012969067484
-0.0329922705893 0.012604965854 0.000607888872688
-0.0248662176389 0.0102959822673 0.00276353627772
-0.0271003902572 0.0119027073458 -0.00339370322855
-0.0214842946123 0.0078560235858 0.00830723817449
-0.0331933561934 0.0119468153124 0.00446540074536
-0.0354442135263 0.0125929092817 0.00382727534662
-0.0443986211576 0.015194598936 0.00115585690761
-0.0454355001831 0.014407757853 0.00545112697595
-0.0408228814881 0.013487215889 0.00505138413659
-0.0408323916479 0.0131139067097 0.00663999824575
-0.0391794172424 0.0131577617676 0.00491516637155
-0.0373198789625 0.012728716797 0.00499918625766
-0.046486012571 0.0155556780179 0.00157162948207
-0.046374647276 0.0150598477684 0.00356616542484
-0.0359507197771 0.012171433553 0.00608252121957
-0.0411649895832 0.0140144234044 0.00313893421289
-0.0441529060401 0.014437033403 0.0041328897819
-0.0427617412325 0.0139368583683 0.00495406438295
-0.0479468106268 0.0151224147075 0.00476539283888
-0.039199363525 0.0127785019437 0.00653868033744
-0.0433780184027 0.0146319816354 0.00258633961352
-0.0224760064104 0.00894261630077 0.00719849665748
-0.0336840184899 0.0116863418438 0.00602456835625
-0.0382788641609 0.0132799796776 0.00355937465542
-0.0356271032579 0.0108563633045 0.00850270820204
-0.0467997863828 0.013486278434 0.00802289366665
-0.0452008572177 0.0129661269944 0.00831570968368
-0.0368072187624 0.0116519296186 0.00764483490212
-0.046092355218 0.012442752705 0.00942047741402
-0.0316640614445 0.0108154151829 0.00728247229185
-0.0401134501592 0.0119355671288 0.00827391705072
-0.0416490970062 0.0119203184817 0.00879525636014
-0.0263400454115 0.00946698361008 0.00765956024549
-0.0436858547628 0.0120830318565 0.00920152836606
-0.0243433569946 0.00924548642136 0.00735791193335
-0.0339439255807 0.010750057192 0.00812306442266
-0.0494931423855 0.0136709264158 0.00860771631109
-0.0489015376118 0.0124930414211 0.0102522879286
-0.0482630498489 0.0140507882289 0.00761696812331
-0.043654741539 0.0134030873295 0.00713355282781
-0.0294459937099 0.0101414797814 0.00761442099619
-0.0493920726541 0.0147482514168 0.00689547761613
-0.091445124281 -0.0114671973265 -0.0143990087562
-0.0919669794304 -0.0133333035339 -0.0125886819077
-0.0899512060076 -0.0142833229876 -0.0122387429058
-0.0928168427247 -0.0143983210841 -0.0114171706309
-0.0906212746749 -0.0129495068523 -0.0132713183977
-0.0873069431114 -0.0132006784603 -0.0132008791303
-0.0887513264201 -0.0127553864748 -0.0135656478055
-0.0881082665858 -0.0115468952498 -0.0145247802461
-0.076805143926 -0.013204694548 -0.0131267353244
-0.0818898267093 -0.0122357262221 -0.0139335989395
-0.0814692318569 -0.0136763029953 -0.0127822497648
-0.0854286768198 -0.0113323725702 -0.0146777084466
-0.0835505738559 -0.0109726561183 -0.0149518074209
-0.0760920560058 -0.0117399334373 -0.0142897073229
-0.0815290654083 -0.0108930115177 -0.0150016487952
-0.0616582571951 -0.0112702020449 -0.0145666998495
-0.090365657619 -0.010532926921 -0.0153484213915
-0.0801714412936 -0.0125751445732 -0.0136513876727
-0.0883291850924 -0.0144494931422 -0.0122121600448
-0.0792431730864 -0.0115598931761 -0.0144545319245
-0.0747600278933 -0.0126140849567 -0.0135837869475
-0.0775415039183 -0.0121699749951 -0.013956645602
-0.0832064213281 -0.0133054502756 -0.013089649285
-0.0730300022303 -0.0119301908971 -0.014117338644
-0.0653577911418 -0.011955552238 -0.0140452917028
-0.0692063891567 -0.0126724334858 -0.0134997522052
-0.0715642561915 -0.0111835131545 -0.0147027302531
-0.0857057515509 -0.012945452007 -0.0133935434607
-0.0677708545779 -0.0123029537971 -0.0137846246217
-0.0668864121689 -0.0113062303632 -0.0145732934031
-0.0697715775141 -0.0109768754391 -0.0148553634004
-0.0907834190753 -0.0159050729465 -0.00884814446816
-0.0926485001361 -0.0159250696618 -0.00833748979327
-0.0911984756954 -0.0149846573521 -0.0107373273856
-0.0906115895877 -0.0167179877866 -0.00713080991648
-0.0907717510094 -0.0174003169372 -0.0056130724635
-0.0942856833803 -0.0147439068238 -0.0104850887516
-0.0869688033082 -0.0170917711721 -0.00648835994269
-0.0796385450349 -0.0175116503959 -0.00556345383795
-0.0869475258613 -0.0156497355741 -0.00969088489466
-0.0879886080207 -0.0151272661244 -0.0108501208312
-0.0852330675651 -0.0174967837761 -0.00559069205934
-0.0777754566905 -0.0157635009254 -0.00944770509019
-0.0892081222162 -0.0157797409673 -0.00939983149748
-0.0670357095409 -0.0164066990379 -0.00803036893526
-0.0817948412564 -0.0162315680086 -0.00840406075162
-0.063774426671 -0.0161196465868 -0.00867122922422
-0.0686676746576 -0.0160461356542 -0.00882943022702
-0.0728376342889 -0.0157777536524 -0.00942115199158
-0.058420420549 -0.0169236807274 -0.0068911427801
-0.0865137964264 -0.018133644405 -0.00417501587923
-0.0708982042881 -0.0172010804298 -0.00626220095051
-0.0858104930217 -0.0164794802619 -0.0078493447438
-0.0845858587343 -0.0168271399696 -0.00707851952596
-0.0762581563619 -0.016353807781 -0.0081383062422
-0.0842537869149 -0.0180841639367 -0.004287237224
-0.0840357711716 -0.0149973542104 -0.0111427143308
-0.088055104736 -0.018061288359 -0.00433411388373
-0.0882733947756 -0.016331415273 -0.00817562696222
-0.0738133202815 -0.0166167895307 -0.00755679580736
-0.0699798208864 -0.0164425850511 -0.00794763191928
-0.0661969529847 -0.0171947564139 -0.00628110079076
-0.0806296415988 -0.0155374052793 -0.00994687532548
-0.0599547353815 -0.0166077157665 -0.00759125980757
-0.0724299405528 -0.0170421633711 -0.00661354535761
-0.0759255184853 -0.015642331396 -0.00971871149787
-0.0798786779926 -0.0163394667057 -0.00816641602111
-0.0690225698754 -0.0172397330458 -0.00617829751563
-0.0539493292126 -0.0166856729245 -0.00742433314251
-0.0566462741391 -0.0166732804563 -0.00744906926053
-0.0752693901589 -0.0172996932843 -0.00603868500013
-0.0832737072179 -0.0157676063793 -0.0094329091586
-0.0707060349692 -0.0158811189195 -0.00919379769469
-0.0779151323588 -0.0178061870064 -0.00491112063704
-0.0848297494438 -0.015746680745 -0.00947777420634
-0.0630154644633 -0.0168414273506 -0.00706906716422
-0.0890225869138 -0.0170119884313 -0.00666342203546
-0.0818558538323 -0.0177281384097 -0.00508038272473
-0.077510008651 -0.0169533267697 -0.00680558898486
-0.0823498460285 -0.0170747890108 -0.00653084462514
-0.0804813171001 -0.0169417102566 -0.00682831848973
-0.0603154428039 -0.0179782094668 0.000450034224637
-0.056092390635 -0.0177643422643 0.00199287117527
-0.0739240417542 -0.0182352148696 0.000235220132589
-0.0651204085757 -0.0179485604916 0.00169935259187
-0.0780633614074 -0.0181956204929 0.00146614516576
-0.0568450852238 -0.0180200437422 -0.000677046225107
-0.0577492400041 -0.0178069753983 0.00184186889566
-0.0672934248063 -0.0181170524789 0.000262173812277
-0.0607352936987 -0.0178096654042 0.0023858429646
-0.068908550115 -0.0181416468504 0.000301709127306
-0.0526760395059 -0.0175890766537 0.00326577826828
-0.0586224000376 -0.0179618753048 0.000304612016323
-0.0686142780202 -0.0179502082857 0.00235234320436
-0.0720029401067 -0.0181086899647 0.00125885775885
-0.0623466485473 -0.0179260279745 0.0014145635108
-0.0750149260186 -0.0181373229428 0.00152225936312
-0.0527707510645 -0.0177654424765 0.00134271648491
-0.0552755299521 -0.0178919182157 0.000431736991695
-0.0799048765053 -0.0182902615005 0.000778165320666
-0.0636137065356 -0.018035634423 0.000451513493429
-0.0452136846465 -0.0164386794724 0.00208166006096
-0.050114023821 -0.0174522657254 0.00101174344532
-0.0469071897 -0.0167516040709 0.00212312917995
-0.0504617302645 -0.0177035229833 -0.00103813862212
-0.0375822552706 -0.0150647006373 0.00149687501142
-0.0326194190306 -0.0140903604408 0.00200617043599
-0.049835201009 -0.0172454061033 0.00271472822992
-0.0350793553396 -0.0146197778697 0.00124229025211
-0.04600729673 -0.016711897369 0.000707886833027
-0.0480744594724 -0.0170765135046 0.000949506012667
-0.0423664008003 -0.0159256605091 0.001867746573
-0.0439231954067 -0.0162898644363 0.00106338755679
-0.0408414669127 -0.0156676543889 0.00156876915743
-0.0659595902175 -0.0179626272304 -0.00303030805752
-0.0610538494759 -0.017915811584 -0.00271467720897
-0.0682818913888 -0.0181382280257 -0.00247589195249
-0.0675457816417 -0.0175013212188 -0.00531782567645
-0.0725509480943 -0.0181779944401 -0.00275502386284
-0.0643683892069 -0.0172679170952 -0.00604494117695
-0.0539203841426 -0.0180173530952 -0.00147767935879
-0.0675536878641 -0.017833026041 -0.00379713714709
-0.0611198082116 -0.0174070713484 -0.00505542005492
-0.0627413996518 -0.0174178866612 -0.0051811254741
-0.0719810727522 -0.0176424662808 -0.0051499018318
-0.0583501155814 -0.0179334947931 -0.00234125387699
-0.0742908441332 -0.0181673847667 -0.00299179685876
-0.054145785569 -0.01764311011 -0.00321871581746
-0.0756998932826 -0.0180969480243 -0.00346723004702
-0.0704399597494 -0.0177535530848 -0.00447372731676
-0.0522031605643 -0.0179325180493 -0.0016811663067
-0.0556732834373 -0.017035442637 -0.00617125376124
-0.0646067662713 -0.0176822641709 -0.00417008629839
-0.0594627861771 -0.0173867289587 -0.00496958519826
-0.0734006988076 -0.0177824338815 -0.00466134538087
-0.0803642054636 -0.0181103559482 -0.00391000180478
-0.0571676924458 -0.0175263186311 -0.00408115149901
-0.0557491952335 -0.0175795650224 -0.00368354967694
-0.0538982057987 -0.0172436745238 -0.00502417616127
-0.0867132753952 -0.0183898788669 -0.000486761149523
-0.0874979713707 -0.0183987705537 -0.00287255252237
-0.06405455554 -0.018133124345 -0.00107901598323
-0.0706264244231 -0.0182075926762 -0.00240782939549
-0.0814015983342 -0.0183296902458 0.000255356490399
-0.0622624239889 -0.0181128170248 -0.00153366290543
-0.0851592017774 -0.0183722690711 -0.000165288551906
-0.0777761577447 -0.0182886090077 -0.00210630848642
-0.0901216602372 -0.0184285005642 -0.000502603525723
-0.0767754302896 -0.0182772693865 -0.000532020462597
-0.0736635730236 -0.0182420077553 -0.00142088959172
-0.0858151818811 -0.0183797022297 -0.00271901382536
-0.083598254745 -0.0183545813901 0.000484253703368
-0.0843405644261 -0.0183629927818 -0.00225881249688
