0.020333788214175762 0.01627345665087022 -0.015341809333260696
0.020493169134823977 0.01627123346599909 -0.005137874112731159
0.020351208944072652 0.01662218985336944 0.001277163930268662
0.020338419189620982 0.016333382283693236 -0.012380190564647325
0.02071734806156126 0.015565938352187874 -0.02198002196899418
0.0185967755486222 0.011568602794610519 0.006853541392978093
0.019689904334304294 0.012155686816602706 0.019220674802655876
0.01872361907487071 0.010993885483116419 0.002790557399490896
0.019780007927749144 0.009840052365090567 -0.003026102033666888
0.02051827124025786 0.011272080488465818 0.016037312703986385
0.018173871570724195 0.010603748648193414 -0.004417865331475731
0.018925807419959334 0.009278226354557852 -0.013768122191812638
0.018718036476173594 0.010051527678707938 -0.006978723036980537
0.018552411974950993 0.009823068595576747 -0.010296536047088238
0.019153910274104888 0.010427864681831185 -0.0005710269140457996
0.020014147103090463 0.010518636628020307 0.0053386625662872715
0.020359747177957608 0.008832687770813004 -0.010084177684625504
0.019738380754689235 0.011096153518948874 0.009712114981513493
0.02054681657622905 0.009001010368645194 -0.007944418470895265
0.017970704407150737 0.01905612041407951 -0.002935687587540461
0.019339258056102093 0.018240942189029722 0.023308001633966555
0.019408014179053815 0.017984394593052004 0.014077412271242538
0.018799210399242892 0.01865428472041225 0.016170095842116688
0.019212466349661433 0.01830526949615995 0.020005448638735684
0.018340511741388104 0.01897254973580194 0.008475808943407952
0.01807900072088462 0.018474819852683594 -0.022799880552100738
0.01858462146302331 0.018109874573019324 -0.018096218853303408
0.019800059107969652 0.016775931846179294 -0.020651985227451198
0.022497699903673944 0.01353409642323684 0.0006374321612976504
0.022125841816494872 0.013371677018483621 -0.022298491647244654
0.023110730532103815 0.0089141000789044 0.028006000444293022
0.021172670767059417 0.008434707514815369 -0.022113951340312823
0.020865999162197113 0.009879301339619135 0.0016320045507615295
0.020865999162197113 0.011133609931878029 0.012161270250185059
0.020865999162197113 0.012340173555261746 0.013963891579804329
0.020865999162197113 0.011764923668555832 0.020905641597521896
0.020865999162197113 0.012038433568848142 0.025706641234734436
0.021051157445808866 0.014677778496376113 -0.018799182019677677
0.020865999162197113 0.014260123141136583 -0.0158963251742482
0.020865999162197113 0.014480454829688696 0.0012714820799312899
0.020865999162197113 0.011926025281392224 -0.003756808195098043
0.020865999162197113 0.01570798264568487 0.026161428812924513
0.020865999162197113 0.015007616443360811 0.004113167777779394
0.020865999162197113 0.015845763551098693 0.02375351054702697
0.020865999162197113 0.014840413255940653 0.015857074163399345
0.020865999162197113 0.01448139750237311 -0.011714085689662798
0.020865999162197113 0.01193629646699872 -0.011359003170100579
0.020865999162197113 0.014963027957838453 0.007225028325174637
0.020865999162197113 0.012026735957349006 -0.020709070094361064
0.020865999162197113 0.01295253486221811 0.010698153176349952
0.020865999162197113 0.010006545651700557 -0.016163305362912973
0.020865999162197113 0.011744812476305816 0.0001361320830706933
0.02086599916219711 0.012478048733964011 0.0058580334568708765
0.02087839333936689 0.008286731038423497 -0.01797048006291689
0.02481046492649392 0.00496899988502264 0.007000252859585335
0.025326695043918213 0.00496899988502264 0.010693792309152045
0.025360202527637186 0.00496899988502264 0.002300358383893919
0.025522863455210487 0.004968999885022639 0.020708704450705582
0.024191951832274083 0.00496899988502264 -0.018575821760193373
0.021299530156551484 0.006906129235529634 -0.015855663363715772
0.022103407895984764 0.005389040934480798 -0.013647168346576581
0.021869209165335655 0.006040868883758447 -0.018941954604457557
0.02531235555957697 0.0072459787363546475 0.011739718622747277
0.024788286734030128 0.00711781993470253 -0.01949083168058863
0.025236110304384447 0.006804018230060823 0.0011056656255572419
0.024803786751536827 0.00780565151191337 -0.008725561936642784
0.024966585080623292 0.007014770148850482 -0.010975536711091437
0.02547160966115312 0.006782967317491958 0.014008206564858853
0.02555912329951475 0.006776874598440046 0.018827794622290565
0.025286149804762754 0.006939242933661506 0.005857118819055384
0.02545390796602466 0.006494869144831237 0.008870611442169432
0.025634700664314593 0.006763397126142669 0.022871819615647868
0.024955590802794872 0.007355884712945657 -0.006684272809252566
0.024891746541115436 0.007782616709518148 -0.004124709199604254
0.02235414656109847 0.014185953122568493 0.01978795129742169
0.022539468291606517 0.013793826618110879 0.014177120885614698
0.022991656514028357 0.013171511492899409 0.02492735318333853
0.022314832672564202 0.014296786622465089 0.022998512162675084
0.021861472374619828 0.014749889810629644 0.011105447619979248
0.022811558118775856 0.006855156432721695 0.026699738100767895
0.021610536494629372 0.009823049497518612 0.02641657784417327
0.02299672498534475 0.005843492520205164 0.02230008009784577
0.022981058385392564 0.006147028983491486 0.02442002429921237
0.021404395443843913 0.00725988374535946 -0.007215684186888476
0.020918670051368896 0.009855265796693716 0.007358625290177576
0.021884942916705015 0.006921786968957748 0.0027094898206394998
0.022676937286365835 0.005851724549198632 0.013467777366776745
0.022370950007702093 0.0072099447794566045 0.019627136693034952
0.02099980611143294 0.007818934309093566 -0.012576037504706742
0.022816164324911067 0.005856601324143506 0.0174661316414209
0.02158453968597181 0.009419399509232752 0.02146754992636174
0.021065805580108357 0.008401109482511226 -0.00434940233258892
0.021166330753643228 0.009499608320263898 0.010493033562563793
0.02159784767450596 0.007384546544693792 -0.0003729310985685491
0.021280620309278228 0.008636948037671852 0.004312548069721347
0.021276486424986835 0.009576706199455772 0.014456175122956764
0.021539335650763464 0.009105259213000214 0.016756712558405742
0.02095469420942377 0.01123097129425111 0.023400059582482674
0.02218331133161058 0.006373307576623918 0.005175411781755605
0.022022138449922672 0.007038316059319771 0.007869357319541626
0.0211393226360807 0.008394766066569642 -0.0023354996821999745
0.022082066188592493 0.008266170607407296 0.022973805422634386
0.02224539153668058 0.007184457363885619 0.01579105438402005
0.021468322488094896 0.009515004492335681 0.019218309116725823
0.021889612650004733 0.007881547871923633 0.013320974506672488
0.02248113674482614 0.006130157003203412 0.010959684756497732
0.02185943502053958 0.006379009239361737 -0.004261638780986865
0.022230170766114114 0.00508332273657416 -0.009176794643000325
0.02184758176398629 0.005860631134560265 -0.011034182378896135
0.022423492160093803 0.0053663914724000495 0.00012782641963033064
0.025037207887620334 0.005977472084028183 -0.021655601741053018
0.025587149588633035 0.005093369595886629 0.004630901294146008
0.024391386673237335 0.010253592711472984 0.019694151845242484
0.02414549173183881 0.011073430527989696 0.026194017405206212
0.024153152566410676 0.010191885802260745 0.002962322264983228
0.024177200912569655 0.010567109014412872 0.014578420413955538
0.024127468119851878 0.010987654981864036 0.02274613134132398
0.024271821216418937 0.01044074853535475 0.017165011032511994
0.02442541638812324 0.00959662647997686 0.00497256210427801
0.024079476751690608 0.00946710500026053 -0.019627497468971408
0.02409297975012283 0.009985165554670517 -0.005963136648830537
0.024421546636629477 0.009849141594727287 0.010986592158380357
0.024398116690775844 0.009476801085140728 0.00031699723801744024
0.024252466859853723 0.009269535755528177 -0.013822601913154825
0.02398886195965408 0.010126233097526194 -0.008908254861481129
0.02480848451733219 0.009348163758701155 0.024428327287234774
0.024355771367806135 0.008851912413658397 -0.017736029542972702
0.024806892780501986 0.008186024312570848 -0.0019330279610252363
0.025219965513667706 0.007746651324205937 0.01638534194308334
0.025614860699666658 0.006937750395995797 0.02511325782479106
0.024986766595445645 0.007878412020630726 0.003416884940044501
0.025075455279375478 0.008429145558533583 0.02192191899843165
0.024855463131919487 0.00853626548777884 0.009299840568230574
0.023368936767882285 0.011194944356186946 -0.017150392822608246
0.023525176286801616 0.011046391379017402 -0.012310337439791158
0.023471203144359767 0.011464381707539799 -0.0034948247252253577
0.023769071464838316 0.01124036778977325 0.007425902644721245
0.022701419376293636 0.012479589832284565 -0.01923873971815991
0.023480731289449573 0.011060440847285172 -0.014494002560949385
0.02335266420010059 0.011086968758312424 -0.021185322549351647
0.023063283188552247 0.012203981854297243 -0.006070878322160279
0.02362060486705788 0.011694883040637552 0.011789112962151934
0.024069413512397192 0.008123972008506713 -0.023114556420008054
0.02257557259186884 0.011451265724613862 -0.02322973321682717
0.022844189984255536 0.012516004922341891 -0.009800654554170897
0.022878519029240915 0.013110270083060151 0.00962665590272682
0.023099209958086807 0.012298515455944348 -0.0012044241894642958
0.02316862487661682 0.01239250204515505 0.005623854890123518
0.02334982775448349 0.012449569639236175 0.017931955776639984
0.023580388925931606 0.012098800554850131 0.021187368370606308
0.022623797813923756 0.013149881613203188 -0.004163964882286533
0.02274159396654628 0.013150278961468604 0.002761907727164367
-0.0194227773445286 -0.010809508194239568 -0.026098792201432314
-0.018508421206590707 -0.006603163658599388 -0.02558699995279312
-0.02042553763708458 -0.0016342505934916036 -0.02558699995279312
-0.02022715053621623 0.003235999960452318 -0.029557513001883168
-0.02088360207093944 -0.003950308963870336 -0.031808000057935715
-0.020526012126788916 3.286026752192389e-05 -0.031808000057935715
-0.019135676107904814 -0.009655275504435517 -0.031512926095385294
-0.021288145943166793 0.0025706691878604098 -0.02558699995279312
-0.02174042636081821 0.003235999960452318 -0.02761329387715938
-0.019174516279278464 0.0014449489578472127 -0.028046547376566835
-0.018416367569420344 -0.0018390632874188042 -0.027296893223503677
-0.017950167587366922 -0.004577500007855126 -0.02558699995279312
-0.017421274716075005 -0.006269523901636248 -0.027778011356382776
-0.018711991321272235 -0.0006535836049535227 -0.02963461129046431
-0.01828673103664156 -0.002707109118698429 -0.03024313034938101
-0.016997052308040182 -0.008612563342058538 -0.03015362019204869
-0.017882732993403403 -0.004292855850525527 -0.02862882592640381
-0.017962212296205326 -0.005319921934838581 -0.03165750200035912
-0.01996362641319302 0.00219909089181892 -0.03172056661525631
-0.019334410847552583 -0.0022077702382498994 -0.031808000057935715
-0.016927769185612035 -0.009590509659550142 -0.031808000057935715
-0.020724833273136293 -0.006195851258563948 -0.03179287962602542
-0.021946192966812644 -0.0035160872078891284 -0.02908153629363523
-0.022162390435097056 -0.002319670506465233 -0.027225989876682174
-0.019131150925356107 -0.011166479193359592 -0.02852387841924699
-0.01875731235298913 -0.011647517542976642 -0.03079532105607219
-0.020644724998891327 -0.008379180426808859 -0.030817953457771247
-0.02099670787354027 -0.0073441331339682055 -0.02835601028132438
-0.021206398123269375 -0.006607426574819962 -0.026231207852951098
-0.02014703302749404 -0.00939709716568005 -0.027643798290960347
-0.021604237936611762 -0.0055772881127327265 -0.029068819367001654
-0.022207782335812783 0.0006417111877577025 -0.027152800514048503
-0.022022782251023883 0.001204119152152157 -0.031003542674326787
-0.022086329168876442 -0.0011372902102966113 -0.030089090609898263
-0.015543844863246198 -0.0056106781801963795 -0.02907597867793473
-0.013184214440086708 -0.0005772995756899063 -0.027241302466612625
-0.013937085980583873 -0.002947016501342943 -0.02558699995279312
-0.015083106311316144 -4.2334102489629405e-05 -0.02558699995279312
-0.013648583897378988 -0.002513048429150952 -0.027987893434422585
-0.013568982963778634 -0.005475924421394281 -0.028096105074087212
-0.014894764238574975 -0.010597566286310027 -0.029904021127416063
-0.014603696615564214 -0.008091327408496508 -0.02950710359791915
-0.01405165098576115 -0.009400805524850543 -0.02775555226848519
-0.012710062137863994 -0.007333939310304794 -0.025862673523987263
-0.016266184472901693 -0.00466979786811248 -0.02680218476304068
-0.01643689646548247 -0.009850823314898735 -0.027879337356866627
-0.015608130178357164 -0.0015421102525607039 -0.027025530849432846
0.016288535787927678 -0.0075766070209094556 -0.03029555239296413
0.017753999680280685 -0.009891537810371151 -0.029261468688956137
0.016889919115520027 -0.010588198433114877 -0.02558699995279312
0.014912272193753452 -0.0026283453294603364 -0.025586999952793125
0.015372579069196066 -0.006416576138413145 -0.02558699995279312
0.017608798545159215 -0.010754367582949394 -0.03156235795099806
0.016266706434468686 -0.004551094663463399 -0.028808648194000717
0.015605972772020353 -0.0007232325626155278 -0.026628939699437408
0.017148501695871676 -0.006401238836019507 -0.02823058069719534
0.014715742791486063 -0.009720322795019852 -0.028358322323214502
0.01364978641445959 0.0028939999174326654 -0.025627951183685004
0.014055192106019443 -0.00799203123449647 -0.02729589639179002
0.01459915523555072 -0.006089607088764905 -0.028550849319372282
0.014216554066293989 -0.003840099482414654 -0.02779197596124227
0.015663632634333232 -0.01089561254433189 -0.03071232510988268
0.01916742529658839 -0.01129508498139933 -0.02992404833842966
0.018820128165779194 -0.01192054142813554 -0.027337357680308736
0.020605312904794504 -0.004413684909476609 -0.02558699995279312
0.01957934702778294 0.0018636936701193264 -0.028995315255939003
0.019552853285597797 0.001718061058893027 -0.026313431376992987
0.018188382313444558 -0.00578225615671803 -0.02594394832874269
0.018673435143556065 -0.0031159846372696767 -0.02759120018011179
0.022247999906539917 0.0002395740486554321 -0.03028854757794717
0.022247999906539917 0.0019956503694149026 -0.02890474492342035
0.021079147400217206 -0.000828266377976478 -0.031808000057935715
0.0204436564844307 -0.004660834192367452 -0.031808000057935715
0.01990034005368461 0.0010971645414588414 -0.03135939161948759
0.01852881275736035 -0.007534086824253347 -0.03167398514521379
0.02147811053985315 -0.0031292997190108516 -0.03134107113077562
0.021754134905190157 0.0028286193109358683 -0.031440919557164715
0.02069794563430718 -0.008181450303116006 -0.028005510994384468
0.020616627507526738 -0.008298984652807661 -0.030900599902936095
0.019053894537037305 -0.0010400041859042843 -0.029282064223875807
0.0186294539196834 -0.003532024095621946 -0.030539396788720315
0.019109163602568487 -0.0017431414922824881 -0.031267735448608454
0.01775399968028069 -0.009769551332577427 -0.027223274502868867
0.022247999906539917 -0.002566561986918025 -0.028195922898160673
0.02224799990653992 -0.0004047051636935316 -0.02780060296422072
0.021552469332784853 -0.005629513920795545 -0.027395666626983103
0.02148617808857619 -0.00523993129590438 -0.029849847975361388
0.02544322697321781 0.0029496551761683996 -0.021038951717086852
0.02578373110651799 0.0011246703349190703 -0.008928681911018602
0.025871896138383633 0.0015321777924597413 -0.0044209369104753135
0.025927569934092176 0.0013136632165718103 -0.002316319757189317
0.025488827545023327 0.003190646259821766 -0.018660345434989612
0.025747010526666857 9.914069760702347e-05 -0.01214045288753713
0.025640169283505654 0.003158463606588056 -0.012063279831797702
0.025619552232060454 0.0023313478359769445 -0.014258398840583681
0.025966585379283483 0.0018299978864331431 0.00020234873030652552
0.023467984136609978 0.0049680001102387905 -0.015363594127461928
0.023069507645438518 -0.006787999998778105 -0.0026654100039919097
0.02540219102509503 -0.0017576468398769758 0.005185999907553196
0.023797298063082867 -0.003735204009941621 0.005185999907553196
0.022045933510626763 -0.006446932444773826 -0.021930345871593964
0.02222118834531251 0.003173692491281247 -0.020084546422678453
0.02208547686483786 -0.006787999998778105 -0.019806084360042504
0.02581412665911766 -0.0005619567376119504 -0.0073324550470111665
0.025748041853834162 -0.00247357721607115 -0.0029583784267425113
0.025737443838952847 -0.003083289419492144 -0.0005893870671485114
0.025780470559880107 -0.0030857399404758657 0.0034225381448033804
0.025905002439121118 -0.0008704368302230302 0.0028094365050374665
0.025759231896145346 -0.0018642597054403707 -0.005270181961260883
0.025856050077251336 -0.001310789169054995 0.0006825812610165159
0.024637676813869434 -0.006787999998778105 -0.011458313540083616
0.024967643378087115 -0.006348979881935413 -0.009193879588687115
0.0252411790887219 -0.005863692158734015 0.001523823839343544
0.02490668175267162 -0.006676984269621037 -0.006283622749880979
0.025354694761268164 -0.0055785385710326344 0.003952763340333439
0.02508507252463631 -0.005431813345019321 -0.018124373717324668
0.024680616163052733 -0.0067411636919862735 -0.02309963687067993
0.02525318232239018 0.004802747958845879 -0.01409903076920682
0.022657387107298723 0.0013742692126705825 -0.022874910825021327
0.02229869768037602 -0.002329071883361282 -0.022237368718621465
0.02228981163310661 -0.00015415348999355292 -0.02151313948812241
0.0229280506464769 0.0049680001102387905 -0.02068718518351796
0.022059591704024616 0.0008029886684407364 -0.01966571178875134
0.021936545791292297 -0.0014490137089077718 -0.019478606544790753
0.021643682291802448 -0.0010663539011003895 -0.017012834792612806
0.021963325757107206 -0.0038231077403313007 -0.020527043857834992
0.02181406958533133 0.003189047795881983 -0.014204847702656112
0.021431255650490266 0.0024464092836539654 -0.007334211354808608
0.021647359374045945 0.002535520679373227 -0.012025661850300988
0.021969321554996233 0.0036494411121686687 -0.016599221148628947
0.021573887224973803 0.0005424713656866275 -0.015263711268825612
0.021376778462840938 0.0010607118945317252 -0.009508373229855326
0.025562361803596497 -0.004539955678484707 -0.0023148296245035565
0.025507479548513103 -0.004237004681374508 -0.007662479769762538
0.02553090084513956 -0.004460760286418257 -0.004580897999988221
0.025390595481117256 -0.004122173164610504 -0.014563272347253155
0.02513499483443242 -0.004925596142893597 -0.0207299039206384
0.025490096246817154 -0.0031003496729027323 -0.016324815336762714
0.025651804719202583 -0.0021983188440332035 -0.011644270406852852
0.025424616200618567 -0.0034319557293596864 -0.0184051920922437
0.025531089669109962 -0.003842995000115158 -0.009795369577004186
0.025660729109332554 -0.0015958632922347727 -0.014426067347005106
0.025569057937991194 0.0007653441075071837 -0.018545345629058078
0.025511914941835023 -0.001735989528788991 -0.019647432955718226
0.025649748772750603 -0.0003682585415466272 -0.016766099879486736
0.02544342272801005 0.0006958233395055924 -0.021227937974319794
0.025382011734589996 -0.0011842622775890112 -0.022450962842032428
0.02133046642062338 -0.0013780101605705567 -0.0020521142491409083
0.021316044243079552 -0.0012576122680073515 -0.006067845991130088
0.0215879139273185 -0.0017142728852851809 -0.015138531537332415
0.021708651747288414 -0.003142559767293827 -0.0179368683076758
0.021506663225430732 -0.0013737056379191227 -0.012632513075409392
0.02138882548121719 -0.0018518956904484403 -0.008022364825267489
0.02142864458459359 -0.0013009593122718672 -0.009970976431673786
0.02122190838909515 0.00028179954868346694 -0.003583394529150161
0.021266019726023613 0.0011570374191330315 -0.005541365368566188
0.021992264754088796 -0.0053299025294742865 -0.0036539057479825186
0.02165082172340245 -0.002807696836946472 -0.0003964349369916301
0.02156108953973671 -0.0032956767615480755 -0.005158219245344514
0.022120937657996498 -0.004799240110494316 0.002348929559749514
0.021851537005083424 -0.005742161731231645 -0.009398433411173602
0.021675161588347286 -0.0034187893881800356 -0.002734061507558687
0.02222716022938707 -0.005986254386376536 -0.0006286208386523144
0.021849670368845248 -0.005116057321365619 -0.0063915440330696216
0.021729610011623594 -0.005313050158093308 -0.01332894631211234
0.021525034856399387 -0.0035728300220716964 -0.010547752578003293
0.021856834299132214 -0.006395284541202359 -0.01707261754793207
0.02412490224912276 0.00496800011023879 -0.01053396047928945
0.024544940679433018 0.0049680001102387905 -0.006636674552797285
0.025553168035414905 0.004708369496896057 -0.00019860442768259215
0.02288144217830191 0.004953878201253334 0.0030152724841904176
0.022352901326215174 0.004181009714153126 -0.001621507657599633
0.022068990062309467 0.003470371864815267 0.001292853038167111
0.022512769543514197 0.004702792472141391 -0.005487413165833383
0.021870375062830412 -0.0010346092712176017 0.00156471879785013
0.021545972568874153 0.0006656636706862168 -5.913555217596266e-05
0.022211050434346274 -0.0026444433149268552 0.003172371982834812
0.022182481297592163 0.0010428955561637275 0.0025495518717728776
0.022515076299869874 -0.0008440196720019238 0.004058934368377752
0.022644203239473096 0.0027815578511093298 0.0040352518733001155
0.021441097512154887 0.002284831356438089 -0.0012456130428283815
0.021665035104366195 0.0029842218054872698 -0.004647458338389876
0.026029243171739276 0.001765241068787637 0.003390956106369727
0.025441482818940406 0.004086273514466394 -0.016536763283434945
0.025601506376424655 0.004229750476507691 -0.0050465112650884495
0.02562850030909304 0.0037430281154185382 -0.007887719954985151
0.025624798082101823 0.0035520481342137824 -0.009909030522366361
0.0257167659927332 0.003718610240792987 -0.0025186605470526426
0.02343367579499785 -0.0025743953280104323 0.028006000444293022
0.025547031063745083 -0.000870116818537585 0.028006000444293022
0.02383720563935606 0.0006962773171144613 0.028006000444293022
0.02338274656640323 -0.006787999998778105 0.024002183027763174
0.02261668939398228 -0.006787999998778104 0.005512123525896546
0.023547592660785616 0.00496800011023879 0.01928166149205687
0.025362618109716427 -0.004555674061009315 0.028006000444293022
0.025392545658816615 0.002801124514082093 0.005185999907553196
0.025678908570289413 -0.004635910684770628 0.0064466776867901044
0.025911533429213346 -0.004682785203644352 0.02155677474797836
0.025997846367536152 -0.003793050905648674 0.01693944361318004
0.02570997089523855 -0.005413211478268171 0.01562645895246103
0.025907405148995987 -0.004920759968830591 0.02420170150369085
0.02577270947162451 -0.004829240148445075 0.013048662323406969
0.025511714526983087 -0.006387795648312284 0.01975882930212499
0.02531289571431438 -0.006258309511532949 0.010348229432992956
0.023113104114961095 -0.0037804554459476554 0.024706525839574094
0.023197368016236918 -0.005347691464855408 0.026352272909570002
0.023142861662334386 0.0026080829932335287 0.00786491820637708
0.023275567820095405 0.004796006717573163 0.008889057897275565
0.02294340290634751 -0.0006803894605981331 0.007468179885049844
0.022941661494579595 -0.0007091000810029576 0.009933631036438111
0.02307642148541717 0.0015126851475037973 0.01007717500418576
0.02303891864979117 0.0008943766591825946 0.005543579236027737
0.023238793664254184 0.004189711958045328 0.015524908739263928
0.023167111178445186 0.003007884272222569 0.013711492459930006
0.023244647506679997 0.004286224139078046 0.005653275815182757
0.023228165812281105 0.0007135387777849405 0.021813048868483585
0.023382563289138892 0.0011349665036702258 0.025970449461761455
0.023519759661658843 0.003676261533343475 0.026447027324702173
0.023135332324425818 -0.0018221310301453728 0.022702472288349953
0.023297715347096886 0.003169212371046396 0.020321084409393432
0.022995631207309093 -0.004705511384616801 0.02265628368573687
0.023409472266745265 0.002896173625749583 0.024188748457792154
0.023242725780455154 -0.0013064410692621223 0.025263719959737575
0.02622739812742875 0.0013698501279242536 0.027936281997820733
0.02635182488781488 0.0015051833160066802 0.025868508228198604
0.026171780060957217 -0.0029398748631169736 0.02009072628560306
0.025965126966979335 -0.0032659887083227096 0.011028930733360306
0.02595223663815593 -0.0029128150093372784 0.007959668448658308
0.026349441055438936 -0.0004408779054304962 0.023744305295340894
0.026307056520101887 -0.0015627840500687814 0.0220274616890689
0.02636676972743925 -0.0018933394685390077 0.025881314828941612
0.026244866436606867 -0.00021860068253479355 0.017262910831302648
0.026285297164825562 -0.0006941612741033983 0.020061323085804376
0.026165365181698392 -0.001982944483537493 0.013787273011471042
0.026077672392050062 -0.00048188754437706243 0.007513742398204685
0.026099621245615632 -0.0012879476863826714 0.009312498972114194
0.026232551519194097 0.001249367730068498 0.015568811775409115
0.0263045457612643 0.0014971928237126112 0.019661276276619184
0.02614754294253422 -0.00050593970907978 0.011650865281459425
0.02304692963509006 0.001026453610896739 0.013966653714971248
0.02280996109390549 -0.002880441908703352 0.011227206677461802
0.022927650461407545 -0.0009400996999869827 0.012404441708850411
0.02273929696873342 -0.004045479903414184 0.007978608355767693
0.022733697963983814 -0.004749556202957927 0.012293172364427413
0.022853309729843348 -0.005878952828566668 0.019057908566900223
0.022973260259004438 -0.003286119462225977 0.019294817323908385
0.02281461203247552 -0.004208581959409278 0.014575987121306682
0.02297567515004418 -0.0011532933896849433 0.015643140209930143
0.02313362169776561 0.0018936363402044239 0.01660043768985575
0.022799076409791383 -0.0059815623387487055 0.01707094491309147
0.023142038241371014 0.0005889575533000587 0.019229595830854915
0.022894444262718742 -0.003470970752091238 0.01647000367106917
0.026080029231317844 0.001709710753845342 0.006787001104352237
0.026195800408844505 0.0012808869173455636 0.013399733318372018
0.026124951515249798 0.0015386515567403394 0.009352916390268402
0.02635241463447627 0.0020201090164379113 0.023058740000090578
0.026172658789886435 0.0037275107600112643 0.02548645660346752
0.025842099348982853 0.0049622788662134374 0.015403991920811516
0.025970494420968944 0.004465449206404014 0.01839653844441222
0.026048554538969725 0.003349783741921486 0.012546950791432377
0.02602576125993692 0.004594203870684949 0.02291407105326826
0.025056701713993653 -0.006787999998778105 0.013641142646037779
0.024962491438304583 -0.006787999998778105 0.025734733074123817
-0.013712531045474112 0.02191015005364228 -0.022800805764789274
-0.020625000819563866 0.012196559893934493 -0.0038563125414298916
-0.020625000819563866 0.01204741155870635 -0.02022198140052551
-0.020625000819563862 0.01290304005690067 -0.010560699177346887
-0.020625000819563866 0.012887344601245491 0.0008463431127076174
-0.020625000819563866 0.012233832243113132 -0.006730030470055836
-0.01232799980789423 0.020934785747622014 -0.019424448627053503
-0.020625000819563862 0.014040915750425719 -0.01381783167026263
-0.020625000819563866 0.013893344557925916 -0.01588049124868708
-0.020625000819563866 0.016224422658038317 0.00441857758359701
-0.013194922942435669 0.019908267494103793 0.005874999798834324
-0.013533970931255922 0.01709095235993531 -0.003983326728692683
-0.01298902730439016 0.01836244323442474 -0.002573845866205558
-0.012726773221215334 0.018682409209803442 -0.008992630379243902
-0.012916037331623501 0.018177408812024152 -0.011023412043810979
-0.013120739155120962 0.01822900858252877 0.0013126009304685437
-0.012911434800454601 0.01841504699755448 -0.005495537145406105
-0.012483888859929435 0.019743398570145024 0.003651608056665836
-0.01350398124555126 0.017276983072086537 -0.014939475196306595
-0.013878162744292462 0.016651571855779174 -0.012550451073975469
-0.012987015556290202 0.01809975937885507 -0.01694590940050393
-0.014194279756031254 0.016345197823947857 -0.017490933426586985
-0.014654322927594814 0.015614189365857043 -0.015742191963243557
-0.0139399981126388 0.016402267261049857 -0.007580395000335178
-0.013860771869085148 0.016592578041279338 -0.009900978243120776
-0.01232799980789423 0.0217631981207371 0.0035346482449794443
-0.01232799980789423 0.021922454394086695 0.0010623707578837757
-0.014273431104005984 0.021959694585376523 0.0022580504896001037
-0.015460686015179182 0.021278433270326823 0.003890339228035747
-0.015179324522713793 0.020910051825156185 0.005874999798834325
-0.019954357604817792 0.01258876056249476 -0.02314555901822185
-0.01814882224926074 0.014710184593213764 -0.023118883756100463
-0.015300195129390534 0.018028911229603307 -0.02307321743700012
-0.01232799980789423 0.02101140277793756 -0.021747302442738897
-0.013242533129617512 0.01823053151334362 -0.020732488628606525
-0.014064495493248617 0.0161289560510482 -0.0010366687656741067
-0.014692208809482889 0.016475043662950536 0.0025499958558308456
-0.015019659937509634 0.015070108449648404 -0.005813677600674443
-0.015756037134308853 0.014333352057496897 -0.0007165652924958932
-0.016101931791134082 0.013987415425497413 -0.004028824151802489
-0.014377563673321448 0.017741707276246476 0.0048687753516954806
-0.018258826652833824 0.01353919428319924 0.00394628093045308
-0.016559719810209175 0.015433347770688296 0.004477876375298686
-0.015676468945280315 0.020497281761618247 -0.02279603563671221
-0.014300028854455289 0.02196114108922968 -0.005663960554396334
-0.013808283928017263 0.022266729321760326 -0.007713894739371186
-0.015309138435779876 0.021353014185003325 6.4574987326363e-05
-0.015145487485030182 0.021207178607609907 -0.020475423740036365
-0.015190527103709902 0.021388102203160633 -0.0035281794144967145
-0.014294711328002982 0.021863515214002253 -0.013783003633101405
-0.014578860865686397 0.02171175170477021 -0.010607561908053714
-0.01673801518983771 0.019955338289343254 -0.014931266666394865
-0.016379247722977785 0.0203164022888496 -0.012090035156738357
-0.0160854345868841 0.020673954607884914 -0.00652645015395502
-0.016785983844008697 0.019819573228273497 -0.01988904771417157
-0.015952631149652213 0.020594054008063033 -0.01664898425486563
-0.019928525855393602 0.017051577247067684 -0.0031924767018481513
-0.020624745915666383 0.015943571610427382 -0.012438645823191796
-0.02047550668602868 0.0160665291245174 -0.015270942331359743
-0.019768102925278468 0.016702152888181956 -0.021223675255828637
-0.019726609791218323 0.016830144987075336 -0.01882134645590485
-0.01907852767245986 0.017610600636389393 -0.016959070551961088
-0.019332671228304725 0.01748016045968496 -0.012550640513458724
-0.018389048985112635 0.018613976917732554 0.002606889428079014
-0.01987879759574089 0.017124235347239836 0.0003874324983832258
-0.017603042322777714 0.01940005049929462 0.004260950462055479
-0.018200141406255633 0.018802265228422942 -0.0013406462662402365
-0.01807866017716687 0.01873844709170761 -0.013661759472104238
-0.01787738922475489 0.018980358782715027 -0.010172299532377293
-0.01710791648972653 0.019795066007631226 -0.004389378245071206
-0.01757001178817982 0.019154181130740088 -0.018266524822473602
-0.019240031959683233 0.017746902635441084 -0.0060518330378928
-0.016620272400563962 0.020351441379631054 0.002024653312563641
-0.01764878236113007 0.019235019484729412 -0.007588602461448597
-0.016572284282401078 0.0203477040146999 -0.0013576111456855965
-0.01727934798177115 0.013510841804298327 -0.01950247494638599
-0.018621329903969835 0.012572600978170846 -0.021128329618677617
-0.015497609142208768 0.014994522224031859 -0.018802629108770688
-0.014555044478991867 0.016599267203244755 -0.020728409375639488
-0.016446055411021898 0.014970922272050068 -0.021571745717911046
-0.020204015646168767 0.010765181133134738 -0.008085715254410313
-0.01677101177694245 0.013673343291308582 -0.015837693005742115
-0.018334465859798733 0.012313124982178243 -0.0117838057602969
-0.01851400541365233 0.012273436836278653 -0.014388377117111264
-0.016475288901508622 0.013792261455605323 -0.012958616576750848
-0.018456062358463095 0.012438633626650483 -0.017563213329690994
-0.01801986418970561 0.012330196572547223 -0.005837243736381392
-0.01873602448833389 0.011662898476490071 -0.0028147848038795067
-0.018525225729940815 0.012086350833981154 -0.009686808178465109
-0.01612420113630724 0.013977667968967262 -0.0075638328531256235
-0.0160489148633804 0.014076259233060072 -0.009893013451305801
-0.017877793732010965 0.012368641054717742 -0.000782877469995503
-0.01821997999736503 0.012635457999950197 0.0015154705140406318
-0.020625000819563866 0.01188398861986626 0.00277508721563601
-0.012852965324783734 0.02276181319908651 -0.001183498029046717
-0.012494976174747287 0.022721590490979875 -0.012291412298120582
-0.01457760439996352 0.02161880489301891 -0.01798645701612884
-0.01907212577666691 0.018353479044787804 0.015138497837119807
-0.01774725185685809 0.0197005615785595 0.019545071861201187
-0.018024607302710795 0.019266638543229027 0.012492865939924637
-0.017758049374716534 0.019628653956976865 0.01705074652845369
-0.018281055868039235 0.01896498016181878 0.009989201815910658
-0.017185934565215916 0.020106883936608207 0.014778530311589913
-0.018519824549265353 0.01905879884232883 0.022776022117841105
-0.01852327071314457 0.01913022046704103 0.02578771152255428
-0.01884095783991682 0.015123971791284671 0.005880000069737434
-0.018065032688447908 0.017287080903170864 0.005880000069737434
-0.020625000819563866 0.015760605374052914 0.007793883100590617
-0.020625000819563866 0.015535537879999922 0.018262624339734294
-0.02040103528880187 0.015924887909821696 0.028006000444293022
-0.016256648025513923 0.01909736453386849 0.005880000069737435
-0.012554219210974207 0.02318138399520632 0.02177364076182479
-0.01303791178674036 0.02295539306367662 0.011714479210809134
-0.01232799980789423 0.02294861920844437 0.009140782780280842
-0.01253676909858323 0.023150814525321584 0.01918656290965134
-0.01232799980789423 0.020560605999224886 0.016713238796582923
-0.016785377846728095 0.016069182069180538 0.016285262938354323
-0.014716700937244838 0.018137598737892623 0.011431195710373356
-0.014189182379887408 0.018665050933105463 0.014684906750930246
-0.013361721511847995 0.0194924077060813 0.01287601796862623
-0.017152619155866917 0.015701986959214265 0.01395207514621366
-0.01564924384566648 0.017205173143917 0.01306036851336985
-0.018448704735029797 0.014406064428379082 0.01561667689488138
-0.0133197510511955 0.019534372886825177 0.008321329237194228
-0.015046100365361572 0.017808240748417564 0.0178498215534407
-0.012430462750584115 0.02042354931444562 0.010796736990751149
-0.019116223365419273 0.013775936476880994 0.01766888059838663
-0.018985633225999075 0.014109861346097586 0.02403257988832941
-0.016949963175390922 0.01605782907552644 0.022386006938104372
-0.016053875176089534 0.01686203293169237 0.020011730150364324
-0.017835683903029895 0.015091683263348088 0.019431116124923615
-0.014158329401895767 0.018716535059592476 0.01973612727302467
-0.018906416100411758 0.01408299291829344 0.020789808606388235
-0.018503011301283144 0.014857434449596113 0.02756918603014211
-0.015276200157853083 0.017892696718759434 0.026768448746917053
-0.017178656193937495 0.015925235434655224 0.024936767956049995
-0.015755398478014857 0.017284811069451567 0.023724849177764386
-0.014033043416349518 0.019043369760875013 0.024862429651025815
-0.01376907062252081 0.019416874286037954 0.027427478611149435
-0.014259619802237302 0.018706885991834385 0.02229537090377486
-0.020625000819563866 0.013578302686902303 0.02179928010268505
-0.020625000819563866 0.013138659413719849 0.015417436414895132
-0.015448419023421535 0.017405972702281267 0.008387463194095132
-0.01605910091880433 0.016795367631039865 0.006189710732714104
-0.017266612617582486 0.015588007837943188 0.007411202667614447
-0.01618739991492545 0.016667084775007873 0.010706569792024192
-0.01824512948779203 0.01460961406573108 0.011505450351917695
-0.018964791780077456 0.01389004230738504 0.008721455463702687
-0.014560529250948036 0.022242101199504538 0.025872350953087195
-0.014909857511650868 0.021951213845418066 0.021579383087678664
-0.013918584581378042 0.022508518312727863 0.016053717503076624
-0.014741341083605926 0.022090807443149695 0.023602050527866174
-0.014712875845235333 0.02195015491341261 0.013643870815551924
-0.01607905859704647 0.021127894665738445 0.01830687303328324
-0.01608427893294219 0.021022039137700683 0.012561402606448925
-0.015936592214966322 0.021187895209682967 0.01637603822760364
-0.01370592043478003 0.022505729633761944 0.007374608563870561
-0.014828122251285412 0.0218249659230052 0.010904813334139332
-0.016497107476054537 0.02062391118118363 0.009885969673765392
-0.01631526351768978 0.020747072966507185 0.00789266566582102
-0.017148390220034445 0.02032535771040284 0.025023956557913517
-0.017004100091845026 0.020405051124430557 0.022430444356647775
-0.020294841903489583 0.016863268376176258 0.010196256960712845
-0.019835721529483596 0.017476820111961777 0.012447800376725954
-0.019489517128559872 0.017673597078469425 0.008102752634552023
-0.018040945002067613 0.019097048391577442 0.007759764617333749
-0.01953239065883613 0.01791515206215582 0.01943229188877276
-0.01989781508725961 0.017555504365453625 0.026094003932175883
-0.019765262909145605 0.01768898471581256 0.023976326363958314
-0.00011059318594112075 0.018064197942682478 -0.01100460605011322
0.002116695826237211 0.017851841758910955 -0.007646051324244078
-0.00024081471302224666 0.01807661364014457 -0.006570286282622897
-0.0005699999746866524 0.023473088453552875 -0.011840286695062418
-0.0005699999746866524 0.021526081302578673 -0.008510377637749861
-0.0005699999746866524 0.02375898868137244 -0.009511213069166994
-0.0005699999746866524 0.01964546941659047 -0.015103847281661595
0.007034000009298325 0.0232820298903678 -0.004328258321001796
0.0070340000092983255 0.021943696103417423 -0.0063988421922677955
0.007034000009298325 0.023496418781911645 -0.01432817056083951
0.007034000009298324 0.019728584700918376 -0.009224454612619247
-0.0005699999746866523 0.02012344213773011 -0.006429306823483841
0.007034000009298325 0.02320113702777614 0.0019628735600625874
0.007034000009298325 0.02024272921775607 -0.002224185663630406
0.007034000009298325 0.020807850918916147 -0.00012551470069957493
-0.0005699999746866524 0.025471150186056214 -0.013397686350873166
-0.0005699999746866524 0.025078904055814037 -0.006275854066551738
-0.0005699999746866524 0.025340781878590762 -0.015588861496427839
0.007034000009298325 0.02282010264055739 -0.01913926996453098
0.007034000009298325 0.01956886768220474 -0.012577850498239855
0.007034000009298325 0.01835690622185691 -0.010750295979234863
-0.0005699999746866524 0.022443954249712465 -0.019797109379941575
0.0016090646575506677 0.024323205263006843 0.003803000086918473
0.0051722290104120475 0.018074964924665753 -0.012599247275873623
0.004517133526187628 0.017683454858418334 -0.009196815291850553
0.0001281070477409154 0.018128209150042107 -0.012976674005969614
0.005803016370892388 0.017506030375279032 -0.007681200899929162
0.003008964149888639 0.017973266853889606 -0.011682319060914197
0.0037499821611210018 0.018323294063670757 -0.01463686532069993
0.0014437033220998249 0.018587834688758808 -0.015168805749661769
0.0019664604784745705 0.019260855311725413 -0.0023040182379237104
-0.0004857174173468144 0.01880255160655327 -0.004400767195800223
0.005016670347165322 0.018482669728801422 -0.002584569589510573
0.0011232561546046487 0.022608903548140203 0.0024977387311504113
0.00038806204915184053 0.021228445168006364 0.0006456754744123758
0.0049131747232974195 0.02231554858435881 0.0029820430726636444
0.00290991284606217 0.02138411650683858 0.0013660049929900405
0.0032561939672198503 0.01990182093593254 -0.0005432742883186782
0.004862231546262784 0.020485436157648272 0.000552151313360725
0.00015347922504574374 0.025571848661647127 -0.023510999977588657
0.0067966494218049504 0.020324382148805224 -0.019208787066146794
0.006725052856696924 0.021658661890999156 -0.021146377182186097
0.002691887390081459 0.025567366816500885 -0.022775806236144967
0.001312309468284605 0.026058999821543694 0.0024636506139555795
0.002956299092331611 0.026058999821543694 -0.001310017689331662
0.003463169580506795 0.026033451715133646 0.0009441992092783396
0.0032433545608368365 0.02594612158156256 -0.0074154627408186844
0.003422360878422399 0.025952753842213284 -0.005426315104093928
0.0021359004241872735 0.018143393695664263 -0.004736372566045896
-0.000437488093803267 0.026052751492252644 -0.0022662420972926717
0.001841593529763647 0.02605899982154369 -0.0032912808989683396
0.0006967629722191234 0.026058999821543694 -0.008008583031938708
0.0014040080171611646 0.026058999821543694 -0.006039978695644498
0.0017091283453500583 0.025781635560829186 -0.02020566798667484
0.000769335638384404 0.025860425316218787 -0.01764091934093001
8.609882713219366e-05 0.02576603186258907 -0.021317809069417326
0.0027881490913332237 0.025811183027095085 -0.018232352996446512
0.0019692425923227732 0.025993375430032956 -0.009741053390898861
0.002068885560330579 0.025943881780434955 -0.012308720062695563
0.001251171470620078 0.02593453233419086 -0.014571171297622712
0.005682985705914175 0.01899664584993728 -0.01686104453599392
0.004722501950487192 0.020998163847402374 -0.02080245411867218
0.00479628334195932 0.019861258256579646 -0.018514090337620935
0.0013705992842947814 0.019390866206685446 -0.01716241928788955
0.0013149625145741045 0.021031497663504976 -0.020243426255260863
0.0004475860274199925 0.022604836489179006 -0.02262788451460839
0.006975409293096779 0.025065114121545228 -0.01995013758484159
0.006331167024733086 0.025434055181645814 -0.004752563874802869
0.005649240714578383 0.025385689983896335 -0.017465811252510365
0.005546750436293697 0.025600365362922716 -0.0071703044461534846
0.005109668807130977 0.025429914134748564 -0.020839228108657855
0.005843154369947907 0.025428980457204896 -0.013115648781547097
0.005664652868917144 0.025508489909125447 -0.010791884470583536
0.006108035878659841 0.025551477719443008 0.0010598643500176219
0.0037792329919508756 0.02601842096124907 0.0030665575627662305
0.005257198285416486 0.025721847695803227 -0.0025744302528724495
0.0042208656544633644 0.025726260909052993 -0.014237053796566096
0.004686648106749159 0.017695885535018652 -0.004711113843013227
0.013515163434214224 0.013853140429231022 -0.001629522276991132
0.0070360000245273105 0.021566656503235682 -0.010660022503824028
0.007036000024527311 0.023073371563465117 -0.012409639345679204
0.007036000024527311 0.021502062304965396 -0.015401019999852805
0.007036000024527311 0.02352908842015001 -0.009305889553120197
0.007036000024527311 0.019325669970671658 -0.014734502543485213
0.007036000024527311 0.020647365879755547 -0.004774744698881937
0.007036000024527311 0.017933281022888572 -0.0034185555697599916
0.007036000024527311 0.019745236072397095 -0.006891899287270337
0.015483241587151596 0.020664020124061 0.0038030000869184732
0.013533258379814533 0.02197306100703139 0.0038030000869184732
0.01740800030529499 0.014584860441844842 -0.012026322882896965
0.017408000305294987 0.017246938450687085 0.0009421322687290176
0.01740800030529499 0.015464820569400824 -0.020880748768427597
0.01740800030529499 0.01628883656866983 -0.014430906298248943
0.01740800030529499 0.01644115298411057 -0.007873370182922312
0.01740800030529499 0.013703649054785324 -0.008641578376345624
0.01740800030529499 0.015105488765370025 -0.005031340738038684
0.017408000305294987 0.013311592303873585 -0.0037501603552786453
0.01740800030529499 0.016752608456105003 -0.010177228646520684
0.007036000024527312 0.023077050145571494 -0.0006720038556293136
0.007036000024527312 0.024407297685736074 -0.016590619579497697
0.00806668262302734 0.017990476418416414 -0.017012499209611096
0.010759989311962585 0.017871118689022643 -0.02111547512912485
0.013331531641648046 0.013708029920032849 -0.017179239030575784
0.008773807180341781 0.0184372158454799 -0.01901701175789794
0.008403087889292738 0.020457422105290845 -0.02233880003792052
0.012760478216370063 0.015334804182540688 -0.01941551527404665
0.010349838159184667 0.01609095374909587 -0.01700257601233152
0.01740800030529499 0.016411996166125882 -0.01850656528580204
0.013744953634618457 0.018575744639366093 0.0038030000869184737
0.01567065734944491 0.020579210101220713 -0.022448256105946897
0.0077782533984271296 0.016823768609462 -0.005488864261082189
0.009377110675853277 0.015543757536371341 -0.006279029347791209
0.00825203874943961 0.016444466151308648 -0.00960546515259821
0.016642284954788502 0.020126756260921932 -0.007511001013207822
0.01706554500679376 0.019825098474989564 0.002707852690921851
0.01719033589808369 0.019651130074126548 -0.0009064734665780257
0.017309234700132722 0.01939527740249509 -0.011372359314487598
0.017198101829467943 0.019434344170065565 -0.017183774653968392
0.0171019371908136 0.019681864325023064 -0.005555618878521405
0.013719337532387115 0.022325761759682934 -0.004498952476719289
0.01564740387126532 0.02108042933188598 -0.002320155818082333
0.014418806484372014 0.02175123339205533 -0.015043224782929503
0.014586340594327132 0.02171193080065599 -0.008490690136368719
0.014488149577483768 0.021866470841869372 -0.00018731770501685154
0.0171138441192299 0.019479159734385847 -0.01930863281492162
0.015006921979101506 0.021264265040453516 -0.0186048817245016
0.015488645499043902 0.020906750987092035 -0.01657765693744125
0.015476448224049949 0.02105180863569002 -0.010751071754764854
0.01592628793108751 0.020611438492669075 -0.013461581936030394
0.01563774645565548 0.021062064760015 -0.004455441580119145
0.01740800030529499 0.014190527563764389 -0.01482591461482133
0.017096893508943885 0.010896465438747581 -0.01723113118614695
0.016682986537530756 0.011018065191600316 -0.009191783948980967
0.015311776247171052 0.011816324753922953 -0.0055653564643505776
0.01519162591497704 0.011956847874548836 -0.01640838556539405
0.01179333916858178 0.014416643493014157 -0.015214523913487151
0.013949826765176645 0.012585841333198598 -0.014737167087470448
0.008790624935564834 0.01627272914971499 -0.012248589352740067
0.007893050581554168 0.01738013568706669 -0.014257128418444499
0.010029541687336677 0.015607483625113952 -0.014096930106137086
0.012274068388835036 0.013584516379827629 -0.01306862280349985
0.009995178725219416 0.015123862904375453 -0.010678536370736291
0.012501199638426854 0.013200234192224679 -0.01108973224575065
0.01159893399355276 0.013826966400169161 -0.009416275180470876
0.013447407976421615 0.012650102762774723 -0.006755325444681535
0.013999468597632202 0.01224104497822795 -0.008932636833478037
0.016878568573019004 0.010733348776835273 -0.012018669174409812
0.014951634241414397 0.01158128890759733 -0.012908528174935457
0.01679426655289913 0.010701551607556467 -0.014169031605414722
0.014949349998016927 0.011675184814165962 -0.010697895431184658
0.008418129438399114 0.02482681054433813 0.0021083052509580083
0.00909251667026446 0.024647930721767918 -0.00035766093565730217
0.00992978935479629 0.024227918640672162 -0.009129812063109595
0.00978950714865088 0.02419785738097474 -0.01488544185305671
0.009538142667590914 0.02442460502316241 -0.005010716030787769
0.00807709706145528 0.021152154629235982 0.003126011249426441
0.009612812662606203 0.0185357482109596 0.0014984058360107259
0.0077908499777438935 0.01893914166090406 -0.00010441720756464482
0.01409072783982863 0.014498545255936473 0.00038261353368456655
0.01615961009956658 0.012713875431515571 -2.721382981174194e-05
0.009513329514996189 0.017295486202913133 -0.0005033731197517184
0.011706523920683158 0.015384190943217631 -0.0009680106240336237
0.012335502889843527 0.016035263995539506 0.0007655164461713416
0.013991417720812778 0.02169295260610336 -0.02268364184188877
0.013700417037413162 0.02217452592516192 -0.016991785521850267
0.013000946602410884 0.02268913217152934 -0.011130533143551015
0.013701016181360746 0.02222937325436089 -0.012920298260229056
0.011659083299927757 0.023429934018767005 -0.0068127556142080214
