0.00739193934441 0.0181074198408 0.00849900022149
0.00304164855528 -0.0051734757877 0.00849900022149
-0.00299406319169 -0.0120993667786 0.00849900022149
-0.000618352281382 -0.00516677233405 0.00849900022149
-0.00907058211322 -0.00207954046147 0.00849900022149
-0.000725022413197 -0.0211488492551 0.00849900022149
0.00238065427338 0.0112703095659 0.00849900022149
-0.00170104105139 -0.0132902460844 0.00849900022149
0.00129729334593 -0.00126326050083 0.00849900022149
-0.00185926032417 -0.000814254057497 0.00849900022149
-0.00422115450201 0.00207229553338 0.00849900022149
-0.000719395621842 0.00503993415466 0.00849900022149
-0.0149254350417 -0.0168950097656 0.00849900022149
-0.00639341816603 -0.0124624570156 0.00849900022149
-0.00114058005059 -0.00850420466378 0.00849900022149
-0.00047204967402 -0.019263942787 0.00849900022149
0.000545697188098 -0.0114365635524 0.00849900022149
-0.00513016926373 -0.00816912776 0.00849900022149
0.00550850250136 0.016807907484 0.00849900022149
-0.00752359985175 -0.00371996476618 0.00849900022149
0.00642120950555 0.0147851169422 0.00849900022149
-0.00886878413779 -0.0164780534088 0.00849900022149
-0.0156003042062 -0.0132305068797 0.00849900022149
-0.00297260510253 -0.00264748761207 0.00849900022149
0.000964237967795 -0.00625158206928 0.00849900022149
0.00234793137372 0.00881914566977 0.00849900022149
-0.00451991193731 -0.00421340595843 0.00849900022149
0.000535540840057 0.00934273920731 0.00849900022149
-0.00730251490481 -0.0108613387328 0.00849900022149
0.00350880338876 -0.00151150944889 0.00849900022149
0.00532621881995 0.00706082375063 0.00849900022149
-0.0086595420475 -0.0142723919789 0.00849900022149
-0.00910726768417 -0.0202851165359 0.00849900022149
-0.00858639861693 -0.0182578935173 0.00849900022149
0.00147969299366 0.00329915642972 0.00849900022149
-0.00544477280849 -0.0146165846699 0.00849900022149
-0.00814011503804 -0.00563544758517 0.00849900022149
-0.00205132264014 -0.0200181373977 0.00849900022149
-0.00376424439732 -0.000849216409586 0.00849900022149
0.00138202512289 -0.00950119919971 0.00849900022149
-0.00830785462471 -0.0123083499998 0.00849900022149
-0.00302254444784 -0.00490055190704 0.00849900022149
-0.00199257639534 -0.0151424436461 0.00849900022149
-0.0115643322427 -0.015206086032 0.00849900022149
-0.00186263928626 -0.0226111015316 0.00849900022149
-0.00460537248583 -0.0130211254019 0.00849900022149
-0.0135598346228 -0.0156770868777 0.00849900022149
0.00130908799629 -0.00453274432244 0.00849900022149
-0.0088718207962 0.00346608512865 0.00849900022149
0.00712528580217 0.0203281257908 0.00849900022149
-0.0112399751997 0.000763922354947 0.00849900022149
-0.00737972375221 0.00137991634806 0.00849900022149
-0.0188839384479 -0.0145330463131 0.00849900022149
-0.00227591131712 0.0124616228572 0.00849900022149
-0.0107647668298 0.00519592970818 0.00849900022149
0.0028219951274 0.0182016353631 0.00849900022149
-0.000125618245643 0.0154484729625 0.00849900022149
0.00552840991731 0.0198930872326 0.00849900022149
-0.0202156438441 -0.0117965301084 0.00849900022149
-0.0142753005921 -0.00754730451825 0.00849900022149
-0.0206075002112 -0.00700479441655 0.00849900022149
-0.0215936077115 0.00164489544548 0.00849900022149
-0.0144244901329 0.00203103719549 0.00849900022149
-0.00978721518108 0.0019845276678 0.00849900022149
-0.012476227723 0.00228273582844 0.00849900022149
-0.0121732581397 -0.00400650878467 0.00849900022149
-0.0140124489943 -0.00466166886762 0.00849900022149
-0.0205693120523 -0.00505817938078 0.00849900022149
0.00157120736138 0.0151005954018 0.00849900022149
-0.0233489190503 0.000663586738155 0.00849900022149
-0.00409902301463 0.00531112910977 0.00849900022149
-0.0226660843657 -0.00517238808572 0.00849900022149
-0.0178212592806 0.00320280402167 0.00849900022149
-0.0138921423306 0.00645103372235 0.00849900022149
-0.0235931624604 -0.00107071923393 0.00849900022149
-0.00582390709941 0.00734603323541 0.00849900022149
-0.0211799822909 -0.00323497756683 0.00849900022149
-0.0190676618765 -0.00385351195091 0.00849900022149
-0.0130824210218 0.000689510216632 0.00849900022149
0.00325043667917 0.015304347175 0.00849900022149
-0.0109134778698 0.00343674378359 0.00849900022149
-0.000140540457025 0.0130471240837 0.00849900022149
-0.018559204551 0.00789712378342 -0.0353019982576
0.0019340802194 0.010535388981 -0.0353019982576
-0.0180212575833 -0.00216201591602 -0.0353019982576
-0.0194648825691 0.0109020829821 -0.0353019982576
-0.0166287769394 -0.00120824644756 -0.0353019982576
-0.020392865364 0.00886526888202 -0.0353019982576
-0.0189250789771 -0.00081601446685 -0.0353019982576
-0.0138579040892 0.0014717197066 -0.0353019982576
0.00635253501026 0.00562889836498 -0.0353019982576
-0.00565835913588 0.0105403176311 -0.0353019982576
-0.0205981132639 -0.000332250978614 -0.0353019982576
-0.00580978191496 0.00779294470359 -0.0353019982576
-0.0241150232058 -0.000934205200617 -0.0353019982576
0.0122003819642 0.00534168104467 -0.0353019982576
-0.0214765169721 0.0110858213281 -0.0353019982576
-0.0180585959158 0.00948318228062 -0.0353019982576
-0.0130110138005 -0.000440019221484 -0.0353019982576
-0.0138002031228 0.0124719198119 -0.0353019982576
-0.0125602805711 0.00715024214522 -0.0353019982576
0.000487054088903 0.00198595847651 -0.0353019982576
0.00397457734315 0.0050923789099 -0.0353019982576
0.00200108287088 0.00822860629618 -0.0353019982576
-0.0223040281167 0.00272981620089 -0.0353019982576
-0.0157152124621 0.00468143859011 -0.0353019982576
-0.00468965624919 0.00596895573924 -0.0353019982576
-0.0118778206542 0.0118811012437 -0.0353019982576
-0.00780194918675 0.00815711878832 -0.0353019982576
0.00788720479013 0.00819231792634 -0.0353019982576
-0.0202863358507 0.00382310002358 -0.0353019982576
0.0201864734375 0.00749788990539 -0.0353019982576
0.00951549684791 0.00464853074271 -0.0353019982576
-0.0225737378756 -0.00351099268003 -0.0353019982576
0.0110199012717 0.00698368106544 -0.0353019982576
0.00340121570635 0.0097702277784 -0.0353019982576
-0.0160509964391 0.000674171578436 -0.0353019982576
0.0158774381414 0.00735947688408 -0.0353019982576
0.00988910811423 0.00871953231276 -0.0353019982576
0.0175102338028 0.00703367835939 -0.0353019982576
-0.0202193265031 0.00546853638033 -0.0353019982576
-0.0012221541698 0.00624076402917 -0.0353019982576
0.00792291149298 0.00406289610272 -0.0353019982576
-0.0157576438951 0.00651338243734 -0.0353019982576
-0.00236488026865 0.00245687063123 -0.0353019982576
-0.00446980870633 0.00301048691988 -0.0353019982576
-0.011086897105 -0.000342543697299 -0.0353019982576
-0.00971276619662 0.00534281542489 -0.0353019982576
-0.0160413847444 0.0127023447732 -0.0353019982576
-0.00783445521316 0.00610577250258 -0.0353019982576
-0.0224969688407 0.000929771778448 -0.0353019982576
-0.0178207097201 0.0117526267928 -0.0353019982576
-0.0104599077131 0.00797661868411 -0.0353019982576
0.00578011758498 0.00777633253118 -0.0353019982576
-0.0193370584668 0.0126256730818 -0.0353019982576
-0.00190285980711 0.0104393294405 -0.0353019982576
-0.00349870293827 0.0114503867611 -0.0353019982576
-0.0211834597383 0.00700296593087 -0.0353019982576
-0.022295836683 0.00457813257249 -0.0353019982576
0.00221267797058 0.00349333095191 -0.0353019982576
0.0125741416773 0.00777183430761 -0.0353019982576
-0.0158839317754 0.0101824814055 -0.0353019982576
-0.0127986948896 0.00540866627593 -0.0353019982576
-0.0205078077509 0.0144453312262 -0.0353019982576
0.0145656876502 0.00615162574173 -0.0353019982576
-0.00953183778279 0.00961891277382 -0.0353019982576
-0.00382240660441 0.00974237344052 -0.0353019982576
-0.0182777331489 0.00412402373833 -0.0353019982576
-0.000621784118662 0.0078823195561 -0.0353019982576
0.0126698432582 0.00939940139891 -0.0353019982576
-0.00559984364291 0.00187795163955 -0.0353019982576
-0.00312818883088 0.00553971356626 -0.0353019982576
0.00101538399905 0.0060799971816 -0.0353019982576
-0.0223859017289 -0.00155743463059 -0.0353019982576
-0.00736182225069 0.010868704512 -0.0353019982576
-0.00753929159443 0.0026394184981 -0.0353019982576
-0.0148297420365 0.00871309887137 -0.0353019982576
0.000133777384603 0.00996813816405 -0.0353019982576
-0.00143367422199 0.00455396283227 -0.0353019982576
0.00595621823162 0.00385102855123 -0.0353019982576
-0.0187420432515 0.0023863585926 -0.0353019982576
-0.00276161386744 0.00824888144829 -0.0353019982576
-0.0129701199696 0.00332577908019 -0.0353019982576
-0.0159867031925 0.00255499009602 -0.0353019982576
-0.0116789757422 0.00176129532217 -0.0353019982576
-0.0183435921008 0.00611158286591 -0.0353019982576
-0.00918594049674 0.00337385740695 -0.0353019982576
-0.00918135854416 0.0117089096503 -0.0353019982576
-0.00785070276773 0.00101990735912 -0.0353019982576
-0.0128034759928 0.0104862513373 -0.0353019982576
-0.01140208779 0.00430061656134 -0.0353019982576
0.00376041889169 0.00726496307745 -0.0353019982576
-0.00617863922785 0.0043336389451 -0.0353019982576
-0.00122135293237 0.0154217937841 -0.0353019982576
0.0080344945399 0.0172243439659 -0.0353019982576
-0.00663029573511 0.0133963383543 -0.0353019982576
-0.000601609426142 0.0139502428579 -0.0353019982576
0.0158197827772 0.0148773538431 -0.0353019982576
0.00720635168712 0.0120611323758 -0.0353019982576
0.0017012470755 0.0141683028473 -0.0353019982576
-0.0119760378599 0.0143383513809 -0.0353019982576
-0.00805945960684 0.0170706923387 -0.0353019982576
0.00635089957044 0.0162968857964 -0.0353019982576
0.0141787055468 0.0161737095166 -0.0353019982576
-0.00354169202394 0.0178887351548 -0.0353019982576
0.0154938347686 0.018423600268 -0.0353019982576
0.0118254124566 0.0171135094564 -0.0353019982576
0.0075809433408 0.0153087025881 -0.0353019982576
0.0134647897581 0.011131768492 -0.0353019982576
-0.00424239577002 0.0156115712002 -0.0353019982576
-0.0160698023007 0.0154241319722 -0.0353019982576
0.0174765412962 0.0140397600205 -0.0353019982576
0.0150956272754 0.0199792670242 -0.0353019982576
0.0142799358553 0.0141466788367 -0.0353019982576
0.0147119925492 0.00951596328984 -0.0353019982576
-0.00405714879223 0.0131561100423 -0.0353019982576
0.00594128224117 0.0193482651237 -0.0353019982576
0.0212384104533 0.00870918221191 -0.0353019982576
0.0103660088903 0.0193586867233 -0.0353019982576
0.00945215495418 0.01351307679 -0.0353019982576
0.00423267551258 0.0185239721092 -0.0353019982576
0.0229927017655 0.00835211580397 -0.0353019982576
0.00856237857204 0.0105219020088 -0.0353019982576
0.0117677061382 0.02067242774 -0.0353019982576
0.0168266808081 0.00988105453967 -0.0353019982576
0.0103700993078 0.0160905641257 -0.0353019982576
0.00362160715306 0.0119024925258 -0.0353019982576
0.000572229271132 0.0155781597538 -0.0353019982576
0.013270567172 0.0191531158425 -0.0353019982576
0.00551075808301 0.0114517519542 -0.0353019982576
-0.000156380561256 0.0119077453125 -0.0353019982576
-0.0119958859414 0.0165351849615 -0.0353019982576
-0.00716127779494 0.0153144155774 -0.0353019982576
0.00817618550632 0.0191441834061 -0.0353019982576
0.0118464125331 0.0136527814871 -0.0353019982576
2.86726468486e-05 0.0177839671602 -0.0353019982576
-0.00944095518148 0.0146679737114 -0.0353019982576
0.0151964474008 0.0120429892547 -0.0353019982576
0.00404489227227 0.0161572839698 -0.0353019982576
0.00214066304046 0.016195283524 -0.0353019982576
0.0198543643184 0.00979506949394 -0.0353019982576
0.00569992449803 0.0138391699412 -0.0353019982576
0.0194227224522 0.0116515696564 -0.0353019982576
0.00224170378973 0.0190531421901 -0.0353019982576
0.0103998872565 0.0116482714102 -0.0353019982576
-0.00165636709709 0.0125871978695 -0.0353019982576
0.00668400129545 -0.0019024935717 0.00849900022149
0.0128547632177 0.0085473671723 0.00849900022149
0.0103758907202 0.00410137356739 0.00849900022149
0.00968235457868 0.0158435416172 0.00849900022149
0.00296743770987 -0.0130640474844 0.00849900022149
0.00822767274 0.013739986608 0.00849900022149
0.00237454426436 -0.0185999749228 0.00849900022149
0.0124426106228 0.0178027952968 0.00849900022149
0.0165448293059 0.0119308374085 0.00849900022149
0.011225225435 0.0216480845614 0.00849900022149
0.00891821140407 -0.00202388472147 0.00849900022149
0.0152976278912 0.0132275216896 0.00849900022149
0.00208814605527 -0.014469944588 0.00849900022149
0.0114480062817 0.0149545333606 0.00849900022149
0.00350874797677 -0.00741318470863 0.00849900022149
0.0107511109846 -0.0010983557843 0.00849900022149
0.00703732238126 0.00753455833106 0.00849900022149
0.0162091997697 0.0179057138534 0.00849900022149
0.00785325216081 -0.00330705271084 0.00849900022149
0.00406577065679 -0.0115107367236 0.00849900022149
0.0080996895158 -0.00510807935937 0.00849900022149
0.0087753915557 0.0122176224224 0.00849900022149
0.0147445853828 0.0189340709921 0.00849900022149
0.0148552552411 0.0113799031499 0.00849900022149
0.0174376437415 0.0161167566025 0.00849900022149
0.00872659454533 -0.000207458292624 0.00849900022149
0.00520754826439 -0.00937250136468 0.00849900022149
0.00527313817027 -0.00280839959675 0.00849900022149
0.015458701854 0.0158050677874 0.00849900022149
0.0141480765125 0.00692039940878 0.00849900022149
0.0111508508707 0.00582836451155 0.00849900022149
0.0104174984988 0.0112359611638 0.00849900022149
-0.0255659145083 -0.00282208862763 -0.0350593975884
-0.0247594518328 0.00290758573864 -0.0350651304964
-0.023669569034 0.00736463890148 -0.0350973641699
-0.023472225948 0.0089556851322 -0.0350598795142
-0.0242353605367 0.00503394651915 -0.0350815644864
-0.0244566499456 0.00839555093756 -0.0335104927469
-0.02251604484 0.011939224528 -0.0238854554027
-0.02151430511 0.0139463399042 -0.024129127319
-0.0216041567666 0.0136191578108 -0.0197953199125
-0.02215032107 0.012724389165 -0.0255095691368
-0.0241609857183 0.00881525336518 -0.0285218829995
-0.0235219205108 0.00995423530768 -0.0245319579648
-0.0240266995543 0.00890874362753 -0.0234099110499
-0.0220555568688 0.0130321724824 -0.0289877146472
-0.0227142694689 0.0112777803859 -0.0160932886173
-0.0235411023239 0.00954951460137 -0.0137941277783
-0.0232127281258 0.0103446533609 -0.0178942730455
-0.0232029120829 0.0104389116351 -0.0200823559663
-0.0222221197251 0.0126409074634 -0.0272612823568
-0.0229203922412 0.01075011028 -0.0126828356457
-0.0230513133034 0.0104196961354 -0.0106555770977
-0.0229484162401 0.0111751457217 -0.0267759810176
-0.0227036518846 0.0109778338921 -0.00668329361914
-0.0233840175924 0.0101441112544 -0.0220328690717
-0.0226030804952 0.0111178951561 -0.00490721561934
-0.0233144303149 0.0105237987748 -0.0290900432613
-0.0218827968981 0.0134365993036 -0.0307374871446
-0.0242274245663 0.00857780275591 -0.0254485328309
-0.0228253428536 0.0106125805483 -0.0030954895715
-0.0240231974076 0.00921285012887 -0.0321162490073
-0.0224786730209 0.0116954510919 -0.0145572021281
-0.0223669861739 0.0121210112071 -0.020497073135
-0.0222079295723 0.0120329781326 -0.00861771658366
-0.0226693681416 0.0118424455301 -0.0300141270624
-0.0232897469849 0.0107231266484 -0.0334876713199
-0.0225000308981 0.0122890208392 -0.0331990794864
-0.0235047890353 0.0102019380247 -0.0307886370205
-0.0251199825861 -0.00317942253347 0.00601621323083
-0.0256291445224 -0.00145406708919 -0.0150590319214
-0.0250950347379 -0.00477681233633 -0.00156526128582
-0.0253347909744 -0.00283630273938 -0.00506608616443
-0.0252728852209 -0.00312797780042 -0.00297001749735
-0.0253807016804 -0.0011696585866 0.00163755350449
-0.0252839944266 -0.00135404619818 0.00645650075568
-0.0255955994224 -0.00280691217434 -0.0207263393294
-0.0254486856479 -0.000827559172437 -0.000540267508374
-0.0249312618143 -0.00496398918825 0.00730779777805
-0.0255801858502 -0.00099732540317 -0.009487222245
-0.0251334570869 -0.00405987823563 0.00018520901066
-0.0253867859271 -0.00368656576469 -0.0130628532254
-0.0251028546089 -0.00385061701974 0.00323389757958
-0.0249491897014 -0.00535946064723 0.00396801414046
-0.0251918198619 -0.00270104447266 0.00438051312434
-0.0254741324265 -0.00309784801689 -0.0150114868184
-0.0254610119567 -0.00108333587924 -0.00274469327097
-0.0253899764757 -0.00284382902393 -0.00845796605513
-0.025620074277 -0.00185938551276 -0.0168164564495
-0.0254680674237 -0.00239119208212 -0.0106197497946
-0.0255155085896 -0.00121766578891 -0.00681678304969
-0.0253236295363 -0.00324581944766 -0.00672050800131
-0.0244686989999 -0.00648607734071 0.00755228681424
-0.0249946833959 -0.00270321788441 0.00811602150162
-0.0224563168739 -0.00940537929328 0.00822738151435
0.0176417293311 0.017138838187 -0.0352852648224
0.0220719539753 0.0110862532808 -0.0352992863295
0.0197321314 0.0147936202594 -0.035192183016
0.0215267192785 0.0137481546237 -0.0349233240072
0.0131644609604 -0.0193921521346 0.00806488561877
0.0149608675566 -0.016851494557 0.00808208070134
0.011005135456 -0.0191881946336 0.00818645932421
0.021563725495 -0.0143386455605 -0.0330415935546
0.0221208639681 -0.0130159504186 -0.0304340478718
0.0220010119693 -0.0130379932104 -0.0250750462041
0.0237939303953 -0.00943871987857 -0.0315068234426
0.0245404480178 -0.00791592908163 -0.0336399329132
0.0218879921595 -0.012480736868 -0.0069852488465
0.0232889724948 -0.0101182002678 -0.0221578981708
0.0232547937492 -0.00979439917824 -0.0131853675336
0.0223119242286 -0.0124557892244 -0.0271364777315
0.0218614297529 -0.0132616324926 -0.0232984994058
0.0224957022506 -0.011471501044 -0.013917977918
0.0235537819434 -0.00937859822207 -0.0184169730686
0.0223817514711 -0.0125984541105 -0.033765770832
0.0227217129708 -0.0111418513313 -0.0175267344569
0.0224787020264 -0.0114247822608 -0.012033701492
0.0232824155177 -0.0106228910422 -0.0332195384249
0.023333316923 -0.0102336575225 -0.0269284693375
0.0235060178614 -0.00955954583689 -0.0201639745779
0.022934629647 -0.0105925623215 -0.0155422911594
0.0229748356039 -0.0102030448337 -0.00872222468748
0.0230788291625 -0.010096506074 -0.0114007702018
0.0236596587669 -0.00943319018498 -0.0248214327507
0.0226413362147 -0.0119447661198 -0.0317071339744
0.0237566230479 -0.0094047116048 -0.0289169685227
0.0229212532246 -0.0112543661748 -0.0298140123188
0.0219122362349 -0.0128147092469 -0.0157017465485
0.0222890738702 -0.0121837550868 -0.0198849390164
0.0219036049502 -0.0121827870198 -0.00102860526283
0.0221598900076 -0.0125404101765 -0.0216163037271
0.0221338754329 -0.0115127447273 0.00283119352268
0.0221952358354 -0.0119252765011 -0.00947056333718
0.0222174178672 -0.0116471806222 -0.00428265722976
0.0229299501658 -0.0109601925571 -0.02360461485
0.0247764681058 0.00636146764287 -0.0353019982576
0.0162336283498 -0.0130481645527 -0.0353019982576
0.0218024798785 -0.00212313781144 -0.0353019982576
0.0214686657677 -0.0039874395926 -0.0353019982576
0.0200930315681 -0.00598950821673 -0.0353019982576
0.015668096137 -0.015953298587 -0.0353019982576
0.0197036576265 -0.00442311784739 -0.0353019982576
0.0238819836907 0.000424428542157 -0.0353019982576
0.0189103738267 -0.00756421741484 -0.0353019982576
0.0187513893205 -0.0106410510518 -0.0353019982576
0.0234990610284 0.00378523921931 -0.0353019982576
-0.0190979846286 0.0097494300578 0.00829094756732
-0.00580482007066 0.0209398560557 0.00830207019872
-0.0114953524947 0.0194730014048 0.00814163946334
-0.00277346007591 0.0215651219115 0.00839484496458
-0.000115950034802 0.0236099181109 0.00840607763322
-0.0205646349178 0.00738423371651 0.00834267329971
-0.0185279758193 0.00693057614913 0.00844593036839
-0.00942672098748 0.0144546028501 0.00845998930442
-0.0218955707897 0.00473720972342 0.00841306410013
-0.0202705227979 0.00557179838533 0.00843940771839
-0.0131605245182 0.0170238543539 0.00818930360718
0.00353742419683 0.0196303675114 0.00849900022149
-0.0078459683447 0.0132643364191 0.00849900022149
0.00468001973087 0.0228985969436 0.00849900022149
0.000804330315017 0.0189679974569 0.00849900022149
-0.00956750203732 0.0121844939533 0.00849900022149
-0.0117473968613 0.00921959295212 0.00849900022149
-0.0111970604111 0.0111709477245 0.00849900022149
-0.0169546573261 0.00599439350861 0.00849900022149
0.00299667495439 0.0231983226393 0.00849900022149
-0.00445999770892 0.0229077530235 0.00825653709309
-0.00613711375382 0.0233407223546 0.00805729364939
-0.0131193205917 0.0207145490728 0.00798836705096
0.00151855945561 0.0247477170751 0.00838574637386
0.00130331591234 0.0255047698219 -0.0192641633736
0.00376057195559 0.0252964746227 -0.00204532588299
-0.00154613551445 0.0256150358302 -0.0288551227534
0.000962156842275 0.0256542831532 -0.0311867137466
0.00267731522666 0.0253976598937 -0.0103759385246
0.00190423386638 0.0253759316329 -0.00889600466413
0.00338537456657 0.0254644671673 -0.0154389560507
-0.00228546692031 0.0256392336325 -0.0309948808677
0.00292590534186 0.0256088713101 -0.0269940150718
-0.000951566646542 0.0256834797126 -0.0340823655284
-0.000827092945767 0.0255836301108 -0.026151873728
0.00275975481647 0.0254811660532 -0.0169510559569
0.000103028059173 0.0256689179584 -0.0326074021327
0.00293852694276 0.0254246188849 -0.0124265680789
0.00105369091608 0.0254772017492 -0.0171618316064
0.000655698156944 0.0254102259844 -0.0119902407666
0.00398474142664 0.0251665553734 0.00829254046967
0.00134852617023 0.0255321022604 -0.0214106685197
0.00248005270076 0.0255516539458 -0.0226084448983
0.00103999357715 0.0254519351751 -0.0151689341921
0.000480737374964 0.0256241815968 -0.0289553414549
0.00251176199483 0.0256689261579 -0.0318680632294
0.00152536141743 0.0255883881705 -0.0258052600679
0.000959050966577 0.0255575859526 -0.0235445858565
0.00281319455648 0.0253447113403 -0.00614906728925
0.00268760164929 0.0256286473161 -0.028630347522
-0.000360593829981 0.0254880090827 -0.0184505406989
-0.0179834856041 -0.01860173908 -0.0254742283876
-0.0188068880616 -0.0173139942293 -0.00634058745121
-0.0198311786962 -0.016838551022 -0.0291956723352
-0.0196827327905 -0.0164622401657 -0.00744332397631
-0.0177401442716 -0.0189703819797 -0.0306348568833
-0.0199948712181 -0.016411232061 -0.0182963118779
-0.02038140637 -0.0161172645227 -0.0221766235505
-0.0190194049185 -0.0170155140211 -0.00280558987494
-0.0188354882629 -0.0174438745045 -0.0129080149288
-0.0202730485928 -0.016090019414 -0.0165471919623
-0.019306979959 -0.0171506241831 -0.0203469720977
-0.0200351638619 -0.0162430567001 -0.0130044477858
-0.0191752258273 -0.0168147751935 -0.000963833490886
-0.018301389045 -0.018245601231 -0.023928712214
-0.0185535170654 -0.0180927815209 -0.028072108235
-0.0188451368366 -0.0178700406113 -0.0309598983147
-0.019523321359 -0.0170534918545 -0.025310337082
-0.018786632068 -0.0172906750077 -0.00453334669452
-0.0189867962038 -0.0175233564424 -0.0224850813648
-0.0201921999473 -0.0165233882233 -0.0311383103749
-0.0182247974249 -0.018528252117 -0.0324541711655
-0.0184083662579 -0.0179224014942 -0.0149859485226
-0.0186741311616 -0.0177467905362 -0.018751819751
-0.000123955306875 0.0252118167677 -0.000869295218013
0.000362211844337 0.025268859719 -0.00363174991028
-0.00314677526567 0.0255086320059 -0.0238861027388
-0.00248384821252 0.0253680259419 -0.0141797076408
0.000267386480879 0.0253000886402 -0.00570598002518
-0.00113166032819 0.0253668467825 -0.0120022205529
-0.00214221036634 0.0255875083466 -0.0271886327456
-0.00126256921987 0.0253325186969 -0.0100881566214
0.000406190164464 0.0253706536548 -0.00984334854722
0.00160829846992 0.0252749339835 -0.00206690527473
-0.00273064344894 0.0252368900629 -0.00647358707666
0.00283521734904 0.025210047664 0.00384593068302
-0.00170853825151 0.0255565758059 -0.0246052574965
-0.0046758422855 0.0252572599742 -0.0107580720106
-0.00312501409348 0.0253886865086 -0.0164523392024
-0.0016817616563 0.0255252640106 -0.0226318354821
-0.00295870725905 0.0254327004765 -0.0189088633737
-0.000941311930441 0.0252960668858 -0.00733925535955
-0.00169245040319 0.0254900199068 -0.020474130951
-0.0034963903456 0.0253221431335 -0.0129250903232
0.00173499808298 0.0252475015998 -0.000177284231103
-0.00314244397995 0.0252782988197 -0.0096692356227
-0.00361670615851 0.0251651114642 -0.00342448970613
-0.00155120289507 0.0252065927906 -0.00276858235217
0.00280914778892 0.0251766596586 0.00586518457053
0.000995340926393 0.0251745425284 0.0031725276842
-0.00403964090652 0.0252289618629 -0.00802197891312
-0.00141534007819 0.0254195394167 -0.0156945885044
0.00136081171674 0.0252113837842 0.0014685227528
-0.000699553979476 0.0250059287189 0.00448307188716
-0.00444062184471 0.0249902383752 -0.00101266837233
-0.00329608904912 0.0246499957608 0.00786840918845
-0.0029514188684 0.0248543211513 0.00414141441894
-0.00511998935582 0.0251551726443 -0.00551168113738
-0.00113107910187 0.0251484945124 0.000836581275579
0.000933554105178 0.0250341250241 0.00643672788583
-0.00120745304979 0.0248602179841 0.00673293005857
-0.0029826371381 0.0249329466306 0.00245220886364
-0.00287632609926 0.0247584167648 0.00625945725703
-0.00330836045719 0.0249931230099 0.000689555297743
-0.0220283631086 -0.013578588154 -0.0311026302301
-0.0202121490074 -0.0154543461103 0.00122864599818
-0.0213142620274 -0.0149152349452 -0.0321606095408
-0.0229550514285 -0.0118815758548 -0.0305927803494
-0.0220735487018 -0.0131731046013 -0.0236602438426
-0.0207151139293 -0.0160547127095 -0.0334619486338
-0.0201957219526 -0.015974475305 -0.0100432422839
-0.0217102242682 -0.0138974956089 -0.025217241107
-0.0204181479836 -0.0160031634991 -0.0199417597984
-0.0221681779253 -0.01340466514 -0.0329129731211
-0.0211116692587 -0.0143922324295 -0.0117250000047
-0.0208535658203 -0.0149658544581 -0.0141875300787
-0.0212090002537 -0.0147110876335 -0.0230962674918
-0.0206416173704 -0.0150720012679 -0.00782317323771
-0.0216886879301 -0.0136682642418 -0.0190541885133
-0.0216571664753 -0.0140935148296 -0.0275184681402
-0.0207283622539 -0.01577297673 -0.0275370628527
-0.022497538647 -0.0126150989113 -0.0284472496025
-0.0211375624451 -0.0147578172542 -0.0212028681554
-0.0211407038009 -0.015156058544 -0.0304862172228
-0.0208301717058 -0.0155140949125 -0.0258161064028
-0.020579586303 -0.014988018531 -0.0033163232757
-0.0212856767637 -0.0143073041336 -0.0170010288903
-0.0218397686522 -0.0118236954609 0.00739477699245
-0.0234454396787 -0.0087731175451 0.00439473594221
-0.0216099615402 -0.012389915752 0.00568780902377
-0.0235669935945 -0.0103433772873 -0.0255200741071
-0.0214967098944 -0.0132566365471 -0.00483967855891
-0.0228205326402 -0.0118226263777 -0.025131867666
-0.0223717642558 -0.0109170245247 0.00468573199311
-0.0232153147311 -0.0103700850585 -0.0142906700002
-0.0230369124522 -0.0094812903585 0.00627846968506
-0.024373827882 -0.00698893313063 0.00299572240126
-0.0229438955797 -0.0113082220724 -0.0207468505223
-0.0225432199522 -0.0111474009134 -0.00480071824499
-0.0229936199769 -0.00997235561946 -0.000378812040511
-0.0224066237809 -0.0121731728037 -0.0171750869542
-0.0235043903937 -0.00881920201918 0.00167902632753
-0.0226077358828 -0.0111647837014 -0.00722802898727
-0.0221037204652 -0.0123863191686 -0.0106370993456
-0.0241003498063 -0.00785610986035 -0.00222255594936
-0.023165696646 -0.0107150903962 -0.0183306625139
-0.0207736701671 -0.0145195741063 -0.00166335803337
-0.0236197366278 -0.0100166656151 -0.0218852952968
-0.0228891111413 -0.0109276188394 -0.012655782685
-0.023071238566 -0.0114423068332 -0.0271824297327
-0.0216721516346 -0.013461134042 -0.014031854786
-0.023232741792 -0.00980802859728 -0.00560501611255
-0.0206646259594 -0.0144638356785 0.00287370061638
-0.0221760562913 -0.0128543697238 -0.0207518917414
-0.0230942180198 -0.0107472318576 -0.0164885803796
-0.0216831797565 -0.0125150318067 0.00119605258294
-0.0235365867558 -0.00909974965533 -0.00401337456173
-0.0214645205821 -0.0134474115905 -0.00691594750906
-0.0238706235182 -0.00819116085921 -0.000122026744907
-0.0239041864625 -0.00905045695475 -0.0153988237132
-0.0243401861496 -0.00693906903677 0.00493391149679
-0.0220808449802 -0.0123140198052 -0.00868637930434
-0.0221674564568 -0.0117881231135 -0.0028924344869
-0.0207641201006 -0.0140578189384 0.00626427991819
-0.022500264661 -0.0108534026851 0.00147038690301
-0.0236252038602 -0.00911900141274 -0.00727122881846
-0.0229596392347 -0.0105652106147 -0.00902279998991
-0.0231830912939 -0.0102435886996 -0.0111364750578
-0.0217427863284 -0.0122492937221 0.00359810254825
-0.0239015935932 -0.00879921693036 -0.0111717966679
-0.0224410909934 -0.0120022380935 -0.0155014169721
-0.0209778781351 -0.0137239118653 0.0046747639216
-0.0220902805574 -0.012534202646 -0.0126285741619
-0.0209552488872 -0.0139900279502 0.00103948119577
-0.0212430533432 -0.0140653713845 -0.00975243483471
-0.0219506420236 -0.0120932058353 -0.000726410541656
-0.0229004321898 -0.0114977883621 -0.0224290937277
0.00174274559035 -0.025648227967 -0.0348134069562
0.00794819364246 -0.0240879894032 -0.0350768453019
-0.00183407928642 -0.0256722500155 -0.0199472963681
0.000227179403816 -0.0258033344763 -0.0307634437369
-0.00238075352553 -0.0257324180319 -0.0249119285427
-9.90146329802e-06 -0.0254933091107 -0.0051823792706
0.00133341328148 -0.0257633135006 -0.0274612005262
-0.000274251368152 -0.0253669208136 0.00524627443164
0.000934795464509 -0.0255983601286 -0.013850434075
3.37853671716e-05 -0.0254738907722 -0.0035801175666
-0.000133549146094 -0.0256421283215 -0.0174618707185
0.000833876833784 -0.0258308312379 -0.0330322788377
-0.00224863996776 -0.0257054957398 -0.0226904945429
2.12305682465e-05 -0.0255195652614 -0.00734884807819
0.000406337570967 -0.0256949555756 -0.0218207959592
0.000620770426693 -0.0255508353155 -0.00992902814787
-0.000467036900752 -0.0257143303713 -0.023419464823
0.000381546971971 -0.0257793242117 -0.0287822893007
-6.78813005009e-05 -0.0254212208634 0.000765824675329
3.52165409605e-05 -0.0256208543814 -0.0157064981158
0.000437614428691 -0.0257327219595 -0.0249370064648
-0.000125388360856 -0.0256732127325 -0.0200267328531
-0.000756694625732 -0.025455116467 -0.00203099687173
-0.000932073212931 -0.0257452488639 -0.025970636566
-0.00215465045886 -0.025774223578 -0.028361421678
-0.00122427096954 -0.025570959882 -0.0115895627041
-0.001600332562 -0.0258267057643 -0.0326918744114
-0.000812251182441 -0.0255919597757 -0.013322322971
-0.0195266235972 0.0119503495965 0.00815283781432
-0.019164896506 0.0138459803955 0.00805707768586
-0.0178965649596 0.0151011843746 0.00806960698263
-0.0209350318273 0.00941495193539 0.00821267104206
-0.00562229525485 0.0195662914582 -0.0353019982576
0.00184951184438 0.0210782256656 -0.0353019982576
-0.00173180711122 0.0185835206336 -0.0353019982576
0.00345253566853 0.0214497823037 -0.0353019982576
-0.0184333576356 0.0156601176494 -0.0353019982576
-0.00214641227928 0.0206705926374 -0.0353019982576
-0.00368136187711 0.019605945754 -0.0353019982576
0.0129393847504 0.0219759199327 -0.0353019982576
-0.010244496233 0.0177703036274 -0.0353019982576
0.00592555279691 0.0222169511404 -0.0353019982576
0.00843005601788 0.0223408494773 -0.0353019982576
0.00732996001115 0.0210618182452 -0.0353019982576
-0.0138390293983 0.017221048303 -0.0353019982576
0.0101237680677 0.0223183928311 -0.0353019982576
-0.0065898394468 0.0179705961071 -0.0353019982576
0.00193559742 0.0255560587397 -0.0336688766935
0.0034215089667 0.0252157756957 -0.0344723743217
0.0119579725292 -0.0226367076113 -0.0353019982576
-0.00706327477842 -0.0207034341137 -0.0353019982576
-0.0197495160253 -0.0117132007084 -0.0353019982576
-0.00980731552665 -0.0206202840068 -0.0353019982576
-0.0120228988698 -0.0198153170884 -0.0353019982576
-0.0064513998337 -0.0191657723486 -0.0353019982576
-0.0158468433842 -0.0108677891038 -0.0353019982576
-0.0147621991709 -0.00947604350168 -0.0353019982576
-0.014898902212 -0.0196747923054 -0.0353019982576
-0.0170962157043 -0.0142591882955 -0.0353019982576
-0.0187710873917 -0.0130444442923 -0.0353019982576
-0.0176642058899 -0.0102692804719 -0.0353019982576
-0.0163402108868 -0.0161653874151 -0.0353019982576
0.00339127359589 -0.0204883025558 -0.0353019982576
-0.0102524745568 -0.017198003878 -0.0353019982576
-0.0149539801603 -0.0174716855728 -0.0353019982576
-0.00749283860493 -0.0144715252295 -0.0353019982576
-0.0130318913773 -0.0183379052414 -0.0353019982576
-0.00803311346012 -0.0185716268237 -0.0353019982576
-0.00523335082444 -0.0211190914417 -0.0353019982576
-0.0167775779247 -0.00868655082769 -0.0353019982576
-0.00515165370715 -0.0157747095455 -0.0353019982576
-0.0149795812938 -0.0145704881407 -0.0353019982576
-0.0035219321247 -0.0155953913129 -0.0353019982576
-0.00840850899449 -0.021825277337 -0.0353019982576
-0.00894306980239 -0.0130664003882 -0.0353019982576
-0.006289515522 -0.0173425348016 -0.0353019982576
-0.0126977093913 -0.0115035099414 -0.0353019982576
-0.00125554214877 -0.0183009409245 -0.0353019982576
-0.00325080125473 -0.020371227045 -0.0353019982576
-0.0137882695174 -0.0134729049951 -0.0353019982576
-0.0221239616972 -0.00703717973922 -0.0353019982576
0.00100192000804 -0.0179649431859 -0.0353019982576
-0.0153925033755 -0.0128918460839 -0.0353019982576
0.00243979931072 -0.0189735690028 -0.0353019982576
-0.00972031401791 -0.0151029110219 -0.0353019982576
0.00818667302945 -0.0223842181283 -0.0353019982576
-0.00169157974351 -0.020098084915 -0.0353019982576
0.00142643060984 -0.0202561527222 -0.0353019982576
-0.019710665662 -0.00991355734743 -0.0353019982576
-0.0129265603216 -0.0161042272764 -0.0353019982576
-0.00214309337065 -0.0166886866689 -0.0353019982576
-0.00308785619451 -0.0183722435035 -0.0353019982576
-0.0198645061118 -0.00793603522696 -0.0353019982576
0.000190619776535 -0.0215963292352 -0.0353019982576
-0.0114486680616 -0.0153334614133 -0.0353019982576
0.00534317192847 -0.0208913928663 -0.0353019982576
-0.00463071103503 -0.017984347681 -0.0353019982576
-0.0112776713736 -0.0230491623718 -0.0156359221326
-0.0114336148103 -0.0231130869619 -0.029700757059
-0.0126963464882 -0.0223119104862 -0.0205219833435
-0.0123242249016 -0.022602990824 -0.0283572545318
-0.0116065346365 -0.0229467713264 -0.0231618770322
-0.0113147628854 -0.0229278299713 -0.00623997749776
-0.0104692639652 -0.0233215929563 0.000929413865266
-0.0102014263801 -0.0237403464851 -0.0242364145625
-0.0108483498989 -0.0234644782591 -0.0320936433295
-0.0107474752362 -0.0233055934217 -0.0120275696673
-0.0106522138915 -0.0234609757244 -0.0215796833756
-0.0127072731492 -0.0224346941935 -0.0325473772052
-0.0114453626438 -0.0229741440836 -0.0173451200969
-0.0100558169396 -0.0236416598111 -0.007464405035
-0.0107579696081 -0.0233729797424 -0.0188609628934
-0.0098973577333 -0.0239773806597 -0.0305628336306
-0.0102995520196 -0.0235737094853 -0.0137828088385
-0.0107531957634 -0.0232692795713 -0.00893596897586
-0.012436595657 -0.0224359360926 -0.0186045444789
-0.0107108755028 -0.0234782046533 -0.0262342712798
-0.0192459369623 -0.0175049089136 -0.0341488227798
-0.0177417812975 -0.018798447659 -0.034344373933
-0.0106523758134 -0.0231617388298 0.00610664367383
-0.014041223142 -0.0214656501533 -0.0166485127359
-0.0155988161298 -0.0207142904741 -0.0291633385777
-0.0118970138461 -0.0225401067315 -0.002345410816
-0.0163614766095 -0.0203249640607 -0.0337287589723
-0.0141411740874 -0.0214910299484 -0.0228168870186
-0.0137790488433 -0.0218019367758 -0.0298384248428
-0.0130551576429 -0.0220297290816 -0.0151715451154
-0.0148542081607 -0.0212027420568 -0.032604383785
-0.0132782598831 -0.022029992545 -0.0248292632006
-0.0149477482201 -0.0210764713382 -0.0274399627139
-0.0134650232405 -0.0219426480436 -0.0265301467385
-0.0124491880848 -0.0223256103072 -0.0105630519546
-0.014707179556 -0.0211846730868 -0.0249351340487
-0.0149349524512 -0.0211815431531 -0.0345472447496
-0.0140579979004 -0.0215033845626 -0.020124184386
-0.0242070577791 -0.00604466010603 -0.0352959210153
-0.0213544613477 -0.0108256557324 -0.0352479100498
-0.0183023956159 -0.0152787776581 -0.0352823260802
-0.0213770189055 -0.0131343225336 -0.0349443117756
-0.0224845219001 -0.00915717993012 -0.0352377138918
-0.0203762278659 -0.0149594492451 -0.0348405915156
-0.0102813229966 -0.0231180021939 -0.0351260738364
-0.00650980037026 -0.0224610732386 -0.0352397222899
-0.00186707496038 -0.0222044673862 -0.0353016459167
-0.00244936614883 -0.0253102265884 -0.0348597529988
0.00239338002852 -0.0236520354861 -0.0351207495297
-0.00864368011006 -0.0234861520546 -0.0350831325712
-0.00441072949005 -0.0230064725447 -0.0351742976758
0.000146882744247 -0.0250864023035 -0.0349057271273
0.000676952343034 -0.0235620527723 -0.0351239653769
0.00641908825356 -0.0228433225257 -0.0352572426051
0.00431700648711 -0.0231212847866 -0.0352063550608
-0.0122669530724 -0.0226139777201 -0.0351372715051
-0.00736689670424 -0.0245697168104 -0.0348682365027
-0.00563335222556 -0.0244714843364 0.00791789788629
-0.0088905451191 -0.0241257177724 -0.00882757152563
-0.00942439030282 -0.0237490814624 0.00244986984218
-0.00960334846726 -0.0236456153989 0.00466372625499
-0.00863431898562 -0.0239925380747 0.00733951242448
-0.00905157363125 -0.0242539035099 -0.0220458678041
-0.00961754880707 -0.0240056500688 -0.0204723709482
-0.00963712713257 -0.0237664072206 -0.00456356153967
-0.00964986315222 -0.0237373709079 -0.0029162936316
-0.00998264972983 -0.0237129583793 -0.0103465053808
-0.00963204406777 -0.0237154071869 -0.000918888083231
-0.00889339956176 -0.0242150713105 -0.0150475252196
-0.00909582674913 -0.0241626979171 -0.016987926199
-0.0065880275008 -0.0248334682548 -0.0159144520083
-0.00735672846196 -0.0247495747957 -0.0277934290038
-0.00584720641809 -0.0251337886837 -0.0284295249971
-0.00806803711355 -0.0243491868584 -0.00354455191775
-0.0069590993564 -0.0246930012933 -0.0107333916196
-0.00795369683756 -0.0244100583374 -0.00706147124208
-0.00557121265532 -0.0251552439206 -0.0232183148502
-0.00765138039355 -0.0246933016893 -0.0297136508623
-0.0074325167399 -0.0246842895589 -0.0227394321478
-0.0083128860254 -0.0243636479584 -0.0118249330199
-0.00646713081926 -0.0249496872305 -0.0252951463496
-0.00535722612263 -0.0251742270473 -0.0194342961824
-0.00752222313935 -0.0244592135702 -0.000619312876437
-0.00661608713395 -0.0249840665385 -0.033125792016
-0.00577328472989 -0.0250527660327 -0.017559705814
-0.00405206756183 -0.025632466249 -0.0337463344979
-0.00810812707096 -0.0245402365941 -0.0255019255845
-0.00874772976984 -0.0243642118032 -0.02378799989
-0.00630696294768 -0.0250447795779 -0.0312942527277
-0.00903829334521 -0.0243678585667 -0.032138789541
-0.00758487173962 -0.0246114698408 -0.0189583697621
-0.00767358514972 -0.0243866506553 0.00316088769587
-0.00744689158663 -0.0246627183833 -0.0207775763752
-0.003612810517 -0.0257046807167 -0.0304995648857
-0.00175064286836 -0.0254926012285 -0.00919705480823
-0.00377022568262 -0.025534990275 -0.0236935900824
-0.0049447938966 -0.0251653277978 -0.0140359031929
-0.00421184891218 -0.0255161421836 -0.0255737085987
-0.00173936670033 -0.0254229779185 -0.00593309142731
-0.00547874649206 -0.0248521910636 -0.00298974617083
-0.00737992276267 -0.0244126816655 0.00535610748547
-0.00175467740795 -0.0252335124755 0.00266323554009
-0.00206214645162 -0.0252733891251 -0.00107701827421
-0.00477887260491 -0.0249813306868 -0.00456404654185
-0.0037171520558 -0.0250301155183 -0.000203245475021
-0.00262315709938 -0.0255361166701 -0.01661606906
-0.00356839504921 -0.0251110426268 -0.00299112743501
-0.00582723576989 -0.0246840913888 0.00255570168925
-0.00329722556635 -0.0253876950657 -0.0139968481027
-0.00611303831735 -0.0248819599044 -0.00829756683301
-0.00316927095066 -0.0252020592109 -0.00468578442095
-0.00387291029818 -0.0249474638761 0.00262023359374
-0.00357117439936 -0.025236851583 -0.00877972664367
-0.00603784089611 -0.0245751798129 0.00624294055474
-0.00534310903073 -0.0250223868884 -0.00995425627884
-0.00642863850847 -0.0247679913617 -0.00503090520247
-0.00317168298318 -0.0255130962722 -0.0189692034116
-0.00106419054883 -0.0252177012875 0.00768002677042
-0.00338596200169 -0.0252971873893 -0.0103964335186
-0.00187794362698 -0.0251726711378 0.0046881372587
-0.00503068783464 -0.0247515422027 0.00441213947578
-0.00554050175262 -0.0250390006697 -0.0119432158694
-0.00185484706375 -0.0255992755801 -0.0147382481854
-0.00369654729754 -0.0251761428696 -0.00677400220364
-0.00354370059804 -0.0255104573463 -0.0211602879826
-0.00210599686264 -0.0254099917591 -0.00761602609714
-0.00271776018857 -0.0250115031315 0.00686193534545
-0.00387695222604 -0.0256072117232 -0.0276699772751
-0.00517345088057 -0.0248559632724 -0.00126533616274
0.00351002289504 -0.0239357170468 0.00831327331484
0.0110298715788 -0.021261976718 0.00775727615989
0.00720392570962 -0.0237757926079 0.00674842937268
0.00913611741852 -0.023115125335 0.00663885569658
0.0154201078175 -0.0205772882869 -0.023213576966
0.0139119576883 -0.0210597067214 -0.00643824494129
0.0152492661221 -0.0196766111499 0.00400324951247
0.0129130137004 -0.0213592707494 0.0052024060182
0.0160152636362 -0.0200556862874 -0.0210559047861
0.0162321563717 -0.0191969523123 -0.00255015740511
0.0153249041726 -0.0204811137968 -0.0187989259825
0.0137483751212 -0.0207980368995 0.00370232730051
0.0151261643684 -0.0198858897215 0.000870060477084
0.0160873372881 -0.0197794152527 -0.0151472388075
0.0157806025468 -0.0205402203757 -0.0292969315771
0.0158960122 -0.019083264664 0.00705101689811
0.0146000355582 -0.0200411283463 0.00706825503043
0.016035386068 -0.0191552747999 0.00241099878666
0.0130906540375 -0.0211614153216 0.00696392441083
0.0138974167967 -0.0208716552564 -0.00116979770624
0.0159581098446 -0.0202922674811 -0.0262052006442
0.0139053755586 -0.0209413587483 -0.00317296216198
0.0143298555286 -0.0210086187451 -0.0132751584633
0.0160750268399 -0.0194404689479 -0.00592372825652
0.0150842814808 -0.0202888410809 -0.00898742680605
0.0151582777654 -0.0201719911965 -0.0073411751295
0.0149104060011 -0.020488546344 -0.0108717575862
0.0152731084949 -0.0198653806827 -0.00146653519309
0.015168066768 -0.0205043353311 -0.0163403051064
0.0155594625622 -0.0197589744286 -0.00425924150732
0.0244367277356 0.00667714430466 0.00706128220251
0.0244750915489 0.000128419172866 0.00775283867061
0.0245460806358 0.00294458734139 0.00717116714659
0.0247608077213 0.00653908064257 -0.012085718564
0.0246981120505 0.00710452658477 -0.0300672269357
0.0246762255914 0.00717243186098 -0.0258397577489
0.0247942537032 0.00644950482174 -0.0196974733274
0.0251428167702 0.00454007352488 -0.0198543077977
0.0250974853157 0.00475221819685 -0.0168986809196
0.0250198924042 0.00528467626914 -0.0255769167308
0.0249355431317 0.00572490381732 -0.0237673116382
0.0252120096411 0.00434557074415 -0.0348560213778
0.0248910236163 0.00584428832253 -0.0136476760057
0.0246267493576 0.00716370003855 -0.00312161238065
0.0252311801554 0.00414502629391 -0.0271148835374
0.0252705481932 0.00398623203106 -0.0317457244681
0.0252546142041 0.00405040690792 -0.0298636139702
0.0247434616729 0.00668247581586 -0.0160022228557
0.0251982603973 0.00426805275374 -0.0224509182839
0.0249777761202 0.00531625568665 -0.00940315015862
0.0246913945349 0.00689753469396 -0.0102866064909
0.0247937364171 0.00628374587043 -0.00602009692414
0.0249173997902 0.00580153908347 -0.0219132125786
0.0247462197856 0.00687024668344 -0.0324621684069
0.0250056056688 0.00539975142111 -0.0285569005439
0.0234177367477 0.010079736704 -0.0350898301038
0.0243136013231 0.00778090742378 0.00566200509514
0.0241879650372 0.00815720809202 0.00227133631787
0.0230783124397 0.0112722878334 -0.0213866904603
0.0239501085479 0.00883580073021 -0.00312764142349
0.0241650725253 0.00826379641685 0.000506655090006
0.0236562379425 0.00998155226751 -0.0307223833288
0.0241774352318 0.00854751657729 -0.0203504619092
0.0243962106148 0.0080268608726 -0.0225913557041
0.0242689361834 0.0081551189653 -0.00712014019104
0.0237944475542 0.00952650181224 -0.0219056772215
0.0243009678631 0.00804737621798 -0.00489183865346
0.0233786802142 0.0106282767876 -0.0267578145834
0.0243779186542 0.00809608194488 -0.0244879979048
0.0239402210028 0.00921390536271 -0.0261834131816
0.0244613147718 0.00769280315299 -0.00872714003776
0.0242702492277 0.00840514345147 -0.0276704284595
0.0233326890155 0.0107712814656 -0.0290086398465
0.0238625257955 0.00925573178496 -0.0137803619624
0.024155641371 0.00875867683259 -0.0330500026762
0.0232012004454 0.0111406258156 -0.0322388621137
0.0229531189763 0.0117393855347 -0.0303759574707
0.0245605650397 0.00735047115295 -0.00113392621106
0.0236320818356 0.009882144879 -0.0177467352877
0.0244849992307 0.00770511135994 -0.0145409424993
0.023192718683 0.0110729759622 -0.0250263120357
0.0241718113639 0.00854026649646 -0.0186189060334
0.0237713584809 0.00950935727522 -0.015820573638
0.0230458023433 0.0115516352492 -0.0339881262414
0.0240941266421 0.00864003184192 -0.0109183041231
0.0234561510446 0.00492186583457 0.00815240350015
0.0131078646967 0.00222137008258 0.00849900022149
0.00948385459098 -0.00715504410148 0.00849900022149
0.00680384844403 -0.0102029507139 0.00849900022149
0.0169853559392 0.00910364007675 0.00849900022149
0.018488648945 0.0141055808877 0.00849900022149
0.00960976519813 -0.00447461979777 0.00849900022149
0.0162589727186 0.00509589554792 0.00849900022149
0.00656380457687 -0.0132696104312 0.00849900022149
0.00460590010762 -0.0166071139679 0.00849900022149
0.0117736006024 0.000876601131192 0.00849900022149
0.0204929571632 0.0148364232087 0.0051190572745
0.0208738446669 0.0145397237374 -0.00391553553121
0.0207602483991 0.015098746077 -0.0191614281212
0.0202158123709 0.0156625552954 -0.0115743269667
0.0206555320586 0.0147780458056 -0.00133991692751
0.0202134039947 0.0151776922024 0.00704102712657
0.0201063467295 0.0154841172422 0.0010767659562
0.020596110312 0.0149703540311 -0.00549786475805
0.0205629630547 0.0153326875397 -0.0175420659442
0.0204822520643 0.0151807172939 -0.00743620529703
0.0199714818586 0.015621058321 0.00306001804179
0.019564944997 0.0161341532967 0.00521414664561
0.0202678948895 0.0160303507506 -0.0283797632103
0.020459085507 0.0156686151426 -0.0248010518508
0.0202728538002 0.0158828274861 -0.0230199508996
0.0199189950763 0.0158418807543 -0.00255557653506
0.0195360257488 0.0163325365915 -0.000804876141831
0.0206319593935 0.0150343449976 -0.00985275277795
0.0044772782965 -0.0221506901261 0.0083905072193
0.0147682032077 0.00123534979891 0.00849854927661
0.00624290857364 -0.0213312193218 0.00834023553729
0.0174427824385 -0.0143232235837 0.00806035205845
0.0132031804146 -0.016320510383 0.00818042596792
0.0116349525775 -0.0176709538047 0.00821166000134
0.015305904595 -0.00895183078004 0.00825832318396
0.0188614945698 -0.00272377415437 0.00825574125443
0.0201987986805 -0.00768412097113 0.00809739151156
0.0214774168662 0.00488630395005 0.00831909570366
0.0168265849079 -0.00669393142643 0.00824847459922
0.0141558109349 -0.014674370827 0.00817924908514
0.0169696112933 -0.00471279269111 0.00828566617028
0.0181979118748 0.00696875539102 0.00849015060812
0.0170162487721 -0.00268158873938 0.0083276451791
0.0195627727058 0.00101037448702 0.00830923255161
0.0193820718113 -0.0047411595169 0.00819223677026
0.00890381645032 -0.00927297042715 0.00849771927514
0.0112722482438 -0.0155863576328 0.00827053883605
0.00781987093459 -0.0117291810155 0.00848649103404
0.00597994845872 -0.0181141431771 0.00841968222189
0.00275710063336 -0.0222157727638 0.00845528754192
0.0167578200651 -0.00977052375342 0.00818481833817
0.00838480733361 -0.0164545008284 0.00836292264884
0.0135545268592 -0.00920552394278 0.00832023927033
0.0181519433259 0.00520098724179 0.00845382302278
0.0191103605663 -0.0126814675293 0.00803157349606
0.0155563509382 -0.0133933271026 0.0081529711535
0.0196599617228 0.00469223880168 0.00838483909225
0.0159293347465 0.0027093545536 0.00848564085014
0.0185673257131 -0.00979094424878 0.00811475853978
0.0206722365172 -0.00988886853187 0.00803166295011
0.0224951249271 0.00296933409274 0.00823162498638
0.0225903733187 -0.00631198397586 0.008028599139
0.02196573708 0.00821092698109 0.00836881148171
0.0223401516838 -0.00249550870966 0.00812208070805
0.0219153787537 -0.00807354239746 0.00802289546688
0.0232622066427 0.0104689917053 -0.00935504949877
0.0229186266683 0.0107466761835 0.00186404360724
0.0221593251194 0.0120783437171 0.00707835931301
0.0227617412677 0.0113631364005 -0.0063661496848
0.0219659260652 0.0128823274449 -0.0042685178387
0.0230864558067 0.010914314637 -0.0118865468601
0.0231139387982 0.010576423764 -0.00417545487171
0.0225416772608 0.0120527401968 -0.013135513292
0.0224150576259 0.0126691199393 -0.0230188447508
