-0.01688883056359688 0.014914277837967086 -0.010941597876153175
-0.022383582989769293 0.016101911505453908 -0.010828049938510456
-0.02476401230650401 0.016651427541399404 -0.010778039314491727
-0.044030175240826516 0.003884327205183155 0.007046377345672058
-0.04396621298850646 0.007378366033941313 0.007425159806034431
-0.043801747012685584 0.01893291751965753 0.00839912217770967
-0.043804766274490786 0.014168837961949352 0.008381242203606688
-0.04397920500697147 0.019954624876594388 0.0073482214784935385
-0.04404798393732179 0.0007522198669610567 0.00694091480128613
-0.04384949925165218 0.012343664507118886 0.008116334910102696
-0.04402111896538279 0.021762161301982347 0.0071000083259746966
-0.04390706282466827 0.015999376779662813 0.0077754452287140206
-0.04396297959764215 0.01095453798952446 0.007444307845737089
-0.04400009819867327 0.017400098603809082 0.007224492649839605
-0.043909775491415406 0.009629492144572536 0.0077593809009682945
-0.044052447673765704 0.013589633014336154 0.006914480693491138
-0.044101499021053314 0.02002781246958482 -0.0006690627205355668
-0.044101499021053314 0.013347480162938323 -0.00019742475635729784
-0.044101499021053314 0.013730449715529534 -0.0018556536913752128
-0.044101499021053314 0.016478271106724007 -0.0005937856175862719
-0.044101499021053314 0.009248335074162766 0.0005536601238587685
-0.044101499021053314 0.01232906387500915 -0.0012359015390344431
-0.044101499021053314 0.018474438254224342 -0.0068647632328706805
-0.044101499021053314 0.005750255173324825 0.00407619149681682
-0.044101499021053314 0.020493849728011534 0.0026714891333189644
-0.044101499021053314 0.006969505611998557 0.006086574685456299
-0.044101499021053314 0.016072746038023313 0.004697235297137595
-0.04410149902105332 0.007597570766035496 0.0009811455103050926
-0.04410149902105331 0.018959403878145153 -0.002990228573559608
-0.044101499021053314 0.015160568973926047 0.006217281056472069
-0.044101499021053314 0.011767256964506225 0.0003219750692858821
-0.044101499021053314 0.015738322541068262 0.0031238805706040682
-0.044101499021053314 0.0037734834360102533 0.003715198937392962
-0.044101499021053314 0.020516332584225715 -0.0035872091231145065
-0.044101499021053314 0.01844877298345269 0.005016918171771759
-0.044101499021053314 0.009310333669377568 0.005754012846049471
-0.044101499021053314 0.009958602831146938 0.0019137255965257717
-0.044101499021053314 0.0180039375989702 0.003498359193689296
-0.044101499021053314 0.014227739028115386 0.004509281646162089
-0.044101499021053314 0.01500735592415218 0.0019538047631957696
-0.04410149902105332 0.01671414916943098 -0.001967629519508412
-0.044101499021053314 0.010812024084505704 -0.0015463244083614338
-0.044101499021053314 0.011173100609426808 0.005870953867029975
-0.044101499021053314 0.012643197471828693 0.005623950117912129
-0.044101499021053314 0.02104215531326301 0.0040053848593018734
-0.04410149902105332 0.004090888614243268 0.00504921670381556
-0.044101499021053314 0.0081849986288063 0.004223626573497844
-0.044101499021053314 0.020787209660638465 -0.007832820352351999
-0.044101499021053314 0.0024093240873625747 0.004583847242565159
-0.044101499021053314 0.0189765756789576 0.0024775189737874692
-0.04410149902105331 0.02038143106576697 0.005303605556441474
-0.044101499021053314 0.02001413500582822 -0.0052757845674913555
-0.044101499021053314 0.007376575052299198 0.002592761357362183
-0.044101499021053314 0.014749587863233101 -0.004423854703146835
-0.044101499021053314 0.01174154606707061 0.004358774687359136
-0.044101499021053314 0.01730359876972583 0.0008156058443956047
-0.044101499021053314 0.0184584688887589 -0.005189590138255457
-0.044101499021053314 0.0214732147187199 -0.0052906256229997665
-0.044101499021053314 0.005335834777756895 0.0017283223868857804
-0.044101499021053314 0.005552963891104696 0.006483456359787901
-0.044101499021053314 0.01231416269898933 -0.0028899421169791615
-0.044101499021053314 0.01114283578354713 0.0029925348206540033
-0.044101499021053314 0.016804385086925725 -0.004632292183143541
-0.044101499021053314 0.0179816174823786 -0.0005460236367761501
-0.04410149902105331 0.014937571374971391 -0.0010990068141908307
-0.044101499021053314 0.02180304936420372 -0.000567474715303125
-0.044101499021053314 0.013044643641695176 0.002321425485761339
0.0432805407200594 0.022433144565739856 -0.0030609247630188734
0.04285876595663624 0.021435030256475033 -0.007381723800486382
0.042777716972227015 0.02070008632287746 -0.008842351526425712
0.0430238950353298 0.022056697502974967 -0.005422126364146417
0.04348160235264715 0.02266820615025023 0.006620469435318919
0.04249985907407461 0.02329410207304586 -0.007842081400169225
0.043240516355545995 0.022646219091307963 -0.0009475032319652377
0.04335765163880197 0.01993965267818483 -0.0050658737922525685
0.043420490180935974 0.01680904782374324 -0.007502108959868525
0.0436143318399501 0.01858307666493585 -0.004251331906599317
0.04346191596260926 0.017696407212663502 -0.006328730158477665
0.04310456446800508 0.019471792010802114 -0.007569396663612437
0.043743446239683265 0.01580432745501764 -0.004041140664028638
0.04398010135662619 0.014134783523748317 -0.00012342231202397126
0.04364830730189203 0.01624355907859847 -0.0058345751574867275
0.04402623843670711 0.01096043150970661 -0.002042726251554838
0.04414063373513749 0.008877238077007583 -0.0013508628573147784
0.04416888193942047 0.010086443429879494 0.0004432988101339758
0.04364995232487719 0.01991589992827373 -0.002337775969065959
0.043797987056868964 0.017964511471273457 -0.0007413843654665644
0.043858629780630314 0.014327747381000849 -0.00275967824805181
0.044258767124797684 0.007826088757763108 0.00039970611400424647
0.04376469307368187 0.013983543092600928 -0.005263067973659424
0.04374110652939327 0.016869700107511265 -0.003092043527489766
0.04387023027305678 0.01628366398217977 -0.0006484649971852518
0.043880562866008416 0.01227710107880257 -0.0041821709793763056
0.04371422588907756 0.018192784981450723 -0.002469550484098012
0.04366966029569316 0.014511658355988803 -0.006970328447674112
0.04393970408998427 0.012583875684512507 -0.0025212450618967972
0.044033904199524646 0.012289567302669422 -0.0006131004873462284
0.04389067108246224 0.015035818132484714 -0.001349493523707316
0.04398996650016579 0.015904369955236204 0.008925975928250994
0.04349307518931165 -0.0042820440020309445 0.009784942421304784
0.043728092112226453 0.002431846954119462 0.009393755594858586
0.04395047533567973 0.019419924718173272 0.008966993431951025
0.0436211491522842 0.007577002395436973 0.009528117627313926
0.0436844131142986 -0.009731189912219891 0.00952455463577744
0.043815958705483396 -0.0015772119332645475 0.0092821989843553
0.043623146534822306 0.01255162691985431 0.009498619767989843
0.043396743772024286 0.011138754661616842 0.009848563949182869
0.043332604629987365 0.009454465391374409 0.009954536057529778
0.043516298857491795 -0.006922611058985331 0.00976387176924177
0.04323425866406897 0.018428927918737622 0.010055514434826376
0.043823785117297474 0.0040424908986438045 0.009240451612002591
0.04339243042361839 0.014917681837795802 0.00983497476644306
0.04373680576150999 0.020877235469018398 0.009209901743294316
0.044243456028273995 0.00096609943821074 0.00844174691541782
0.044146932498693024 0.010349245619357655 0.008631600696699928
0.04414942746008743 0.008642232059742407 0.00862706908390867
0.04432305845177225 -0.010280102006494147 0.00828607565672687
0.04376014135353602 -0.01636423010606146 0.009408889079747526
0.04376173175869409 -0.01290814643068199 0.00940483441913802
0.04436220473653365 -0.004292679514460714 0.008206565409803654
0.04405465544738109 0.005396984707473666 0.008816674403800689
0.043840180981710455 -0.008298149497954592 0.009247391637589416
0.04433269703528879 0.00319281695913868 0.0068500493852131535
0.04435322470918099 0.004276383515683459 0.0059630463587746155
0.044266533704091546 0.010764806029401686 0.0061117873364730894
0.04425562736958815 0.012249454033823251 0.0059132086119877
0.044385149175116156 0.0063890464395739135 0.004444598411688459
0.04442902146031846 -0.006011900065273612 0.007333467849995303
0.04444386158538317 -0.0028778310152511697 0.005927976667512505
0.04415490937693168 0.014663738984311132 0.007751886753548401
0.04442884609815022 -0.00743044883787773 0.007799222680682055
0.044243163464865655 0.009005533282483298 0.0072925160020776625
0.044498008873643344 0.0013583882745285744 0.0031402560983116064
0.04447214531695623 0.0037313875601977698 0.003042482778264108
0.04446297990173076 -0.001636159913681158 0.005026284178990656
0.04449190709524534 -0.009143808760838116 0.0067135879972372876
0.04441774182415674 0.0037625105339683155 0.0044495141686190925
0.044305762236169804 0.009498676293404784 0.005501561798294375
0.044394930622637635 0.0011724024993544084 0.005885794826782148
0.04445561759858925 0.0007298482629121139 0.0044488468923197825
0.04422959167366429 0.007182981078055507 0.008238579004579359
0.044286004355489024 0.004826220218615416 0.007535302651295504
0.0444335998574248 0.005124851311174071 0.003593517262720971
0.04432544209622219 0.006477961852833571 0.0059709932583155954
0.04441499048562668 -0.0003233954763071675 0.005849559409834881
0.04433412943194072 -0.0005845321606060367 0.008040797563745369
0.044401252519613896 -0.0016260342025955785 0.0066309211098700485
0.04364961018575846 0.022140032896248534 0.0031734042841160904
0.04371434079454446 0.02183674217199905 0.008080961730527714
0.0436443199343228 0.022065553280558713 0.0005029790891210736
0.04365158698956124 0.022190856334866227 0.004696897824696364
0.043820713255787805 0.020938609084393475 0.007007286662645102
0.04386076180082842 0.01835444981093823 0.0015302670340112102
0.04437897750990761 0.007682821751628646 0.003572165415785648
0.04413115822438531 0.015283549698958543 0.005947178329261527
0.04415679429841551 0.01401934417029068 0.005060101710390519
0.044381125954703636 0.006490581062397768 0.0020400184318460387
0.04405783923933661 0.018349890544496164 0.007747080505895286
0.0440687125784405 0.015394697168649704 0.0041245497726954995
0.04389982909993083 0.01944925623880696 0.004233088711500709
0.04391331459236379 0.020106143069405457 0.005540449448188213
0.04396524161615333 0.015726256195575977 0.001302294950003815
0.04418828544977168 0.012665849898516705 0.004238080002265303
0.044309007650112996 0.008240405654295192 0.0021110691982317033
0.044137839329408915 0.012774274471020603 0.0027906952403029036
0.043982242403584365 0.01850630617327232 0.005569938839861031
0.0438884830408269 0.018700212297721158 0.0028696080838837004
0.0442713605724332 0.010269159114683235 0.003644908424398792
0.044075834407802994 0.01667188093514724 0.006063409199280448
0.04407363829545538 0.01289794168051637 0.0009294399049533642
0.04382466292319114 0.02050134202509911 0.0032715344924492333
0.043961889589078124 0.017301887370403647 0.0033109473789008
0.04377269713508121 0.019617186891214618 0.0004441230933574596
0.04347786309673856 0.006564884841792938 -0.00952037892384663
0.04315122225141165 0.011944782405866829 -0.009939590758943385
0.04344502522315253 -0.0008867437842632318 -0.010051553536837423
0.043768814971586176 -0.008557064250457953 -0.009779016554541836
0.043123890603682304 0.009152932728950618 -0.010173035033387116
0.04397807952857894 -0.014439174717037937 -0.009659461655800566
0.043856533945145264 -0.011708166493801153 -0.009770842269774704
0.043591483560820786 -0.004516941729221549 -0.009938111804318674
0.043903754049724866 -0.002119732980605346 -0.009075972398233271
0.044070128553234104 -0.006995565339750104 -0.008751392875318006
0.04412580001431635 -0.013922904934062938 -0.007838364891487395
0.04414221701808123 -0.011950678480201296 -0.007323456111253157
0.04406067142171409 -0.0035545793966544345 -0.008767953821950478
0.04417583032778245 -0.004518176140252605 -0.006061503636062988
0.04409905892925001 -0.008357864007655116 -0.008140017086330458
0.044404972413554566 0.0021470150281767066 -0.00015110069215836875
0.04432011568215911 -0.006585578320557401 -0.002723152963432134
0.044304940536247776 -0.0019667719421414733 -0.002804958986852053
0.04415664022364696 -0.0018955709998648377 -0.006361864462088434
0.044175276210413596 -0.006388708225991396 -0.006189261081537969
0.04433104489457426 -0.0003525547623307757 -0.002079324757913322
0.044087907617278564 -0.00991383864767382 -0.008503007403013584
0.0441299804377753 -0.005379526813569881 -0.007215239050495407
0.04425277004138918 -0.001048271192831328 -0.004001573943830506
0.0442593338913202 -0.00384838749087503 -0.004015279390334506
0.04437586229341503 0.0007423004023903214 -0.0009360961575085825
0.04414871621578427 -0.007715873576448862 -0.006908273252347564
0.04431871480503423 0.0014803333447521983 -0.0022632700671753716
0.0442027744595037 -5.8463815365533255e-05 -0.005141597869740926
0.04426860049838916 -0.0080441397589723 -0.00404947503471719
0.04438388025478626 -0.0018952276314137123 -0.0009049346091528071
0.044186674620648264 -0.010596202105436584 -0.006172982342607904
0.044094974040088435 -0.01620837397678215 -0.00871845473666184
0.044125211414045254 -0.0034252215490348445 -0.00721018496463751
0.04411267750893148 -0.01812845828710853 -0.008410809097131005
0.04419716564964138 -0.003092671024526172 -0.005461938945199251
0.044059071166038355 -0.01939129636141847 -0.009775372367473103
0.04421147717059038 -0.012667557369818566 -0.005704116119923505
0.04428110362805194 -0.005153245034614421 -0.0035723435346062477
0.044260222223785506 0.00033203419339073603 -0.0037381625363185327
0.04421611686424368 -0.009200075863842479 -0.005380536804725099
0.04339740931710881 0.013111879479461117 -0.008926782896012205
0.04305553260478916 0.01592475172996689 -0.009796147803492401
0.04306990036682689 0.017754283801409972 -0.009442544187115822
0.04397368720583719 0.0017208025715732271 -0.008543824524783783
0.043334515731693043 0.014887368292153745 -0.008881927564835414
0.043774091523487005 0.008423055604103153 -0.008227673389958957
0.043748610398255686 0.004706813756084996 -0.008931553892060093
0.04402811892294668 0.0024843701963180856 -0.0072671684355515975
0.04372253370842178 0.011415460161791463 -0.007865180501295308
0.044163118918644904 0.0018843246875098099 -0.005106273118348829
0.0436986833859701 0.01296606657924483 -0.007427936867963031
0.044398463406393855 0.0046899514651367775 0.0008444911686113672
0.0440933444097215 0.0010294438834117705 -0.006883626457870704
0.04400127349921825 0.004217644187702286 -0.006781851319546748
0.043929493816958154 0.00610287265002248 -0.007042862476362954
0.044066063898531994 0.007764216325534741 -0.003570795599673506
0.04397734062446126 0.007904493168916194 -0.0051350051067033066
0.044264427754348794 0.0031149673238032695 -0.0025316602947092113
0.04402033567265519 0.005335015186417409 -0.005795206579508017
0.044174548542170726 0.006211922151907968 -0.002441011648313021
0.04395597672014615 0.01044801666209835 -0.004088767302252437
0.04422133388501283 0.007033838245027507 -0.001108258090908289
0.04435921930951083 0.003792183867729949 -0.000391552528064258
0.04405227238318731 9.117179357319221e-05 -0.008176499256427126
0.043888744819994316 0.009941277225960204 -0.005621637799265932
0.04378153606278856 0.009955131742547514 -0.00759999457573518
0.044128567003563685 0.004370433322188246 -0.0043369151047159375
0.044267529383130125 0.005522023269636339 -0.0011095294456052068
0.02340776591342289 -0.0042212864181742655 0.011426500044763088
0.01322484397143967 0.0012617179115114053 0.011426500044763088
0.018763863477024613 0.003819021657731788 0.011426500044763088
0.011487324035268554 0.0025718914907796064 0.011426500044763086
0.016438759003205284 0.0005446182064953562 0.011426500044763088
0.023650856822846733 0.0011879911893221708 0.011426500044763088
0.017532818418378913 -0.0006596730297620775 0.011426500044763086
0.01995192838440311 -0.002082973098694813 0.011426500044763088
0.02391206729290924 -0.0002791651612435446 0.011426500044763088
0.02116622592947841 0.0024941872103603937 0.011426500044763088
0.015206825993441603 0.0027969795469473396 0.011426500044763088
0.021185464191100692 -0.0030136602109659097 0.011426500044763088
0.017431016153607287 0.0023839330123479443 0.011426500044763088
0.022174847842438575 -0.0003274817834436944 0.011426500044763088
0.023857039860928943 -0.0018287880857757875 0.01142650004476309
0.019820150276153407 -0.0005574434544182657 0.011426500044763088
0.024454347301228353 0.0029308149381253694 0.011426500044763088
0.01650120391814665 0.0035265286868490014 0.011426500044763088
0.019672087640284587 0.001298525772958299 0.011426500044763088
0.013613364133914476 0.002994178743887178 0.011426500044763088
0.014962185854498346 0.001391350899108773 0.011426500044763086
0.025247842004174834 0.004798118919760709 0.011396816808157179
0.012421938159928116 0.005173987966617778 0.01134588931999811
0.01850382527728815 0.008348270950602088 0.011204357538548072
0.02358028893444696 0.004328567684256633 0.011415815744215956
0.02279650363126381 0.00888743787418586 0.011188539822016667
0.02103464889508707 0.006575836070489364 0.011298334843115569
0.015423396998929563 0.004592692957525245 0.011382187744259678
0.02157495540546027 0.004627710563918756 0.011395973877387685
0.02438427517496226 0.008592362876279347 0.011207127395596804
0.01992678374185576 0.009111933547647005 0.011170206683140454
0.020092875221140734 0.00527523901536911 0.011360234686021917
0.023210966675458095 0.006434470361029139 0.011310810669161203
0.01827147093138489 0.006863510952106392 0.011277148135704122
0.017671103663444362 0.0049711987260830795 0.011369151646168424
0.024768215188863157 0.006358745090529224 0.011318481010191207
0.02336730714051768 0.011677794886649145 0.011052080457893042
0.021828977291766045 0.0076961599400367274 0.011244972166524881
0.015780776574125573 0.006182109641783079 0.011304540388155643
0.02131735985686555 0.010060924024102047 0.011126815261500266
0.026018832779698752 0.008439239395530177 0.011213983446892447
0.03169381753726342 0.010017669452619213 0.01108637378942387
0.027502457859922724 0.007936966978007148 0.011228239826971447
0.028936706004733585 0.008532465567202469 0.011185757770090853
0.031137822533846157 0.011848253303898482 0.010995554061512782
0.027132343922864465 0.009765778486864869 0.011136023337516211
0.030320216814480556 0.009304668958880309 0.011134485466935868
0.02642064760923317 0.012521303410393824 0.010998311895587599
0.033035772858875365 0.009584667589284163 0.011098159801577136
0.027023670675410366 0.011189730843475213 0.011062783643890102
0.028503842236040737 0.01097221937420351 0.011062247180440096
0.026512789415332146 0.005818783764991525 0.011346409356336868
0.03517898647275889 0.011257478824886202 0.01099392935553107
0.025657169770504053 0.010213992338919392 0.011124512762783608
0.029280006473550148 0.007004595095669844 0.011262526441530089
0.028008982183597115 0.0018436652824984291 0.011348755260631813
0.026322999828003502 0.0020091569807705522 0.011408966594171852
0.025361628360784032 -0.00011937962343851888 0.01141661392408147
0.032308041084856555 -0.0029209965206021433 0.01114308933115225
0.028890513696720476 -0.004611857306867147 0.011240813154606549
0.024458631667842252 -0.0054180539082254115 0.011384187665629975
0.02882266931809674 -0.0003918734717039585 0.011293817220847161
0.030045945250647764 -0.0024941448966710085 0.01122633410701792
0.026596209506755168 -0.0016379660909591042 0.01135574755386087
0.025138461580476924 -0.00258955705891292 0.01139466629308988
0.027428195431577075 -0.002888608753151034 0.011312001295280691
0.0316149031778737 -0.004506384761393871 0.011147993862866109
0.027158542631966827 -0.004498896778009679 0.011301982047317314
0.028469607729809186 -0.0019334443273769531 0.011287503408371018
0.031391609884475744 -0.0017748032043504217 0.01118849794811462
0.030407030638927184 -0.0002250337580104976 0.011241104974710658
0.02503970810266476 -0.003965158680500275 0.011381562539040341
0.02730758939378433 0.00021755399142148538 0.01135345598877317
0.035604571624575546 -0.003946951573373808 0.010997266710222648
0.029352459876412898 0.005450544167128302 0.011295294727721214
0.03132552164933007 0.0033533904121387497 0.011201242076029964
0.034397968523367746 -0.0030337224064926407 0.011054783521285128
0.028051721795169522 0.0041900709171684486 0.0113572988004654
0.030806333071022395 0.0013795870463749584 0.011225990952718937
0.03343745096388599 -0.0015739252070713153 0.011100569834063212
0.033650991268362254 0.005734266562283872 0.011090390714405316
0.03575391762843581 -0.005446018989269337 0.010990147628663544
0.03458967078994449 0.0016453658485237525 0.011045645385442525
0.03246889675438897 0.007554540846165801 0.01114673924090101
0.033982455595830685 0.003202458392525711 0.011074590348006562
0.031045741481084993 0.0066420684408172795 0.011214578742461432
0.03498963509735679 -0.0005631296009406682 0.011026579736201162
0.03470514063344285 0.009066774980752406 0.011040141125454084
0.02930964127579143 0.0028451232854259526 0.011297335820902097
0.032423793188603306 0.0006127825874397295 0.011148889254661907
0.032136565092359175 0.00542678753376649 0.01116258095173029
0.03513383568262662 0.006118036838333062 0.011019705928393308
0.009352095371416702 -0.011880262702745661 0.011022291327941823
0.010837736646124498 -0.010748917904410044 0.011095361384837403
0.017340959673718202 -0.01100675592110072 0.011089593398986363
0.021994621581466603 -0.00930446602001834 0.011203386388556516
0.01744468025461537 -0.008184751159423754 0.011266127289876113
0.020632521878581767 -0.011283191815994905 0.011077553495858037
0.02248443625619453 -0.007811704578418109 0.01129745985285524
0.01785084803401694 -0.009648378397127053 0.011175300110433616
0.019067075386814573 -0.012170535175510295 0.011019606007584871
0.019114168390108214 -0.010687944331409967 0.011112339484580245
0.013840912303839676 -0.010023830208552633 0.011145455618721368
0.01972274760735604 -0.008565935295883918 0.011245928440219035
0.016053585830960965 -0.011668459533069773 0.01104619028124768
0.015689142256495304 -0.010300012664304253 0.01113113528532743
0.02086762527566323 -0.007540725848235143 0.01131182314128528
-0.0038683308075602796 -0.009010779830206771 0.011013802713228054
-0.010189474244431616 -0.009939674857136274 0.01088640645576905
0.0013171600155930455 -0.0066352191328628764 0.011187012345514426
-0.005995552552643384 -0.010107188008592415 0.010937557778926623
-0.023175301865512803 -0.011847688424759573 0.010624701292883034
-0.009493957363524685 -0.01262421202681771 0.010781770685048937
-0.02036430760341199 -0.01220244663125634 0.010648661366617245
0.0033646295914240513 -0.006713436115861436 0.011212136081649641
0.004069208486502271 -0.009862981719424445 0.011087827245514504
-0.02756882893503851 -0.015179085230843329 0.010421800389168595
-0.026572286397551527 -0.013668003484747372 0.010499987937370435
-0.015364664814644016 -0.013912007579489549 0.010645353045758001
-0.03574182819545992 -0.016256576361630165 0.01026234168807423
-0.0033727026708063913 -0.010570929778905998 0.010954262905453236
-0.005631002812940971 -0.00641698445233801 0.011099744466170921
0.0015825198421650828 -0.008090335593182417 0.011128744546475566
-0.022866513266434706 -0.014895056967617937 0.010499242557736141
-0.0004432353287734782 -0.009017361082573139 0.011061121640393351
-0.017013851025159024 -0.013840195053864156 0.010625491634932201
-0.0018370416544395808 -0.007793672243815067 0.011093853562121028
0.0035327523160169775 -0.01226524241268978 0.010978089223591923
-0.0012948416315051547 -0.0064208570272706635 0.01115983995968588
3.6483681731828456e-05 -0.005831473867784431 0.011203436211720312
-0.019220616640600683 -0.0145536906364219 0.010564444813431776
0.00437588846956733 -0.005737322333939207 0.01126775042585856
0.0050538249601570365 -0.00415670191397493 0.011344471049556408
-0.012797758728365673 -0.013193016308229322 0.010711638795353771
-0.03000162899992303 -0.013825325820567304 0.010445631345092977
0.0024034652599536797 -0.005375799062181427 0.011255732159602058
-0.007198115837629986 -0.01144398548961522 0.010863927752627057
-0.011029309037530867 -0.012818183360362768 0.01075217477999877
0.0008597560158873931 -0.011458550001062714 0.010975289262163644
-0.001943867738716251 -0.009504436771150045 0.011019528517955124
-0.02430173739284644 -0.013275441785669568 0.010548256532594672
-0.00824151822949702 -0.009330947483095868 0.010939395763566173
-0.021867032352893008 -0.013168838008030061 0.010586630994431702
-0.0019786796807864096 -0.011696770976221531 0.010925700124835881
-0.03216826141702739 -0.01530077088428564 0.010352700185162572
0.0027148344579143438 -0.009996077661270716 0.011063338353741821
-0.0038125580704717285 -0.007287503349224504 0.011087950990769728
-0.005042205420653395 -0.00790357723578539 0.01104463134443448
-0.015139575009088548 -0.01094984866801103 0.01077460314871187
-0.013594016466318495 -0.011093708704368453 0.010789956808799895
-0.016469793395715884 -0.011775079193844558 0.010720980435233531
-0.019224766212496587 -0.013017925820880344 0.010629776519968463
-0.005343942944767617 -0.012416695039891583 0.010848279751824817
-0.006704726215209367 -0.0075202654561334495 0.011037847550552274
0.004530402013039569 -0.0083711899226929 0.011157753634101167
-0.0005419365742387345 -0.010714942787997474 0.010987470803094215
-0.03354726756386128 -0.015656563685201776 0.010318387050703924
-0.018366149406575955 -0.01054600853852166 0.01074695748292162
-0.03070123653015194 -0.015378309201229517 0.010369786277516784
-0.012028753180264994 -0.010853500933725476 0.01082193704303578
0.006756670312809779 -0.005254945920276704 0.011316654222283371
0.00560769723023933 -0.010600087060636525 0.011072735381468773
0.008864205135210213 -0.009319119840242997 0.011155275675676302
0.012383706652885688 -0.00490040507148327 0.01137767873985621
0.016247396046378402 -0.007174116701791938 0.011309084390414632
0.014904897338415638 -0.006701594875848669 0.011318980593143905
0.013231766363257113 -0.006286107740016195 0.011323701938099328
0.009709523582641943 -0.00797035564259901 0.011221311900518952
0.005938739695471343 -0.009277737546385337 0.011133457208316537
0.015588962595781486 -0.004657006664615563 0.011414258701057946
0.011709674922114244 -0.006103474154099013 0.01131942194526677
0.006975597575198696 -0.003328735093419853 0.011402978025125179
0.019642886311002035 -0.00678220524136202 0.011353720560170984
0.012309189077487034 -0.008995765204496698 0.011197302262162766
0.013499579600155548 -0.008191540364974326 0.011242222647043405
0.01046963334077617 -0.009393697369341269 0.011164972299627138
0.010748495460014152 -0.003680408514283684 0.011418022074125601
0.009947277494345196 -0.0063976692902396465 0.011292269104874339
0.01913742843297702 -0.005285111565072214 0.011415355007485795
0.00772719757032727 -0.010840928603474624 0.011079286719917744
0.00960331696016939 -0.004839554286231056 0.011357886959491461
0.017819184626358647 -0.0067594638489210665 0.011339985034016424
0.006591102178495874 -0.006716243854647307 0.011251169840480406
0.015318276415047722 -0.008263604717486571 0.011253752603467457
0.017526455008918005 -0.005272094467644595 0.011402911258740739
0.007798273191898112 -0.008069770934011738 0.011201506738012592
0.008448784544283666 -0.006616644662560982 0.011270550296051425
-0.012501077679691313 -0.014667504802641734 0.010620518885488362
-0.021027555949207778 -0.015499549813670601 0.010475241760839582
0.0016282562316016656 -0.012721655220995767 0.010924745160387148
-0.041873115083035296 -0.021284241816604432 0.009700174479599801
-0.026611343837402927 -0.016708814838219253 0.010305721762294884
-0.01400064509590211 -0.014751799953751907 0.010601914299965286
-0.03546905588611611 -0.01946253762097499 0.009943275502095138
-0.040419760951327294 -0.017731710206512586 0.010106788005544242
-0.01945846325188811 -0.016075039760129625 0.010420404170943021
-0.029849281230677333 -0.017915756798214916 0.01015080256766614
-0.007933126246982482 -0.013733111902045101 0.010753055134823497
-0.040836385483208566 -0.019340315826410794 0.009924147304462758
-0.025433752154860035 -0.01768711421579034 0.010203393721720855
-0.04201712175285043 -0.017765096781264873 0.010093285130284929
-0.024323891171673533 -0.016120860643164224 0.01038553075115104
-0.03292464832202322 -0.018937097498699276 0.010017656461286639
-0.02898599321649558 -0.01611111366980047 0.010358121489158545
-0.03513001760446908 -0.01801530645067866 0.010107374989627415
-0.03155906364371497 -0.018143198713188542 0.010114886685706979
-0.038694394067556 -0.018234410538819575 0.010061055022605028
-0.03652885451537625 -0.017761437195237744 0.010127245880332756
-0.004605788749153426 -0.01370252096437466 0.010776820764602298
-0.018013839084299994 -0.015418324908056467 0.010502758955256297
-0.031187037724812367 -0.016819171974679664 0.01026539430302597
-0.0028292714231011 -0.013236599461744889 0.01083984394117907
-0.03346048765713761 -0.017083120732127106 0.010221945415702819
-0.0381781373572192 -0.01958148649809379 0.00991339717162618
0.0424631990277667 -0.001039497716436263 0.010158040206451599
0.042926508678885554 0.0013145243472959256 0.01004298579925437
0.043153562882913006 -0.002784033265858177 0.009949160214969617
0.04292429204051041 0.020238383891080278 0.01017851743865969
0.04358899587535454 -0.018858856207707563 0.00971066602009902
0.043111521391013506 0.01624180765165252 0.010096751050517699
0.04225391669863794 0.008484831662598469 0.010285487015419459
0.04317904484822682 -0.01436984688218198 0.00985931849640085
0.042077459909439625 0.013927186970544004 0.010374494459277272
0.041931596587041396 0.00985725144222745 0.010386987044390103
0.04229067902985513 0.005971910317722403 0.010257112602995638
0.042258055096512745 0.004276566352985511 0.01025431032980443
0.04170679330693304 0.01741869159254535 0.010377698853602048
0.04054029561684727 0.01670276867932483 0.010478193325828323
0.03858108825684635 0.01363981252811582 0.010720859765760728
0.03662142464077598 0.011881347417745743 0.010911754182180761
0.039727973752504295 0.014474315616810323 0.010616868211402258
0.041328559874519305 0.015245024606975011 0.010487380409881699
0.039091908616944386 -0.001364560716645204 0.010620261816157389
0.04186172943214437 -0.003397651125096832 0.010218568307135509
0.038557210578699146 -0.0027874669283520035 0.010667840061169645
0.03817447331431179 -0.01070456562531554 0.010588022241148255
0.03975701598339552 -0.0036593998988243065 0.010493982485569018
0.03897552959696385 -0.012080683729687779 0.010458839369092329
0.03958650842602244 -0.010671538595449231 0.01040089558600945
0.04047986422622149 -0.005591636331907879 0.010366014343291383
0.041027855654727025 0.0029040281036628703 0.010433418779167168
0.041294816729331434 -0.016970232393996476 0.010069874389387045
0.037503960917425715 -0.004925734932538989 0.010772529933829721
0.03900190308712352 0.0008498106432928091 0.010668776800883375
0.03647992914523169 -0.0071547449321224255 0.010871838621901792
0.039270310129427374 0.004824734902607812 0.010698716931081067
0.03881031189734571 -0.009379492775296074 0.010525386604213167
0.039274008996341626 -0.007733120632754036 0.01049093374103537
0.041125983122005424 0.0011552971955434595 0.010391510609808308
0.041753932734826374 -0.014573486002751506 0.010048416765018026
0.04116469874233221 -0.009806473100767876 0.01020541984581189
0.03935962765172074 0.0033873178114306648 0.010663118514345885
0.04121153467105647 -0.008127650488445968 0.010226907139583062
0.0422553136991502 -0.010818268919376657 0.010043765931253099
0.04092852941591977 -0.012195387945005486 0.010197375179213073
0.04145582469444928 0.0072851463745197895 0.010448856736859306
0.04036101441367516 -0.014022644772659881 0.010242640500828225
0.039932508559323676 0.006434323816643233 0.01063727432499846
0.03752770709569003 -0.00017103908774320116 0.010847859266061233
0.04100888928169143 -0.0014888891741449408 0.010363426020606002
0.04342309546462007 -0.02089469459997441 0.009722226707775627
0.03875633794366344 -0.006154762391002714 0.010585790597523733
0.040899931156275965 0.00535917257178443 0.010490947950450026
0.04229235551859371 -0.005565921526070818 0.010125542853096322
0.041160400186225514 0.01247285606219768 0.010573754374904905
0.03793019253720761 0.003123723804631674 0.01082287529699797
0.03979627707538057 0.011731363810586641 0.010679102626810898
0.040393153744910995 0.010409698731865794 0.010633116204012081
0.03607961070723855 0.0005489423622333262 0.01096545355947842
0.03592764474591763 0.002425400966868511 0.010977161792192274
0.036583302120656976 0.004991455424149478 0.010926646604072011
0.03765802595852507 0.0015115548952157496 0.010843844398318099
0.03968342363741802 0.00872475705355936 0.01068779743124433
0.03754109471957928 0.008724653771056069 0.010852853377336796
0.038536827292142625 0.010880827722411052 0.010776137061531597
0.03612883872748294 0.009826380009206765 0.01096166078172705
0.03862341250480106 0.0071845636966146945 0.01076946609514826
0.036809185214239204 -0.0016837698185984528 0.0109092434184981
0.03607069043663124 0.008243962716365972 0.01096614082262099
0.04351493757820702 -0.016693285137411015 -0.010436761914731644
0.043556641985217553 -0.013075757948351412 -0.0103381433825629
0.04307845271710772 -0.0074125759549346195 -0.010748350146717349
0.04310615487746927 0.0026923701493246424 -0.010448140385978525
0.042887184405992526 0.005575455082580273 -0.010651615363521251
0.04336466387612466 -0.003021714267940738 -0.010281013329135846
0.04242321511792635 0.011608208641894248 -0.011085159762274702
0.042865217082213955 0.007340472378774008 -0.010625342673243552
0.040975096393678745 0.012381613926091085 -0.01132212429059416
0.041277537644336115 0.010671423932711966 -0.011382793430434
0.03997325785953138 0.011249711761086092 -0.011513609430179402
0.041715206722738915 0.01702479708672242 -0.01080809057169147
0.041057939498763574 0.0149387124925222 -0.01111249930647454
0.04238568699772302 0.013082073205584199 -0.011022160375395783
-0.03052026472767104 -0.018431353328645803 -0.010339004579328726
-0.0019607707630034856 -0.00999520662575914 -0.011179813749823304
-0.013199160325117257 -0.015188755850087412 -0.010769662212212965
0.011367016271773368 -0.008469252317419747 -0.011470181517469948
-0.024545262513310784 -0.01773027302533564 -0.010469898169796014
-0.0063289201809253025 -0.01165372750340808 -0.011035632672817562
-0.005120176497320741 -0.01006832206353806 -0.011123192867682537
-0.03978267232975469 -0.021397184378933277 -0.010056589368566992
-0.020294544279612556 -0.015441441221745936 -0.010638759327455956
0.0010031639571708544 -0.008400327149298987 -0.011297511577879157
-0.008761432365911096 -0.011379892112211637 -0.01100600708624426
0.011003890416623807 -0.004958439498992993 -0.011612578357898144
-0.034576891708420085 -0.019734538297227343 -0.010215136292407206
0.0008492618614750359 -0.010038371544492754 -0.011225595451511633
0.004715582363070631 -0.007840710695230674 -0.011384086460389917
-0.01537175608552563 -0.015407273268830167 -0.010723607819231793
0.003923359473648356 -0.009116364004662716 -0.011316689223069477
0.014551288538916725 -0.00754680480784204 -0.011563160504218248
0.00879618087827369 -0.009860689221406569 -0.01136775168207876
-0.03239060488605532 -0.018947500077087096 -0.010285477808757592
0.0061007116992142195 -0.009048568818780247 -0.011356446864446491
-0.027422710442852088 -0.017387056053267295 -0.010435670063095547
-0.021656001007819524 -0.015185419018942027 -0.01062652605035405
-0.01007025653516192 -0.01316323974212022 -0.0109083760091378
-0.0038114851568223362 -0.012982179930114442 -0.011022074239908433
-0.012468950916760006 -0.012916958038991977 -0.010878157522488793
-0.005492923465972039 -0.013393805193680546 -0.010976170376582117
-0.017246314407592774 -0.015366656097799986 -0.010693567295212333
0.005830194829866448 -0.006434991619854889 -0.01146244900437202
-0.036980973447207764 -0.02038193464096094 -0.010147013360679127
-0.0068882024999193225 -0.013022970286505918 -0.010968222013686748
-0.003768982996585651 -0.010031401073849588 -0.011147647231722619
-0.015548672803575003 -0.013403275220346029 -0.010805403328538299
0.0025355184867893697 -0.011037361735760101 -0.011211895198077984
0.010940960628201348 -0.006844421172240611 -0.011531712816159802
0.008467353577629106 -0.007296957709022467 -0.011470656852745826
0.006368250541243722 -0.010492132369608994 -0.011299899712232105
-0.011232066114680514 -0.013981809408025792 -0.010854057220748028
0.009554377702980128 -0.008631955688979554 -0.011432587180988694
0.0070044444000756205 -0.007227554566756908 -0.011448808551898384
0.013303488780148198 -0.005656378665395539 -0.011622007478747793
-0.014214892174333355 -0.012877174712079179 -0.010850260770930764
0.009231857434781157 -0.006009321952161426 -0.01153809146864478
-0.018912610035056888 -0.01599869997626756 -0.010638593662607712
0.015430206239436608 -0.005452480162386423 -0.011666666039748228
-0.002348897085945885 -0.011433526491112986 -0.011112380067894882
0.002374709613990662 -0.00894303611722518 -0.011297785536056114
0.01858208065610638 -0.006584620558135881 -0.01167216272085934
-0.0008941300387723169 -0.011288418740329206 -0.011143166776006713
0.01665469889908432 -0.0072312639976635255 -0.011612147984617762
0.03452214528678012 0.0008727901270553324 -0.011704337123887621
0.032794167782574116 0.0031883671231618064 -0.011704732396913109
0.03451652633025136 0.004430999214983878 -0.011704515467932242
0.02887286046775262 -0.006978392239772665 -0.011704860380523933
0.025130979237734538 -0.0043848966019950555 -0.011705595615224204
0.03229481420473537 0.0016860148186546827 -0.011704738338606791
0.03573918799682561 6.30971065487688e-05 -0.011704099677017103
0.03169750374968929 -0.005965741516387105 -0.01170445349493649
0.025675994691916885 -0.007090588908400294 -0.011705372440708543
0.02385535334420455 -0.006948069752301769 -0.011705674356369867
0.037354896316166925 0.0035433340670201134 -0.011704011598199823
0.03425630187619316 -0.004680754316842768 -0.01170410323690632
0.034908923416674335 -0.0032036855663410044 -0.011704071216383944
0.03708038648273228 0.005117167143283086 -0.011704134529417508
0.026638040501917048 -0.005550176992931094 -0.011705293475098208
0.034239030881397105 0.002925726015421246 -0.011704485339420414
0.03343120833759168 -0.0008118025492193637 -0.011704429770557311
0.030292004067079627 -0.006803718549332459 -0.011704639294887022
0.0334135730102033 -0.0028707576845944938 -0.011704329954004436
0.031690097455992855 -0.0015116395891390626 -0.01170467680312444
0.030447519995259784 -0.004740201474751801 -0.011704717012501711
0.031748700023417994 0.00033343395777731205 -0.011704759320573282
0.02720518326469041 -0.003915796284835328 -0.01170528314033581
0.037521414815139494 0.007151934966720063 -0.011704164581597499
0.028445145462054962 -0.0030129525541666563 -0.011705127379825063
0.033521764887569375 -0.006107138242355293 -0.011704151049109069
0.03614917990355362 0.002621825349681094 -0.01170416088268395
0.0289449132277727 -0.001630067925058134 -0.011705115413670579
0.031721623217893076 -0.0035513479867139287 -0.011704569985884313
0.03044560416041858 -0.0003966794627924958 -0.011704933917448078
0.024301503832750225 0.006683601706429098 -0.011705464279441073
0.019196778920897613 0.005590075632791437 -0.011705966876663332
0.033774830376476224 0.008127666687148623 -0.011704544398268533
0.027647052132949934 0.0027098245305538318 -0.011705237756025376
0.025388348999334183 -0.0030100982668688496 -0.011705574978089153
0.035575952022529556 0.008158169055842806 -0.011704374857815912
0.034836763899178794 0.006677045688992384 -0.011704476647096092
0.021038647877999455 0.0002005683448403411 -0.01170591238631814
0.027776456916138753 0.0009393786935888654 -0.011705264452207953
0.023352070074240613 -0.004877163363521647 -0.01170580684578439
0.03233397526645918 0.008202035872558413 -0.011704677860446338
0.029124761570350717 0.00561202079769251 -0.011705035556998911
0.024887437551194075 -0.0016358922404135236 -0.011705591804274051
0.026553228035207665 0.004009611883997062 -0.011705311805280784
0.02521842179734664 0.0032337368525842732 -0.011705453971796839
0.026226268318730848 0.006152854122762804 -0.011705295455569958
0.023094129535209663 0.00446158799038911 -0.011705626214473833
0.029646703754223257 0.006950141010470427 -0.01170495727281059
0.021919846745903755 0.0016365576656897293 -0.011705798272113984
0.02941620187034171 0.003995561438187948 -0.011705043683683226
0.03850531405838541 0.008925338185491054 -0.011704083378175668
0.033005785641297 0.006775641530355446 -0.011704646155521322
0.02082500452556184 0.0057905787549571396 -0.011705809818360275
0.026127204622423454 0.001716000037114205 -0.011705402051860868
0.02526194951615926 0.0002972908148994192 -0.011705514292209274
0.023316531768506586 0.001865493224471955 -0.011705662299264986
0.030893216278841902 0.008062670539964458 -0.011704816001193288
0.03071795364169174 0.004511166891203778 -0.011704910324501907
0.028082690295097554 0.006695481165884181 -0.01170510949839704
0.02646223575784873 -0.001855506933933982 -0.011705448969211399
0.019901571131765012 0.002899308518208206 -0.011705959809355852
0.022543535698622892 -0.003366624299560937 -0.011705849524379107
0.032206048406835 0.005192099905507376 -0.011704755868045702
0.027166737090427932 -0.0006517562270663851 -0.011705356515412416
0.03155153867846467 0.006431838789846888 -0.011704790044567403
0.020366245567877986 0.004259920308238311 -0.011705886401257354
0.0227428463910059 -0.0018407444714752248 -0.0117057973719124
0.023807589897573127 -0.0004315905801092093 -0.011705666637283715
0.028914010120478718 0.001750188811855543 -0.01170514001376269
0.018073219768645225 0.0003297717650347404 -0.011706000193953514
0.014346394336413805 -0.0021885407900365714 -0.011706000193953514
0.020554632121951737 -0.0036523919083692 -0.011706000193953514
0.019565580500566275 -0.005307403002731392 -0.011706000193953514
0.017458890948144117 0.0024003448250420386 -0.011706000193953514
0.018681493407942066 0.0036318322082019346 -0.011706000193953514
0.013862511200937011 -0.003497979975369699 -0.011706000193953512
0.021017738792544982 -0.006223633781715962 -0.011706000193953514
0.016095221703320207 6.484708209844375e-05 -0.011706000193953512
0.019555448713176975 0.0013416194793629756 -0.011706000193953514
0.01839269254953127 -0.0024826588619967145 -0.011706000193953514
0.01598555941488461 -0.0028862802677264007 -0.011706000193953514
0.016791487464286662 -0.00505877000162315 -0.011706000193953514
0.01959114339542559 -0.0017272177446675066 -0.011706000193953514
0.027575733108542312 -0.007605274782349509 -0.01168124775382556
0.03207399225033605 -0.007810161473090993 -0.011677219149388851
0.028885679687538395 -0.008804199564759724 -0.011596634652333074
0.03728782310661047 -0.01295794953249509 -0.011312916233264185
0.03411837347789677 -0.009631973557187552 -0.01154877775979912
0.03253845350421993 -0.010235586110687863 -0.011500713291255241
0.031598177187172186 -0.009199655455982723 -0.011574290752093814
0.034392932111083574 -0.011811121584176493 -0.011389845891888822
0.026273458173074853 -0.008758648443138065 -0.01159359606234366
0.01305627650747847 -0.011460550499169008 -0.011278094021105155
0.01247106112672657 -0.01408161994209367 -0.011053640682022029
-0.00817119848001908 -0.01735411381341021 -0.010639217332976625
0.007709756246691655 -0.01616747065774569 -0.010846072099569408
0.013231322538499173 -0.00920601559602753 -0.011468946793156812
0.022312757248106916 -0.01072247599815796 -0.011402568056099845
0.0258857877496052 -0.013134848751178227 -0.011223695018731454
-0.01530453362762816 -0.01796312462092771 -0.010539909413238506
0.004948056608620785 -0.011671277790343267 -0.01120572371321378
0.006516705099427386 -0.012247351348074961 -0.01116783011455662
-0.00035260418387865824 -0.014931216892595798 -0.0108957447821801
0.016564974861076946 -0.008902017297300259 -0.011516987783147439
-0.006448189162557995 -0.01477906255743713 -0.010867466859379823
-0.005835268342709813 -0.01758205505851407 -0.010635782735981815
0.023356363875608292 -0.014067981726908558 -0.011128144934989781
0.01028066279508797 -0.014850379669857132 -0.010974203972852566
0.002552584604720985 -0.014325380572751524 -0.010966291836660204
-0.014641587300204373 -0.01963803634143251 -0.010403467402380207
-0.010738722806613627 -0.01636646042223537 -0.010705005479617374
0.008092801936421899 -0.012907441060740748 -0.011122918465205682
0.033510566097684144 -0.013408274640203046 -0.011252075763324747
0.019578033977892678 -0.011115783418705704 -0.011351049753261695
-0.012930538609926778 -0.019476234030409018 -0.010428610652417118
0.0030739202088636043 -0.016114151410161974 -0.010819316578301041
0.02726119474906807 -0.01003397687004867 -0.011493839106740357
-0.024326414001638846 -0.019287829394432382 -0.010367663396557399
-0.03148809975003065 -0.0206488803656332 -0.01020489558047142
0.016061967842548187 -0.015766969082934335 -0.010936052320805396
0.018091484922070872 -0.013959956816151663 -0.011101752611777859
-0.01020790044164741 -0.018716278544345842 -0.010510893468597737
0.016481526133475838 -0.014423932900235789 -0.011051868855000835
0.027510139846773696 -0.012866614062065438 -0.0112572081274834
-0.016517202994911735 -0.019335646878570367 -0.01041626739200034
0.010836897756282382 -0.011152825158231579 -0.011289026270885266
0.0025662599626467882 -0.012607248053071785 -0.011110929800659052
-0.013635652730873131 -0.01803210144354697 -0.010545353134719212
0.005837742467152365 -0.016115838482429003 -0.010837800252015962
0.029592209919440355 -0.012853034940569864 -0.01127238176065658
0.009144267475532677 -0.015864601998612445 -0.010881219598513337
0.03527902625530804 -0.013580653264653453 -0.01124949140453291
-0.0022694490100033313 -0.013144711739090861 -0.011033124987665838
0.007924139199324885 -0.01113139273646195 -0.01127120007262351
0.015043161575088136 -0.009276906551907722 -0.011475192885043691
0.019615937947205717 -0.014512387055321626 -0.011065550279523703
0.01248742192894748 -0.016100934254510757 -0.01088386682967506
0.02445116591113642 -0.008314564552071335 -0.011619555584338455
0.020957654796899976 -0.011368579294523782 -0.011339079505534706
-0.02494283933406675 -0.02054226508195813 -0.010257974084915505
0.015167928877633814 -0.012490565748321901 -0.011205669832759774
0.029000428803715905 -0.010409904886207464 -0.011473933261766203
-0.020047944571720315 -0.01898588317644037 -0.010421898939484517
-0.028346741098505702 -0.020250292069340196 -0.010259598507754946
0.029477666646376056 -0.01425460140248541 -0.011153696616563088
0.0219379181193929 -0.007719615810155422 -0.011652671418867205
-0.02108017102339143 -0.02030878384650648 -0.010303647581053576
0.0014729076837633782 -0.017141944915371927 -0.010722059375936868
-0.029926661893653315 -0.020533265549511796 -0.010225144856272012
-0.014669324273841227 -0.016733896567813177 -0.01064760460357008
-0.0002091755327815574 -0.016339188447319675 -0.010778259272412383
0.006919039821191865 -0.014878843125561534 -0.010949155123162644
-0.00936256927901637 -0.015617509685575116 -0.010777288409171144
0.017771828944403465 -0.009880575786171839 -0.01144279512772972
0.030325592592770515 -0.011311721640892487 -0.011406994155908234
-0.017855625389848764 -0.017366224092298765 -0.010572934417437913
0.004151284622005681 -0.014115587648685804 -0.010994715391690833
0.0012171619107061403 -0.01562895729140477 -0.010847622932246118
-0.018215083031503224 -0.019215511977738034 -0.010414932151880649
0.011640648872707141 -0.012407679998404704 -0.011188872372187068
-0.003426683883431668 -0.014446967071665491 -0.010915768072084497
0.016922250112039038 -0.013065204038073278 -0.011169148245234512
0.022519580909291556 -0.009055080013438436 -0.01154423921658346
0.021285889463418077 -0.014960350276760149 -0.011039117241166855
-0.03670316896705489 -0.022004863201098988 -0.01005567254009533
-0.0015111126495653028 -0.017539054408781177 -0.01066854117453175
0.013924065333273087 -0.01588692506999166 -0.0109115529852942
