0.00775186742726 0.000767449653436 0.00548104073205
0.00779214720491 0.00653221208951 0.0066689954801
0.00781800039113 0.000966197854441 0.00938524253675
0.00781800039113 0.00371181249969 0.0107945482108
0.00781800039113 0.0055357364683 0.00893068235302
0.00781800039113 0.00543461180181 0.0129759895675
0.00781800039113 0.00647155336903 0.0109415031662
0.00781800039113 0.00133491078038 0.0116487909659
0.00781800039113 0.00318721299434 0.014477524615
0.00366833913843 0.010062239375 0.00466531701419
0.00255328752147 0.00910395028978 0.00322253158994
0.00495091636179 0.0110729780811 0.00619520791869
0.00367951087278 0.00596439677959 -0.000536987184628
0.00528220185787 0.00879079222538 0.00320010829377
0.00622956028651 0.00992347002859 0.00480828209251
0.00588939089498 0.0031989404443 0.0209957878324
0.00451762477017 0.00190428005303 0.0191299304395
0.00260572613668 0.00974929243941 0.0200319505813
0.00781899970025 0.00829097959432 0.00947962192766
0.00781899970025 0.00767965313133 0.0146316680971
0.00781899970025 0.0106493487462 0.00885970227595
0.00971315725518 0.0119289997965 0.0165019877669
0.00867740543272 0.0119289997965 0.019051200947
0.00781899970025 0.00740962066764 0.0167477790711
0.00781899970025 0.0109257201104 0.0210835299658
0.0117960046854 0.00572361796924 0.0050594120935
0.0109807738037 0.00161020101907 0.00701925158358
0.0106926389041 0.000674000009894 0.0108627986627
0.0125799998641 0.00536638796188 0.0127779694565
0.0125799998641 0.00354868015522 0.0111141587409
0.0125799998641 0.00478923866644 0.0185875409025
0.0125799998641 0.0101763990646 0.0134974420316
0.0125799998641 0.00156510207271 0.0168051054407
0.0125799998641 0.00993658352562 0.0104210151824
0.0125799998641 0.00665779118578 0.0150162183358
0.0125799998641 0.00821880300017 0.0129286282833
0.00781899970025 0.00255538358597 0.0189314781311
0.0106588393319 0.000901194291515 0.0175285693963
0.00960358102763 0.00563367995225 0.0214789994061
0.00964596873267 0.00782565614942 0.0214789994061
0.00798665090042 0.00403890733554 0.0214789994061
0.0122942453752 0.00585472092934 0.0208368111248
0.00977030645587 0.0101769857324 0.00613834463706
0.0105097290589 0.0118564444792 0.00754338457412
0.0125799998641 0.00689529059908 0.00694045878076
0.0125799998641 0.00880454494053 0.00583565478538
0.0103753616152 0.0107209186178 0.0214789994061
0.0121566702374 0.00954196251115 0.0214693068899
0.0122806367053 0.011247303511 0.019613979737
0.0100395440382 0.00209563727759 0.0195030431525
0.0112159058898 0.00392251123953 0.0206979683394
0.00803186020439 0.00341484812756 0.00704497782761
0.00981554840587 0.00450043970326 0.00579623142621
-0.0208146475409 -0.0162090007216 -0.0182320174209
-0.0249114623167 -0.0162090007216 -0.0161546484092
-0.0362447518805 -0.0162090007216 -0.0204907000575
-0.0335198873195 -0.0162090007216 -0.0196282745652
-0.0218258735694 -0.0162090007216 -0.0125278374183
-0.0271405269817 -0.0162090007216 -0.0155881452413
-0.0297328287152 -0.0162090007216 -0.0164397114273
-0.0314707540701 -0.0162090007216 -0.0179636682357
-0.0228020277141 -0.0162090007216 -0.0166351582377
-0.0278165203715 -0.0162090007216 -0.0184148326546
-0.0230032717934 -0.0162090007216 -0.0204621799587
-0.0245705541186 -0.0162090007216 -0.0185551422211
-0.0223048091143 -0.0162090007216 -0.0145771027353
-0.0362919121834 -0.0149769485867 -0.0114209996536
-0.0262624469506 -0.0141099276446 -0.0114209996536
-0.0283065520433 -0.0136453635199 -0.0114209996536
-0.0334905894717 -0.0145748954862 -0.0114209996536
-0.0229551200555 -0.0137559907744 -0.0114209996536
-0.0379203143069 -0.0123129999265 -0.0166946084616
-0.0394290566592 -0.0123129999265 -0.014382583508
-0.0256785078452 -0.0123129999265 -0.0122397085572
-0.0342180026247 -0.0123129999265 -0.0157299861264
-0.0403787986146 -0.0123129999265 -0.0170159157543
-0.0319341629382 -0.0123129999265 -0.0141052878076
-0.0275623131963 -0.0123129999265 -0.0133791229876
-0.0371210041945 -0.0123129999265 -0.0137302533429
-0.0343268809072 -0.0123129999265 -0.013315218481
-0.0362816992535 -0.0123129999265 -0.0189336365041
-0.0239842323152 -0.0123129999265 -0.0156970157123
-0.0259546106513 -0.0123129999265 -0.0184729421577
-0.0267729498347 -0.0123129999265 -0.0164849289063
-0.0239084433529 -0.0123129999265 -0.0191885360198
-0.031359513715 -0.0123129999265 -0.0168912363904
-0.0332225302007 -0.0123129999265 -0.0185788093488
-0.0294616406511 -0.0123129999265 -0.0180066176636
-0.021842591057 -0.0127619104333 -0.0158748785155
-0.0217664009293 -0.0128762232793 -0.0188812914513
-0.0220757577174 -0.0126284660553 -0.0128796736562
-0.0194530002773 -0.0143902361853 -0.0150494745068
-0.0362109758005 -0.0141709696164 -0.0213769990951
-0.0393488825773 -0.0150931807605 -0.0213769990951
-0.0284840358525 -0.0137874529292 -0.0213769990951
-0.0383127385487 -0.0162090007216 -0.0190912209501
-0.0307474443838 -0.0162090007216 -0.0142632811217
-0.038857817792 -0.0162090007216 -0.0158604667304
-0.0361895386582 -0.0162090007216 -0.0152533618455
-0.0363883871877 -0.0162090007216 -0.0174306738208
-0.0343338013835 -0.0162090007216 -0.0144268706831
-0.0256493380912 -0.0162090007216 -0.0134661494567
-0.0327026483026 -0.0162090007216 -0.0162831873151
-0.0391168283816 -0.0160045194202 -0.0128742794254
-0.0305171574066 -0.016089873438 -0.0122062033525
-0.0326646045035 -0.0161446311808 -0.0129802019847
-0.0346018142615 -0.0124458075456 -0.020323009915
-0.0266768038097 -0.0126074314197 -0.0206083556249
-0.0316154617121 -0.0125027108451 -0.0204184400315
-0.0397274000195 -0.012702750085 -0.0204934157996
-0.0210476561905 -0.0133457650298 -0.0209917269942
-0.024536060942 -0.0129701754356 -0.0210546057727
-0.0206764676801 -0.0157700904326 -0.0213769990951
-0.0299976775142 -0.0157743592213 -0.0213769990951
-0.0257601078565 -0.0154546174179 -0.0213769990951
-0.0340363085627 -0.0149406782881 -0.0213769990951
-0.0415299981833 -0.0132567381586 -0.0154633509601
-0.0194530002773 -0.014206034751 -0.0114148134435
-0.0392449719547 -0.0136244130753 -0.0114200003445
-0.0304216476567 -0.0132843358957 -0.0114200003445
-0.035494311837 -0.0124280916202 -0.0114200003445
-0.0415299981833 -0.0117066446664 -0.00874580319223
-0.0227867184984 -0.00976130792829 -0.00276300008409
-0.0383952967261 -0.00989301535392 -0.00276300008409
-0.0204526425204 -0.00974957360504 -0.00276300008409
-0.0337026565124 -0.0108172977012 -0.00276300008409
-0.0224794538613 -0.0139917816226 -0.00276300008409
-0.0204002201222 -0.0130444246489 -0.00276300008409
-0.0248592388145 -0.0138280577565 -0.00276300008409
-0.0253299961301 -0.0110881482855 -0.00276300008409
-0.0384364382234 -0.0158358153383 -0.0056417659366
-0.0406456543461 -0.0157923855251 -0.00509509277233
-0.0362368244208 -0.0158790563847 -0.00672048706837
-0.0332471856009 -0.0159378281157 -0.00433968115824
-0.0326853734246 -0.0159488724846 -0.00696175097796
-0.0380208924571 -0.0158439843332 -0.00872963338108
-0.0361142373354 -0.0158814662595 -0.00459865417744
-0.0410918394073 -0.0157836142085 -0.00897017263477
-0.0266306787629 -0.0160678985301 -0.00478807664655
-0.0312359201834 -0.0159773665206 -0.00498411179145
-0.0415299981833 -0.0139875882191 -0.00630202408165
-0.0405534256816 -0.013268051599 -0.00276300008409
-0.0320979263631 -0.0150997233232 -0.00276300008409
-0.0194530002773 -0.0105957521889 -0.00796125666539
-0.0235026118644 -0.009282999672 -0.00730618181951
-0.0265805891711 -0.009282999672 -0.00549558721987
-0.020443045527 -0.009282999672 -0.00563887541356
-0.0241062183116 -0.009282999672 -0.00497607489081
-0.0279225983068 -0.0159518731731 -0.0114200003445
-0.0224265522086 -0.0161505452342 -0.0097213709624
-0.0253988665898 -0.0160921140752 -0.00918553822073
-0.0351831726999 -0.0158997695675 -0.00927070173498
-0.0217391231835 -0.0161640590384 -0.00481518388981
-0.0295442174815 -0.0160106228108 -0.00687599238334
-0.0243700411799 -0.0161123392107 -0.0113307266284
-0.0259254842035 -0.0160817615776 -0.00677090099471
-0.0221446065652 -0.0161560878547 -0.00703328715915
-0.0291996608925 -0.0160173962668 -0.00989793344813
-0.0328458672448 -0.0159457174214 -0.00983250343794
-0.0194530002773 -0.012337557225 -0.00669357268412
-0.0194530002773 -0.0157965773832 -0.00720562559877
-0.0415299981833 -0.00979376287578 -0.00534905920024
-0.0396633153598 -0.009282999672 -0.00687159309361
-0.0375276397767 -0.009282999672 -0.00528936300664
-0.0343133898696 -0.0100957288392 -0.0100717780927
-0.0315274827271 -0.0105718988845 -0.0105215131808
-0.0266858923151 -0.0101342330418 -0.0102529906605
-0.0368921187608 -0.0104259465254 -0.0102953981827
-0.0390261945758 -0.0096824112017 -0.00963650511042
-0.0380671924285 -0.0119667782928 -0.0114200003445
-0.0331448547915 -0.0122213640942 -0.0114200003445
-0.0286467923523 -0.01116537026 -0.0108573293338
-0.0235369699094 -0.00979746269192 -0.0100284105341
-0.0212066746324 -0.0115798775626 -0.0108701460298
-0.0255013904913 -0.00928200036287 -0.00837783069021
-0.0373270147522 -0.00928200036287 -0.00735406621822
-0.0353498324922 -0.00928200036287 -0.00811754495047
-0.0349491693689 -0.00928200036287 -0.00494565016482
-0.0283931850783 -0.00928200036287 -0.00726634226862
-0.0334408644513 -0.00928200036287 -0.00695973632142
-0.0310961142168 -0.00928200036287 -0.00622486269757
-0.0415280014277 -0.00638528948552 -0.00474201728429
-0.039612426707 -0.00217130920023 -0.00276300008409
-0.0347165533786 -0.00466133213401 -0.00276300008409
-0.0403549788326 -0.00884849097243 -0.00276300008409
-0.0211849994957 -0.00744633320953 -0.0071261137032
-0.0307330943647 -0.00790585692542 -0.00276300008409
-0.0244868145878 -0.00553327054196 -0.00276300008409
-0.0266732231405 -0.00409251483949 -0.00276300008409
-0.0260861464245 -0.00910920368156 -0.00276300008409
-0.0307127797646 -0.00540129357262 -0.00276300008409
-0.0334134790382 -0.00755863213387 -0.00276300008409
-0.0286891240385 -0.00928200036287 -0.00475105578
-0.032505804099 -0.00928200036287 -0.00368284603652
-0.0211849994957 -0.00327794333462 -0.00954395546554
-0.0211849994957 -0.00512487182093 -0.00787071197041
-0.0229171613397 -0.00192499998957 -0.00754853004872
-0.0298681837742 -0.00192499998957 -0.00452023588527
-0.0274699995669 -0.00192499998957 -0.00543090344441
-0.029166532318 -0.00192499998957 -0.0068747653253
-0.0346660597043 -0.00192499998957 -0.00312554987888
-0.0255986452921 -0.00192499998957 -0.00775110344349
-0.0253736600446 -0.00192499998957 -0.00484007574876
-0.0372107175378 -0.00464805002338 -0.0100436157685
-0.0370691521897 -0.00801999086215 -0.00973600471854
-0.0396770721515 -0.00749518571547 -0.00957418517398
-0.0325189440964 -0.00903430677221 -0.00937884711885
-0.0301277508076 -0.00899561619851 -0.0093981923953
-0.0415280014277 -0.00473834695724 -0.00708405447014
-0.0339646637432 -0.00192499998957 -0.0056715240398
-0.038646958223 -0.00192499998957 -0.00501711850278
-0.038574726296 -0.00192499998957 -0.00705062235852
-0.0355920121961 -0.00192499998957 -0.00760115285827
-0.0235616731246 -0.00266162374806 -0.00998394650295
-0.0287951399307 -0.00367769289704 -0.0101209999993
-0.0264076508196 -0.00259083594613 -0.0101209999993
-0.0317395878442 -0.00269993861837 -0.0101209999993
-0.0348366594213 -0.00468213414821 -0.0101209999993
-0.0276259555389 -0.00829698179886 -0.00973799240155
-0.0259142818469 -0.00528585092495 -0.0100245577941
-0.024390459668 -0.00742704075864 -0.00971028240074
-0.0221345412785 -0.00733803000899 -0.0094982056388
-0.0409048572257 -0.00591306519455 -0.00917944536578
-0.0337900878523 -0.00192499998957 -0.0100234325489
-0.039748158081 -0.00192499998957 -0.00941422311468
-0.0372872655781 -0.00192499998957 -0.00957057337045
-0.0478043004143 0.00558763203384 -0.01272707201
-0.0475912755622 -0.000366039284892 -0.0110472699428
-0.0478233564288 0.00937578088081 -0.0129826299317
-0.047954287548 0.0114756548109 -0.0139646488235
-0.0457539020083 0.0114959999919 -0.0114742527346
-0.0478194305404 0.000244436938391 -0.0214431374098
-0.046031297587 -0.00192299997434 -0.0212321957349
-0.0459755766177 -0.00192299997434 -0.014546036866
-0.0458852307739 0.00108813684024 -0.021430924685
-0.0447556369719 0.00347765529925 -0.0167195319097
-0.0451533938444 0.00250837367513 -0.019953452859
-0.0449658118446 0.000976542578347 -0.0152634206347
-0.0449864289823 -0.00130634856701 -0.0118783317381
-0.0453932209523 0.000332817928484 -0.019371451917
-0.0453490695242 -0.000882152285395 -0.0169079512563
-0.0447872184464 0.00494613740015 -0.0194354935705
-0.0480239987373 0.00739906297533 -0.0197261540142
-0.0480239987373 0.00208062178657 -0.019456446954
-0.0480239987373 0.0107775257028 -0.0165657884888
-0.0480239987373 0.00449901824346 -0.0200672027711
-0.0480239987373 0.010081791523 -0.0207510621499
-0.0480239987373 0.0081938221608 -0.0178047121049
-0.0460788387986 0.00963207627565 -0.0214560650211
-0.0462521502528 0.0114959999919 -0.017653993754
-0.0456956567184 0.00620764146004 -0.0213757242663
-0.046033700387 0.00390497834566 -0.0215266660066
-0.0478431297384 0.000822715110844 -0.0128444323345
-0.047870048756 0.00341798272186 -0.0131161745191
-0.0480239987373 -0.00181479472658 -0.0181027231325
-0.0480239987373 0.00586701321483 -0.0165415221269
-0.0480239987373 0.00351263586207 -0.0171520322503
-0.0480239987373 0.00787188051703 -0.0144135826716
-0.0480239987373 0.00234195661001 -0.0149722591663
-0.0480239987373 -0.000999718827195 -0.0161871232715
-0.0480239987373 0.00150095076173 -0.0172884497395
-0.0446548378406 0.00957123303517 -0.0176386147776
-0.0442826412967 0.00935302576531 -0.0110532123818
-0.0448468629006 0.000661432949255 -0.0130972254264
-0.044488908274 0.00595456114915 -0.016285634483
-0.0445202740198 0.00465710370559 -0.0143772039358
-0.0443961771495 0.00475903610712 -0.0117766031534
-0.044263847676 0.00708107373856 -0.0111075583269
-0.0441818916183 0.00801662446304 -0.0130551619341
-0.0442971840621 0.00814974060155 -0.0154573238131
-0.0445020394404 0.00841566207135 -0.0194920218167
-0.045563153373 -0.000144891548443 -0.00317493556305
-0.0419639982283 0.00933326071542 -0.00527750546281
-0.0419639982283 0.00447439085784 -0.00470723357554
-0.0439280730582 -0.00192299997434 -0.00733784710922
-0.0432007844684 0.00447251795414 -0.00276300008409
-0.0443736130249 -0.00192299997434 -0.00529961794116
-0.0419639982283 0.00462951776793 -0.00830128565137
-0.0419639982283 0.0032456372394 -0.00655933443905
-0.0419639982283 -0.000444297792413 -0.00766084940974
-0.0419639982283 0.00723386803537 -0.00781404645889
-0.0471579991281 0.00199683040922 -0.0108549419296
-0.0471579991281 0.00614658909605 -0.0101300942417
-0.0468892917556 0.0078720643493 -0.00798952603257
-0.0469043178695 0.0106176940321 -0.00856742492398
-0.0471500479702 0.00882703764453 -0.0104849979787
-0.0471446986769 0.00378472880039 -0.00962344724843
-0.0469332769407 0.00555205064348 -0.00801017319201
-0.0449665406432 0.000606027591643 -0.0109869996086
-0.0430427429599 0.00519635672883 -0.010231628563
-0.043708210573 0.00283816599763 -0.0104952518199
-0.0419639982283 0.00182358948636 -0.00860259583063
-0.0436236559913 -0.0011449325284 -0.00975855353002
-0.0443806454958 0.0104373443879 -0.0028007442197
-0.0451541919483 0.00393511571951 -0.00276300008409
-0.0460375674681 0.0111066863663 -0.00493343159213
-0.046399523496 0.00882895676064 -0.00595865390446
-0.0461168851816 0.00576660423329 -0.00495674298118
-0.0460863792783 0.00334551075711 -0.00480211316262
-0.0457779915505 0.00778793076391 -0.00388202314543
-0.0464669734751 1.03731031409e-05 -0.00606354226654
-0.0467682610744 0.00313549996057 -0.00726637927522
-0.0368138451951 0.00645805497859 -0.010553999804
-0.0419620014727 0.00988892798944 -0.00808117981125
-0.0419620014727 0.00688170860499 -0.00482200360515
-0.0408055569901 0.00343608976877 -0.009975295251
-0.0382248247841 0.0114959999919 -0.00701721655266
-0.0414787165294 0.0114959999919 -0.00339911977883
-0.0409657283985 0.0114959999919 -0.00666851106873
-0.0394074859424 0.0114959999919 -0.00525677469753
-0.031142000109 0.00946477731868 -0.00534514890478
-0.031142000109 0.0100962885818 -0.00736402478862
-0.031142000109 0.00494189640059 -0.00582448014727
-0.0344631349982 0.0114959999919 -0.00447424963172
-0.0358516304251 0.0103314150661 -0.00276300008409
-0.0334314098493 0.00953691354094 -0.00276300008409
-0.0328682229213 0.0046143098887 -0.00276300008409
-0.0410550755605 -0.00192299997434 -0.00656675665978
-0.0365539558289 0.00303525908765 -0.00276300008409
-0.0382599125408 0.00497301288871 -0.00276300008409
-0.0326636716355 -9.81937955831e-05 -0.00276300008409
-0.0405833845659 -1.30555442759e-05 -0.00276300008409
-0.0374251310165 -0.000646058470458 -0.00276300008409
-0.0381582358887 0.00136094609598 -0.00276300008409
-0.0401424216484 0.00307141174363 -0.00276300008409
-0.0419620014727 0.000398337034731 -0.00524620870466
-0.0321989848861 -0.00192299997434 -0.00394857518739
-0.031142000109 0.00707482457271 -0.008668031513
-0.031142000109 0.0016366993257 -0.00831162126087
-0.0329947299215 -0.00192299997434 -0.0078492380329
-0.0373030195083 -2.67315457874e-05 -0.010553999804
-0.0343019375341 0.00177237368183 -0.010553999804
-0.0321769239578 0.00375841404623 -0.010553999804
-0.0346461077948 0.0103735547529 -0.0101985953371
-0.0324225022076 0.00712171233707 -0.010488532825
-0.0355002791853 0.00425418533448 -0.010553999804
-0.036621657434 0.00885941894895 -0.0103799705558
-0.0388594103673 0.00920960619413 -0.0101510441747
-0.0400754811189 0.0069834075944 -0.0102234117295
-0.0277230888509 -0.00192299997434 -0.0087996031098
-0.0225540344717 -0.00192299997434 -0.00459212430908
-0.0253447821603 0.0108791592905 -0.00276300008409
-0.0283247624772 0.00814434180168 -0.00276300008409
-0.0211532352478 0.00235415098322 -0.00276300008409
-0.0273255937802 0.0114959999919 -0.00348584666954
-0.0274926019437 0.0114959999919 -0.00576761383839
-0.0212344196387 0.0114959999919 -0.00285823945886
-0.0302004165738 0.0114959999919 -0.00509891264973
-0.0311399996281 0.00255353377899 -0.00627725745057
-0.0311399996281 0.00498791073622 -0.00836167905805
-0.0311399996281 0.00735900891072 -0.0065605031042
-0.0207519996911 0.00898692590772 -0.00603529709793
-0.0207519996911 0.00529857948909 -0.00960323842489
-0.0207519996911 -0.000905811949341 -0.00916405609225
-0.0207519996911 0.00200790809651 -0.00551228914602
-0.0264458300554 0.00369853233503 -0.00276300008409
-0.0228828402223 0.000323104571854 -0.00276300008409
-0.0261455524676 -0.00159240527475 -0.00276300008409
-0.0258125015247 0.0011384517074 -0.00276300008409
-0.0284542532639 0.00576302879002 -0.00276300008409
-0.03051194794 0.00757540570376 -0.00276300008409
-0.0307493933317 0.00543146644735 -0.00276300008409
-0.0289475705154 0.00348566638727 -0.00276300008409
-0.0311399996281 0.000223011061369 -0.00446688742116
-0.0311399996281 0.003425433581 -0.00385680895397
-0.0311399996281 0.0103183522307 -0.00308802267803
-0.0236317903986 0.0114959999919 -0.00499841366988
-0.02178060298 0.0114959999919 -0.0096393618421
-0.025466061195 0.0114959999919 -0.00709538975818
-0.0218925427968 0.0114959999919 -0.0065550513814
-0.0243676718014 0.00728695187542 -0.0104676862968
-0.0292787310371 0.000365935060601 -0.0100969012206
-0.0299672659344 0.0023470629759 -0.0103990733164
-0.0307053402088 -0.000753072496075 -0.00811070772336
-0.0311399996281 0.00927406216717 -0.00990777103622
-0.0238497611328 0.00459022073023 -0.0105167905128
-0.0232777346835 -0.000607622508485 -0.0104762579716
-0.0220017026872 0.00281907593206 -0.0104332454247
-0.0233905844809 0.0097523591678 -0.0102832242662
-0.0274711980629 0.00978082148931 -0.0103948128645
0.00164918341244 -0.00700852390178 0.00467428414547
-0.000154815535492 -0.00675985437438 0.000688658533004
-0.00112505583832 -0.0050126972187 -0.000598000013269
-0.00332569077657 -0.00341923846936 -0.000598000013269
-0.00107360519223 -0.00555817436426 0.0063280002214
0.0011278137895 -0.00510028067573 0.0063280002214
-0.00259630880223 -0.00127173978623 0.00448822734827
0.00156420915887 -0.00371840491811 0.002555337833
-0.00465396932121 -6.16966396585e-05 0.00465453240678
2.31580803316e-05 -0.00281216296084 0.00453804465032
-0.00317952658626 -0.00110295595132 -0.000292151312052
-0.00406514025552 -0.000477478865172 0.00246373882103
0.0018958731745 -0.00391546619186 0.0003984551623
-0.00139632058465 -0.0020015117526 0.0018635533203
-0.0012807289935 -0.00250113567922 -0.000459878941958
-0.00362435425147 -0.00607796990266 0.000171843585942
-0.00245038248935 -0.00674311180794 0.0044373252175
-0.00299543477217 -0.0035918493571 0.0063280002214
-0.00724269661686 -0.00129299556961 0.00107981177602
-0.00616440957059 -0.00308098082734 0.000277732284903
-0.0058366631668 -0.00428433697013 0.00352019863298
-0.00447735530878 -0.00564364470629 0.00502155832922
-0.00481521462326 -0.0053057854221 0.00213303502441
-0.00699737068515 -0.00127932082532 0.00386159507194
-0.00211767349764 -0.00667529339771 0.00199097594582
0.00208285361686 -0.00636233639263 -0.000258984595385
-0.00506455401217 0.000241000001552 0.0162826258798
7.47863128514e-07 0.000241000001552 0.0154328630133
-0.00336931630301 0.000241000001552 0.0140812319671
0.00218999991193 -0.00220405197172 0.0168001291399
0.00218999991193 -0.0102985235138 0.0164568846504
0.00218999991193 -0.00428066586025 0.0150609237981
0.00218999991193 -0.00879118207714 0.0142717556491
0.00218999991193 -0.00943148633645 0.00968886823348
7.31659543948e-06 -0.0118800001219 0.00913528376705
0.000363145271124 -0.0118800001219 0.0146541261058
-0.000103285093529 -0.0118800001219 0.0119219513653
-0.005134071158 -0.0118800001219 0.0144613254858
-0.00305673150712 -0.0118800001219 0.012717067804
-0.0107960002497 -0.00828611992014 0.0152962078362
-0.0107960002497 -0.00593316246128 0.0172995107926
-0.0107960002497 -0.0101093678867 0.016846024062
-0.0107960002497 -0.00576797330748 0.0143810106231
-0.00800094552772 -0.0118800001219 0.0123058811984
-0.00853329242928 -0.0118800001219 0.0149911598412
-0.00810569069733 0.000241000001552 0.0116549256046
-0.00417569698673 0.000241000001552 0.0110605193052
-0.00989577725693 0.000241000001552 0.0132961437324
-0.00167195319023 0.000241000001552 0.0108138787781
-0.0107960002497 -0.00273063697202 0.0132279415652
-0.0107960002497 -0.00629669089793 0.0111943607546
-0.0100142631671 0.000241000001552 0.00960039933106
-0.00541503509909 0.000241000001552 0.00869803007115
0.000177862646914 0.000241000001552 0.00845817989715
-0.000570335498095 -0.00186646333199 0.00693547236348
0.00184783926469 -0.00225223183615 0.00734062913091
0.00032991798322 -0.00845704773709 0.00653489923434
0.000844613322235 -0.0117987052371 0.017203014441
-0.00359195049184 -0.0100299811662 0.017548215344
-0.00095275849535 -0.00969025787029 0.0174978364409
-0.00697485628933 -0.00883729086171 0.0175829995424
-0.00466787697891 -0.00612638089466 0.0175829995424
-0.00781637551214 -0.00653817426272 0.0175829995424
-0.00265019440228 -0.00695028928802 0.0175829995424
-0.0035036004363 -0.00139093076898 0.00657875418836
-0.00901451050241 -0.00164538555097 0.00832592778404
-0.00865953968037 -0.00411092780174 0.00766804105813
-0.00672475516511 -0.00131529475415 0.00693227141513
-0.00338493465757 -0.00325236592045 0.0174840118347
-0.000295910918263 -0.00162765070009 0.017272758306
0.000136231333649 -0.00537576210219 0.0174923851559
-0.00468578968266 -0.00162055075736 0.0173854777742
-0.00759268059816 -0.00136802155394 0.0173927119252
0.000855256860261 -0.0113906620728 0.0067243584311
-0.00196071983813 -0.00820401003325 0.0064792314728
-0.00875274419586 -0.0115203116002 0.00793171147347
-0.0107491918187 -0.0100334132805 0.00847272339228
-0.00332267679257 -0.00979428427751 0.00662851215968
-0.00535653180919 -0.00740807879851 0.00664663571926
-0.00618238813327 -0.0112133392544 0.00727775838041
-0.00776439755034 -0.00902902029156 0.00735932488389
-0.00774114874752 -0.00654301294062 0.00711735225621
-0.00647817690302 -0.00377855549234 0.00653135308996
-0.0133929997683 0.00803724056349 0.00710703161879
-0.0124567491663 0.0093032983364 0.00216839940565
-0.0125896466219 0.0102095324983 0.00606315851467
-0.0118602779473 0.00818378588779 0.00534723107211
-0.0133675632422 0.00828479788908 0.0196257732266
-0.00844982406024 0.0114959999919 0.0103362955177
-0.0118504374535 0.0114959999919 0.0138095627576
-0.0109224428526 0.0114959999919 0.0158963470089
-0.00954534839132 0.0114959999919 0.0129654947013
-0.0109280316308 0.00936498154233 0.00849200040102
-0.011322271136 0.00709853227876 0.00849200040102
-0.00845898209104 0.0091437012853 0.00849200040102
-0.00932608552348 0.00517205854234 0.00849200040102
-0.00776500022039 0.00385165369568 0.0143087191803
-0.00776500022039 0.00698351184164 0.00914770300953
-0.00776500022039 0.00733903413698 0.0112208891511
-0.009468118616 0.0114355063062 0.0209588269025
-0.010076333444 0.00936634735048 0.0213108990637
-0.0106381348196 0.0114959999919 0.0185036852854
-0.00776500022039 0.00984510525168 0.0122725926328
-0.0123036073884 0.000241999994614 0.010333147074
-0.0133929997683 0.000402600592912 0.0158544038457
-0.0133929997683 0.00327902660274 0.0123556090014
-0.0133929997683 0.00666170650141 0.00944440703065
-0.0133929997683 0.00585952035351 0.0160973773473
-0.0133929997683 0.00447249557842 0.0143974306782
-0.0133929997683 0.00625462426059 0.0184663487941
-0.0111294253617 0.000241999994614 0.0152139009738
-0.00776500022039 0.000390428929152 0.0150216751551
-0.00953800942637 0.006878337976 0.0214779991657
-0.0128668650218 0.00485730832619 0.0201538848956
-0.0130137368894 0.0114959999919 0.0177451769072
-0.0133929997683 0.0104372978696 0.0152211773133
-0.0105545160612 0.00248736968932 0.00877188918207
-0.0133581930651 0.00206517602796 0.0100731498282
-0.0121786836396 0.00452574488241 0.00881154432504
-0.00931761949849 0.000373622830406 0.0173360318745
-0.0103975329354 0.00172531250439 0.019267017073
-0.00806901676282 0.00261538483693 0.0202420044245
-0.0126085632127 0.00120700862805 0.0182369063529
-0.0105660807816 0.00397887203136 0.0212618649468
-0.0121678480336 0.00298483062422 0.0197530064448
-0.0119987965609 0.00785544136451 0.0214779991657
-0.0128928587464 0.0107341400865 0.0196603446407
0.00219099991955 0.00711392689633 0.0131114938653
0.00219099991955 0.0106966612279 0.0113809755103
0.00219099991955 0.00500461431979 0.0147452540645
0.00219099991955 0.0087914338226 0.00963976629247
0.00219099991955 0.00929415077413 0.0134165713862
0.00219099991955 0.0075727004728 0.0156280057841
-0.000179298005268 0.0114959999919 0.0099666914738
0.00219099991955 0.00381863134819 0.0123788339233
0.00219099991955 0.00169332618979 0.0146316956447
0.00219099991955 0.0053046336045 0.0103709283576
-0.00227128327809 0.000241999994614 0.00821598599146
0.000233007960061 0.000241999994614 0.0122606364412
-0.00588080215092 0.000241999994614 0.013327464656
-0.0044767744537 0.00134473416245 0.0184227330833
-0.00139162190479 0.000669461730984 0.0174204839598
-0.00720423837737 0.00101965120131 0.0181238789073
-0.00776500022039 0.00324095464581 0.0178853181491
-0.00776500022039 0.00653745370785 0.014117758979
-0.00776500022039 0.00828885485122 0.0168234280291
-0.00776500022039 0.00747489345325 0.0198792183442
-0.00776500022039 0.00498466057784 0.0194952722625
-0.00776500022039 0.00954242399457 0.0190148610409
-0.00776500022039 0.00997572360965 0.0146588979263
-0.00776500022039 0.00586218893062 0.017505783636
-0.00267678048387 0.0113243014284 0.0197616122202
-0.00431046454409 0.0114959999919 0.0165487833706
-0.00103000529406 0.0114959999919 0.0167171726681
0.00156697097489 0.0114959999919 0.0171413488514
-0.00759001113205 0.0114959999919 0.01667663513
-0.00513826463145 0.0114959999919 0.0114467660566
-0.00633232806959 0.0114959999919 0.0138489139896
-0.00252989658845 0.00885049593266 0.0204265736972
-0.000659558785029 0.0101590234444 0.0191136525264
-0.00240307977398 0.00230401166438 0.00589699996635
-0.00152590923003 0.00491036748275 0.00589699996635
0.000194363483628 0.00617278045826 0.00589699996635
0.00219099991955 0.00579765738335 0.00697698628176
-0.00546016085136 0.00265952225256 0.00589699996635
-0.00385282251934 0.00536591017959 0.00589699996635
-0.00731132590846 0.00468480692833 0.00713507059371
-0.00776500022039 0.00101772424336 0.00884590330591
-0.00776500022039 0.00229407764041 0.0125519447567
-0.00776500022039 0.00527436146958 0.0114546813811
-0.00776500022039 0.00348124591524 0.00959888872909
-0.00591246189063 0.00344943374219 0.0211331349886
-0.00636571817673 0.0109620424186 0.0212324996285
-0.00494263949369 0.00740592711258 0.0214789994061
-0.00458056125027 0.00973120612034 0.0214789994061
-0.00136597548741 0.0025033500768 0.0190466583583
0.000620166135945 0.00162751635089 0.0179173723379
-0.00292400931825 0.00399492782373 0.0202916105123
-0.00257833041826 0.00664706931981 0.0205573506783
4.86110972715e-05 0.00540047325827 0.0186800348745
0.00108427929822 0.00757184798256 0.017939905614
0.00195829666534 0.00931951816718 0.017315298402
-0.00691921442303 0.00777073446245 0.00724205868384
-0.00490318947848 0.00761458637421 0.00624725446309
-0.00488758417518 0.0095936565716 0.00690123486648
-0.00265484311033 0.00904678822901 0.00599281796374
-0.0001364390933 0.0030369811004 0.00589699996635
0.0321888341253 -0.00403368552991 -0.0109869996086
0.030876548316 -0.00278900004923 -0.0124793176642
0.0319969613762 -0.00278900004923 -0.0146044394022
0.0333572129226 -0.00278900004923 -0.0126175429159
0.035225081487 -0.00278900004923 -0.0140015086014
0.0275702624146 -0.00278900004923 -0.0123148012512
0.0260759938571 -0.00379349960933 -0.0192227949777
0.0283022882873 -0.00361658066196 -0.0195646566987
0.0283869524165 -0.00278900004923 -0.0154893772302
0.0310527630987 -0.00278900004923 -0.0192731126753
0.0328472220222 -0.00278900004923 -0.0173508001988
0.0303428271478 -0.00278900004923 -0.0171106759523
0.0321092302047 -0.00742937684065 -0.0132969978562
0.0375111018825 -0.00431388123827 -0.0112299069234
0.0350855642158 -0.00517530987064 -0.0109869996086
0.035177466254 -0.0057320706896 -0.0193060888671
0.033141922622 -0.00413007188902 -0.0196439996362
0.0316013194301 -0.00597004054679 -0.0196163087937
0.0374221246731 -0.00474251797466 -0.0163368852518
0.0332821645969 -0.007115099256 -0.0191563540731
0.0315493266609 -0.0070599131897 -0.0177488953839
0.0305335904987 -0.00715102772677 -0.0154594398025
0.0296792549475 -0.00679715592409 -0.0186402224571
0.0283247299018 -0.00657480827886 -0.0159287004179
0.0274861272274 -0.00576074778977 -0.0180261129019
0.0292260300392 -0.00701223838154 -0.0133348955438
0.0249354318262 -0.00299147494694 -0.0154122232168
0.0271669993641 -0.00598586523111 -0.013678949205
0.0348581273636 -0.00682777776824 -0.0127468015078
0.0355393669666 -0.00642253179538 -0.0165816978925
0.0371647213673 -0.00504134942334 -0.0139903173941
0.0385499606909 -0.0116443419594 -0.00913718852384
0.0367209946963 -0.00962345841909 -0.00997833767146
0.0332188124699 -0.00835847827923 -0.00276300008409
0.0386836561177 -0.00708187333353 -0.00276300008409
0.0379105140105 -0.0100918978738 -0.00276300008409
0.0277205669361 -0.00571139098786 -0.00276300008409
0.0357205874439 -0.00780637812385 -0.00276300008409
0.0377458911976 -0.00438398019411 -0.00276300008409
0.0233034225558 -0.00990747618563 -0.00276300008409
0.0283402125977 -0.00927470781067 -0.00276300008409
0.0238097810722 -0.00414761749048 -0.00276300008409
0.0242477382735 -0.00667011254592 -0.00276300008409
0.0338309734739 -0.0108977030994 -0.00276300008409
0.0288045093509 -0.0117714226465 -0.00276300008409
0.037120278192 -0.00278900004923 -0.00930870023956
0.0314493096218 -0.00278900004923 -0.00497342373304
0.0398500002921 -0.0102117179409 -0.00461833882234
0.0366857116538 -0.0118800001219 -0.00621525742798
0.0378225302127 -0.0118800001219 -0.00446693026057
0.0216710008681 -0.00950373174849 -0.00554229981381
0.0237533784128 -0.0118800001219 -0.00797983162396
0.0275979767613 -0.0118800001219 -0.00630841004831
0.0260192429982 -0.0118800001219 -0.00844127201242
0.03503949231 -0.0118800001219 -0.00889040141089
0.0292599634169 -0.00447308715104 -0.0109869996086
0.0285830890332 -0.00665173246069 -0.0109869996086
0.0264650444338 -0.0049484138356 -0.0109869996086
0.0298750122077 -0.00278900004923 -0.00783146945587
0.0227684142321 -0.00278900004923 -0.00475257782392
0.0251901157138 -0.00278900004923 -0.00631500038895
0.0216710008681 -0.00942366415747 -0.007982331966
0.0216710008681 -0.00477655955591 -0.00583104288472
0.0328009458216 -0.0118800001219 -0.00917543316195
0.0255607335843 -0.00751561036731 -0.0108293518831
0.0223052677042 -0.0115430350399 -0.00991976283348
0.0237010308667 -0.00499082637419 -0.010801383408
0.0229135193066 -0.00894653406618 -0.0102875033606
0.0328113986199 -0.00640574070173 -0.0109869996086
0.0292921933779 -0.00921266849757 -0.0108144258577
0.0268941841333 -0.00966490871576 -0.0107592181001
0.0308963921022 -0.00778299891339 -0.0109468940042
0.0395282359963 -0.00278900004923 -0.00807186855093
0.0398500002921 -0.00459817714036 -0.00612977315704
0.0398500002921 -0.00606394228771 -0.00809486534481
0.0390398782766 -0.0043292338797 -0.00952079807279
0.0323391369108 -0.00932363032862 -0.0106206888037
0.0345248013414 -0.010267216953 -0.0101981846798
0.0278651940957 -0.0117605951138 -0.0103084241835
0.0305400997748 -0.0114860744548 -0.0101764876337
0.038543595537 -0.00643684629242 -0.0102637630171
0.0478592977762 -0.0118110774521 -0.0209429041657
0.0459085305121 -0.00776163182668 -0.0105560002849
0.0465900476432 -0.0118800001219 -0.0167481604863
0.0450490588088 -0.00278900004923 -0.0134861643817
0.0456895921851 -0.00278900004923 -0.0185677965237
0.0473567235657 -0.00631588291559 -0.011436004114
0.0472253002497 -0.0102624729756 -0.0106477641354
0.0463033235693 -0.00409660642438 -0.0105560002849
0.0476186307808 -0.0108659964688 -0.0137266772865
0.0479661253475 -0.00981126197618 -0.0164046749028
0.0475892097469 -0.00802946896244 -0.0132215563007
0.0480760000646 -0.00954150370336 -0.0200017153054
0.0480010662348 -0.00618854290498 -0.0206590409808
0.0462440018094 -0.00846575589074 -0.0213760007173
0.0460386321902 -0.00341063776225 -0.0213760007173
0.0452199964805 -0.00575443299233 -0.0208475189378
0.0447017532714 -0.0058182199895 -0.0179483002482
0.0445765379652 -0.00771263523782 -0.0197116777355
0.0445361885139 -0.00534096331607 -0.0146474083636
0.0450266258435 -0.010080108908 -0.0203263613197
0.0443727272452 -0.00877423812828 -0.0168569932804
0.0445424257513 -0.011024816305 -0.0156612746771
0.0443547515362 -0.0101910019109 -0.0130900927989
0.0443900288283 -0.00600039681727 -0.0111828581207
0.0442917759515 -0.00702913460558 -0.0131672677381
0.0476917705974 -0.00356099717663 -0.0136283522546
0.0479257400962 -0.00573446448446 -0.0158356691077
0.0480760000646 -0.00794301260066 -0.018274146183
0.0480760000646 -0.00407473275696 -0.0176637159773
0.0480760000646 -0.00327837015507 -0.0198531727946
0.0418640597603 -0.00278900004923 -0.00770454296695
0.0434412251916 -0.00278900004923 -0.00526778534926
0.0451155452739 -0.00278900004923 -0.00919568257609
0.0432508960378 -0.0118800001219 -0.00497888831401
0.039852000773 -0.00624008196267 -0.00462667395995
0.0423136399838 -0.0041460815161 -0.00276300008409
0.0406328421953 -0.0118800001219 -0.00896765414147
0.0402205384781 -0.0118800001219 -0.00631400854783
0.039852000773 -0.0097967524047 -0.0069309346471
0.0452505774133 -0.0118800001219 -0.00952160596905
0.0445344505697 -0.00988240218571 -0.010553999804
0.0439199474299 -0.00604020921551 -0.00276300008409
0.043474337037 -0.0113137893691 -0.00276300008409
0.0452294821465 -0.00777707246579 -0.0031312355093
0.0413023000848 -0.00798185486882 -0.00950227203199
0.0424666563963 -0.00572959803105 -0.00981023955909
0.0465452100295 -0.00629650257697 -0.00772892864691
0.0467001977563 -0.00902611169584 -0.00821821388725
0.045990201784 -0.00861799689196 -0.00550649489567
0.0455703233018 -0.00536921421615 -0.00396823051664
0.0457784218524 -0.0114502424879 -0.00473061916311
0.0464833144985 -0.0114572360069 -0.00731305978452
0.0216131739143 0.00206960496062 -0.0107244807272
0.0208263297389 -0.0021792259335 -0.0103535336012
0.0406996386224 0.00792025302652 -0.00276300008409
0.0304784080609 0.00770549776192 -0.00276300008409
0.0264524968448 0.0101867875889 -0.00276300008409
0.0381195931967 0.00977723462111 -0.00276300008409
0.0349812043969 0.00488618747494 -0.00276300008409
0.0404610844791 0.0053476330354 -0.00276300008409
0.0334664527671 0.00303215514872 -0.00276300008409
0.03088344078 0.00435333613468 -0.00276300008409
0.0288726805198 0.00584878039957 -0.00276300008409
0.0424490012228 0.00941368408168 -0.0029174620835
0.0424490012228 0.00478246974949 -0.004675648365
0.0424490012228 0.00630725831205 -0.00277454422523
0.0424490012228 0.00682434185372 -0.00620140867502
0.0424490012228 0.00870108068145 -0.00716887387565
0.0300690740223 0.00213511935956 -0.00276300008409
0.0227787879152 0.00651559004152 -0.00276300008409
0.0281248289114 -0.000605254101736 -0.00276300008409
0.0258510618987 -0.00122813368691 -0.00276300008409
0.0311110492995 -0.00274825147427 -0.00276300008409
0.0215833199466 0.00895521819638 -0.00276300008409
0.0303573636304 -0.000818277585884 -0.00276300008409
0.026622059349 0.00528637863645 -0.00276300008409
0.0392841644013 -0.00184156838457 -0.00276300008409
0.0346100614145 -0.00278800004162 -0.0051233640138
0.0355951553003 -0.00278800004162 -0.00782146237332
0.0293257093957 -0.00278800004162 -0.00463202060932
0.0376433300295 -0.00278800004162 -0.00649457825347
0.0392520275601 -0.00278800004162 -0.00476769282524
0.0252577987213 -0.00278800004162 -0.00418506518149
0.033506040458 -0.00278800004162 -0.00734705712203
0.0294888180718 0.0110630001873 -0.00533917618627
0.0232021605092 0.0110630001873 -0.00647520502006
0.0261290785282 0.0110630001873 -0.00653506019805
0.0220136858097 0.0110630001873 -0.00823926172385
0.0338988843188 0.0110630001873 -0.00419850020442
0.019938999787 0.00599962478863 -0.004958569189
0.019938999787 0.0103168981281 -0.00637914377982
0.019938999787 0.00224299236083 -0.00712827452514
0.019938999787 0.00917150692539 -0.00871596849229
0.019938999787 0.00467888988293 -0.00881285118062
0.019938999787 0.00712342303438 -0.00797379116051
0.0277052329766 -0.00278800004162 -0.00694947994195
0.0232678225726 -0.00278800004162 -0.00744868897819
0.03439942026 -0.00278800004162 -0.00972089037898
0.0266158864964 -0.00278800004162 -0.00949296307712
0.0303488492818 0.00332993373784 -0.0109869996086
0.033145665029 0.00164388969383 -0.0109869996086
0.0253296207739 0.002146126507 -0.0109869996086
0.0319895004702 -0.000724513377095 -0.0109869996086
0.035583471765 0.00250986273348 -0.0109869996086
0.0424490012228 0.000146030207525 -0.00570473173891
0.0412290851817 -0.00278800004162 -0.00554806635341
0.0221938631665 0.00825689364259 -0.0106522618685
0.0250964635047 0.00856462628836 -0.0107522582679
0.0239874966454 0.00417879216034 -0.0109205074164
0.0269016114984 0.00746458115311 -0.010876912408
0.0314674431141 0.0110630001873 -0.00846891528943
0.0293133236398 0.0110630001873 -0.00749453895728
0.0360959733291 0.0110630001873 -0.00608110648003
0.0296068383564 -0.000879250059132 -0.0109869996086
0.0236196930175 -0.000558833974869 -0.0109869996086
0.0232688061301 -0.00278800004162 -0.0107808281514
0.0213804702241 0.0051382854911 -0.010755316823
0.0398696320918 0.00928941081663 -0.00998005212161
0.0285393747934 0.00986127541375 -0.0107251887185
0.0314264589227 0.00985664151156 -0.0108998548544
0.0228608844441 0.0102317996448 -0.0102924817091
0.0267446816755 0.0110630001873 -0.009653576582
0.0349670139439 0.00479911283252 -0.0109869996086
0.0369242319328 0.000742965525014 -0.0109869996086
0.0405866371879 0.00594330145137 -0.010307787373
0.0340355243766 0.00896522488935 -0.0108734572989
0.0366383260915 0.00783065958063 -0.0106540491416
0.037780384965 0.00568669790058 -0.0107761018653
0.0404248576713 0.0110630001873 -0.00594907577192
0.0410283400691 0.00200283948131 -0.00998282414528
0.0422306884989 -0.000309684593939 -0.00833662821473
0.0398597807825 -0.00203731810226 -0.0100104708247
0.0398936751961 0.000218075219655 -0.0105387744829
0.0424490012228 0.00654700854524 -0.00968193413834
0.00353237032192 -0.00108256556411 0.00320514131231
0.00465821762282 -0.0025772461483 0.00675999978557
0.00428073736048 -0.00113327086636 -0.000230910471052
0.00219099991955 -0.00402312243764 0.00479056445463
0.00299151049955 -0.00195480146974 0.00515657413245
0.00738397311874 -0.0012058501313 0.00253875509162
0.00652608221979 -0.00182603287066 -0.000181072535901
0.00696289354753 0.000277235105742 4.63453312051e-05
0.00662628814381 -0.0028707155287 0.00529924343013
0.00658600514222 -0.00308795115709 0.00184355667024
0.00262464478416 -0.00657583928171 0.00224091744072
0.00437641159167 -0.00579797326278 0.00503809239988
0.00504397786887 -0.00512957485283 0.0031148625019
0.00535548529969 -0.00477344892771 -0.000142654979258
0.00401889492315 -0.00802946718498 0.00676100002602
0.00338631193095 -0.0114470003173 0.00841972717102
0.00615524727795 -0.00614683956791 0.0214789994061
0.00654065766419 -0.00858107204602 0.0214789994061
0.00447155987748 -0.0077486020548 0.0214789994061
0.00569412136954 -0.00693033255664 0.00691797906505
0.00655823535755 -0.00886647137367 0.00721348656594
0.00533162537476 -0.0104932426182 0.00710659959461
0.00458947722589 -0.0114470003173 0.010346158185
0.00781800039113 -0.00911113328037 0.0126676438117
0.00781800039113 -0.00643889106198 0.00866564542758
0.00781800039113 -0.00823929193876 0.0174266502991
0.00781800039113 -0.00457805972527 0.00719215387242
0.00781800039113 -0.00979989320265 0.0150799448479
0.00781800039113 -0.00669105468734 0.0112760892207
0.00781800039113 -0.00914622926922 0.0102974871202
0.00219099991955 -0.001344619252 0.0098125342761
0.00219099991955 -0.00220113691506 0.0123827661903
0.00219099991955 -0.00696346274388 0.00919335306463
0.00219099991955 -0.000323257518282 0.0143444742851
0.00219099991955 -0.00387055891975 0.00973551729382
0.00603548546362 -0.00119057187061 0.0194808489767
0.0054211497808 0.000674000009894 0.0162200969437
0.00514841159353 0.000674000009894 0.013479887977
0.00781800039113 -0.00484806219772 0.0151634266993
0.00781800039113 -0.00251719158307 0.0135840231476
0.00781800039113 0.000452798779293 0.0141598138129
0.00781800039113 -0.00102309811961 0.0117416436233
0.00781800039113 -0.00603278343746 0.018240193291
0.00219099991955 -0.00585642190213 0.0131378254674
0.00219099991955 -0.00696478776826 0.0157819852081
0.00219099991955 -0.0105303101373 0.0122051171588
0.00556424104306 -0.0114470003173 0.0189672198378
0.0034800251247 -0.0114470003173 0.0145364402853
0.00363584655993 -0.00474048099027 0.00676100002602
0.00326328036402 0.000658639614466 0.0116974740333
0.00439361352141 -0.00248899735456 0.0202567793529
0.00291522181198 -0.00147804314067 0.0188889961504
0.00505790804532 -0.00443605741827 0.0214789994061
0.00700017459466 -0.00332482261146 0.0214789994061
0.00781800039113 -0.00694628577798 0.0202499993258
0.00219099991955 -0.00960801391208 0.00698162613561
0.00573135542007 -0.0114428258702 0.0214789994061
0.00304282038051 -0.00978939573925 0.0213505855989
0.00231705564968 -0.006594252977 0.0182836276659
0.00251168031823 -0.00799350899728 0.0200339008153
0.0021922637236 -0.00471019084205 0.0171613652153
0.00241572906451 -0.010095022253 0.0187238641344
0.00280470643673 -0.00450087233676 0.0205376876926
-0.0370149583738 -0.00235070830174 -0.0192722623457
-0.0320070013404 -0.00479671577294 -0.0164494161887
-0.0331479435162 -0.00405043150712 -0.017969548059
-0.0335495768372 -0.00359545630189 -0.0128450464547
-0.0354265658748 -0.00246804806901 -0.0138219656444
-0.0351360740514 -0.00264253117294 -0.0174078837218
-0.0350843451444 -0.0026736019967 -0.0114779506237
-0.0343110349975 -0.00313808858069 -0.015538734685
-0.0375141121399 -0.00474413222109 -0.0125260559606
-0.0367530396836 -0.00557774855921 -0.0142692078662
-0.033502044595 -0.00691148927466 -0.0169474142044
-0.0343663947557 -0.00703242028736 -0.0102446009492
-0.0349090238472 -0.00670208395999 -0.0151232340357
-0.0350442399543 -0.00682693206221 -0.0128371237217
-0.0344550957035 -0.00630709115433 -0.0192474193629
-0.0359704688821 -0.00597588579458 -0.0172075735213
-0.0383298177554 -0.00352567609849 -0.0145169519373
-0.0381666442072 -0.00354534278117 -0.0168710499557
-0.0386595233859 -0.00292330720241 -0.0113368025698
-0.036898190633 -0.00523291410145 -0.0189579602466
-0.0254478972491 -0.00192399998195 -0.0181552740719
-0.0313446588117 -0.00652886611121 -0.0101220002398
-0.0274644475627 -0.00192399998195 -0.0153873838638
-0.0289872889568 -0.00367829474975 -0.0196082784952
-0.0293292283374 -0.00291458425754 -0.0142032851893
-0.0277611573154 -0.00197388678834 -0.017856922003
-0.0305882017993 -0.00366985180144 -0.0125433589833
-0.0294528659569 -0.00682727753269 -0.0124735514046
-0.029075139159 -0.00602232537694 -0.0101220002398
-0.0279171761968 -0.00545701411517 -0.019246463712
-0.0266852994758 -0.00344316864058 -0.0194952407679
-0.0276263022949 -0.00567063801963 -0.0162760173433
-0.0273911343736 -0.00569259239826 -0.014129669542
-0.0254575583493 -0.00367001675861 -0.0129568007743
-0.0296449357965 -0.00677935986146 -0.0176894191785
-0.0299977598997 -0.00690339987248 -0.0157102095656
-0.0315559612965 -0.00618090410216 -0.0193792153051
-0.0316434530168 -0.00699427634255 -0.0131672987198
-0.0308919349978 -0.00421410031644 -0.018551529858
-0.0254195047409 -0.00340026609396 -0.0161108221993
-0.03909241623 0.00126412493082 -0.0176875189007
-0.0394546384568 0.00019619363779 -0.014043170716
-0.0396594975903 -0.000639397983026 -0.011948803829
-0.038187243561 -0.000730638996794 -0.0195814194777
-0.0363360010087 0.0019424556844 -0.0124960900544
-0.0363360010087 2.16610616551e-05 -0.0146539303653
-0.0385072255497 0.00270869976057 -0.0149817259795
-0.0371756975962 0.00204552634178 -0.010553999804
-0.0369864109124 -0.00192299997434 -0.0153733372047
-0.0364468232043 0.000785099148215 -0.0182252214652
-0.03765662316 -0.00192299997434 -0.0130770971437
-0.0385788861081 0.0019437848667 -0.0195649306681
-0.0391183082886 -0.00150136910089 -0.0153225430318
-0.038870646402 -0.00124091592391 -0.0174594256354
-0.0396503104408 0.00123286048871 -0.0106920595608
-0.031142000109 0.00572762820951 -0.012492627484
-0.0346961921267 0.00789140129712 -0.010553999804
-0.0380867292604 0.00433448031997 -0.010553999804
-0.0385427582295 0.00329798584169 -0.0171184838339
-0.0390995153739 0.00283799995668 -0.0121138732136
-0.0361116194513 0.00283799995668 -0.0164195743714
-0.0356662562153 0.00665643630933 -0.0171595587619
-0.0367468626051 0.00596875977342 -0.0156563543661
-0.0357543422338 0.00712661945925 -0.0132868112232
-0.034334274697 0.00778225610673 -0.0149364354541
-0.0325015250576 0.00768851210608 -0.0164075194036
-0.0333143857196 0.00837455573981 -0.0131714962427
-0.0332679014118 0.00403607243545 -0.0159112150728
-0.03839352824 0.00457551475431 -0.0138236440719
-0.0336783650807 0.00575754016552 -0.0194618498737
-0.0358078176874 0.00320855155007 -0.0193177618784
-0.0371614539634 0.00505479122767 -0.0184218632422
-0.0243226286532 -0.000690459602547 -0.0156109267572
-0.0268302368904 -0.000614347575059 -0.0196439996362
-0.0271450936546 -0.00192299997434 -0.0133351871709
-0.0257567230007 0.000568827459427 -0.010553999804
-0.0276779998094 -0.000810034587597 -0.0110674831208
-0.0276779998094 0.000468774685949 -0.0133318009424
-0.0246984113646 0.0013490135582 -0.0173890179743
-0.0237875129532 0.00157594489169 -0.0128362012913
-0.0276779998094 0.000626526548121 -0.016161475106
-0.0258481195401 0.00283799995668 -0.0157427895303
-0.0269981445348 0.00283799995668 -0.0131975467733
-0.0269633198304 0.00285805267978 -0.0195726146235
-0.0294504050867 0.00477098487186 -0.010553999804
-0.0277843333031 0.00316109280863 -0.010553999804
-0.0288520353081 0.00767807061661 -0.0112937609231
-0.0288243686478 0.00738066694809 -0.0135291914992
-0.0291765211017 0.00719315129512 -0.0163578954311
-0.0274273193251 0.00632777321534 -0.0106011207402
-0.024678165258 0.00374798081575 -0.0136850462729
-0.0301469081871 0.00709182309668 -0.0184791419589
-0.0311399996281 0.00533278838257 -0.0170368350253
