-0.00232711493052 -0.00400420484337 0.029144000262
-0.0264020909098 -0.028283838524 0.028193956186
-0.0177944023479 -0.0276828276413 0.0285602692721
-0.0261649164244 0.0301843273493 -0.0266907270537
-0.0210798459125 0.0302117520429 -0.026610149144
-0.023051042866 0.0302859991789 -0.026390825863
-0.0258163498617 0.0302859991789 -0.0157755379223
-0.0251541727797 0.0302859991789 -0.0175296015205
-0.0225586875713 0.0302859991789 -0.0215687865173
-0.0219986646346 0.0302859991789 -0.0235337275097
-0.0247917600002 0.0302859991789 -0.0252990650048
-0.0265489489736 0.0302859991789 -0.0237405701568
-0.0261919001453 0.0302859991789 -0.021002752934
-0.0243811424298 0.0302859991789 -0.0218343332881
-0.0238182167234 0.0302859991789 -0.01997527996
-0.0222151259213 0.0302129085292 -0.0114065217145
-0.0178381338038 0.0302179456838 -0.0208062634832
-0.00654947695618 0.029871707802 0.000855027641666
0.0119153610437 0.0294722514363 0.0149610579771
-0.0233941287568 0.0302508655575 -0.013898290488
-0.00780749473722 0.0299948600643 -0.0123653403685
-0.000489322458016 0.0297558702742 0.00353412176403
0.00517171018947 0.0296161834471 0.0100592306969
0.00200516276739 0.0297530235377 -0.00109226699164
-1.70105295622e-05 0.0298016971956 -0.00326671689643
0.0161633369784 0.0293949832303 0.0163367945276
-0.00363376354338 0.029850065076 -0.00221217401006
-0.0131254069369 0.0300210847954 -0.00507810798696
-0.0189993842531 0.0302581098529 -0.0236155848155
-0.00653016618332 0.0298855054242 -0.000946731256792
-0.0107772090758 0.0299942401174 -0.00634527711944
-0.0175602322567 0.030194245068 -0.0183336175008
-0.00496099776192 0.029899938934 -0.0059302006065
-0.0214562678866 0.0302407423747 -0.0164813452087
0.00730594028052 0.0295756119199 0.0109741834572
0.00463598859472 0.0296554457003 0.00611380492438
-0.0134177502973 0.0301223116214 -0.017428544585
-0.0018945346555 0.0298036880402 0.000234825830749
0.00873446524923 0.0295899067906 0.00628978399489
0.0234940003511 0.0292206165292 0.0239534118102
-0.0199957356114 0.0301646812556 -0.00968364097214
0.0123129312217 0.0294922127879 0.0116149683582
-0.0194101983879 0.0301876656137 -0.0137920488762
0.0188277625217 0.0293166229861 0.0210199322639
-0.0158182672411 0.0301823828189 -0.0203025607358
-0.00119616474679 0.0297529979578 0.00531518181247
0.014175147392 0.0294238173211 0.0166295586443
-0.0215006914303 0.0302279540629 -0.01475832347
-0.00952990631149 0.0299492200708 -0.00308759345563
0.00354431575588 0.02968737405 0.00421770881218
-0.0101998067699 0.0300451354503 -0.0140040131956
0.00312706696276 0.0296673034579 0.00761712431948
0.00851762726249 0.0295470563672 0.0121992014902
-0.0230621092541 0.0302764138525 -0.0178271746748
-0.0138574982008 0.030085390786 -0.0118309130284
-0.0169356824338 0.0301554291396 -0.0146229240926
-0.000552600341376 0.0297710540725 0.00172044711637
-0.0197954812579 0.0302184677866 -0.0169573530173
-0.00741712928627 0.0299639962168 -0.00920232272544
-0.00668428007726 0.0299101654295 -0.00378960702461
0.00244993546899 0.0296918994771 0.005828709363
0.0054282019265 0.0296680150618 0.0029228259256
0.0177412116522 0.0293597657765 0.017680553288
-0.00587558248193 0.0299277333327 -0.00765230070157
0.0072506736549 0.0296048558966 0.00734780361031
-0.00951343832333 0.0299940320158 -0.00884682840278
-0.0084942447842 0.0299584879915 -0.00634371044778
-0.0152092171877 0.0301174985674 -0.0132297216308
0.00113854746456 0.029703547834 0.00696362563789
0.00856757243129 0.0295664389317 0.00962248777766
0.0194625022615 0.0293192010079 0.0194207180833
0.0016413515971 0.0297213694041 0.00368044982206
0.0064724344918 0.029640431163 0.00435866984337
-0.0153095869422 0.0301340935824 -0.0151495270873
-0.0157181864758 0.0301103570143 -0.0112989577575
-0.0118279307204 0.0299909588842 -0.00382404113837
-0.0132942944799 0.0300468736918 -0.00803568469049
-0.0160875930281 0.0300775085837 -0.00636243435688
-0.000965780452209 0.0298019821273 -0.00140513506492
-0.0129927173573 0.0300577104063 -0.0100237513713
-0.0196948903946 0.030284872515 -0.025644106028
-0.0135989723683 0.0300966308505 -0.0137843986702
0.00143533255038 0.0297395965013 0.00176343776285
-0.0111754636381 0.0300729215617 -0.0156028808997
-0.00364397331528 0.0298242490883 0.00110714450441
-0.0128696771088 0.0300995906069 -0.0156215488692
-0.00823535777652 0.0299403319228 -0.00454153588139
-0.0120186025264 0.0300641286834 -0.0127926041525
-0.0152155066955 0.0301500135782 -0.0173720679095
-0.0098381437792 0.0300142720179 -0.0107836300022
0.00277375340422 0.0297289434091 0.000447263071522
-0.0208666033598 0.0302502270905 -0.0188729588788
-0.0180986039638 0.0301527853758 -0.0119586938801
0.010917666916 0.0295012270214 0.0132542784787
-0.0199503782833 0.03017750651 -0.011413251425
-0.00948743600591 0.0299342021909 -0.00125349562062
-0.0165420934011 0.0301093069748 -0.00951657219552
-0.018350127411 0.030134271765 -0.00908976675994
-0.000998619990099 0.029830596887 -0.00499597532267
0.0140608876197 0.0294398057424 0.0148150533734
-0.00289371770818 0.0298575910199 -0.00465432040394
-0.00475933892148 0.0298814562905 -0.00397181110506
-0.0137622529712 0.0301463689877 -0.0198135439193
-0.0146162702669 0.0300757292489 -0.00907840861573
0.0185641617701 0.0293542850397 0.00916169528358
0.0194958411388 0.0293287659742 0.0131341429934
0.0151396255373 0.0294389993723 0.00518880920864
0.0122205591649 0.0295079296801 0.0056395333929
0.00427420021105 0.0297020460981 -0.000705605068091
0.0213078659427 0.0292830587938 0.016268490033
0.0205167044706 0.0293087145444 0.00823257001509
0.0158840083913 0.0294238846808 0.00219240879945
0.0226292230159 0.0292536201112 0.0140012482322
-0.0024989963741 0.0298691078488 -0.00799018098936
0.00501856632347 0.0296874817779 -0.00434541128307
0.00239664910246 0.0297531066303 -0.00828244523562
0.0146305588154 0.0294446609655 0.0127071967598
0.00337264329895 0.0297273905721 -0.00531059820893
0.0228910045534 0.0292494105758 0.0116536665853
-0.00614543974526 0.029960003229 -0.0130296322174
0.0218651070649 0.0292679403907 0.0184752016265
0.0221866589733 0.0292587003256 0.0203523474014
0.00654987668386 0.0296500123687 -0.0030501004515
0.0105016386969 0.0295489577852 0.0053927400539
0.0143926026259 0.0294549395853 0.00729278500547
0.00513445975303 0.0296802191461 0.000931527973677
0.0164927633686 0.0294054021654 0.0069036965268
0.0262193168945 0.0291664763442 0.0162171253961
0.0181611921031 0.0293615934888 0.0118060908133
0.013893786256 0.029471501209 0.00177464071153
0.0200620290719 0.0293136932626 0.0150388596694
-0.0157158343718 0.0301950734695 -0.0221705475611
0.0258946272563 0.029171245165 0.0196579853908
-0.00429690376923 0.0299163268003 -0.0132853054568
0.0157513964877 0.0294191066906 0.0114660455595
-0.00743508066259 0.0299921158343 -0.0147716418689
-0.00397040977868 0.0299055749229 -0.0097768038881
0.00109747921539 0.0297812679816 -0.00513722997484
0.0241672293765 0.0292154618921 0.0159163733772
0.0248941233549 0.0292017063466 0.0118157672705
0.0181149754983 0.0293601870263 0.014735380239
-0.0101094263536 0.0300575734451 -0.0170565672396
0.00764155396205 0.0296199206962 0.00182705169911
0.0238028344929 0.0292194274465 0.021399968371
-0.00574759374285 0.0299490754346 -0.0112974764722
-0.000790786132409 0.0298314433604 -0.0113809027323
0.0117699477281 0.0295223477955 0.0012899206352
0.000596375397759 0.0297950375069 -0.00732539616283
0.0269233036855 0.0291453464795 0.0213799806068
0.00964870425575 0.0295734298902 0.000457592848978
0.0260809254891 0.0291720377465 0.0135554189698
0.00954659681149 0.0295738195156 0.00283830582858
0.0117454480061 0.029524880087 -0.000991969694635
-0.012104405229 0.0301063934281 -0.0187500971641
0.0127830540093 0.0294908229236 0.0100264415587
0.0241751374275 0.0292132922628 0.0182349049458
0.0256749042819 0.0291846901985 0.0100327186813
0.0102647083724 0.0295530614961 0.00717376112139
0.0254712221372 0.0291765442561 0.0252207919531
0.000263951367885 0.0298045019115 -0.00916296736776
0.0234750221964 0.0292371438037 0.00978045095409
0.0164437931783 0.0294007273264 0.0137331037353
0.0254165810643 0.0291795766778 0.0231911292539
0.0213500017457 0.0292877007255 0.00966743887196
0.0182352349021 0.0293641708246 0.00673400712088
-0.00190879293844 0.0298567712345 -0.00995352974839
0.0165349765234 0.0294026583729 0.0089409421393
0.0134778350841 0.0294796667486 0.00377696349882
0.0167208096141 0.0294023418319 0.00414884252864
0.0035734327949 0.0297204975381 -0.0028244460342
0.0079348612665 0.0296146982676 -0.000211343039892
0.0228856372845 -0.0289024377794 0.0214740325507
0.00436422947526 -0.0293877442849 0.0155770430346
0.0098902175359 -0.0294509212222 0.010679669509
-0.00703842416321 -0.0292415643472 0.0261888447527
0.0166140886182 -0.0292681210463 0.0130323038092
0.0026296947544 -0.0292368023267 0.0213109018777
0.0187720626303 -0.029223868858 0.0133259306855
0.00408044892778 -0.0290329391554 0.0270813504101
0.009306161665 -0.0293739452654 0.0134474142502
0.0225760954772 -0.0297574921068 -0.00573361681583
0.00458506203476 -0.0292511561403 0.0198340763812
0.0246922330655 -0.0288725645925 0.0214902379172
0.0239201032831 -0.0296620743692 -0.00337876514668
0.00871455996417 -0.0295428015689 0.00835044977257
0.00197933394979 -0.0294187504836 0.0158254640512
0.0104752512737 -0.0292671871104 0.016256262415
0.000995502976404 -0.0292216820854 0.0226451502273
0.00988475701164 -0.0291242200744 0.0211396093053
0.0139259835536 -0.0289336083472 0.0251380690736
0.000996440518901 -0.0293486386511 0.018581017887
0.0197923864836 -0.0295677440572 0.00178824329582
0.00109546852465 -0.0291221589889 0.0257786876903
0.0154534325704 -0.0290698075707 0.0199838454989
0.0102476165912 -0.0290017607847 0.0248705068684
0.0128021951948 -0.0295821799067 0.00496320687201
0.0114652737344 -0.0293893529187 0.0118308479533
0.0245277158724 -0.0289335705125 0.0196231504512
0.0122471952901 -0.0294384264373 0.00985325816458
0.0236640247368 -0.0290065049308 0.0177380372389
0.018786706653 -0.0293270420147 0.010015929673
0.0227444038039 -0.0292637686573 0.00998198479163
0.0196195467385 -0.0288089287504 0.0261664451786
0.0141471715699 -0.0294208597924 0.00942696761482
0.020641865215 -0.0297117314354 -0.00326251365741
0.022230214958 -0.0289776543459 0.0194075087898
0.0144275125214 -0.0296216620149 0.00285379770394
0.0178265513763 -0.0291850381639 0.0150607831005
0.0129544130639 -0.029042002241 0.0221740938431
0.0215232017584 -0.0291544830314 0.0141154122576
0.0150256632196 -0.0292328395141 0.0149880652833
0.00705916656866 -0.0294429100059 0.0124091024253
0.0186890658431 -0.0296714314504 -0.000956535366155
0.0207946709374 -0.0294726437788 0.00431073390326
0.00818073804767 -0.0291383843647 0.0215728454391
0.0220336292952 -0.0287810632387 0.0258023104406
0.00561490287824 -0.0293299389652 0.0167765531834
0.00784429485667 -0.0293100899505 0.0162519205774
0.00433902278629 -0.0293114898276 0.018030922137
0.0167374907044 -0.0296629263356 0.000331111045548
0.0102842857045 -0.02956208031 0.00691663752116
0.0167072786415 -0.0289196344327 0.0241382276877
0.01807069996 -0.0295843132194 0.00215369644538
-0.00504745176352 -0.02932311751 0.0225425670431
0.0161905854738 -0.0296142874947 0.00217250754339
0.0115744309398 -0.0291432389382 0.0196517056522
0.024107446493 -0.0291556198184 0.0127344315003
0.0197137066977 -0.0290799569889 0.0174423413771
0.0131523661715 -0.0292724269939 0.014695628368
0.0122164527219 -0.0295062909747 0.0076970355131
0.00807126037886 -0.0292506497294 0.018036400771
0.0251989198253 -0.029257862217 0.00889394313489
0.0210519359701 -0.029107243581 0.0158726613103
0.0145503709907 -0.0295329553974 0.00562920841457
0.0249058150451 -0.0293324108532 0.00666028311306
-0.0020843554685 -0.0292820187039 0.0223163512025
0.0241906632456 -0.0295174976875 0.00110809308636
0.00429263665788 -0.0291960206787 0.0217510106459
0.00754075306092 -0.029382185694 0.0141022035342
0.0143666674841 -0.0294731298903 0.00763969386472
0.00401056010045 -0.0291160714217 0.0244568040092
0.00821573945469 -0.029071415182 0.0236981935527
-0.00342442462968 -0.0291988011587 0.0256772347903
-0.00142646961974 -0.0292135547044 0.0241654560186
0.00450004869716 -0.0294871481816 0.0123246410455
0.0163760573183 -0.0291261889819 0.017699135089
0.0207076934065 -0.0294174169627 0.00612369680838
-0.00529981916156 -0.029231408667 0.0256093051621
0.0215986143616 -0.029624137505 -0.000956595117845
-0.00173091892254 -0.0291562420467 0.0261583344048
0.0138314669915 -0.0291160141465 0.0193487746683
0.0175554461812 -0.0294637267516 0.00628153483171
0.0118979348235 -0.0290039929633 0.0239403908675
0.0207628428421 -0.0292917307516 0.0101179851398
0.00102579125753 -0.0292915998378 0.0203914533363
0.00773176044245 -0.0290243683626 0.0254558915924
0.0177009620847 -0.0289870944707 0.0214619387905
0.0198349799365 -0.0289871989066 0.0203482567768
0.0198435619796 -0.0289237637025 0.0223742348945
0.0241673502394 -0.0295998381171 -0.00151534170116
0.0241218305534 -0.028728177707 0.0264085777323
0.0243575208412 -0.0288211774836 0.0233091963973
0.0151549126741 -0.0293597234794 0.0108594954751
0.0204278396744 -0.0292151782662 0.0127425920888
0.0252493324288 -0.0297226474229 -0.00600920039053
0.0182690986487 -0.0290648175847 0.0186785618166
0.024930460867 -0.0293994412713 0.00450194024109
0.016789104208 -0.0293572594743 0.0100880864137
0.0227005730485 -0.0294681442546 0.00346310578465
0.0035961643032 -0.0294523188492 0.0139097586358
0.0120390619686 -0.0292251473051 0.0167882208899
0.00570258619984 -0.0290406254916 0.025991319608
0.00635762127397 -0.0292581795696 0.0186869987674
-0.00691339619317 -0.0292960002588 0.0243813994205
0.00609463647821 -0.0291882857149 0.0210610037922
0.0203588443483 -0.0293577293472 0.00821569458895
0.0127786592083 -0.0288872236375 0.0272197158079
0.00567893692179 -0.0291307589523 0.0231186192923
-0.00346102321926 -0.0292709502811 0.0233869174219
0.0147233568389 -0.0289861034109 0.0230429223563
0.00051836900422 -0.0294099797435 0.0168663459147
0.0171618385539 -0.0295422517875 0.00397288971071
0.0163497402663 -0.0288238562814 0.0273899377662
0.00986742616182 -0.0291916739549 0.0189895528404
0.0226688631696 -0.0293387460671 0.0076214009053
0.0185781303036 -0.0294045619691 0.00764318273169
-0.00859335790654 -0.0293152902667 0.0213971692183
-0.0172979337298 -0.0293556352237 0.00755912987432
-0.00355100957201 -0.0293709152185 0.0193638234792
-0.0214152909877 -0.0292890956187 0.0119060728415
-0.00941494375871 -0.0293514556739 0.0159747358827
-0.00593415734747 -0.0294589923198 0.00577574392921
-0.00920648159798 -0.0292957326864 0.0232719752072
-0.00301018471677 -0.02949796241 0.00374250993694
-0.00532192992406 -0.0293488051894 0.0204054055826
0.0246054136648 -0.0298137710311 -0.0088140028447
0.00897200184087 -0.0296160042644 0.000709497050222
-0.00187085113285 -0.0294070589957 0.0164461774546
-0.0116832632649 -0.0293762108356 0.0105569451535
-0.00840922408887 -0.029457193579 0.00352921422114
-0.0241743337583 -0.029287683212 0.00932638684535
-0.00112400526106 -0.0295074775141 0.00441845313278
0.00754149680888 -0.0295897281124 0.00262152393825
-0.0191703549846 -0.0292663663893 0.0170427500709
0.0130598727431 -0.0296466152356 0.000903695166142
-0.00667009405836 -0.0293893365217 0.0139009251457
0.0105223666784 -0.0296216577719 0.00154083626953
-0.00111034841305 -0.0294892972529 0.00674489817064
-0.0187972575291 -0.0292923936976 0.014104848897
-0.0244826998925 -0.0292616861636 0.012325177395
-0.0108622804496 -0.0294052486395 0.00768400384313
-0.00752611186589 -0.0293681103373 0.0157450788005
0.00439818603648 -0.0295093502182 0.00970305311854
-0.00999164302368 -0.0292701535493 0.025740750699
0.0107644310057 -0.029639997958 -0.000550202534838
0.0164972521196 -0.0297258755026 -0.00574155317119
-0.00391996809997 -0.0294187530361 0.0129091743295
0.00578798338046 -0.0295819703247 0.00185470670024
-0.00758841154604 -0.0293958101717 0.0121589607748
-0.0160068794582 -0.0292712379378 0.0195868641019
0.0197736194977 -0.0297572665973 -0.00645819583928
0.00750384532933 -0.0296119188466 -0.000239107476992
0.00234156872978 -0.0295235338443 0.00584183824785
-0.0210063756406 -0.0292745565855 0.0141646066696
-0.000668810830242 -0.0294644798305 0.0103436146566
-0.00572586036329 -0.0294098516507 0.0122354539838
0.000255616170234 -0.0294880075089 0.00827509554234
-0.00432201941874 -0.0293791436365 0.0175459525702
-0.00689030361115 -0.0294199140737 0.00979079244369
0.00884141025109 -0.0296325189939 -0.00152201715024
0.0146639164207 -0.0296735195764 -0.000914687377784
0.000205925326529 -0.0295081136044 0.00566761892265
-0.0161882444046 -0.0293477046298 0.00967783227082
-0.0110221416871 -0.0293125223359 0.0193202225411
-0.013395005029 -0.0293413514878 0.0132796065721
-0.0158777836773 -0.0292566851494 0.0215672956382
-0.0173915281676 -0.029284897163 0.0164644073058
-0.0121078709566 -0.0294121113325 0.0055652365636
-0.00879943625298 -0.0293397615202 0.0180779769854
-0.0260121855273 -0.0292642248291 0.0104725594368
-0.0124153568644 -0.0293282611059 0.0159246507325
-0.0136326649511 -0.0293525827397 0.0116131447258
0.0149155778112 -0.0296618891262 0.000816561242217
0.0149059439681 -0.0297042844438 -0.0045863583059
0.00644655495966 -0.0295227784034 0.0100434053519
0.00612737335341 -0.0296176203248 -0.00234104851264
0.0101550376019 -0.0296551773289 -0.00309069778917
-0.0169517926851 -0.0293035528915 0.0145309212267
-0.0101338346118 -0.0293651695855 0.0135111576018
-0.0110815882367 -0.0292909424787 0.0220060324105
-0.00354016215234 -0.0294496552087 0.00935783067917
-0.00624166168648 -0.0294703083222 0.00402864807314
0.00159589200681 -0.0294629185768 0.0128071948355
0.00843158181922 -0.0295664979613 0.00646691670033
0.016752164423 -0.0297125437714 -0.00379062623119
-0.00961164927243 -0.0294386006755 0.00469192953721
-0.0110617933524 -0.0292769908094 0.0238006794491
-0.0068465790075 -0.0293452983786 0.0193266949078
-0.00301555760022 -0.0294810950438 0.00588290420912
-0.0104891934551 -0.0293320309737 0.01737145793
-0.0126868081021 -0.0292881224825 0.0207593690272
0.00696754814267 -0.029569266189 0.00465055476017
-0.01271978236 -0.0293029378087 0.0188416716893
-0.00309318297373 -0.0294123431094 0.0145514891723
-0.00668230348552 -0.0293601491427 0.0176017621217
-0.0173370705017 -0.0293154319495 0.0126344141946
-0.0204940297458 -0.0293133316615 0.00974427362491
-0.00282847147324 -0.0294680871362 0.00772480212026
0.00172940817373 -0.0295455611494 0.0024274213396
-0.00948681696729 -0.0293849954262 0.0116361229833
0.0115658193546 -0.0296755219121 -0.00426787071773
-0.000536228129008 -0.0294463616228 0.0127811053237
-0.0175486746189 -0.0293277131986 0.010860436668
0.00367507148617 -0.0295650847397 0.00188963417949
-0.0024019395335 -0.0295218578033 0.00131099364832
0.00899859551052 -0.0295941581306 0.00351523130868
-0.0148322810148 -0.0293733476633 0.007771796699
-0.000556619569713 -0.0294286242941 0.0150171508189
0.018258927861 -0.0297340854059 -0.00502408817452
0.00378395662437 -0.0295870176745 -0.000791647812031
0.0164264422057 -0.0296907167531 -0.0013396806402
0.0110770304913 -0.029606398488 0.00403676161506
0.000793716824504 -0.0295271713652 0.00383106190387
-0.00569755704503 -0.0293829410578 0.0156871689823
-0.00828943012227 -0.0294253371859 0.00770160633792
-0.00222648595517 -0.0294377273157 0.012189056731
0.00671728858623 -0.0295496299192 0.00689827756235
0.0141486083212 -0.0296854765956 -0.00295115761448
0.00405550976327 -0.0295212806401 0.00784261836692
-0.0138449310817 -0.0292667743439 0.0223168966202
-0.0222027360477 -0.0293089223466 0.008596295587
-0.018333758131 -0.0293359755853 0.00902416916079
-0.0193769726855 -0.0293120537428 0.0110240301416
0.00176038846844 -0.0294825596447 0.0104730885552
-0.0151820905821 -0.0293300430509 0.0129309061506
-0.00518281238849 -0.0294457572845 0.00821086025964
-0.0128784756836 -0.0293808976184 0.00876536841013
0.00577598291118 -0.0295308571761 0.00834502094396
-0.0156171454589 -0.029288291327 0.0178072109626
0.00498605376848 -0.0295431250282 0.00599435534432
-0.000768303552071 -0.0295238943463 0.00268574279556
-0.0142147197069 -0.0293139174664 0.0159497923321
-0.0124051989326 -0.0294277664966 0.00191257937823
0.00104405271256 -0.0295629828713 -0.000491442559569
0.0143522736023 -0.0297321945184 -0.0120146286904
0.00151218809978 -0.0295870561839 -0.00557599756118
0.00917273847108 -0.0296570061446 -0.00512024706767
0.019720257645 -0.0298107317579 -0.0193182067812
0.00345801837606 -0.0296158170593 -0.00829887362369
0.0216741441646 -0.029825380453 -0.0183775671864
0.00276200331621 -0.029585631451 -0.00218686827584
-0.00702586683556 -0.0295016795881 -0.00416952108186
0.0173677887871 -0.0297572568012 -0.0111966576393
-0.00661494851121 -0.0294892597833 3.0847018995e-05
0.00517616084731 -0.0296252421446 -0.006579270706
0.0214113195402 -0.0297999544888 -0.0124474239989
0.00913080767277 -0.0296795615418 -0.0110458529265
-0.0112122248855 -0.0294336510611 0.00327690039219
0.0177878912036 -0.0297885624314 -0.018264850785
0.00375372349161 -0.029607698923 -0.00548779062061
0.0195118078776 -0.0297862250099 -0.0134939803388
-0.00864701267667 -0.0294774973107 -0.00184405405716
0.0202876643655 -0.029824320034 -0.0214553472081
0.016362714179 -0.0297348297859 -0.0078351764775
-0.000165328800992 -0.0295800148246 -0.00781291910405
-0.023329942367 -0.0293052267393 0.00714585979015
0.0175153048136 -0.0297723189324 -0.0147293972425
0.0212824016402 -0.0298075963956 -0.0147323528976
-0.00161430672045 -0.0295511649429 -0.00386599599917
0.00778978648198 -0.0296720413177 -0.0123456957624
0.0092979551242 -0.0296671548475 -0.00743814867405
-0.0212145458113 -0.0293250308471 0.00714569659814
0.0220494946237 -0.0298216327274 -0.0165024793381
0.0184969643979 -0.0298188640786 -0.0243752536394
-0.00362557395877 -0.0295482268713 -0.00796925658814
0.0146987021229 -0.0297242446315 -0.00912437494893
0.0179839808633 -0.0297462207615 -0.00685738712877
0.000632202483473 -0.0295936651455 -0.00940979011958
0.0192242015893 -0.0297771276332 -0.0118401036009
0.022886045369 -0.0298103127319 -0.0115572028398
0.0237452790403 -0.029825840166 -0.0134896251493
0.00052163535231 -0.0295700594566 -0.00358161861014
-0.0035096501249 -0.0295342238951 -0.00407318632308
0.0118594778658 -0.02971712646 -0.0141497103178
0.00172331629391 -0.029595460564 -0.00723580304424
-0.0116338532759 -0.0294417678102 0.000161775485583
-0.00955663536815 -0.0294627973698 -0.00024711431268
0.0105527009444 -0.0297196215281 -0.0179529172301
0.0245741413404 -0.0298224626942 -0.010613849213
0.000679320497759 -0.0296038143788 -0.0119166200824
-0.0199568705068 -0.0293459456363 0.00478532498247
-0.018950675373 -0.0293494631788 0.00630934815343
0.0171432080796 -0.0297978119833 -0.0222116879201
-0.0104780781004 -0.029447728896 0.00141641467615
0.00920377695768 -0.0296925583377 -0.0142254878005
-0.00174795848563 -0.0295694589664 -0.00891295310585
0.0189127554299 -0.029763045292 -0.00895664073357
0.0113800795431 -0.0296942184513 -0.00939328596189
0.0213892040795 -0.0297848040118 -0.00858873528995
0.00509468170605 -0.0296162371423 -0.00445096627048
0.00821739669606 -0.0296625761026 -0.00886791042973
-0.0054382350824 -0.0295050408498 -0.00119960985593
0.0152913030863 -0.0297719020889 -0.0199979410293
0.0127684797878 -0.0297416824956 -0.0182931870475
0.0136303617358 -0.0297013971019 -0.00580724403767
0.012356928628 -0.0297485471053 -0.0210606249319
0.0154397338867 -0.0297616707583 -0.0169972028338
0.0113805788488 -0.0297340158142 -0.0196685363172
0.00526291409331 -0.0296490081079 -0.0125063945869
0.0134571269069 -0.0297179628 -0.0105035996708
-0.00443365193194 -0.0295080272225 0.000457675048683
0.0142727992228 -0.0297457761035 -0.0157137766028
0.00701888878134 -0.0296396343646 -0.00584111296211
0.0151066542199 -0.0297791432708 -0.022314115932
0.00992596556245 -0.0297060350242 -0.0159596522944
0.00653777506954 -0.0296495863506 -0.00957392851175
-0.00718025240216 -0.0294769493016 0.00184311921835
-0.00533056814938 -0.029493955546 0.00192310056204
-0.0155401760784 -0.0293926927653 0.00339097927089
0.0116422914036 -0.0297060843311 -0.0118234314604
0.0117937312409 -0.0296860173905 -0.00627567255922
0.0157151302201 -0.0297396247589 -0.0106387665375
-0.000356810076928 -0.0295705979625 -0.00584417761642
-0.0133226588387 -0.0294119185724 0.00378700559077
0.0232530481028 -0.02982759702 -0.0151331715525
-0.00442323764274 -0.0295332922152 -0.00604106518317
0.0191614102829 -0.0297910071048 -0.0155758428747
0.00579589369391 -0.0296631817164 -0.0148779015462
-0.000555073692764 -0.0295458889277 5.69066797349e-05
0.0228947620868 -0.0298025607479 -0.00953441764545
0.00834636190704 -0.0296423029 -0.00332121958317
0.0145727017088 -0.0297418906253 -0.0139855021764
-0.00959251880443 -0.0294748959579 -0.00345794901647
-0.00239725864851 -0.0295371010919 -0.00212710009951
0.00344900880899 -0.0296335194345 -0.012891752312
0.00494110932564 -0.0296387428479 -0.0106336170829
0.0211408397649 -0.0297899369055 -0.0105145312081
-0.0141574549266 -0.0294172632646 0.000388910857859
0.00308303623732 -0.0296201323576 -0.0103196294852
0.0203445988552 -0.0298309996724 -0.0242003509524
0.0228280063727 -0.0298309996724 -0.0218918771376
0.0249163649602 -0.0298309996724 -0.0218480480242
0.0231074330959 -0.0298309996724 -0.0240434635106
0.0252202472835 -0.0298309996724 -0.0124175302372
0.0267333184651 -0.0298309996724 -0.0229725575546
0.025921254527 -0.0298309996724 -0.0151627215292
0.0200785120352 -0.0298309996724 -0.0259086440455
0.02498279104 -0.0298309996724 -0.0241868093917
0.0243090297145 -0.0298309996724 -0.0169362211887
0.0240953234722 -0.0298309996724 -0.0198595312803
-0.0264516020105 0.0284978975857 -0.0280760676204
-0.0267432521193 0.0210386990319 -0.0284478227042
-0.0266407584453 0.0182087538509 -0.0286224005636
-0.0272182974407 0.0248868283225 -0.0280466771123
-0.0259044195233 0.026671866566 -0.0286090621401
0.0270310470056 -0.0292852901455 -0.0254348073247
-0.0141646067497 -0.0172556069991 -0.0292559992522
-0.0132282446928 -0.0243549059611 -0.0292559992522
-0.0206813354465 -0.0230920463209 -0.0292559992522
-0.0193956617888 -0.0091161232691 -0.0292559992522
-0.0256880933579 -0.00163965629778 -0.0292559992522
-0.0243332565556 -0.0131226678068 -0.0292559992522
-0.00653285396929 -0.0223362872198 -0.0292559992522
-0.0229680059931 -0.00218196279097 -0.0292559992522
-0.022250572569 -0.0162652135149 -0.0292559992522
3.253832963e-05 -0.0239519859822 -0.0292559992522
-0.0168586608346 -0.0227201354144 -0.0292559992522
0.00365737967362 -0.0233488417729 -0.0292559992522
-0.017390856048 -0.0211356469811 -0.0292559992522
-0.0228709996019 -0.0221633021361 -0.0292559992522
-0.0187878927189 -0.00722254853388 -0.0292559992522
-0.0123104982263 -0.0159560911523 -0.0292559992522
-0.010634427821 -0.0182110398574 -0.0292559992522
-0.0151676525415 -0.0257546407169 -0.0292559992522
-0.0214245261788 -0.024656606369 -0.0292559992522
-0.00903510061137 -0.0258971817692 -0.0292559992522
-0.00448717344528 -0.019512332991 -0.0292559992522
-0.0162596602861 -0.00904812608754 -0.0292559992522
-0.0157417851539 -0.0110890615145 -0.0292559992522
-0.00994436863258 -0.0126452039568 -0.0292559992522
-0.0132092958638 -0.0124298202701 -0.0292559992522
-0.021599115512 -0.00341880836261 -0.0292559992522
-0.0209508618465 -0.0101331766731 -0.0292559992522
-0.0250762616016 -0.0175124412559 -0.0292559992522
-0.024339666488 -0.0202876124374 -0.0292559992522
-0.0102462708891 -0.0243556488706 -0.0292559992522
-0.00282255725574 -0.0243760997991 -0.0292559992522
-0.0273762616387 -0.0080290261702 -0.0292559992522
-0.00474357963435 -0.0249953130187 -0.0292559992522
-0.0212022296804 -0.0139109671203 -0.0292559992522
-0.0233472280433 -0.00968147120011 -0.0292559992522
-0.00899881044033 -0.0192356609043 -0.0292559992522
-0.00888790745532 -0.0210968815764 -0.0292559992522
-0.0264779363511 -0.0132061601041 -0.0292559992522
-0.00843007502948 -0.0236604229276 -0.0292559992522
-0.0235465098583 -0.0241344590377 -0.0292559992522
-0.0232658214929 -0.0149337026953 -0.0292559992522
-0.0170999366029 -0.0176004507968 -0.0292559992522
-0.00967060371136 -0.0149908031611 -0.0292559992522
-0.0258094286111 -0.021721289474 -0.0292559992522
-0.0253783739615 -0.00868379240788 -0.0292559992522
-0.0255659569603 -0.00423714029914 -0.0292559992522
-0.0204043690374 -0.0169569689331 -0.0292559992522
-0.00103596429031 -0.025407502496 -0.0292559992522
-0.00427944030931 -0.0215681273007 -0.0292559992522
-0.0199675942917 -0.0153115981476 -0.0292559992522
-0.0247154358646 -0.0114500291807 -0.0292559992522
-0.0177147547155 -0.0135892857385 -0.0292559992522
-0.0154009272283 -0.0192983728141 -0.0292559992522
-0.0262693537779 -0.00615063387409 -0.0292559992522
-0.00146211683778 -0.022885575636 -0.0292559992522
-0.0150063830726 -0.0236628947066 -0.0292559992522
-0.0229923256925 -0.0185316866387 -0.0292559992522
-0.0116833830572 -0.0233164394371 -0.0292559992522
-0.00559675501944 -0.0174095554128 -0.0292559992522
0.00162353524176 -0.0231782066815 -0.0292559992522
0.00190534009352 -0.0257448080053 -0.0292559992522
-0.0182305811765 -0.0193136240219 -0.0292559992522
-0.0113843984275 -0.0136928710523 -0.0292559992522
-0.027318553141 -0.0243658847389 -0.0292559992522
-0.027942942412 -0.0168928106335 -0.0292559992522
-0.0067224086826 -0.0206405822385 -0.0292559992522
0.00417231350479 -0.0254103424401 -0.0292559992522
-0.0136736168772 -0.0192650012064 -0.0292559992522
-0.0169018475428 -0.0157957198264 -0.0292559992522
-0.021286314517 -0.00536165248119 -0.0292559992522
-0.0186863387806 -0.0237555653054 -0.0292559992522
-0.00229024901657 -0.0189114833771 -0.0292559992522
-0.023544469744 -0.00682643971226 -0.0292559992522
-0.00134770942397 -0.0208228466873 -0.0292559992522
-0.0274503911082 -0.0213077256833 -0.0292559992522
-0.0195035882676 -0.0212796314331 -0.0292559992522
-0.00661420877889 -0.0155498888872 -0.0292559992522
-0.00347218733258 -0.0176010901412 -0.0292559992522
-0.0266027127761 -0.0110910987475 -0.0292559992522
-0.0115049659205 -0.0261004397153 -0.0292559992522
-0.0186234798094 -0.00535922095148 -0.0292559992522
-0.0135314830492 -0.022101995514 -0.0292559992522
-0.0159953934026 -0.00730708935525 -0.0292559992522
-0.0209822861234 -0.0120306475678 -0.0292559992522
-0.0261449558461 -0.0148827933019 -0.0292559992522
-0.0141125838917 -0.014369732077 -0.0292559992522
-0.028235448341 -0.00276386410605 -0.0285657365671
-0.0282073141416 -0.0144452266004 -0.0290326192585
-0.028382915362 -0.0123741024504 -0.0288449670267
-0.0275680311508 0.0128917063419 -0.0283734404561
-0.027626897457 -0.0049073874022 -0.029022302807
-0.0280547589887 0.0191880132717 -0.0278319257964
-0.0281578645107 0.00609253699969 -0.028272563458
-0.0277657994768 0.00901528152148 -0.0284010700539
-0.0282193575887 0.0170134514511 -0.0277074768999
-0.0290132977473 -0.00823981597614 -0.0277140813711
-0.0286876821251 -0.0185001370898 -0.0287034348939
-0.0282833426954 0.000320043965765 -0.0284133300914
-0.0292008338649 -0.0137276894052 -0.0276926802796
-0.0289961688835 -0.021242820667 -0.0283658312706
-0.0283867128711 0.00223561489588 -0.0281638078486
-0.0291835340272 -0.0236891390826 -0.0281983373753
-0.0288515987913 -0.0108171272975 -0.0280842326517
-0.0281887929594 0.0149223567708 -0.0278546210505
-0.0292467301911 -0.0161126218019 -0.0277375751213
-0.0177099141118 -0.0266923666508 -0.0289869549904
-0.0259730102201 -0.0262118986657 -0.0290985256179
-0.00220207833631 -0.0266743413186 -0.0292402434537
-0.0229350545399 -0.0266688333035 -0.0289165067924
0.00537161585387 -0.0269495873803 -0.0292210529741
-0.0206348527386 -0.0263743361507 -0.0291008778306
-0.0279699083501 -0.0262629941318 -0.0290413744245
-0.0288314332302 0.0272167134675 0.0259621514841
-0.0289817886081 0.0268873415418 0.0226652725303
-0.0290859220724 0.0268013369753 0.016574926947
-0.0289676863837 0.0270835792324 0.0185451465224
-0.0292907298705 -0.00655689853943 0.0165359264579
-0.0296358695311 -0.0214261854747 -0.00640117018547
-0.0292553730666 -0.00939246807987 0.0188856489628
-0.0292318679814 0.014275210439 0.0204477366386
-0.0291923435629 -0.00464065826049 0.023074428119
-0.0291968350411 0.00632890245422 0.0227759359966
-0.0292707661435 -0.00422136859078 0.0178626645472
-0.0292367665875 0.00521580798815 0.0201221878377
-0.029620305519 -0.0191741598569 -0.00536682586069
-0.0293988636663 -0.0156989451031 0.0093496317246
-0.0292511552178 0.003676712651 0.0191659563754
-0.0294447350011 -0.0169220541541 0.00630114046003
-0.0292528830291 0.00962551865976 0.0190511304644
-0.0295801049825 -0.02107199966 -0.00269520130587
-0.0292216652448 0.0117792945058 0.0211257843443
-0.0293294836249 0.00490470070023 0.0139604513343
-0.0291291975962 -0.000308012194803 0.0272709471124
-0.0294069894824 -0.0117308967193 0.00880961082507
-0.0294501937937 -0.00891147365239 0.00593836310415
-0.0291561628591 0.0230892978608 0.0254789049001
-0.0293800618081 -0.00793507105895 0.0105991549956
-0.0293434995023 -0.00553405053244 0.0130289920681
-0.029428765924 -0.00771685192541 0.00736240437077
-0.0291440506283 0.0135857050193 0.0262838526934
-0.0295980347834 -0.0182888209648 -0.00388676988815
-0.0291572534641 0.020824123158 0.0254064260871
-0.0293596319434 0.00491371818164 0.01195687141
-0.0292592065489 0.000804723576736 0.0186308855574
-0.0292037184138 0.00954009025501 0.0223184847037
-0.0295773770879 -0.0171940360663 -0.00251391242719
-0.0293293072169 -0.0075708562888 0.0139721749586
-0.0291704123349 0.000597071233455 0.0245319212845
-0.0293641099267 -0.00411437023753 0.0116592761236
-0.0293311794089 0.00167339921385 0.0138477538745
-0.0292797750612 -0.00206165250445 0.0172639549872
-0.0292624345543 -0.00761627288453 0.0184163605985
-0.0293521145091 -0.00242549319607 0.0124564608084
-0.0292084788455 0.00381351965829 0.0220021186199
-0.0294239084475 -0.00107394308289 0.00768521979766
-0.0295282301707 -0.0170589959621 0.000752265636756
-0.0292223868142 -0.00118868037089 0.0210778306956
-0.0291463291959 0.0109775113689 0.0261324249337
-0.0294691008908 -0.0154101905672 0.004681845923
-0.0294525038372 -0.0113895275589 0.0057848435441
-0.0291974346208 0.0174788560347 0.0227360894732
-0.0294746118236 -0.0123814320604 0.00431560346938
-0.0294719586729 -0.0178116081501 0.00449192506022
-0.0295652207377 -0.0193900737678 -0.00170603257725
-0.0292189208625 -0.00767583449136 0.0213081689568
-0.0292787716783 0.0120155212532 0.0173306372391
-0.0292413681325 0.00795338625165 0.0198163809588
-0.0293849972302 -0.00251685954538 0.0102711595049
-0.0293445617606 0.00638167389967 0.0129583971028
-0.0293922120973 -0.0100936862406 0.0097916779428
-0.0296079401411 -0.0216410724235 -0.00454505456026
-0.0292418474896 -0.00500782957822 0.0197845241185
-0.0291517210148 -0.00186350718836 0.0257740984803
-0.0292026252544 0.00165801530707 0.0223911332741
-0.0293505173379 -0.000617998874435 0.0125626047122
-0.0291853415526 0.0125781066686 0.0235397637692
-0.0294822411651 -0.00685393313989 0.00380857699477
-0.0293508983241 -0.0133275239892 0.0125372853491
-0.0293184099315 -0.00982687902594 0.0146963805923
-0.0291714935397 0.0175275288614 0.0244600671867
-0.0294924302922 -0.013993216961 0.00313143374383
-0.0292816577111 0.0101611036734 0.0171388388983
-0.0291786906044 -0.00630243561514 0.0239817687277
-0.0291799091126 0.00355419633809 0.0239007897996
-0.0295225433679 -0.0136611443838 0.00113019596348
-0.0291323991806 0.00142318555664 0.027058178024
-0.029540041935 -0.0153797865988 -3.27139218858e-05
-0.0294369010653 -0.0151456058145 0.00682176374638
-0.0291743137065 -0.00304231239621 0.0242726461359
-0.0294539836278 -0.00693104205811 0.00568650045611
-0.0293770385355 -0.000495459711346 0.0108000739416
-0.0293728628161 0.00276388782007 0.0110775815394
-0.0295112478355 -0.0187104452327 0.00188086807759
-0.0291365953639 -0.00700834513965 0.0267793104447
-0.0291829319517 0.00837879287461 0.0236998996654
-0.0296699508639 -0.0248229473576 -0.00866612815411
-0.029301982003 0.000176031287086 0.0157881385898
-0.0293078549991 -0.00426520291102 0.0153978343299
-0.0295219494175 -0.0104316985266 0.00116966838647
-0.0294164541939 -0.0055282775061 0.00818061037748
-0.0292748611695 0.00733818912968 0.0175905196232
-0.0292855835382 -0.0122143727168 0.0168779384993
-0.0295056045382 -0.0157017854957 0.00225590714375
-0.0293903597213 -0.00627174030689 0.00991478209559
-0.0292806931358 -0.0101662004427 0.0172029421023
-0.0293054656911 0.00622653107168 0.0155566216123
-0.0293575154996 -0.00706395665242 0.0120975248358
-0.0292532572177 -0.00109814517639 0.0190262628525
-0.02913852881 -0.00511577046732 0.0266508185764
-0.0292648403873 0.0135476086546 0.0182564751071
-0.0291730331348 0.0152735096132 0.0243577496475
-0.0295349640572 -0.0203460125685 0.000304748810721
-0.0294175600591 -0.00304235130204 0.00810711740877
-0.02927614624 0.00463195452263 0.0175051171346
-0.0291989118917 0.0143623680034 0.0226379138364
-0.0293900208796 0.00144012602001 0.00993730064713
-0.0292024797698 -0.00268790278936 0.0224008018098
-0.0291313132948 0.00423884526623 0.0271303432074
-0.0295006028766 -0.0087177267356 0.002588304745
-0.0293818030242 -0.0134039536341 0.0104834382405
-0.0291495909737 0.0165140759493 0.0259156555495
-0.0293296563184 -0.0117124907155 0.0139489745624
-0.0292878183158 0.00233538179901 0.0167294209106
-0.0292479794923 0.0121468697551 0.0193770069441
-0.0295402938161 -0.0119771677886 -4.94532989989e-05
-0.0291445194453 0.0183081906015 0.0262526963194
-0.0293009521712 0.00890690368215 0.0158565785714
-0.0291532491171 0.00606365531107 0.0256725447197
-0.0291839281635 0.0195492712406 0.023633693981
-0.0292925522402 -0.0085703763387 0.0164148164376
-0.0294531011418 -0.0134957768917 0.0057451482079
-0.0293135195689 -0.0013899363571 0.0150213815478
-0.0297040008008 -0.0233387923318 -0.0187974527997
-0.0297040008008 -0.0255391493743 -0.0140805867401
-0.0297040008008 -0.0235215352792 -0.0260662035921
-0.0297040008008 -0.0253652378011 -0.027404075689
-0.0297040008008 -0.026302473719 -0.012517816941
-0.0297040008008 -0.0223287837945 -0.0204273073677
-0.0297040008008 -0.0261801785831 -0.0162472205262
-0.0297040008008 -0.0232960994346 -0.0226202941244
-0.0297040008008 -0.0245308064422 -0.0241507667588
-0.0297040008008 -0.0253450892427 -0.0222499926561
-0.0297040008008 -0.021095909789 -0.0228119515944
-0.0297040008008 -0.0215336830107 -0.0258317135509
-0.0297040008008 -0.0258419383027 -0.0200214509132
-0.0297040008008 -0.0240769179108 -0.0169095186459
-0.0297040008008 -0.0263360945897 -0.0243424794823
-0.0296567037263 -0.0181870607869 -0.0270574382746
-0.0285166497941 0.0112955829881 -0.0275272097239
-0.029177194197 -0.0057635071711 -0.0272533781836
-0.029445675103 -0.000666084817272 0.0019454864336
-0.0296041282978 -0.0161545884702 -0.00653082466392
-0.0293206821148 0.008889454672 0.0139581181185
-0.0296228770639 -0.0157117370534 -0.0120862094422
-0.0295926082858 -0.0156903716664 -0.00459047332237
-0.0294863024548 -0.0056070153933 0.0017121335922
-0.0295584451694 -0.00923561496444 -0.00899564394782
-0.0296450688892 -0.0196600255157 -0.00971407303717
-0.0294677382049 -0.00053352264362 -0.00381456605618
-0.0295996238408 -0.0111001505001 -0.0155210133597
-0.0295312051071 -0.00517044076038 -0.0103443545058
-0.0293054959961 0.0104531325402 0.0146119101154
-0.0296341242484 -0.013083009445 -0.0201464314649
-0.0295242531419 -0.00612796040027 -0.00669732138433
-0.0295211737946 -0.0090798357165 -2.48132349819e-05
-0.0295715528294 -0.00892309070824 -0.0128853679487
-0.0293153378667 0.0111114738641 0.0108436854464
-0.0296145501811 -0.0163840786061 -0.00866728535219
-0.0292439733519 0.0156895599656 0.0194580857599
-0.0295556315198 -0.0104591051304 -0.00584715693388
-0.0293299726666 0.00869316630591 0.0120369927891
-0.0293852190403 0.00537098150934 0.00492425112594
-0.0295351556222 -0.0100357334623 -0.00159461438084
-0.0291367059918 0.0254391862256 0.0266678310671
-0.0296593467948 -0.0222152151265 -0.00815803116111
-0.0293136185413 0.0103709538421 0.0127533878847
-0.0294588299339 -0.0035267459414 0.00439236520524
-0.0295016079309 -0.00408555157703 -0.00514359296741
-0.029697706325 -0.0188535968355 -0.0244368583139
-0.0294519747377 -2.60653784507e-05 -0.000903884375109
-0.0293598476044 0.00799330033319 0.00599676769873
-0.0293347358559 0.00928361340708 0.00966945140964
-0.0296881778468 -0.0171910361682 -0.0253899366483
-0.029603828639 -0.0139566193444 -0.010853503981
-0.0296490829015 -0.0183130434737 -0.013408572797
-0.0296190477801 -0.0124787499294 -0.0176005126926
-0.0293756772529 0.0042546766003 0.00953395257978
-0.0294642945015 -0.00194769905756 -0.000127671815245
-0.0296638968964 -0.0218176668301 -0.0100865847894
-0.029425501365 0.00229841101212 0.00103894178962
-0.029573913879 -0.0103940736182 -0.0105305068578
-0.0296194046328 -0.0145481740903 -0.0135492477404
-0.0292946951356 0.0122048216871 0.013797407737
-0.029378966977 0.00481628925752 0.0075910665762
-0.0294407993486 -0.00121427199521 0.00425651609541
-0.0295383627494 -0.00890826471195 -0.00464899478447
-0.0296639492567 -0.0189029681632 -0.0159308412442
-0.0296665178813 -0.0184254277293 -0.0175259395186
-0.0296621105781 -0.0203581268238 -0.0125616905313
-0.0293572046089 0.00753019336645 0.00758151221775
-0.0294285940746 0.00293049252557 -0.000995859176666
-0.0296970383915 -0.0237037985297 -0.0145670787475
-0.0292249809461 0.0181827422474 0.0192002499076
-0.0293921049438 0.0028173846185 0.00831809470218
-0.0294862232938 -0.00264499384936 -0.0041940425747
-0.0295722459329 -0.014054811129 -0.00279134337282
-0.0296762814853 -0.0213703288233 -0.0140659385686
-0.0295088838702 -0.00726867076371 -0.00058745092132
-0.029474099872 -0.0036363462756 0.000808635484818
-0.0295778666574 -0.012357133831 -0.00758760634387
-0.0296393350771 -0.0157697408191 -0.0160690561983
-0.0296315936502 -0.0142811032766 -0.0171192473197
-0.0291863622376 0.0214765783591 0.0222285640763
-0.0292736755542 0.0136087286488 0.0162236730362
-0.0295832149393 -0.0141724053051 -0.00528792755221
-0.0295493410649 -0.00891655845128 -0.00736656647833
-0.0296499247908 -0.0148461433957 -0.0205542099195
-0.0294421576952 -0.00230764310866 0.00610564249076
-0.0294986773677 -0.00513657999179 -0.00231101957076
-0.029494165806 -0.0022651636743 -0.00693203336232
-0.029398364329 0.00493518977327 0.00252225455138
-0.0296480574281 -0.0154975611498 -0.0187858987319
-0.0292083525551 0.0190252489579 0.0216560340993
-0.029253680885 0.015718745729 0.016982021749
-0.0296144890982 -0.0132036983928 -0.0150148175122
-0.0294796556429 -0.00287915752565 -0.00208988675034
-0.0295118191434 -0.00609570402307 -0.00366515009891
-0.0296451813044 -0.0204245438402 -0.00821255649833
-0.0296428605601 -0.0185341982793 -0.0114164426322
-0.0295225407893 -0.00797930500971 -0.00256701322442
-0.0294283706254 -0.000516534407956 0.00595599589696
-0.0294920257155 -0.00526978188111 -0.000387929693115
-0.0295996863814 -0.0119961240492 -0.0137440829989
-0.0295586150114 -0.00830210221023 -0.0109055513286
-0.0296823200794 -0.0206185285961 -0.0170739281996
-0.0294770257204 -0.000857895265709 -0.00547868674641
-0.0295922497842 -0.0140269515316 -0.00782906624358
-0.0296703628319 -0.0160708048404 -0.0231942446993
-0.0296925068697 -0.0193299049546 -0.0221890134755
-0.0296371147054 -0.0166462635128 -0.0137624773071
-0.0294001559809 0.00269227205438 0.00656327618785
-0.0296886160112 -0.0235129172571 -0.0128513551807
-0.0294186731234 0.00113715495946 0.00506276131079
-0.0296232147945 -0.017940139487 -0.00771212636012
-0.0295619207896 -0.0119962439026 -0.00433827139855
-0.0296800699792 -0.018731542445 -0.0202886874206
-0.0293492219354 0.00745048706895 0.00972907019924
-0.0294283395678 0.00114273194095 0.00264416278186
-0.0296634375301 -0.0172727995005 -0.019064749549
-0.0295901229901 -0.0122993839129 -0.0107555984996
-0.0291977870921 0.0208754937655 0.0186065602647
-0.0292789769819 0.0148396298121 0.00435330792037
-0.0295597176037 -0.00720808694612 -0.0134088196767
-0.029323657463 0.0113472679628 0.00108226589908
-0.0293960255295 0.00569229622649 -0.00425691425631
-0.0292101594123 0.0202543672889 0.00843379173892
-0.0294356856134 0.00257558240749 -0.00671140082126
-0.0294941115004 -0.00195307458796 -0.0120090457114
-0.0293248198757 0.0110097862306 0.00760385892143
-0.0293097181964 0.0125274234109 -0.000324824178876
-0.0294605359755 0.000612792304431 -0.00798392070125
-0.02950961212 -0.00324897706038 -0.0108848434597
-0.0291339845453 0.0259557251431 0.0207800039822
-0.0291824483104 0.0223277059106 0.0129443371853
-0.0291317894032 0.0264289232035 0.0128607799359
-0.0291542998633 0.0241853743412 0.0241801304618
-0.0291738414213 0.0229603181256 0.014649422959
-0.0291864728284 0.0218487470708 0.0170534769229
-0.0292763423331 0.0148296078977 0.0103312791103
-0.029337581102 0.0100709154424 0.00510019952931
-0.0292238825455 0.0190870662443 0.00996491023622
-0.0292033185878 0.0206615434768 0.0123507692567
-0.0293891087584 0.0061270765058 -0.000914827213249
-0.0294754290886 -0.000491798222283 -0.010668166305
-0.0291536289038 0.0246498833183 0.0131906461918
-0.0294566967501 0.000852123814986 -0.00607534309249
-0.0293695732499 0.0075536117259 0.00320544617731
-0.0292284127387 0.018600610427 0.0131790433571
-0.0292374718172 0.0177575999641 0.0161302840506
-0.0293761351547 0.00725342072134 -0.00297306422825
-0.0295989350797 -0.0102080994027 -0.0180303957067
-0.0295785626966 -0.00854307843502 -0.0184852269924
-0.0296407271143 -0.0134369255851 -0.0221016689625
-0.0291842299948 0.0222582654603 0.0109434886172
-0.0292609919639 0.0159416899333 0.0138057496108
-0.0291617360972 0.0236499078493 0.0224095599661
-0.0291660046032 0.023370698292 0.0206389698517
-0.0291625046319 0.0239958349588 0.0114772067989
-0.029148702835 0.0248328265922 0.0189650597088
-0.0291974684975 0.0210305820959 0.0151423937351
-0.0293498478916 0.0092882808785 -0.000517312832128
-0.0294073340495 0.00459379828979 0.000663734566124
-0.0292934881222 0.0137247797237 0.00277166702618
-0.0294503285719 0.00128578003416 -0.003891989707
-0.0295687335509 -0.00781510166695 -0.0166860866538
-0.0292647000365 0.0158656826585 0.00780617604068
-0.029243137006 0.0175765024681 0.00870469155407
-0.0294282870195 0.00310049218406 -0.00473960046683
-0.0294400469294 0.00230294849487 -0.00885926941081
-0.029130302443 0.0261154339771 0.0244810566833
-0.029372239231 0.00744487951692 0.000340822583642
-0.029525179444 -0.0044225956364 -0.0131809997387
-0.0291638002591 0.0236977922525 0.0166536002654
-0.0292568755558 0.0166532393834 0.00366498482769
-0.0292129999446 0.020089828396 0.00668588008782
-0.0295524148258 -0.00654022287777 -0.0154741941055
-0.0292209557847 0.0190372359453 0.0176423198345
-0.0291465187649 0.0251286004991 0.0157747723969
-0.0292990892588 0.0129809164645 0.0105605431572
-0.0295756205432 -0.00843970652097 -0.0148785212587
-0.0292929298166 0.0136191758145 0.00681053338597
-0.0292857905364 0.0139874231478 0.0124171350628
-0.0294260695594 0.0032055155582 -0.00274760407902
-0.0293056972524 0.0126610717105 0.00480864938622
-0.0296168104452 -0.0116137174835 -0.019113342853
-0.0293443865831 0.00966369922023 0.00126088659977
-0.0291780643098 0.0228219186335 0.00920559655843
-0.0291723055564 0.0229309667505 0.0187640475917
-0.0295096298861 -0.00332522475811 -0.00888078099379
-0.0292445029482 0.0175547909547 0.00632620266329
-0.0295421072555 -0.00583696081883 -0.0119761981673
-0.0267510953342 -0.0161766193087 0.0286144094153
-0.0281100758177 0.00380089844949 0.0283846339473
-0.0288415107211 -0.00349977138067 0.0277014186087
-0.0274029474641 -0.0176402656239 0.0281618258761
-0.0274589905195 -0.0018066410371 0.0286175705476
-0.0273629774224 -0.00409060773832 0.0286067604768
-0.0279199798492 0.000539378591635 0.0284022996132
-0.0279660652405 -0.00704489719277 0.0281384387476
-0.0277139695993 -0.0131403570678 0.0281069996663
-0.0169012970811 0.00978647069675 0.029144000262
-0.023405980964 0.0167852900419 0.029144000262
0.0069469493323 -0.0220368052734 0.029144000262
-0.00242456092249 -0.0119912561142 0.029144000262
-0.0223269334957 0.0204082024564 0.029144000262
-0.0202366524216 0.0152708392523 0.029144000262
-0.0119330484646 0.00179493284801 0.029144000262
