-0.0123526022266 0.0345038063997 0.0355540236617
-0.0149882599315 0.0366304241853 0.0313300006092
-0.021969389696 0.028239312137 0.0313300006092
-0.0148157773086 0.0316258253184 0.0325600569658
-0.0172581578182 0.0296975997594 0.0321945370812
-0.0197465335812 0.0277330615855 0.033077848962
-0.0120339998975 0.0395187162187 0.0315110513548
-0.0246622812474 0.0265320535786 0.0313300006092
-0.0200935325434 0.0352211731414 0.0313300006092
-0.0175925579278 0.03728036121 0.0313300006092
-0.0120339998975 0.0393883637105 0.0346839576909
-0.0212157458716 0.0276655779908 0.0354976694422
-0.0180325577692 0.0298214835681 0.0353081768162
-0.0232577633109 0.0257910428342 0.0351284446169
-0.0255737251349 0.0241633021976 0.035207211588
-0.0271744325571 0.0218688383009 0.0337884483725
-0.028378337321 0.0243731281833 0.0313300006092
-0.0242717789889 0.0341585140268 0.0313300006092
-0.0276637213344 0.0316150841284 0.0313300006092
-0.0149749880409 0.040005872657 0.0316318667676
-0.0270445108149 0.0340797724556 0.0326925002222
-0.0213695143329 0.0377508669752 0.0323709688153
-0.0202793016238 0.0387545410199 0.0347841145428
-0.0169394972778 0.0400000230361 0.0351936494085
-0.0145778865509 0.0409159870865 0.0353351695429
-0.0293910000473 0.0249464344556 0.0340808158016
-0.0281628354106 0.0243235763652 0.0368062390006
-0.0218969985751 0.0298566222459 0.0370617419716
-0.0259592471804 0.02674244738 0.0369970480602
-0.0249522410185 0.029488719465 0.0371159985662
-0.0196629240801 0.0329769084204 0.0371159985662
-0.01543995725 0.0349922965219 0.0371159985662
-0.0220340517454 0.0360099511533 0.0367051403145
-0.029372028072 0.0305815365647 0.0366343268428
-0.028167418306 0.0331441053801 0.0357325772639
-0.0247676288726 0.0358811890379 0.0350920536333
-0.018124825843 0.0356152965838 0.0371159985662
-0.0252222457259 0.0327396406415 0.0371159985662
-0.0149649858659 0.0379898108468 0.0371159985662
-0.00925029784643 0.0416808302016 0.0365593942016
-0.00256604653077 0.0410289725941 0.0313300006092
0.00202047371191 0.0372444989724 0.0313300006092
-0.00810600268861 0.0398802290204 0.0313300006092
0.00072962147437 0.0399251664814 0.0313300006092
-0.00166258340637 0.0381334248005 0.0313300006092
0.0053220000118 0.0379263510153 0.033703195194
-0.00282454518873 0.0347680349601 0.0326304657432
-0.00988686669052 0.0340433284278 0.0334995344471
-0.0120339998975 0.0358660784808 0.0333005105325
0.00253105880455 0.0389865558761 0.0369426571473
0.0053220000118 0.0405881275777 0.0333319627865
0.00271767576487 0.0433367768708 0.0330262599346
-0.00484501182511 0.0424332985564 0.0319026884619
-0.00061512779146 0.0423884806415 0.0365081291172
-0.00239038683423 0.0435749467757 0.0346097347594
-0.000142041261566 0.0350433025358 0.0333446538112
-0.00944295072794 0.0428193465937 0.03342112565
-0.00657054805705 0.0426995167774 0.0360445771121
-0.00102372021975 0.0370072234057 0.0366860590938
-0.00970870091127 0.0357181426046 0.0364062767351
-0.00605632459462 0.0347696622556 0.0349215911949
0.00235036515564 0.0360666318512 0.0354449143263
-0.00319773812909 0.0356298877359 0.0356861672968
-0.00327203517037 0.0407708601491 0.0371159985662
-0.0095499860462 0.0384671510941 0.0371159985662
-0.00590102332398 0.0387872720564 0.0371159985662
0.0162556466011 0.0405211865598 0.0322819094165
0.0119919633819 0.0358894026959 0.0313300006092
0.0207335121056 0.0330260615334 0.0313300006092
0.0146814487978 0.0369778949382 0.0313300006092
0.0203545481807 0.0373585650984 0.0313300006092
0.00729674725579 0.0404810980501 0.0313300006092
0.0133732648795 0.039649057409 0.0313300006092
0.0053220000118 0.0406993390596 0.0365179490322
0.00844645011667 0.0360103906572 0.0365772844431
0.0173761312028 0.031483146454 0.0361097586804
0.0201451734448 0.0321907607885 0.0366691361821
0.0226811517256 0.0360967861702 0.0360093616457
0.0110165867201 0.03808536547 0.0370970135346
0.00676920621464 0.0379746063503 0.0368303822087
0.013963968488 0.0354943915462 0.0369477150759
0.0197404983785 0.0354194335477 0.0369508732977
0.0170626657487 0.0364440481391 0.0369816480879
0.00584254262463 0.0356129262663 0.0351342819657
0.0202771166912 0.0296893498203 0.0357058143868
0.0192755799657 0.0389936346962 0.0352432353922
0.0218725401201 0.0379203628871 0.0337725837055
0.0133654649452 0.0415627739506 0.0339697500143
0.00970440550772 0.0425790129989 0.0338417450587
0.0229404129472 0.0281182346369 0.0350522117307
0.0147976592628 0.0311185254144 0.031589411737
0.0216444502962 0.0280541341009 0.0328801916956
0.014308396883 0.0316802011847 0.0349362363121
0.00760522766399 0.0344033696172 0.0326556010511
0.00998331019021 0.0334296261333 0.0344543920528
0.0120704319376 0.032350425667 0.0326602941627
0.0170249907658 0.0301287375949 0.0335101299578
0.0231229998171 0.0321305692285 0.0344720581677
0.00709891965801 0.0426365693577 0.0356146062665
0.00935924638237 0.0407964055466 0.0368326168662
0.0141825791571 0.0398944344645 0.0365678831264
0.00668665459427 0.0430613829277 0.0325519970639
0.0109603613091 0.0417606898984 0.0315720339043
0.0179550079842 0.0385723308431 0.0313300006092
-0.0290155649602 -0.0137775780013 -0.0318650007248
-0.0311334188498 -0.00133884666477 -0.0318650007248
-0.029236139061 -0.00540198113487 -0.0318650007248
-0.0307262352325 -0.00829550795629 -0.0318650007248
-0.0321185844793 -0.00956595096147 -0.0351553960368
-0.0306516017822 -0.0139065802174 -0.0350489029203
-0.0316702950656 -0.0117423890727 -0.0331143588257
-0.0310692082121 -0.000988206357023 -0.0367590002716
-0.0282790170809 -0.0127513897565 -0.0367590002716
-0.028831841222 -0.00862289355973 -0.0367590002716
-0.0329215458744 -0.00659383572656 -0.0334664922025
-0.0336665550972 -0.00152983313415 -0.0342294718981
-0.0245740666825 -0.0174108914499 -0.0324915052784
-0.0260397217309 -0.0135295401518 -0.0342971020923
-0.0250786702821 -0.0163849730995 -0.0365265715651
-0.0269484302052 -0.0110020771723 -0.0340856353519
-0.0291068310745 -0.00517112838746 -0.0354791787996
-0.0282410886979 -0.00748006490721 -0.0339127069772
-0.0305654581698 -0.0114733869171 -0.0367590002716
-0.0318007789663 -0.00418903168618 -0.0367590002716
-0.025596086032 -0.0222317082259 -0.0338246583857
-0.0244224408792 -0.0233017817995 -0.0358265373268
-0.0261261994358 -0.0207354615312 -0.036738195866
-0.0286049909571 -0.0182727422428 -0.0351429043225
-0.00885843693263 -0.0274698419017 -0.0330591515315
-0.0221642364767 -0.0209569360725 -0.0325298806456
-0.0218441853502 -0.0211135942907 -0.0352305245205
-0.0182039903434 -0.0228953923104 -0.0330079696312
-0.0122763853507 -0.0257968288594 -0.0334505219086
-0.0106336281452 -0.0267053795155 -0.0357523074423
-0.00607241307003 -0.0289268408029 -0.0345569394509
-0.0144661673708 -0.0247396135044 -0.0347591848457
-0.0117535912611 -0.031755384879 -0.0341100954888
-0.0154579769327 -0.0298731725266 -0.0344765070522
-0.0198269003328 -0.0273533497671 -0.032695234851
-0.0207918080434 -0.0261918411301 -0.0363912131678
-0.00914550740981 -0.0316527231179 -0.0366801284643
-0.00503749934974 -0.0332298278104 -0.0342746125873
-0.00839606303898 -0.0327333844331 -0.033939401651
-0.0225958116568 -0.0251294005141 -0.0339472417106
-0.0133463837527 -0.0263484206651 -0.0368574551267
-0.00242886266483 -0.0324574868879 -0.0371269749018
-0.0177174334323 -0.0271078015119 -0.0371547438687
-0.00970341021341 -0.0289869945241 -0.0370805144381
-0.00658077958483 -0.0303899563492 -0.0371143911645
-0.0200630595665 -0.0232407512495 -0.0368659049512
-0.015381472608 -0.0286636751828 -0.037115999626
-0.0246880660341 -0.0279609961463 -0.0291528798955
-0.0200449991971 -0.009222687897 -0.0286289822738
-0.0277282475599 -0.0203262983267 -0.0283039994538
-0.0320674408464 -0.0120726741372 -0.0283039994538
-0.0270264113547 -0.0186001594634 -0.0318639986217
-0.0305386299926 -0.00999881985508 -0.0283039994538
-0.0246931695535 -0.0180114404077 -0.0283482029004
-0.0256454098842 -0.0116465997334 -0.0284089852497
-0.0286430303486 -0.000472552310281 -0.0284755131941
-0.0232774743664 -0.00206048029983 -0.0286157533554
-0.02988093151 -0.00480666675922 -0.0283769583021
-0.0262749576038 -0.0150895861159 -0.0283414169271
-0.0266732534316 -0.00670956215272 -0.0284473677656
-0.0250272088375 -0.00453751910837 -0.0285278416665
-0.021241791653 -0.00654167724221 -0.0286143334511
-0.0220236727882 -0.0138649085975 -0.0284875006629
-0.0278409184458 -0.00901199433207 -0.0283795548749
-0.023989230242 -0.0216764844003 -0.0283179187202
-0.0237307108471 -0.00822258062636 -0.0285152331453
-0.0212928033706 -0.0223955403718 -0.02838950741
-0.022717578732 -0.0259646214236 -0.0311079427481
-0.0271574070877 -0.0250819755651 -0.0296846663493
-0.0336908461883 -0.0147041782363 -0.0298457607882
-0.0321027986072 -0.018945778915 -0.0287269162365
-0.0264230760797 -0.0223517249818 -0.0310833836163
-0.0296459358047 -0.0174522047716 -0.0315338260059
-0.0289279805287 -0.0202936362054 -0.0308653429142
-0.0336249315233 -0.0102624839883 -0.030920951819
-0.0314047634888 -0.0150024597061 -0.0311705585839
-0.0342502577552 -0.00567109558453 -0.0312523870299
-0.0346668577515 -0.00272588520785 -0.0309548156396
-0.0246674273821 -0.0129564783362 -0.0318283472315
-0.0201482469529 -0.00754979952966 -0.0309855653964
-0.0247613092424 -0.00250303801595 -0.0312588447751
-0.0284396517728 0.000442423736072 -0.031536681356
-0.0287404352452 -0.00271562547497 -0.0317482361347
-0.0231164701004 -0.00630650647208 -0.0312727411925
-0.0212830337613 -0.00423427032652 -0.0309375605976
-0.0200843141141 -0.0169846066131 -0.0315020693419
-0.0219353500532 -0.0142226020858 -0.0315707824219
-0.0215258449107 -0.0103255078954 -0.0313051189874
-0.0262505594528 -0.0089200515812 -0.0317941019882
-0.025937775624 -0.00530326449439 -0.0315556204358
-0.036989654007 -0.00215344858896 -0.0283039994538
-0.0349855618075 -0.012157352483 -0.0293324029347
-0.0366170436707 -0.00627714807964 -0.0291394729598
-0.00761405098801 -0.0333824658858 -0.0313647034792
-0.00408437561091 -0.0333450773901 -0.031685217397
-0.00179999996908 -0.0262858915125 -0.0286935540361
-0.00179999996908 -0.0163840906461 -0.0288383743701
-0.00179999996908 -0.00913251166372 -0.0287539415684
-0.00179999996908 -0.0278437887624 -0.0317199394825
-0.0200449991971 -0.0255693596076 -0.0296665155117
-0.00395699043826 -0.0201601748678 -0.0284918181555
-0.00644924765515 -0.024957810358 -0.028420956362
-0.00949991665107 -0.0303696221698 -0.0283397023623
-0.0168477150611 -0.0257453357171 -0.0283542060229
-0.0043857158485 -0.00570547542265 -0.0286615188347
-0.0157732587594 -0.028428511598 -0.0283281945002
-0.0118046063845 -0.0290411671351 -0.0283427994437
-0.00414576855899 -0.0148427220702 -0.0285540745781
-0.011474487465 -0.0238700571821 -0.0284061769517
-0.00596927692408 -0.0281947251394 -0.0283850730249
-0.010313923506 -0.0208746724322 -0.0284482371585
-0.00250762392825 -0.00222525221326 -0.0287133095897
-0.00552196195254 -0.0124212913953 -0.0285753054316
-0.00782021716532 -0.0335093236976 -0.0283115959956
-0.00599248491689 -0.0314075597861 -0.0283466999372
-0.00931351211828 -0.027348424919 -0.0283766947033
-0.00667895335177 -0.00974791385903 -0.0286007449114
-0.0091135298329 -0.0120875258469 -0.028559461274
-0.0132021689237 -0.0198272593564 -0.0284447688711
-0.0120836695702 -0.0168777672753 -0.0284860506789
-0.00691400856699 -0.0185867216531 -0.0284942322915
-0.00915137633418 -0.0158400678491 -0.0285145828313
-0.0162784678171 -0.00933659888363 -0.0285985190627
-0.0113023426779 -0.00128956144432 -0.0287223155924
-0.0190678417093 -0.0157699199139 -0.0284995481278
-0.00715427030734 -0.00589133205696 -0.0286515214353
-0.0135515776956 -0.00354706908613 -0.0286875858407
-0.0182809926281 -0.022662366902 -0.0283935139476
-0.00996946530077 -0.00843731462769 -0.0286123537529
-0.0147801429794 -0.0171767072158 -0.0284779059536
-0.00742548692188 -0.00244554867355 -0.0287045317548
-0.0162449444531 -0.000974069970272 -0.0287271691488
-0.0128368982434 -0.0140064484347 -0.0285266775716
-0.0107338030601 -0.00446777694202 -0.0286734215675
-0.0195162487496 -0.00264726813657 -0.0287014284798
-0.0189624504279 0.000407330571328 -0.0287484207702
-0.0175718556981 -0.0125158544798 -0.0285496090367
-0.0175055238415 -0.0195447969029 -0.0284414749953
-0.0178418111631 -0.00652556349096 -0.0286417643476
-0.0135680044247 -0.00747399082118 -0.0286271736348
-0.0200449991971 -0.0199228165181 -0.0289192521848
-0.00418723799443 -0.0361224579342 -0.0283039994538
-0.013775657413 -0.0339399521374 -0.0298233140764
-0.00814218734895 -0.0115253136908 -0.0316192533994
-0.0160985900571 -0.0214567150614 -0.0318035620463
-0.0043463799659 -0.0301451979079 -0.0318386450277
-0.00389703517556 -0.0141720164964 -0.031625455964
-0.0104498374143 -0.0182609422808 -0.0317234321103
-0.00491229416264 -0.0227456550334 -0.0317451043202
-0.00486626716633 -0.0115487189135 -0.0315974755741
-0.00393935248684 -0.0256822237773 -0.0317771814184
-0.00310863103745 -0.00933682848415 -0.0315565239401
-0.00982844760499 -0.0250995431561 -0.031809218478
-0.0134074326421 -0.0169943528505 -0.0317267072224
-0.0102066441241 -0.0142391331816 -0.031668877469
-0.00345921798147 -0.0182195989415 -0.0316757584342
-0.0065813689447 -0.0159854523699 -0.0316674127771
-0.00180014095346 -0.000530168134823 -0.031431832788
-0.00937001801291 -0.0223065587635 -0.0317693804306
-0.00405528450169 -0.00349470792505 -0.0314860411745
-0.00782050441035 -0.0197044159611 -0.0317246973652
-0.00680473859575 -0.0250656464206 -0.0317883870995
-0.0127981044718 -0.0223052112952 -0.0317924743529
-0.0169804440554 -0.025753216672 -0.0318639986217
-0.0113231717262 -0.0287479320485 -0.0318639986217
-0.00884097330988 -0.0308953594197 -0.0318639986217
-0.0159742685013 -0.00506988722912 -0.0311313975017
-0.0174738280723 -0.0123161135781 -0.0314155902023
-0.0180211572068 -0.00974464393229 -0.031234770534
-0.0176404970457 -0.00269573707285 -0.0308784530856
-0.0140498556689 -0.0024937385923 -0.031133430191
-0.0193559732264 -0.019936153073 -0.0316918322715
-0.0146077836303 0.000372202312335 -0.0309357619908
-0.0135426132391 -0.0063717181963 -0.0313825501593
-0.0065301210055 -0.00535812662832 -0.0315245208508
-0.00860590232206 -0.00298968234024 -0.0314814549878
-0.014381806953 -0.0142204469146 -0.031685666069
-0.00886872106615 -0.00793779424846 -0.031571427427
-0.0165460660549 -0.0172608296316 -0.0317409499134
-0.0124579699934 -0.0122415803415 -0.03164968397
-0.0105935910557 -0.00587260251299 -0.0315338756615
-0.01463181277 -0.0295965107226 -0.0318639986217
-0.0195079346114 -0.0293529719955 -0.0308573393627
-0.0165162289983 -0.0318490536832 -0.0304315097342
-0.0109051932258 -0.033824201887 -0.0307239461705
-0.00179999996908 -0.0348151110019 -0.0147193547294
-0.00179999996908 -0.0345855900844 -0.00461937620557
-0.00179999996908 -0.0356657115418 -0.021989531628
-0.00179999996908 -0.0358660250274 0.00663909115219
-0.0159836568324 -0.0324870012701 -0.0223622344501
-0.0127065271114 -0.0324870012701 -0.0132500536802
-0.0126009203655 -0.0324870012701 -0.0196751507345
-0.0164372887789 -0.0324870012701 -0.0159686101999
-0.00342934521653 -0.0340897391257 0.0114461102337
-0.00678968095456 -0.0339872666897 0.0247247590711
-0.00429307611087 -0.0342416038323 0.0180664048838
-0.00200976762985 -0.0334240618141 -0.00692296006089
-0.00796077856574 -0.0329924446449 0.0120910631086
-0.00703725863929 -0.0334682643506 0.0164983183283
-0.00283098789657 -0.0335088414183 -0.00170133123288
-0.00436825313474 -0.0334687175803 0.00449486612776
-0.00214517947441 -0.0346156932461 0.0151325968761
-0.00510621529947 -0.0346022296367 0.0282161524543
-0.00426531765273 -0.0344315840836 0.0213606121626
-0.00349556519439 -0.0348211143071 0.0249069057444
-0.00486930197179 -0.0335603295556 0.00839855767833
-0.00537665381868 -0.0337708317692 0.0144703186455
-0.00833531360498 -0.0337174875814 0.0268254383423
-0.00983989820128 -0.0331948512369 0.0241906371037
-0.0080833853271 -0.0333453422227 0.0189940469972
-0.0106284377907 -0.0332532895573 0.0287911176128
-0.00366122265108 -0.033433966871 0.000687522756549
-0.0188437757824 -0.0324870012701 0.0163663705078
-0.0153043751777 -0.0324870012701 0.0290164992838
-0.0154242645582 -0.0324870012701 0.0259114541468
-0.017809406528 -0.0324870012701 -0.0247480283
-0.0182873487955 -0.0325606982952 0.0313300006092
-0.00179999996908 -0.0364889094945 0.0102476695481
-0.00291714649878 -0.0381586073761 0.0236738351791
-0.00263801377298 -0.0382714940953 0.0312292632096
-0.0170434435631 -0.034242119239 0.0188805676226
-0.0166101595874 -0.0346327481674 0.0302983069425
-0.017005485192 -0.0339853593938 0.000812125554045
-0.0173041946743 -0.0339964910489 0.0113181826152
-0.0173206779649 -0.0336998380553 -0.0075827118933
-0.0189632719538 -0.0334279093565 0.0283582137477
-0.0167425588755 -0.0342286086547 0.00814742052619
-0.0177455923624 -0.0336696781447 0.00434801712319
-0.0157573356419 -0.0350128690779 0.0272961519728
-0.0107044611827 -0.0361625661671 0.0313300006092
-0.0157676230071 -0.0349574235895 0.0241567105578
-0.0152603609075 -0.0348267274788 0.00314205023114
-0.0149142938288 -0.0346678668608 -0.0153079904859
-0.0142603129095 -0.0348597080455 -0.0211345415104
-0.0149249238084 -0.035096778189 0.0102840080689
-0.0155638612785 -0.034192229344 -0.0263461101283
-0.0154932113547 -0.034349350766 -0.0189257667465
-0.0152898927098 -0.0349957822072 0.0138936086283
-0.0155374233794 -0.0346025733272 -0.0028218944382
-0.0147021303229 -0.0349085244516 -0.00666828928941
-0.0153974496785 -0.0345331332724 -0.0105904280142
-0.015696662817 -0.0348614067083 0.0166293358078
-0.0118991831897 -0.0324870012701 -0.00449688756956
-0.0135877144039 -0.0324870012701 0.0200665859184
-0.0105494582949 -0.0324870012701 -0.0215505023103
-0.0109660426246 -0.0324870012701 -0.0157611382188
-0.0122709128617 -0.0324870012701 -0.00081376320883
-0.0127549544847 -0.0324870012701 -0.00838443098016
-0.00750503690527 -0.0328687369435 -0.0256288599222
-0.0107578123879 -0.0325280671597 -0.0258415371539
-0.00536397036016 -0.0330096318563 -0.0233474762132
-0.01204170531 -0.0325841593266 0.0152531549831
-0.00999483350604 -0.0326039208858 -0.00986044238689
-0.0120852171181 -0.0325134589672 0.00548835401474
-0.00826661238101 -0.0327236690653 -0.0159618868427
-0.00640114762146 -0.0330020388786 -0.000697439436448
-0.00620411015542 -0.0329321671036 -0.0136324987287
-0.00541780851378 -0.0330560395602 -0.00624035667737
-0.00712157843625 -0.03286577812 -0.0108063022332
-0.0112166221419 -0.0326816084988 0.018242622489
-0.00646095025771 -0.0330143658908 0.00192726296085
-0.00875422763329 -0.0327400750217 -0.00688527992067
-0.00964002297443 -0.0327320762281 0.00406382567204
-0.0131449873459 -0.0325380588322 0.0235950409302
-0.00944355758086 -0.0327100694749 -0.00184940999937
-0.010016834644 -0.0325837880895 -0.0125095778027
-0.00708825700623 -0.0329153874934 -0.00399266534271
-0.0117918309906 -0.0325769373962 0.0107755946569
-0.0113647980786 -0.0326906667698 0.0215976337995
-0.00972864860242 -0.0325670224278 -0.0189099052614
-0.00487921717198 -0.0330877222351 -0.00896775805129
-0.00778849139396 -0.0329277924342 0.00740712538188
-0.00210815427572 -0.033344569651 -0.0100752065111
-0.00346870033204 -0.0332013884812 -0.0206640387958
-0.00532861503397 -0.0330056547449 -0.0181919315207
-0.00189290807112 -0.0333672217349 -0.0173417369714
-0.00697912942355 -0.0328319578825 -0.0207521122985
-0.00455475998404 -0.0380928894488 0.0287357672027
-0.00897012681072 -0.0373068419887 0.0276242676469
-0.00541655740382 -0.0373373087817 -0.017380963923
-0.00649912563695 -0.0372771164165 -0.0110497432279
-0.00648887399777 -0.0373374850172 -0.00742477232035
-0.00338430867622 -0.0375389187842 -0.0153264460029
-0.00418721038725 -0.0375636261442 -0.0122678223141
-0.00277781796099 -0.0374825274237 -0.0200582634442
-0.00246996927449 -0.037735489529 -0.00438771480276
-0.00421670075694 -0.0374018859005 -0.0225943247043
-0.00582112396161 -0.0371194501759 -0.025390254163
-0.00563804609192 -0.0376760586562 0.00618529880223
-0.00388681765756 -0.0379333303504 0.0122038149021
-0.00420500437385 -0.0379407773401 0.0150211974894
-0.00586646480776 -0.0378953899738 0.0236507631417
-0.00457620571581 -0.0377283869034 0.00235318361613
-0.00512701319161 -0.0375737829148 -0.00485753041654
-0.00478443966081 -0.0379424467507 0.0192935827739
-0.00398635041868 -0.037878529808 0.00896215459276
-0.00526690708058 -0.0376125436928 -0.0010578343605
-0.00977014314371 -0.0370253143177 0.0197225710696
-0.00965541385197 -0.0369606035798 0.0132228474384
-0.00938178512064 -0.0367136772847 -0.00881927273518
-0.00846674562282 -0.0370442155175 -0.000854742022671
-0.00810182797472 -0.0371979787358 0.00387159577496
-0.00910256404546 -0.037028938575 0.00875538717696
-0.00884507018724 -0.0372822380418 0.022318572063
-0.00799684409117 -0.0369333956636 -0.014882275863
-0.00728400990525 -0.0369894574113 -0.0208050493718
-0.00799002959413 -0.0368877552872 -0.0178774284295
-0.00693478560488 -0.0376598040925 0.0172045241217
-0.00848041091736 -0.0366840188049 -0.0243139138557
-0.0190495228314 -0.0325864577765 0.0068235685476
-0.0181729249293 -0.0327534500293 -0.0191288139616
-0.0183530122631 -0.0331846284881 -0.00118950291148
-0.0075313598061 -0.0365189558609 -0.0280702729942
-0.0130040183319 -0.0351266866508 -0.0274856743462
-0.00981840770267 -0.0362627461789 -0.0266017808057
-0.0132590149864 -0.0355865652205 -0.00225773577195
-0.0116249327626 -0.0364442685399 0.0174252181482
-0.0125057443821 -0.0356811601867 -0.016524793447
-0.0116882822383 -0.0365330962501 0.026135278136
-0.0138072032712 -0.0357870488364 0.0290241857582
-0.0128627266729 -0.0360548815752 0.0227153810465
-0.0128185942834 -0.0356015616685 -0.0137274496344
-0.012796216755 -0.0359709137538 0.0142917837481
-0.0149287881388 -0.0352613145457 0.0204005723802
-0.0118750625913 -0.0362627200705 0.0105122914531
-0.0113776235465 -0.0363862921769 0.00638301651451
-0.0114472404201 -0.0362712132456 0.000274229503774
-0.0107160229564 -0.0361929772764 -0.0185638952763
-0.0108234862943 -0.0364987541902 0.00318391069081
-0.0118663255916 -0.0360400250139 -0.00673118561041
-0.0100320291445 -0.0365008233212 -0.0116112602537
-0.0104393647931 -0.0365138615785 -0.00308712564756
0.0247298020149 -0.022696999833 -0.0341715113589
0.00100103146999 -0.0303163871972 -0.0318639986217
0.0157659937806 -0.0274470974124 -0.0318639986217
0.0208741508501 -0.0257625744751 -0.0370296243891
0.018079435748 -0.0240833535323 -0.0368032932118
0.0157110361709 -0.0264251816582 -0.0370187470494
0.0131463469026 -0.0279961465585 -0.0371214283117
0.0182732770235 -0.0260557190194 -0.0318639986217
0.0207101592898 -0.0267394418381 -0.0331004417567
0.0230941095369 -0.0242383298604 -0.0362459807203
0.0186718575443 -0.0279973750404 -0.0358260151621
0.011028964822 -0.0318269143335 -0.0349235877627
0.0137651791171 -0.0306424028848 -0.0360514823497
0.016882405128 -0.0292542862087 -0.0338607980935
0.00469002405985 -0.0287338067107 -0.0341307901851
0.0129179041669 -0.0256688804768 -0.0326508552293
-0.00164929994155 -0.0310952364089 -0.0346525430246
0.0155855254008 -0.0246751783086 -0.031941434537
0.00647922860893 -0.0283826292342 -0.0367301964586
0.019485497358 -0.0233072582431 -0.0347075052132
0.0157173374305 -0.0246984406001 -0.035068880345
0.00937683096114 -0.0270423723096 -0.0357693598676
0.000342867442098 -0.0303608003878 -0.036125677022
0.0091512796083 -0.0324797097353 -0.0318639986217
0.000905014294888 -0.0335589536811 -0.0318639986217
0.00244728857778 -0.0337165450483 -0.0353392518203
0.00575916984226 -0.0332244877904 -0.0361827566187
-0.00145895846406 -0.0336047664873 -0.0331616685555
0.00771836659098 -0.032969148638 -0.034532551058
0.0102788275615 -0.0299611321862 -0.0372029989958
0.00724467302259 -0.0307645706892 -0.0372029989958
0.00371796679488 -0.0316506466418 -0.0372029989958
0.0288300258637 -0.0128035929326 -0.0318639986217
0.0232700449565 -0.0200089091836 -0.0318639986217
0.0307331996884 -0.0026411326523 -0.0318639986217
0.0280900241289 -0.00849769392609 -0.0318639986217
0.0265404422017 -0.0208167330809 -0.0321907098977
0.0259760270492 -0.0211486851255 -0.0359100714465
0.0310129392609 -0.0131435241264 -0.0340009410621
0.0295133911662 -0.0161429012341 -0.0329453021775
0.0280887742437 -0.0186365395507 -0.0345048639825
0.0322637762105 -0.00881620797446 -0.0356456849669
0.0315163035223 -0.0113131726263 -0.0366324179652
0.0290886881233 -0.0135963534523 -0.0369431237493
0.0285440211028 -0.0162424658117 -0.0369375604547
0.0322071930058 -0.00537935486284 -0.0368138628791
0.0296805153994 -0.00903212578222 -0.0369185426607
0.0291292996559 -0.00541858279505 -0.0367724935662
0.0246413392621 -0.018050134521 -0.0369320455273
0.0254429243357 -0.014732207658 -0.0368274233043
0.0333171326669 -0.000693310120064 -0.0320626838342
0.0331320832643 -0.00543582835763 -0.0339828624773
0.0328183589498 -0.00161792526281 -0.0366656106494
0.0253677829899 -0.0129451203056 -0.0339871166129
0.0246078609093 -0.0149301144255 -0.0322984219827
0.0233513677185 -0.0177604919284 -0.0335534649397
0.0280602993371 -0.00667648764645 -0.0340123165532
0.0224685566824 -0.0196404891194 -0.035522054518
0.0265205762664 -0.0102462106092 -0.0355420631392
0.0293706421809 -0.00363856412132 -0.0340086921743
0.00225750473396 -0.0379397908372 0.00817885585881
0.00261592086953 -0.0376449917549 -0.0100968787005
0.00253000298664 -0.0380595309117 0.0164385139844
0.000583594035763 -0.0380283503087 0.0105352001988
0.00237547070174 -0.0381888084869 0.0244582190436
0.00184533562909 -0.0381557598723 0.0212682963496
0.00269490269545 -0.0378692826257 0.00451142391011
0.00138746777978 -0.0380533003262 0.0137510666264
0.00302303067401 -0.0376762715615 -0.00726706823773
0.00860138158931 -0.0341918832291 0.027871292926
-0.00179899996147 -0.0359865309067 -0.00877733659246
0.00977199990302 -0.0342147441292 0.0192975704275
0.00977199990302 -0.035232708389 -0.0146594892229
0.00371479428924 -0.0368260451223 -0.028070967788
-0.00133639683684 -0.0350878776389 0.0230124596837
0.000438898546851 -0.0343391622656 0.0134304776036
0.00525261139329 -0.0345808917149 0.0287702015654
0.00764723248244 -0.0343700119956 0.0303784112045
0.00467195591033 -0.0340675945477 0.0181142306891
0.00331303453894 -0.0340464677845 0.0146407128477
0.000470960104879 -0.0339832398708 0.00702977252276
0.00579377856377 -0.0341132900855 0.0214956098743
-0.00101633958329 -0.0340447671175 0.00476773846931
0.00207374697842 -0.0344971798999 0.0200210651626
-5.05585919696e-05 -0.0336232860759 -0.00070272023286
0.00180279206006 -0.0346810349997 0.0227490937085
-0.00146498055954 -0.0349320743072 0.0198863643642
0.00323565577211 -0.0338318103322 0.0105605715631
0.000201719278201 -0.0341958746649 0.0102851488611
-0.000202755303522 -0.0337911059513 0.00200363140805
0.00329096121289 -0.0346605865245 0.0257602536463
0.00647218656889 -0.0342322640275 0.025201769733
0.00128594290835 -0.034421352529 0.0168509721925
7.8001527767e-05 -0.0360754182466 0.0313300006092
-0.00179899996147 -0.0358601345635 0.0267192951952
0.00652959016849 -0.0333769991994 -0.0238860596547
0.00502539422777 -0.0333769991994 -0.0260539786994
0.00500161113093 -0.0333769991994 -0.0211162965412
0.00130594861526 -0.0333769991994 -0.0166092928189
-0.000158877527398 -0.0333769991994 -0.0194218217234
0.0026983479074 -0.0333769991994 -0.0239924137377
-3.53503508705e-05 -0.0333769991994 -0.0230779405686
0.00977199990302 -0.0362895293445 0.0148308849831
0.00447633088306 -0.0378721309216 0.0313300006092
0.00501045464975 -0.0333769991994 -0.0115378467042
0.00748929647619 -0.0333769991994 -0.0198668871864
0.00956604265555 -0.0333769991994 -0.0174470758588
0.00271258826404 -0.0333769991994 -0.0141280882887
0.00194165699635 -0.0333769991994 -0.0110234762062
0.00922892466307 -0.0333769991994 -0.0227384872581
0.00633892541682 -0.0333769991994 -0.0160426967928
0.00674106518362 -0.033837249173 0.0110649828356
0.00771641563755 -0.0337069277155 0.00442315242817
0.00237665424356 -0.033679338376 0.00451398785895
0.00120635279938 -0.0334391072505 -0.00692826268038
0.00055705337493 -0.0335062825518 -0.00346512201681
0.00465764694742 -0.0334234083904 -0.00862814399794
0.00423296574968 -0.033555094978 -0.00206812232606
0.00388510678078 -0.0337451430099 0.00732766629266
0.00342360348047 -0.0336067210869 0.000677163825852
0.00797863930108 -0.0339661839889 0.0170416781285
0.00735484644872 -0.0337800503855 0.00809972900292
0.00667229893221 -0.0336314134564 0.00100891260935
0.00413150522597 -0.0334772546395 -0.00585063399143
0.00576291479923 -0.0338822207009 0.0135301162125
0.00920414082022 -0.0341023740954 0.0233767420392
0.00759330786664 -0.0335551891006 -0.00297046817147
0.00702702381236 -0.0342512054541 -0.0283039994538
-0.00179899996147 -0.0350013094274 -0.0272272942925
-0.000432646172338 -0.037671244047 -0.0109460132205
4.54330179446e-05 -0.0378007480618 -0.00321911293523
0.00067193700777 -0.0375436660634 -0.0180297973258
-0.000520830311727 -0.0374292708127 -0.0251135237389
-0.000420985518019 -0.0379196828101 0.0035736092188
0.000433355291157 -0.0374830903968 -0.021649079849
-8.04335452768e-06 -0.0377460742812 -0.0064315056672
-0.00165612315983 -0.0373839205511 -0.0281438399576
-0.00061178044546 -0.0381274408096 0.0156484743479
-0.00134972910638 -0.0382604392204 0.028092696495
-0.00121847893423 -0.0378598162564 0.000579121056775
-0.00170354670763 -0.038128009961 0.0211167687738
0.00182641549228 -0.038272999227 0.0292279744264
-0.00023152403403 -0.038272999227 0.0249293872757
0.00962136464953 -0.0364388336051 -0.0107852288032
0.00930549987737 -0.0367876993799 -0.00117341034437
0.00959723442187 -0.0368871343706 0.0196469212477
0.00841945596746 -0.0374383860014 0.0248971206648
0.00873454685342 -0.0370153422181 0.00142066480792
0.00752884015936 -0.037708094255 0.0285388303103
0.00821059543404 -0.0367236908021 -0.0235547861388
0.0090071251713 -0.0366761732785 -0.0170149448358
0.00735994862811 -0.0374266035407 0.00859098462217
0.00838059809429 -0.0370193155871 -0.00381304339791
0.00723679215775 -0.036984909606 -0.0193625856763
0.00762642293614 -0.0370062330654 -0.0134895306253
0.0057185549531 -0.0370342420023 -0.0251829914579
0.00884682673953 -0.0363399837092 -0.0269138610921
0.00533448202551 -0.0371876289393 -0.0215754634287
0.00708158966374 -0.0377038683927 0.0220290231232
0.00676578137899 -0.037262586787 -0.00673086227562
0.00512220032013 -0.0373328716452 -0.0143955428338
0.00635616240276 -0.0376422649977 0.013088572966
0.0055715808352 -0.0374662281287 -0.00314551057602
0.00567837293646 -0.0375954477708 0.0053796740167
0.00601617768292 -0.0373017453318 -0.0098003835428
0.00432337386783 -0.0380007644638 0.0220393012978
0.00543881697089 -0.0378410892067 0.0192665650306
0.004868454484 -0.0376372882152 0.0022939336781
0.0036288800747 -0.0374563104502 -0.0177166616109
0.00540289439172 -0.0377997589497 0.0163617966113
0.00333443421714 -0.0377509070784 -0.000720475612056
0.00511238373001 -0.0377389049306 0.0104840576286
0.00440190045154 -0.0380861530635 0.0280696109125
0.00205448481433 -0.0375954069127 -0.0142222036663
0.00246030107001 -0.037435991271 -0.0234478380754
0.019988175945 -0.0324661509424 0.00230775492442
0.0201701553483 -0.0325115864072 0.0114578391263
0.0190320002712 -0.0332848929845 0.0187516578379
0.0173876318128 -0.032037179241 0.0313300006092
0.0226780008525 -0.0274994944173 0.00243448059595
0.0226780008525 -0.0269492826573 -0.0244730497906
0.0118024497638 -0.0360245089528 0.0313300006092
0.0150960721837 -0.0338115631317 0.0313300006092
0.00977199990302 -0.0340805235855 0.00219104862714
0.00977199990302 -0.0336436517994 -0.000900342389671
0.0117365922818 -0.0354107157199 -0.0278593725063
0.0225613414146 -0.0269396949593 -0.0118120667343
0.0161277432334 -0.0297992136118 -0.0258633093881
0.0190041253658 -0.0283667565521 -0.0262267825657
0.0199626999694 -0.0317924103783 -0.0270556980801
0.0188725640289 -0.0295165280279 0.030594783329
0.0215228619602 -0.0281807216065 0.0311708298866
0.0157563876245 -0.0310643766555 0.0295375005291
0.0196486314996 -0.0284150597228 0.00200829933477
0.0196397527745 -0.0283453448181 -0.00104184631027
0.0181153955982 -0.0297340187917 0.024275620489
0.019296718919 -0.0287009021263 0.00642505236464
0.0126679273011 -0.0325936144444 0.0283204550358
0.018940819864 -0.029382044421 0.0270050367505
0.0178093182672 -0.029794805097 0.020397711108
0.0216004892777 -0.0279945924876 0.0253883930694
0.0214892111251 -0.026985948775 -0.0183835877434
0.0218252878323 -0.0270533232461 -0.008613507313
0.0215558258855 -0.0275174037893 0.0048461810632
0.0188073270063 -0.0286645081393 -0.00526560507099
0.0141807900412 -0.0316719976124 0.0219589386006
0.0215050522904 -0.0270608611714 -0.014974792231
0.0197800389327 -0.0286327930766 0.0136942914657
0.0220042511207 -0.027130397919 -0.00171771757907
0.0160172097928 -0.0305275709775 0.0131805239351
0.0219248742943 -0.0278977520153 0.0281659082981
0.0206033696046 -0.0284202845578 0.0221119473113
0.0156524422157 -0.0304962450243 0.00429430505262
0.0149641786143 -0.0313514041302 0.0251023866198
0.0139956564152 -0.0316745598147 0.0182075746451
0.0172422618402 -0.0295286233107 -0.00235479763242
0.0176492454511 -0.0298075426124 0.0175866002099
0.0118664578661 -0.0328220153457 0.0210113629978
0.0166188580749 -0.0301542151081 0.0103695334526
0.0123451168975 -0.0326565054632 0.0241804664172
0.0207130587972 -0.0280657955013 0.00982796263792
0.015031263314 -0.0308868927417 0.0074091084991
0.0199319755528 -0.0286230441825 0.0164587389321
0.0100588552198 -0.0330972361454 -0.0100264565301
0.015922619699 -0.0301305240758 -0.00613853761404
0.0198356613381 -0.0277326420132 -0.023113401803
0.0170490729402 -0.0292318830935 -0.0207770337814
0.0120478028528 -0.0323538492529 0.00359696340375
0.0134203485622 -0.0313865717053 -0.00826338948816
0.0130609264606 -0.0316653492196 -0.00396497256314
0.0106258089788 -0.0329381771117 -0.00366974545195
0.0195756394291 -0.028000011927 -0.0169292247391
0.0102431902382 -0.0330715745578 -0.00674028382463
0.0101832072213 -0.0333900289003 0.00670431796974
0.0173726042573 -0.0291745454801 -0.0155849856399
0.0133330399347 -0.031830692918 0.0103976714864
0.0141873434943 -0.0309145948397 -0.0116827506298
0.0139479651418 -0.0308858120822 -0.0188570117634
0.0140280462767 -0.0312605825941 0.000632927510279
0.0127074720938 -0.032228985899 0.0138111000366
0.012264188452 -0.0318277592627 -0.015758427499
0.0116874205731 -0.0328334344313 0.0172704933784
0.00989345203284 -0.0331252616977 -0.0127411345876
0.013209187626 -0.0312025292887 -0.0220174446613
0.0102798623447 -0.0334021649447 0.009625178775
0.0180484987386 -0.0288776752755 -0.0130263916229
0.0182250746951 -0.028887584431 -0.00826426328496
0.0103304512834 -0.03347987772 0.014493877152
0.0125292611471 -0.0321620167038 0.00633856624245
0.0132177297871 -0.0313188659929 -0.0260954035151
0.0175379528487 -0.0295688105156 -0.0283039994538
0.00977199990302 -0.0334979088095 -0.0277217679274
0.00977199990302 -0.0363535777251 -0.0071637021687
0.00983006138425 -0.036538800223 0.00485244664174
0.0100659284733 -0.0368030546662 0.0224236266713
0.00992274317767 -0.0366266091391 0.0106911612296
0.0104147299183 -0.0368753418193 0.0272302462494
0.0130015257724 -0.0353114243406 -0.0237705161484
0.0118018609333 -0.03607396711 -0.00304040831536
0.0104491112276 -0.0360055516897 -0.0223473521954
0.0114804840158 -0.0362129481482 0.000909011600258
0.0114516599087 -0.0358769072839 -0.0179008286679
0.0109624227227 -0.0364446605289 0.00769749605393
0.013012890561 -0.0359316839054 0.0144761873578
0.0123111589691 -0.0358739084957 -0.00557806010568
0.0128942873172 -0.0361608816558 0.0278329266138
0.0139569698962 -0.0356810094242 0.0184422245487
0.0135323179487 -0.0357112989432 0.0108792193865
0.0123424495293 -0.03600535011 0.00434689625068
0.0136593394179 -0.0356255479687 0.00776706069565
0.0126392589825 -0.0361918893781 0.0241891058378
0.0124942232689 -0.0356971555763 -0.0137892725485
0.0112165942267 -0.0365588576204 0.0174569955631
0.0226780008525 -0.0306327981632 0.014605937204
0.0146521596025 -0.0345497114586 -0.0271252229831
0.0175634300432 -0.033734849519 0.000517028100708
0.0179871991522 -0.0337878757827 0.0149283107893
0.0173416802694 -0.0335073071238 -0.0180228318604
0.0175614394172 -0.0334672349949 -0.0142691659313
0.0171431919066 -0.0338223424695 -0.00606289936789
0.016528190249 -0.0341719794359 -0.00349355426817
0.0161382805527 -0.0339930676472 -0.0239166172554
0.0182330604848 -0.0330020998941 -0.0216612366503
0.0167883830982 -0.0339122938511 -0.0107331140883
0.0159501531394 -0.0346026922052 0.00557572214723
0.0162397101341 -0.034571415514 0.011906483732
0.0148242591243 -0.0349170465013 -0.00749025788931
0.016629872605 -0.0343431875911 0.00928557270506
0.0169189213366 -0.0344212480902 0.0221540641207
0.016357765118 -0.0346377438845 0.0192265436197
0.0149428768776 -0.0354177449552 0.0258757779135
0.0153478711471 -0.0350616290427 0.0160113428394
0.014785632185 -0.0347114785435 -0.0209036620749
0.0144196154548 -0.0355820275113 0.0222607006144
0.0141815297911 -0.0349998677505 -0.0180561290673
0.0143975144111 -0.0352479617281 0.00173740880263
0.0140222748197 -0.0351936036022 -0.0100786898038
0.0142682862331 -0.0352399447021 -0.00169051477203
0.0176242364208 -0.0341232701112 0.0255070132449
0.0184960582664 -0.0336869285801 0.0287881883938
0.021187964622 -0.0314274696077 -0.01011747731
0.0213097266798 -0.0314180994242 -0.00609166188286
0.0212934053499 -0.0316680323657 0.00545827410358
0.0218984839058 -0.0307002106592 -0.0193234996432
0.0214213131415 -0.031408002112 -0.0024757006396
0.0222644424707 -0.0312523868379 0.0209896558049
0.021841754287 -0.0306349600179 -0.024407316862
0.0193416704248 -0.0323775675339 -0.0242491817814
0.0210654782222 -0.0312371280785 -0.0219917377894
0.0202573495207 -0.0319337854194 -0.0167738341193
0.0187236174824 -0.0332774245858 0.00770159043488
0.0191317240193 -0.0328493645208 -0.00396607141616
0.0192927375431 -0.0327031194236 -0.00722086517269
0.0205305258763 -0.0323443876876 0.0158161180588
0.0207327763608 -0.0323971019213 0.0280371006468
0.0201032227791 -0.0327467096805 0.0234921609513
0.0251962499498 -0.0285143085996 0.00225924427794
0.0246503652262 -0.0291562678495 0.00969670840005
0.025003208409 -0.028937427578 0.0144986345487
0.0259312488324 -0.0274111602352 -0.0194559033519
0.0256663133174 -0.0277129792501 -0.0163237580813
0.025690601189 -0.0279447599863 -0.00389752017383
0.0247233171084 -0.029330535259 0.0214459747476
0.0316926637774 -0.0203062812621 0.0313300006092
0.0277468795027 -0.024869507311 0.0313300006092
0.0226789992303 -0.0276143793379 0.0151677152488
0.0226789992303 -0.0300283478284 0.0297849356837
0.0250260799629 -0.0229698762309 -0.0167501233599
0.0232468910286 -0.0254609009639 -0.0164572139487
0.0241115558442 -0.0242502923547 -0.0231885731197
0.0258668330786 -0.0217927461549 -0.0247846242794
0.0267195587874 -0.0205988533702 -0.0170525505737
0.0276363427853 -0.0193152732121 -0.0216848771876
0.0295499635385 -0.0166360318264 -0.0215138429928
0.0287058941059 -0.0178178050448 -0.0188267773315
0.0239084005352 -0.0245347280824 -0.0112276595566
0.0285455511261 -0.0180422996562 -0.0237244682827
0.0239150178675 -0.0245254632212 -0.0261266912498
0.0258785190844 -0.0217763846944 -0.0193185831482
0.0240817973625 -0.0242919569089 -0.0191024647214
0.0254795146069 -0.0223350268953 -0.0119339289132
0.0226789992303 -0.029227695655 0.0120964795852
0.0226789992303 -0.0266131204463 -0.0215541954139
0.0319339076537 -0.0135944460681 -0.0146735852295
0.0320438899343 -0.0135547301788 -0.0105283235008
0.0324407820777 -0.0133529259732 -0.00696626843179
0.0325209288525 -0.0133529539388 0.000904890172599
0.0328835113211 -0.0133529897514 0.0284023114019
0.0274652504595 -0.0195840251326 -0.0260140535249
0.0312136830901 -0.014333626443 -0.0233029864356
0.0292588305151 -0.0235465516802 -0.0243958133587
0.0258859199548 -0.0273482440982 -0.0234751023077
0.0273382792519 -0.0254149272524 -0.0268395713009
0.0253564215573 -0.0275900886406 -0.0268859230911
0.0270249065736 -0.0271294934716 0.0160803718735
0.0257905656867 -0.0283095528534 0.0187247443386
0.0266939970284 -0.0269441420881 -0.00844336954907
0.026434165747 -0.0271095612911 -0.012060360345
0.0270770952363 -0.0269542632251 0.00966495593294
0.025860017696 -0.0279701436844 0.00484527374003
0.032089103483 -0.0208915186606 0.0179706097639
0.032292458612 -0.0196888354328 -0.0143775276515
0.0316127719823 -0.0214000351465 0.0101350035317
0.0321025376819 -0.020200394909 -0.006318224752
0.0323232934699 -0.0194466761628 -0.0214480113947
0.0319672329589 -0.0209344856005 0.0128101200452
0.0318685053492 -0.0208843683701 0.00555401955223
0.0317282652641 -0.0206398781979 -0.0110291888011
0.031415400179 -0.02148409645 0.00230171771877
0.0316899533329 -0.0204891937924 -0.0185977162874
0.0318603067691 -0.0206517199272 -0.00332324442467
0.0334790126947 -0.0172581463695 -0.0211363117497
0.0344351925546 -0.0156903205755 -0.0122711731108
0.0343816366704 -0.0153169960095 -0.0249035381274
0.033148283047 -0.0181038215693 -0.0162184240446
0.0343889931341 -0.0155707798301 -0.0178390434883
0.0343226495451 -0.0158111458745 -0.0149912362479
0.0297692884468 -0.0237486360157 0.00116024568201
0.0301986342368 -0.0229222297518 -0.00826693998469
0.0309512973948 -0.0225823327157 0.0204935495232
0.0298935252652 -0.0238330629795 0.0116471054507
0.0305477116668 -0.0230466953991 0.0165936390897
0.0309452082434 -0.0220579771588 -0.00126710933506
0.0286029735724 -0.0244718645414 -0.0199481307141
0.0280721102678 -0.0253160096086 -0.0133204907988
0.0298136022404 -0.0232038208585 -0.0149669566564
0.0297948169395 -0.023333647421 -0.0116752246001
0.030070107407 -0.0226710073219 -0.0219905662541
0.0289597464497 -0.0246018654258 -0.00307434666247
0.028076763888 -0.0252011013015 -0.0166668089308
0.0272998038097 -0.0263965502373 -0.00572913891018
0.0274506835501 -0.0266647291894 0.0125545092567
0.0279467081107 -0.0259933393453 0.00692086874832
0.0290236160188 -0.0248829016031 0.00938725160018
0.0275938260049 -0.0262022457028 -0.000447073318133
0.0282939767313 -0.0255503931021 0.00412375216897
0.0323978453462 -0.013768887025 0.0246947524995
0.0285391607644 -0.018579996025 0.00636221141486
0.0315491451111 -0.0145137774906 0.00737098074429
0.027412096682 -0.0199543210077 -0.000451774183545
0.0296192188613 -0.0169521608275 -0.000603735798944
0.0256932617572 -0.0222340755066 -0.00286170324135
0.0307191336756 -0.0157054877305 0.0101511874201
0.0251511849001 -0.0228958886749 -0.00610369175435
0.0294477795578 -0.0176145447892 0.018042885927
0.0258842585583 -0.0220666382056 0.00113526154112
0.023377721725 -0.0252808452502 -0.00716840169136
0.0260889124707 -0.0218627574849 0.0043555338141
0.0314107716356 -0.0140677018932 -0.0201596205432
0.0274665466016 -0.0196115833944 -0.0121209748867
0.0272603931588 -0.0200421803674 -0.00558600048811
0.0316187643478 -0.0146553210514 0.0176234281935
0.0239640301681 -0.0245674058491 -0.00355874078127
0.0306623002175 -0.0154704101673 -0.00340814578934
0.0281456088643 -0.0186178458492 -0.0152099413935
0.0292440299944 -0.0178022504533 0.0141736625951
0.0301461093362 -0.0158885816981 -0.015701706593
0.0278110511616 -0.0195093903785 0.00376419450035
0.0290671735601 -0.0179385333841 0.0096581555937
0.0265487976446 -0.0209502468083 -0.00813588320453
0.0243377504988 -0.0241243801363 -0.000748620139281
0.0304072291565 -0.015966411884 0.00308097194679
0.0293471831434 -0.0170846578434 -0.0108982268124
0.0302977944657 -0.0157448646367 -0.0129938288689
0.0277666478278 -0.0197558854046 0.0118473221048
0.0312950360675 -0.0151932667877 0.021883622636
0.0282431068451 -0.0187686110017 -0.00291254434219
0.0269555795226 -0.0207453469002 0.00696362128986
0.0292090230629 -0.0173677456156 -0.00675698290733
0.0313595210479 -0.0148938636257 0.0126879094116
0.0240340731363 -0.0249180857413 0.0152852533472
0.0227931860482 -0.0267059162966 0.0194337862854
0.024235095092 -0.0243306502935 0.00207836151944
0.0246540944291 -0.0241442683394 0.0182417267441
0.0238501798023 -0.0250454463096 0.0101089880671
0.0271380361818 -0.0210254051076 0.0292955396934
0.0236289574821 -0.0258446997064 0.0310738646524
0.0301762880353 -0.0167720745877 0.0243608482584
0.0239190143436 -0.0253859796652 0.0283862230923
0.0260729557919 -0.0221385279972 0.0151190756632
0.0304259882408 -0.0165393323896 0.028872249649
0.027643387577 -0.020015525647 0.0157456719475
0.0284125816093 -0.0191627386124 0.0239257389134
0.0275047141306 -0.0204571429681 0.0263875623624
0.0258399983064 -0.0227506787005 0.0275363646434
0.0228834388842 -0.0264200576149 0.0125733481011
0.0227448309235 -0.0264969424387 0.00786735496567
0.0252064645334 -0.023159405605 0.0084389368035
0.026657558154 -0.0214078549247 0.0178620331378
0.0240460024525 -0.0246751781843 0.00574478110641
0.0264461910186 -0.021792948335 0.0219595561388
0.0249067695526 -0.0239223268262 0.023378189848
0.0260118649009 -0.0221277522298 0.011165080914
0.029391913353 -0.0177586058045 0.0209402557517
0.0229661345016 -0.0265337446747 0.022096819081
0.0336981504428 -0.0182260276374 0.0304729339701
0.0336685483505 -0.018058537797 0.0139644434465
0.0335021948204 -0.0182404554787 0.00964872981132
0.033719277482 -0.0173739630536 -0.00484948115746
0.0340866780237 -0.0168899835952 0.00205160579245
0.0337662798736 -0.0172007766815 -0.00752703197107
0.0338115964358 -0.0175432927454 0.00619419562499
0.033165034591 -0.0185287346999 -0.00167170477732
0.0322219716346 -0.0208050787696 0.0226751382504
0.0320642679152 -0.0211668327425 0.0265870104152
0.0291512425817 -0.0231945170782 -0.0271710426877
0.0319702893849 -0.0197799844243 -0.0259361876373
0.032933042216 -0.0178544062868 -0.0276424914594
0.0277883004731 -0.026486589172 0.0254604681859
0.0263044003903 -0.0279700468027 0.0279548998312
0.0272968648194 -0.0269780206062 0.0213460006089
0.0303468360858 -0.0234500071606 0.0262958769394
0.0293261088012 -0.0247899719785 0.0283456342661
0.0305711691993 -0.0231192008621 0.0231070049323
0.0290975407753 -0.0249659069617 0.0197353837842
0.028875651146 -0.0251322283264 0.014336572863
0.0286428550116 -0.0255364542594 0.0230384121032
0.0349362337075 -0.0153814380702 0.0105559740113
0.0343654366849 -0.0162375041111 -0.000860988386074
0.0344273056982 -0.0169467748924 0.0274826800718
0.0344214391116 -0.0168249973221 0.0228358332742
0.0341305130227 -0.017323314033 0.0200009880326
0.0343748218397 -0.0167525861514 0.0170804712124
0.0335759509091 -0.0185863225905 0.02549882512
0.0349896161274 -0.0156712182482 0.0302062537479
0.0352190075541 -0.013825541256 -0.00434505706481
0.0352947009303 -0.0146450423092 0.019018388785
0.0352043010731 -0.0141877845793 0.00151512688517
0.0351945943123 -0.0144105936073 0.00600890230367
0.0350377925344 -0.0142420034877 -0.00971262619599
0.0353014832731 -0.0148654797441 0.0247020866195
0.0355314317414 -0.013722947282 0.0151833603528
0.0233346594907 -0.029304984238 -0.0267013753372
0.023861632632 -0.0296671651001 0.0064334248524
0.0234552557547 -0.0298269372648 -0.000173703052093
0.023955375457 -0.0298729355258 0.02507766941
0.0238531124544 -0.0293883396528 -0.0136158334709
0.0234819618277 -0.0300777232106 0.018697237557
0.0236137467093 -0.0294851508747 -0.0173169629587
0.0235758642477 -0.0296483976389 -0.00746487182312
0.023212580462 -0.0299303827573 -0.00355233064019
0.0373897489205 -0.00747601655249 0.0155310930841
0.0369841580097 -0.00896075034356 0.00383377296021
0.0369608813775 -0.00837053670763 -0.00548110398088
0.0371054810836 -0.0070491159968 -0.0114474238524
0.0372624779586 -0.00696847763513 -0.000596775615382
0.0374791997379 -0.00718334824671 0.018555980808
0.0340355530098 -0.0133509999141 -0.0206562608972
0.0331380934055 -0.0133509999141 0.0103683161511
0.0366424887193 0.000445000012405 -0.0141565357085
0.0368808724608 0.000445000012405 -0.0235373636074
0.0364021659791 0.000445000012405 0.0225399294262
0.0337165797043 -0.00310713588246 -0.00602324382965
0.0341652664376 -0.00169971918841 -0.000435379160963
0.0334628587476 -0.00966499799405 0.0261273826603
0.0335899872401 -0.0047107185089 -0.000206227115295
0.0344736793689 -0.0046218348573 0.0272411568416
0.0335228207307 -0.00980916129289 0.0289102093196
0.0344969837876 -0.00158077540151 0.00934328601752
