0.033425313548 -0.00891300011426 0.000302871976228
0.0342538539771 -0.00891300011426 0.0159208173426
0.0293143337699 -0.0119335271608 -0.0240189561762
0.028981000185 -0.0130318754235 -0.0216270362924
0.0290543394561 -0.0144319844927 0.0172541565753
0.030048362483 -0.0110364835752 0.00673731114724
0.0294871220762 -0.0142304144133 0.026725730628
0.0298430403457 -0.012649298202 0.0189397903721
0.0305765239739 -0.0116824915608 0.0281123946446
0.0295093736308 -0.0144164661195 0.0293741857273
0.0298692793026 -0.0119188820794 0.0116105867816
0.0301824637297 -0.0121292732063 0.0223851950616
0.0294414333356 -0.0117873900059 -0.00139286026287
0.0295450511857 -0.0118698725747 0.00231362054282
0.0294978990928 -0.0130622072571 0.0141611738878
0.0308306075968 -0.0103639109437 0.0204649258654
0.0317118521617 -0.00924471569696 0.0301955932512
0.0313222114029 -0.00909222588807 0.0139534171197
0.0299177462514 -0.00987963332921 -0.0173887229839
0.0306431491139 -0.00928581442926 -0.00423066682512
0.0304263831963 -0.00952521517976 -0.00691566639971
0.0313559941318 -0.00954109792243 0.0255818036527
0.0295347948816 -0.0107336077117 -0.0134571597052
0.0303328411335 -0.00954828866649 -0.00968917888232
0.0309275693561 -0.00943236244646 0.00856377076361
0.028989581375 -0.0194401738081 -0.0055581039991
0.0302107004193 -0.0184929491001 0.00287683542546
0.0337415266205 -0.00920023059568 -0.0158617880208
0.0337772871981 -0.0103275186815 -0.00182928188661
0.0335857103604 -0.00959946557118 -0.0185616685051
0.0336108293488 -0.0105592317706 -0.00685698907471
0.033953555074 -0.0106029603961 0.00922570062324
0.0334987999331 -0.010492357159 -0.0126926578177
0.0344639660558 -0.00944755597246 0.021586567588
0.0345945378679 -0.00894681819006 0.0289688899904
0.0308050031621 -0.0167363153107 -0.0194734715687
0.0308903199228 -0.0164407002304 -0.0235421556961
0.0307040570985 -0.0179358097223 0.0118810510402
0.0325768595414 -0.0116145617302 -0.0252015715913
0.0309920757237 -0.01757672516 0.0183934852348
0.0322217152838 -0.01510800273 0.0176854834256
0.0311062243763 -0.0169820466448 0.00676564783665
0.0319007737293 -0.016093066855 0.0286482522153
0.0309202888739 -0.017427755467 0.00916326866172
0.0311477005582 -0.0162182964675 -0.0147840330131
0.0314604861161 -0.016845547516 0.0247427468126
0.0326816384934 -0.0144616330802 0.0261833708694
0.0310701611701 -0.0165804358422 -0.00820821616949
0.0316984937948 -0.0156674240497 0.00245353673878
0.0319126069708 -0.0158249572911 0.0209117743317
0.0310632444582 -0.0168631445748 0.000299497062688
0.0311966830503 -0.0164831012855 -0.00332473364528
0.0315438621828 -0.0163474022053 0.0142319385453
0.0321540921838 -0.0150265723386 0.0108537976176
0.0312264699288 -0.00891300011426 -0.0129734764544
0.0317766394088 -0.00891300011426 0.0111675835579
0.0327963670651 -0.00730419518217 -0.0254369992763
0.0343757521836 -0.0019570000004 -0.00419114625995
0.0351604331799 -0.0019570000004 0.0229900663895
0.0338527086002 -0.0088072053868 -0.0213690877296
0.0350577275632 -0.00658902878092 0.0186482859972
0.034259034171 -0.00821012415775 -0.00527222689847
0.0351625242578 -0.00672167742995 0.0277456769555
0.0348521818304 -0.00676806521982 0.00838309006216
0.0350485058329 -0.00611163097103 0.0305570318816
0.0302938759045 -0.00734293384747 -0.0235979189285
0.0300031258594 -0.00441019883034 -0.0220525591659
0.0302785555889 -0.0054569078276 -0.0253596123524
0.0299703291682 -0.00633642380337 -0.017374542481
0.0307132609801 -0.00571593448571 0.000156808576639
0.0301867081513 -0.00584990328441 -0.0122685342949
0.0303276986163 -0.00655090409023 -0.00894150845006
0.0307852196774 -0.00743255776659 0.00185485564328
0.0300791425125 -0.00396460170945 -0.0148068170079
0.0304478497221 -0.00643355626407 -0.00610623988082
0.0305850357646 -0.00569613489058 -0.00286898898778
0.0310198506981 -0.00699302048159 0.00739156672147
0.0299119343054 -0.00310987549694 -0.0187525166427
0.0311455743464 -0.00237322751525 -0.0251048946252
0.0323696401451 -0.0019570000004 0.00965423462374
0.0323130559637 -0.0019570000004 -0.0181115903426
0.0329982519598 -0.0019570000004 -0.00711753916037
0.0308628690567 -0.0021568730389 -0.00955054593158
0.0348976843985 -0.00240731027064 -0.0155673586995
0.0354692833909 -0.00488302689579 0.0250222994526
0.0354465728223 -0.00506947228095 0.0226614639195
0.0352720818874 -0.00399633897622 0.00703398133914
0.0353964105475 -0.00332767252459 0.0196055036745
0.0353712380829 -0.00399710369343 0.0165249072848
0.0352007127941 -0.00318062720075 0.00101978765077
0.0354812743786 -0.00323670680804 0.0278202394218
0.0310544473355 -0.0086592916547 0.00451916663538
0.0315010241511 -0.00875874318546 0.0168793809213
0.0315405046109 -0.00388945939544 0.0115065683433
0.0325965812663 -0.003192284408 0.0267173957989
0.0320607322993 -0.00409719237352 0.020554198953
0.0309067723738 -0.0031081578522 -0.00100516056415
0.031369732896 -0.00241927668122 0.00458184834171
0.0318128394804 -0.00652984343885 0.0233841277723
0.0319952706797 -0.00730659728095 0.0285424804871
0.0315723872844 -0.00566880852082 0.0170443073443
0.0314889288567 -0.00496977303951 0.0137150033728
0.0312672436315 -0.00389615157748 0.00708077291521
0.0305030060433 -0.00332384312103 -0.00696414093406
0.031066159598 -0.00315536787509 0.00172049015538
0.0322460772749 -0.00414230424865 0.0236961419433
0.0307938797212 -0.00274964766797 -0.00385267317327
0.0308636550526 -0.00507495705285 0.00370573627047
0.0315764876731 -0.00734650309422 0.0205268209454
0.0346294409384 -0.00467181408535 -0.0204856777641
0.0343525087409 -0.00691560699771 -0.0144402098287
0.0342182831031 -0.00710035338695 -0.0192477159956
0.0351042810309 -0.00613164752757 0.0146350222359
0.0345875464634 -0.0069875792668 -0.00263241247368
0.0344123216573 -0.00697893591527 -0.0110495351628
0.0350139563702 -0.00530400547322 0.00324079200038
0.0348008402991 -0.00506179911837 -0.00898228721227
0.03474651594 -0.00653197183926 0.00103173035745
0.0350664920424 -0.00601171836352 0.011807870406
0.0342174672131 -0.00668925607503 -0.0228100035334
0.0346816450485 -0.0038592596581 -0.023481988088
0.0348893085587 -0.00414912872739 -0.0118420160823
0.0350991929077 -0.00397844983563 -0.00232090014264
0.0350536624956 -0.00380997733718 -0.00572808364769
0.0330329636118 -0.00215178699421 0.0293183546117
-0.0294855367615 0.00934800039977 -0.0133229889702
-0.0290230835839 0.00934800039977 -0.00819832889935
-0.0275955078051 0.00934800039977 -0.0107678122081
-0.03162521003 0.00934800039977 -0.0044704031783
-0.0312553498549 0.00934800039977 -0.000510365528928
-0.027487642539 -0.0019570000004 -0.00391570476951
-0.0271127336016 -0.0019570000004 -0.00909006475497
-0.02998101967 -0.0019570000004 -0.0152238283103
-0.0284266190135 -0.0019570000004 -0.018873247857
-0.0297805056962 -0.0019570000004 -0.0117368856713
-0.033618343331 -0.000755030909522 -0.0271760001779
-0.0292842717413 0.00402407760276 -0.0271760001779
-0.0250916435481 0.00934800039977 -0.0148834992963
-0.0236542642081 0.00934800039977 -0.0209496324168
-0.0269182588642 0.00934800039977 -0.02452883203
-0.0259091599384 0.00934800039977 -0.0220003598566
-0.0245105619203 0.00934800039977 -0.0184288370492
-0.0304720723176 0.00934800039977 -0.0242866714891
-0.0203097955987 0.000993299800189 -0.0226991223717
-0.021939023037 -0.0013707639674 -0.0266727311712
-0.0218446518927 -0.0013673595663 -0.0239003233655
-0.0261528902775 -0.0019570000004 -0.0258224625815
-0.0313478091755 -0.0019570000004 -0.0268380300816
-0.0296366097869 -0.0019570000004 -0.0245814250161
-0.0230336565365 0.00122904385931 -0.0271760001779
-0.0243467999662 0.00568781253273 -0.0271760001779
-0.0263276661203 0.00251584225662 -0.0271760001779
-0.027110244386 0.00934800039977 -0.00285588008624
-0.0270926723791 0.00477165305041 -0.000178517714958
-0.0266041067335 -0.00123877378017 -0.00125867498025
-0.0272467066017 0.0016671672264 -0.000387246467762
-0.034958140769 0.00261215036116 -0.0244496759417
-0.035087160588 -0.00165554322397 -0.0170579137655
-0.0351746870371 0.000499281301373 -0.0107796638206
-0.0351292853095 -0.00147328887807 -0.0142502279717
-0.0350062684829 0.00246183688546 -0.021331601238
-0.0352526081303 -0.00154160758898 -0.00618116222162
-0.0349810328608 -0.000141844896605 -0.0236378219412
-0.0350431345663 0.00217505660064 -0.0179257788185
-0.0350884942193 0.0016635341109 -0.0152121096275
-0.0353048091412 -0.000784334263813 -0.0023543688768
-0.035086170176 0.0023840448031 -0.00851762411579
-0.0351797445358 0.00112889649044 -0.00488702020349
-0.0349761822348 0.00474206537159 -0.00409716939902
-0.0349986680017 0.00364132710332 -0.0110899894836
-0.0232864282981 0.00597074611174 -0.00573622237382
-0.0235288579699 0.00048436774041 -0.00622669079843
-0.0244640432249 -0.000949698154014 -0.00431931393639
-0.0230913231467 0.00328429450096 -0.00670909615503
-0.0325398448072 -0.0019570000004 -0.0128076172023
-0.0328058691489 -0.0019570000004 -0.00794637879718
-0.0328046936568 -0.0019570000004 -0.0155003300819
-0.0296825442297 0.00167603007959 0.00102415572084
-0.0285523474288 0.0071314711972 0.00109815999434
-0.0294326679998 0.00451546426133 0.00118969409358
-0.0318969986151 6.28240636224e-05 0.00149367497838
-0.0251062121784 0.0012050235859 -0.0024446303864
-0.0241989998836 0.00330509313059 -0.00412242815718
-0.0250423672675 0.0051128071237 -0.00218181366119
-0.0260222775858 0.00779981360337 -0.000993309216614
-0.0349232714508 0.00519129043495 -0.00753049958898
-0.0348375501571 0.00468717162361 -0.0176791405569
-0.034477519295 0.0065587131758 -0.0210442075642
-0.0347421573687 0.00570480883138 -0.0134354408887
-0.0345188937098 0.00597614067633 -0.024274504671
-0.0347299306675 0.00613333641546 -0.00995758215836
-0.0342513740776 0.00742056894323 -0.0262455276159
-0.0341962679043 0.00831415477632 -0.0153936571574
-0.0341159911279 0.00882781932219 -0.00888139937567
-0.0343309717773 0.0076851498502 -0.0186382856574
-0.0342421589355 0.00845627137704 -0.00474295742165
-0.0344333278375 0.00782577014142 -0.000700001440651
-0.0199206851865 0.0050450617017 -0.0228244389178
-0.0218316676608 0.00879637070827 -0.015233695373
-0.0214709883611 0.00853820192683 -0.024275175188
-0.0213037584739 0.00800568999632 -0.0175074769714
-0.0208374295536 0.00736433531189 -0.0210318127787
-0.0194279474745 0.00521870443598 -0.0261849453531
-0.0208161812017 0.0036354016659 -0.0179556637249
-0.0203275898725 0.00437512822984 -0.0205013514385
-0.0216863246262 0.00348698429193 -0.0131246447651
-0.0208943320783 0.000665387283695 -0.0182738449159
-0.0212439070776 0.00511963124047 -0.0151848467109
-0.02163510381 0.00695197700802 -0.0125298754909
-0.0220310491392 0.00518336341893 -0.0107642876051
-0.0215684785474 0.000773863321876 -0.0144741562943
-0.0196319658295 0.00235749788025 -0.0249068345692
-0.0222908483209 0.00224682044019 -0.0100575661293
-0.0224875468038 0.0086938880673 -0.00753388155731
-0.0227482597803 -0.000964167161527 -0.0083526727943
-0.0327368333557 -0.0019570000004 -0.00109459843667
-0.0330580913511 -0.0019570000004 -0.0046445022898
-0.0219654660791 0.00990773868173 -0.0121418323161
-0.0247842730578 0.00935100018978 -0.00622721395791
-0.0281939096053 0.00935100018978 -0.0162629618958
-0.0311550193671 0.00935100018978 -0.0104888543093
-0.0318256369137 0.00935100018978 -0.0157314187221
-0.0278090113896 0.00935100018978 -0.00568453594722
-0.0305499425006 0.00935100018978 -0.0187325726377
-0.0252444352486 0.00935100018978 -0.0117687356915
-0.0312855098583 0.00935100018978 -0.0071998293073
-0.0258010385564 0.00935100018978 -0.00894080953802
-0.0237021210408 0.00977214171097 -0.0271760001779
-0.0238030085811 0.0125211510471 -0.0271760001779
-0.0227469748944 0.0150169000204 -0.0271760001779
-0.0288321231527 0.0099299377765 -0.0271760001779
-0.0283700556343 0.0125236906624 -0.0271760001779
-0.0260086183226 0.0110465963245 -0.0271760001779
-0.0281633590648 0.0152767068903 -0.0271760001779
-0.0255606172514 0.0150055525748 -0.0271760001779
-0.0317001059666 0.00935100018978 -0.0269547420192
-0.029033139409 0.00935100018978 -0.0213658840077
-0.0239606045958 0.00935100018978 -0.0240961608101
-0.0236172544628 0.0241305664227 -0.00916688860306
-0.0259102498504 0.024130943876 0.000755779180674
-0.0231991459191 0.021588149692 0.00152100005653
-0.0260449002079 0.020234131568 0.00152100005653
-0.0295696023663 0.014609850606 0.00152100005653
-0.0272957924531 0.0227544984315 -0.00500435316842
-0.0264726397459 0.0237880395249 -0.0019938560405
-0.0263289442019 0.0236788303304 -0.0166387301642
-0.0223247064494 0.012361905389 -0.00463598994156
-0.0218149232841 0.0194009876413 0.000726467927554
-0.0214985136343 0.0164027939749 -0.00324967492839
-0.0221181723045 0.0167824219916 -0.000908091404555
-0.0237701039917 0.0218929963443 -0.0271760001779
-0.0272550333836 0.0224190047566 -0.0207819879549
-0.028348255385 0.0209416880526 -0.023904509632
-0.0278878582628 0.0217264030887 -0.0167837588462
-0.0258612266875 0.0240622722545 -0.0253809650249
-0.029399655861 0.0194357526451 -0.0215528954618
-0.0308406964416 0.0171912343051 -0.0150337029326
-0.0306596252342 0.0177688300078 -0.00439423150503
-0.0302991859345 0.0182533908774 -0.00900411652393
-0.0311054650713 0.0164846406868 -0.0252415547165
-0.0304748132954 0.0176843128997 -0.0196667205035
-0.0296168719992 0.018933717392 -0.0269168810444
-0.0315508680503 0.0158974365156 -0.0124128736601
-0.0314727822166 0.0159677796257 -0.01790311393
-0.031180593643 0.0168334556832 9.08244141354e-05
-0.0287844831048 0.0205655540967 -0.0128325899868
-0.0298357695868 0.0191549681919 -0.00102645462805
-0.0289237801517 0.0204444874776 -0.00753972544882
-0.0291975248049 0.0200888910287 -0.00380257847748
-0.028524636974 0.0210149971445 -0.0100428443942
-0.0217777656266 0.024130203833 -0.00725242790318
-0.0222978650483 0.02413028265 -0.0122017113
-0.0206152542537 0.0239474543502 0.000859379174141
-0.0214149198796 0.0173195109838 -0.0172911004273
-0.0214209237004 0.0141614805512 -0.0162057201856
-0.0211817576658 0.0211901183333 -0.0127606055671
-0.021299574729 0.0164880890702 -0.0139705176498
-0.021271267204 0.0213447942084 -0.0151446362455
-0.0209867579568 0.0189699687649 -0.00682675683425
-0.0211284698785 0.018801501099 -0.0104387046807
-0.0214252769169 0.0204480282938 -0.018789530372
-0.0210433221365 0.0224344384749 -0.00965654281268
-0.0209438072143 0.0216915590352 -0.00678163690278
-0.0216410567869 0.0125140803931 -0.020254933338
-0.0215222601974 0.0149504979323 -0.0187890659418
-0.0216837365553 0.0150669749359 -0.0221289762868
-0.0214729680502 0.0222940294664 -0.0206697533116
-0.0218763134498 0.0117851324553 -0.0244243000249
-0.0217767181294 0.0210953267715 -0.0249820536501
-0.0216264172839 0.0192353837597 -0.0224460742759
-0.021798370419 0.0167559320812 -0.0243692542139
-0.0228133173641 0.0135408371119 -0.00202439952184
-0.0240752488646 0.0136528942752 0.000393154719388
-0.0238460825534 0.0113829371352 -0.00156468834626
-0.0334808527714 0.0106861231281 -0.0192702188038
-0.033672007529 0.0102901906987 -0.0114691222366
-0.0335031880262 0.0112238825374 -0.00455952117059
-0.0317812522758 0.0152030223461 -0.0225015520182
-0.0326684938517 0.0133180016687 -0.0132178031783
-0.032309225313 0.0135973054253 -0.0247780234486
-0.0333790485092 0.0107807952746 -0.0223451938343
-0.0332254615964 0.0120571623442 -0.00863927199427
-0.0328120425547 0.012678810362 -0.0171025423136
-0.0324490996956 0.0134566560829 -0.0207915583883
-0.0334096259329 0.0114155005092 0.000100598314741
-0.0326048681144 0.0137775169828 0.000823593467792
-0.0322080708958 0.0146951902668 -0.00406337342852
-0.032317493005 0.0143408821314 -0.00799513608503
-0.0272081306038 0.0102175413848 0.00113466836474
-0.0217897634708 0.011267177209 -0.00905021132867
-0.0208062838405 0.0215888889322 -0.00110379455619
-0.0214922323987 0.0123103353229 -0.0140462380155
-0.0213665984319 0.0151362995025 -0.00766674710176
-0.0209851368512 0.0194985150122 -0.00330794818582
-0.0212261774675 0.0152791293889 -0.0112683608949
-0.0216558273678 0.010925050391 -0.0173030797859
-0.0325120353756 0.00208879572814 0.0215636707594
-0.0324000466009 0.0014497583488 0.015586372715
-0.0326867520825 -0.00167521165172 0.0147051634979
-0.0325011574291 0.00131088446709 0.0185497451569
-0.0324555517424 0.00491995872079 0.029268397445
-0.0327894715667 -0.00183640404257 0.0176473267221
-0.0325796002723 0.00310068101229 0.0272989876815
-0.0327892352656 -0.000354672291266 0.0226760953168
-0.0327801688437 0.000739529658367 0.0260875268998
-0.0344364712142 0.00165568174643 0.00152399996296
-0.0326955707961 -0.0019570000004 0.00287230599058
-0.0329380608214 -0.0019570000004 0.00925565083341
-0.0326785735208 -0.0019570000004 0.0058494915077
-0.0354048809441 -0.0019570000004 0.00819295561263
-0.0355177760914 -0.00170018634771 0.0310839992017
-0.0349097319374 0.00792816241969 0.0274541681044
-0.0350518875289 0.00721490257488 0.0249633957663
-0.0319587455053 0.00804399978369 0.0152459502909
-0.0322074750231 0.00804399978369 0.00435465818845
-0.0320955897208 0.00804399978369 0.00782220422348
-0.0350019721497 0.0058853832208 0.00722541133048
-0.034967496608 0.00635129870886 0.00995746911527
-0.0351705266226 0.00582766878387 0.015699725474
-0.0352855058983 0.00579722157083 0.021568209033
-0.0352711645812 0.00562330500248 0.0190887350284
-0.0349265244433 0.00563938701651 0.00303343913839
-0.0354459486377 0.000561122361929 0.0065329382178
-0.0355604436667 0.000695731377705 0.0140840455761
-0.0354100894315 -0.00141580919969 0.00416797339793
-0.035721628684 0.00137556643347 0.0247144229864
-0.0356882206015 -0.00105338926896 0.0229472496668
-0.0357926229145 0.000997958919619 0.0295853930524
-0.0357518559006 7.64624473576e-05 0.0270201363266
-0.0356398807203 -0.00108826187908 0.0196701349452
-0.0355858346319 -0.0014535091377 0.0160787632932
-0.0354654588845 0.0034459949698 0.0121675320162
-0.0354849989651 0.00447430619538 0.0241596420129
-0.0354226346675 0.00537499861082 0.0270144663196
-0.0355169674152 0.00322897461429 0.0149906485461
-0.0356195486979 0.00185350366221 0.0183815369294
-0.0356619116196 0.0023853410628 0.0218470169285
-0.0354854853259 0.00160796227416 0.00957332218248
-0.0320378196058 0.00592905119997 0.0180149190724
-0.0322682635888 0.000631793509728 0.00822870360091
-0.0318022809327 0.00541985237182 0.00788171453511
-0.0322396400554 0.00461762367551 0.0207565135138
-0.0318342152523 0.00587430466864 0.0105657016558
-0.0318741983068 0.003003514788 0.00223343296667
-0.0321784175263 0.00619763056286 0.0239434003797
-0.0320984487626 0.00122918896378 0.00420165304053
-0.0319494854962 0.00554555282416 0.0135601895802
-0.0320259723617 0.00264403163826 0.0064256470155
-0.0316146503832 0.00584465710639 0.00263244738733
-0.0322757196519 0.00147274793001 0.0113533076787
0.000703306518446 -0.0019570000004 -0.028295275953
0.018384424033 -0.0019570000004 -0.0281587279346
0.00594084780589 0.0149999996647 -0.029428695536
0.0130878301381 -0.0019570000004 -0.0305061313221
0.0108930556176 2.87164911542e-05 -0.0306540001184
0.0113099314199 0.00283236186352 -0.0306540001184
0.00726562498922 0.00531474609951 -0.0306540001184
0.0028932285845 0.00453310066502 -0.0306540001184
0.0171443285404 -0.000799289244692 -0.0306540001184
0.00401725866594 -0.000825926765379 -0.0306540001184
0.00764897367181 0.00842425579521 -0.0306540001184
0.00507854808568 0.00810777516237 -0.0306540001184
0.00124299837605 -5.51131834027e-05 -0.0306540001184
0.00222980573662 0.00821828896964 -0.0306540001184
0.0144983218549 0.00329827251753 -0.0306540001184
0.00522403116476 0.00306577788685 -0.0306540001184
0.00850133953222 0.00184533907355 -0.0306540001184
-0.000379174188089 0.0106594481464 -0.0306540001184
-0.000620182321182 0.00805294245942 -0.0306540001184
0.000789159472833 0.00310873121201 -0.0306540001184
0.0117745343466 0.0131938065235 -0.0278950806114
0.0196280865036 0.0135093309625 -0.0279214448969
0.0206393778539 0.0108740442063 -0.0277012481581
0.0164238929993 0.0129605198594 -0.0278755878702
0.0148362675623 0.00867843143427 -0.0277516987616
0.0094913536457 0.0073534655683 -0.0278457379575
-0.000206501900752 0.001578332801 -0.028016363444
0.0126195555748 0.0103189285375 -0.027790699916
0.0180011694215 0.00980865231256 -0.0276960150162
-0.000704146432464 0.00891901514778 -0.0280251190746
0.00494814128015 0.00555798290092 -0.0279256718992
5.54874872982e-06 0.00598603427038 -0.0280126325939
0.00664592546838 0.00863509249805 -0.0278958008363
0.000292855850348 0.0123496289105 -0.0280075776708
0.00578916501066 0.0127612055238 -0.0279108748049
0.00245888967781 0.00678569242704 -0.0279694681554
0.00379962439181 0.00982512796355 -0.0279458790731
0.00826929215511 0.00446122058176 -0.0278672390858
0.00375750818434 0.00130513597537 -0.0279466200718
0.00814251340006 0.0116056641839 -0.0278694696497
0.012020751712 0.00458575203117 -0.027802995108
0.0211122570037 -0.000600789767432 -0.0279956294777
0.0185022301298 0.00422628103859 -0.0278163462908
0.00966532471056 0.0020624114133 -0.0278967149985
0.0122254617905 0.00142051315926 -0.0279205558679
0.0151294748775 -0.00124533595149 -0.0280195686944
0.0215155580333 0.00531369014749 -0.0277759586151
0.0217531195816 0.00833714217295 -0.0276636639884
0.00403849089184 -0.00141781920937 -0.028025974929
0.0090091371726 -0.00151489829475 -0.0280295805624
0.0171276825081 0.00676028484987 -0.0277222303566
0.0117804974849 -0.00137701754588 -0.0280244595064
0.0234693251387 -0.00131933868088 -0.0280223172443
0.0165981001293 0.00163979300868 -0.0279124115518
0.0220402999633 0.00254909034498 -0.0278786391605
0.0066600902673 0.000716232888511 -0.02794671368
0.0143807895586 0.00793241030643 -0.0306540001184
0.00145823131443 0.0129504408362 -0.0306540001184
0.0119516344062 0.0111044870404 -0.0306540001184
0.00482550886707 0.0114255354558 -0.0306540001184
0.0101695142114 0.00789591295311 -0.0306540001184
0.00728474877747 0.0130493191079 -0.0306540001184
0.0126523022102 0.00603791778522 -0.0306540001184
0.0191934050407 0.00594944911773 -0.0304924182503
0.0219830252484 0.00709391017749 -0.0302805816206
0.0192846816439 0.00326171988336 -0.0306133997834
0.0237561620911 0.00965424862429 -0.0300599026216
0.0172770267879 0.00921183187446 -0.0304479125734
0.0179660707102 0.0115457102723 -0.0302993105324
0.0228292883697 0.00452733956676 -0.0303530828656
0.0219679511548 0.0136374638983 -0.029974298242
0.0144507777701 0.0122217994788 -0.0304668270306
0.0219571266315 -0.000623060575002 -0.03064426459
0.0349306140184 0.00214165870652 -0.0126382879979
0.0348123622012 0.00304172661783 -0.0173341680706
0.0349514593224 0.00295608917829 -0.0100272442555
0.0349627090886 0.00013801515182 -0.0145878987136
0.0347226114037 0.0029549900978 -0.0223090874049
0.0304880723373 0.00906556279225 -0.0271729994565
0.0329369218629 -0.0019570000004 -0.0210927346057
0.0323939569866 -0.0019570000004 -0.0140180307312
0.0337381161341 -0.0019570000004 -0.00966404790108
0.030830489164 0.0123920002952 -0.00586190228255
0.0307868418699 0.0123920002952 -0.0021519924115
0.0334846452235 0.0107620349403 -0.00378899898319
0.0330931885114 0.0115617741133 -0.018666892756
0.0334701361183 0.0106613415492 -0.0122666651927
0.0332517598921 0.0111986233887 -0.015023591135
0.033543475016 0.0105474447525 -0.00729405970328
0.0308271773228 0.0122584183198 -0.0267820950083
0.0323063913467 0.0123366660893 -0.00913447102062
0.0304140825234 -0.00155569087944 -0.0159774093342
0.0309632937411 -0.000477192949956 -0.00580378119704
0.0304764716231 -0.000690598711496 -0.0121017706459
0.0326150951815 0.000392792916362 -0.000658000004478
0.0305212794787 0.00340028375117 -0.00354184552894
0.0304930256527 0.00591539734146 -0.00265714148596
0.0315766564984 -0.00045269174676 -0.00299880701472
0.0345413587662 0.00576362000707 -0.00123390530869
0.0298657106327 0.0122063806778 -0.0186284258383
0.0302586136449 0.00910143877604 -0.00240918677937
0.0301717289812 0.00476636054213 -0.00573837281546
0.0299163518133 0.0108716790952 -0.00845736692548
0.0302614213719 0.00216135919277 -0.00606940247214
0.0300798008559 0.00522365349373 -0.012139238198
0.0302360431607 0.00171012466074 -0.0101376808788
0.0301880593915 0.00197935682091 -0.0137185898589
0.0300174495409 0.0080009256606 -0.00790110280002
0.0300711874439 0.00630877551559 -0.0255960241061
0.0310189826383 0.00407894570489 -0.0269692156218
0.0303913832231 -0.0019570000004 -0.0211056840844
0.0299755995993 0.0079632930737 -0.0143660879776
0.0299682242494 0.00842185419775 -0.0232316333875
0.0299121867638 0.0102090766157 -0.0212328381812
0.0301091837307 0.00367462916577 -0.0179774204693
0.0301506933232 0.00247022521744 -0.0243414387144
0.0299947420492 0.00749242354212 -0.0207567848052
0.0298949078037 0.010598256576 -0.0139988954524
0.0299820351223 0.00784502873157 -0.0181510828721
0.0301507316558 0.00236966902526 -0.0202826625979
0.0300783454319 0.00479661734161 -0.0225365086066
0.0300751214313 0.0047557579474 -0.0150369649525
0.0299246635399 0.0095679860711 -0.0112304619713
0.0301830671042 0.00130323579321 -0.0169573902373
0.0339430434657 0.00820926686493 -0.024928239093
0.0340456533419 0.008194583406 -0.0195291031963
0.0334045450382 0.0103995203893 -0.0221176728256
0.0331725288014 0.0110012117796 -0.0259472336368
0.0343570095047 0.00520430353247 -0.0263009151062
0.0342167287167 0.00845690690708 -0.00555080578263
0.0347744556943 0.00490028851079 -0.00625817349146
0.0342472293331 0.00768178685349 -0.0141469305088
0.034642889645 0.00531779798485 -0.0123033762033
0.0342322879595 0.00812193023037 -0.00904522411282
0.0342856721633 0.00828399380181 -0.00170692132436
0.0350170153772 0.00355954918918 -0.00352878311136
0.0345574957239 0.00553134521764 -0.0169125536257
0.0345718291334 0.00502563916176 -0.0197292796759
0.0343944637424 0.00602504808838 -0.0229608326754
0.0347244374795 -0.000716967329469 -0.0238129087392
0.034880746264 -0.000764484296176 -0.0186821941604
0.0346575067897 0.00249140119746 -0.0252733355138
0.035066999495 0.000588732918508 -0.00602429439146
0.035066999495 0.000866093605305 -0.00332040538803
0.035066999495 -2.78477856272e-05 -0.00885195901194
0.0315619770169 0.00631913654603 0.0257258276774
0.0307105192112 0.0110433536436 0.0218583650397
0.0312915598005 0.00664071583125 0.013810956873
0.0326399074508 -0.000561470045135 0.0224644042677
0.0318944177364 0.00402420785825 0.0231524860461
0.0309500277646 0.00993627388146 0.0249570713768
0.0313281218274 0.00799927361984 0.0281323010399
0.0310002966628 0.0101060701194 0.0292532274837
0.0309013580475 0.0087052037094 0.0111274767733
0.0312156002459 0.00791064506624 0.0211579268499
0.0314161632894 0.00638403510315 0.018317472015
0.0307797363617 0.00971120626975 0.0135775807162
0.0309325560488 0.00921539842604 0.0174636827612
0.0322325442116 0.00180382997885 0.0215668138412
0.0337381997914 -0.0019570000004 0.00673186324201
0.0315825468831 0.00503124304844 0.0109871611065
0.0319092183155 0.00328920261597 -0.000515706608281
0.0324061823683 0.000639042891453 0.00308969801919
0.031681456437 0.00450378816585 0.00850121507628
0.032243323474 0.0015075203595 0.00759587147724
0.0324293644942 0.000515419590554 0.0103592069368
0.0310244583135 0.00800736142514 -0.000293622053831
0.0326851713347 -0.00084872130066 0.0172293683545
0.031133066132 0.00742818861637 0.00380897176512
0.0325833536599 -0.000305758284571 0.0136862344205
0.0321038290187 0.00225140230695 0.012301523533
0.0317273032638 0.00425930083673 0.00498353806687
0.0316310520593 0.00477257954204 0.0022105109351
0.0338295162557 0.00863589496752 0.031086999923
0.0335834933335 0.0112098064741 0.0310665986818
0.0349199225969 0.00727244607623 0.0192848683155
0.0347814144616 0.00825107654129 0.0225307278112
0.0346663159212 0.0092803744491 0.0275261781859
0.0352753613058 0.00638335481254 0.0282103706567
0.034791968323 0.00731969965321 0.0131917416158
0.0347553398426 0.00657249450017 0.00642456259579
0.0346673269046 0.00755480796297 0.00960090612764
0.0351930669656 0.00549387684263 0.0172652500156
0.0351277475666 0.00493822239536 0.0106331664343
0.0345802369715 0.00711203286445 0.00284413843778
0.0350349440929 0.00430069364636 0.00227361730837
0.0353676004592 0.000294486191102 0.00748951869425
0.0351199798714 0.00202088028297 0.000804307584871
0.0352448198718 -0.000650460190767 0.00417471294896
0.03507717506 -0.000325244614449 -0.000351328153601
0.0353080783042 -0.00161221667319 0.0130503929349
0.0352212278393 -0.00184555519428 0.00939325615089
0.0354588232339 0.00350958561742 0.0210223290711
0.0352641309766 0.00311089958331 0.00865495122583
0.0352546307995 0.00207722248118 0.00469628132011
0.0353653112084 0.00330079321363 0.0150249593357
0.0354842839342 0.00224226622131 0.0182747101011
0.0354385149199 0.00112877733355 0.0119938141612
0.0354523415633 0.00457699136804 0.0241856343438
0.0355009995401 -0.000483435234676 0.0277579560336
0.0355009995401 -0.000165368871043 0.0202100374486
0.0355009995401 0.000599672868363 0.0149470015928
0.0355009995401 0.00331048515085 0.0279090817954
0.0355009995401 0.00161656148836 0.0227605895918
0.0355009995401 0.00186793494267 0.0258184202595
0.0316889286149 0.00446394128983 0.0156522559174
0.0304817568202 0.0109014251548 0.00119671842567
0.0307500438099 0.00947073138356 0.00548322310034
0.0306072108036 0.0102324168186 0.00828578274218
0.0311400359465 0.00739102069282 0.00754469535364
0.0320499756786 0.0025385859616 0.0179573931795
0.0328412367739 0.0123920002952 -0.000399250975873
0.0314869638477 0.0123920002952 0.0131618220594
0.0302939556052 0.0121908149184 0.0034736203508
0.0341267176773 0.0109355235076 0.024843609074
0.0338925974419 0.0118470777808 0.028448319161
0.0333497719377 0.0121303172984 0.00756080079413
0.0342855070366 0.0101897512951 0.0208097864393
0.0337892863441 0.0104990287993 0.00234469038349
0.0342178508556 0.0101970560665 0.0178166185763
0.0343396698984 0.00956183091729 0.0147200208814
0.0338598118176 0.010457758437 0.00500568399305
0.0339863383126 0.0105501960799 0.0120506650834
0.0326992368056 0.000472283349587 0.0280710683214
0.0327193461233 -0.000426749367179 0.0255717549714
0.0320822461368 0.00420746119086 0.0293666737491
0.0321962295846 0.00273091570148 0.0266411177979
0.00263743239919 0.0346780381629 -0.0269487833944
0.00266867643485 0.0346057081151 0.031086999923
0.00419700006023 0.0339313469901 0.0200621566159
-0.00189099996351 0.0331918692642 0.0213992630704
0.000680900799466 0.0322168053463 -0.0242576307862
-0.000522878176023 0.0322508161321 0.00225427589511
0.00229662369483 0.0330485667286 0.0249786912587
-0.00105608050504 0.0320285265393 -0.00407777958386
-0.000990458361431 0.0318294218417 -0.00974939909692
0.00198932736381 0.0326331824215 0.0131462143268
0.000430508651916 0.0327882007911 0.0175620077285
0.00258454163974 0.0331628803827 0.0282349858556
-0.000301656427127 0.0330443082926 0.0248573870968
-0.000403338708424 0.0323681598697 0.00559688428234
-0.000549571745195 0.0325356051583 0.0103666660962
0.000807249951663 0.0329255055362 0.0214732176652
-0.00189099996351 0.0353331997895 0.00982225011973
-0.00189099996351 0.0353331114619 0.0187202976981
0.00255309825598 0.0358709990978 0.0215467936713
4.74785591698e-05 0.0358709990978 0.0265466097128
0.000954751466291 0.0358709990978 0.0292763800255
0.00370123393268 0.0358230573599 0.0248303621114
0.00244931742852 0.0356947993354 0.00858805428034
0.00294703423709 0.0356983083983 0.0121222015316
0.00242392011676 0.0355791546465 0.00129908020733
-0.00066489794257 0.035550349118 0.00382538134985
-0.00131349541132 0.0355499669225 0.00704505084219
0.000799540385569 0.0358549302776 0.0165677895266
-0.000764570111908 0.0353818119138 -0.00678086436378
0.000146340821974 0.0358677837785 0.0206825809352
-2.04714706736e-05 0.0357431555722 0.0133053867127
0.000779647066589 0.0350701207285 -0.0227169153392
0.000676453954257 0.035364108524 -0.00941498432543
0.000639431743198 0.0352193449127 -0.0159785084667
-0.000655265909026 0.0350212053343 -0.0251528735121
0.00207792317135 0.0354440684598 -0.00557782600491
0.00161461124282 0.0355125968092 -0.00254452408745
0.00298248047424 0.0352390912227 -0.0147246401238
0.00167952014108 0.0352998028196 -0.0121742167957
-2.21778281141e-05 0.0351499587638 -0.0192231980846
0.00155222742717 0.0356870231662 0.00534748770509
0.00239474869668 0.03511205784 -0.0205694404936
0.00161591442462 0.0319957701793 -0.0185844748158
0.00265304481667 0.0321553852544 -0.0152980907863
0.00412886377801 0.0323825147996 -0.02455750251
0.00218853101583 0.0324889008399 0.00646558427069
0.00326381404935 0.0323660579492 -0.0045172039315
0.00294216924108 0.0324509861475 0.000935088892611
0.00176037914438 0.0325065778287 0.00943379711146
0.000552156756047 0.0320187545614 -0.00637387179583
0.000803530630628 0.0318879211648 -0.0135341141234
0.00373154500834 0.0326076446583 0.00397429188917
0.0018147881203 0.0320880505851 -0.0096659784762
0.00367560610121 0.0327658003458 0.0113714054143
0.00193494983991 0.0322772914685 -0.00176461843016
0.00404866019129 0.0353879658424 0.00350729220547
0.00419700006023 0.0354442771749 0.0171134927629
0.00419700006023 0.0344658884459 0.00699804074419
0.00728852805768 0.0344387536634 -0.0204614363038
0.00807295924535 0.0343385449618 -0.0175893930923
0.00770571201316 0.0342134234079 -0.0255930973731
0.00845338646175 0.0343857544624 -0.0124880441499
0.0115879997611 0.0314823624944 0.0289147447239
0.0100053151364 0.0343946274512 0.0146254413094
0.0111428962768 0.0335976308644 -0.0114910101399
0.0102009967521 0.0344709857514 0.0234665174775
0.0108609142649 0.0338056068581 -0.00436656046375
0.0111646090517 0.0339555654423 0.0113192962671
0.0109966270352 0.0341118852737 0.0175888837139
0.0115879997611 0.0313765312565 -0.0141811570774
0.0115879997611 0.0340791402656 0.0287464389983
0.0107746822023 0.030435627286 -0.0268299351257
0.00524237494672 0.0343383801248 -0.0271760001779
0.00521269518636 0.0350063207766 -0.00751743835703
0.00539106020965 0.0350625040465 -0.00500907944282
0.00552124629386 0.034639210368 -0.0239074538884
0.00485555878781 0.0351689297661 -0.000257595543994
0.0042441247475 0.0346281804786 -0.0172994544076
0.00802842659785 0.0311010470121 -0.0244710631159
0.00726405080623 0.0312250291197 -0.0213231268644
0.00472552601405 0.0326690198656 0.0226943606431
0.00472121283827 0.0325354711734 0.0150868153567
0.00588744349106 0.0319476050064 -0.000127052601815
0.00623746863061 0.0319284798068 0.00418970231995
0.00847781705079 0.0311284328135 -0.00644454538451
0.00609478632276 0.0320235145541 0.00735611730802
0.0063674352492 0.0315325843778 -0.0161613523175
0.00761250667167 0.0312794162922 -0.01126037963
0.00915775929759 0.0307724844649 -0.0160603941794
0.00507924547666 0.0319322630494 -0.0134541649119
0.0100685116743 0.0304275462106 -0.0214959075532
0.00465579886945 0.0327542564201 0.0264323280061
0.0088497991104 0.0308026598007 -0.0191046273554
0.00745177676375 0.0314633890343 -0.00335019376919
0.00600086571698 0.0317684668884 -0.00849363375937
0.00433225845956 0.0324674647753 -0.0105022820993
0.00458584786332 0.0320266473278 -0.0182016211388
0.00713460450131 0.0322404810313 0.0282833567821
0.00964741053662 0.0316366800038 0.026076689299
0.0115879997611 0.0307927838337 0.00377153657542
0.00691218468155 0.032194304706 0.025046581957
0.00897217648182 0.031169031936 0.000798512372573
0.00926338917114 0.0312397346116 0.00669164294443
0.0100098092596 0.0312216534996 0.013181851677
0.00662469848638 0.0319878857321 0.0133234907071
0.0104330114885 0.0307253300838 -0.00414855387765
0.00798717375545 0.0317344489175 0.0156422917611
0.00905490597214 0.0316254038505 0.0213309109169
0.00770537757496 0.0318566121211 0.0181774235572
0.0105140086285 0.0311723228999 0.0159615612643
0.00808074488837 0.0315681293553 0.00936480347542
0.00975669996771 0.0307577015616 -0.00933805920868
0.0109731518085 0.0302274342126 -0.0239223389246
0.00958014419545 0.0338595520601 -0.0227709906548
0.00619942461897 0.0351302701533 0.00513961369542
0.00517586797535 0.0354602658739 0.0139037701691
0.00636016199832 0.0347985966016 -0.0111393793112
0.00653384646596 0.0350180477168 0.00204159391502
0.00647164053834 0.0347049110828 -0.0151689365326
0.00737383383333 0.0348300109823 -0.000742760499967
0.00521925103645 0.0357178971168 0.0287935561156
0.00681746489867 0.0353548852107 0.0260063099551
0.00778749374564 0.0349640915688 0.0132276989105
0.00703127452543 0.035189001744 0.0180030675932
0.0066640356112 0.0351230143657 0.00892664281606
0.00722785138498 0.0352236998433 0.0228209520671
0.00989753915024 0.0341668299595 -0.000615455373582
0.00985779407214 0.0342523992797 0.00357357940333
0.00833116609241 0.0344886487898 -0.00907852257078
0.0105370291821 0.0337333547351 -0.0143472849394
0.00876804768804 0.034630818987 0.0064772828816
0.0112956873298 0.0334150254516 -0.0194911999833
0.00880811745441 0.0348702555419 0.0207846034432
0.00841232046929 0.0345088581597 -0.00654163968448
-0.0141165704284 -0.0255141957303 -0.0306529998779
-0.013195999898 -0.0273097661151 -0.0274499140619
-0.013195999898 -0.0245692947983 -0.0274175006675
-0.0218899995089 -0.0193034227476 -0.030171280906
-0.0218899995089 -0.0241762248253 -0.0262729016715
-0.0190802398845 -0.0192335904306 -0.0265680378641
-0.0218899995089 -0.0172996112248 -0.0281872057147
-0.0159480668098 -0.0297951189116 -0.0250020008534
-0.0170797302559 -0.0236368393809 -0.0255877854532
-0.0165435505424 -0.020977911287 -0.0262829591077
-0.0143380553098 -0.0184641017153 -0.0271777492154
-0.0148023637888 -0.0250242447872 -0.0255826829283
-0.0197870777976 -0.022908067606 -0.0253791283637
-0.0133726959404 -0.0281485223488 -0.0250539049848
-0.0188066877542 -0.023018513395 -0.0306529998779
-0.0155386653488 -0.0311655211041 -0.0276668131615
-0.0184147558515 -0.0294988616618 -0.0260748597577
-0.0194430584065 -0.0173946774947 -0.0302733560656
-0.0136770617815 -0.0296733536971 -0.029936137511
-0.0209535692527 -0.0250665577452 -0.0300435132942
-0.0202822702329 -0.0278241167577 -0.0292620657861
-0.0180666228822 -0.0291256180938 -0.0290029455037
-0.0135235989834 -0.0175355128199 -0.0299956856651
-0.01539855977 -0.0210623147324 -0.0304353546186
-0.0163022900397 -0.0170483182643 -0.0301280995601
-0.00347981774802 -0.0341947769215 -0.0280645504801
-0.00520958514742 -0.0218093249234 -0.0306529998779
-0.00799268344915 -0.0219370908785 -0.0306529998779
-0.00553799117364 -0.0249876791831 -0.0306529998779
-0.00763211474882 -0.0287268141216 -0.0306529998779
-0.0031959998887 -0.029600837023 -0.0274907756824
-0.00474254257227 -0.0342336381829 -0.0252233611924
-0.010605254792 -0.0222314996222 -0.030461864088
-0.00919100715548 -0.0192203430442 -0.0303841076669
-0.0118284288609 -0.0197734019432 -0.0301917491775
-0.00666087634094 -0.017846155676 -0.0305124207114
-0.0047369200232 -0.0165556002243 -0.0272158014646
-0.00886727472076 -0.0169688274477 -0.0272240208227
-0.0031959998887 -0.0174520804323 -0.0294567205815
-0.0031959998887 -0.0265903994242 -0.0269536107539
-0.00808721840768 -0.0304032253314 -0.0250020008534
-0.0125392145972 -0.0215780061446 -0.0265597754409
-0.00478871435085 -0.0214590717785 -0.0257002397296
-0.00441272065527 -0.0239834638354 -0.0254632751448
-0.00494425180015 -0.0278855187941 -0.0250667093055
-0.0110628497068 -0.0193683528698 -0.0267951137267
-0.0110678715685 -0.0241959495393 -0.0255889109869
-0.00889116757289 -0.0221654011866 -0.0258248529917
-0.00755591191068 -0.0193466889438 -0.0263628424189
-0.010449488927 -0.0317409371659 -0.0294433694067
-0.0113710569218 -0.0327308206636 -0.0269830251524
-0.00863794205404 -0.0334230003691 -0.028323279052
-0.00632929625646 -0.033173295101 -0.0292808598723
-0.00885415039277 -0.0337657895693 -0.0198982569969
-0.00656197832508 -0.0343189255501 -0.0178665650833
-0.00346070184059 -0.030804896194 -0.025001000613
-0.00934882720364 -0.0267559818326 -0.0221981766401
-0.0121438402499 -0.027500770941 -0.0194243046517
-0.0108695653293 -0.0301898446814 -0.025001000613
-0.0088025915936 -0.0273374173423 -0.025001000613
-0.00319500011392 -0.0331932869272 -0.0155886919437
-0.00319500011392 -0.03069889139 -0.0167938699105
-0.0149339996278 -0.028233711459 -0.0224145723461
-0.0122158222115 -0.0270797737806 -0.0223124800503
-0.0148938993795 -0.0315619146893 -0.0215143988276
-0.0132739009547 -0.032362688672 -0.0173131793201
-0.00548692394969 -0.0310450826778 -0.0150009999052
-0.013858398111 -0.0320044487301 -0.0237740301271
-0.0104955285192 -0.0333137597283 -0.0233481381753
-0.0119596287452 -0.0328363612723 -0.0202202666836
-0.00943727885327 -0.0277759523047 -0.0181321245222
-0.00726159090034 -0.0270655920535 -0.0201554029458
-0.00319500011392 -0.0286824291746 -0.01996989349
-0.00699146413455 -0.0287310210293 -0.0168401643312
-0.0124015142518 -0.0287607185665 -0.0155169632101
-0.00525360226712 -0.0270030868792 -0.0216893462059
-0.00627434709582 -0.0342193406142 -0.0216532170349
-0.00833770882916 -0.0336625513717 -0.0249211541217
-0.00653204425095 -0.034521249103 -0.00233318273202
-0.0109389593757 -0.0325798913405 -0.0150009999052
-0.0120889347214 -0.0292302805046 -0.0126156451896
-0.0140113551945 -0.02901656921 -0.00911342250819
-0.00885985005798 -0.0295892508096 -0.0144624811788
-0.00977219759217 -0.0294878271225 -0.0109139246923
-0.0107806921092 -0.0293757149848 -0.00793435450234
-0.0149339996278 -0.0296698015633 -0.00667618252979
-0.00837658565117 -0.0330352376419 -0.0150009999052
-0.00319500011392 -0.0333243036598 -0.00763703060344
-0.00319500011392 -0.0332482214032 -0.0106237061312
-0.00711114294754 -0.0301850982637 -0.00447279624896
-0.00414758871355 -0.0307796362642 -0.00515342078095
-0.0061611893717 -0.0298892550371 -0.00962583804909
-0.00813745492365 -0.0296695579025 -0.00707555163649
-0.00500754775598 -0.0300175028615 -0.0127608536795
-0.0126886151805 -0.0291636153348 -0.00432705292125
-0.00960600298529 -0.0295063026148 -0.00439604634925
-0.00386567672805 -0.0301444421752 -0.00818388701697
-0.0147774637729 -0.0317380300277 -0.0106288850267
-0.0123503954858 -0.032754943966 -0.012464676225
-0.0139903698171 -0.0322188152643 -0.00668686752592
-0.0139483550505 -0.0319675452631 -0.0147978671353
-0.0149339996278 -0.0291406988891 -0.0144017408839
-0.00404606835626 -0.0346185535992 -0.0134218523143
-0.00821381059012 -0.0341625113827 -0.00757061221909
-0.0066098697489 -0.0344153929877 -0.0131071933577
-0.00673314203842 -0.0345788843431 -0.00522775300064
-0.00567079980847 -0.0346516278272 -0.0088742630995
-0.010757622266 -0.03354081931 -0.00627042428199
-0.0110220224043 -0.0333605950875 -0.00999776781837
-0.0139051183532 -0.0323332563336 -0.00196000002325
-0.0100096310261 -0.0338004716327 -0.0036994145527
0.0179838533841 -0.0183538340316 -0.0307648059574
0.00324082284234 -0.0213265036636 -0.0307993374853
0.0107732626939 -0.0215848088867 -0.0309706099447
0.00786277478689 -0.0212401391108 -0.0309044313317
-0.00306512724126 -0.0230877407476 -0.0306559529246
-0.00119606058384 -0.0191935586435 -0.030698451723
0.00874936221934 -0.0149999996647 -0.0295762701752
0.0103203423019 -0.0186969960914 -0.030916034464
0.00193345131333 -0.0171636732682 -0.0307685526655
0.00628962212161 -0.0189931952892 -0.030866532296
-0.000622057462301 -0.0156489343083 -0.0307019389212
0.000873850974073 -0.0227496894551 -0.026664690162
-0.00220612050646 -0.0229439936014 -0.0268589943083
0.0164293940708 -0.024131000042 -0.0285961337873
0.0148868589592 -0.0187611594471 -0.0276643311307
0.00912221579383 -0.0194513067082 -0.0272209360485
0.0124400860237 -0.0202721223208 -0.0274761343845
0.0142705380893 -0.0224066256506 -0.0276169260035
0.00634992562082 -0.0204720011727 -0.0270077017174
0.000319278748428 -0.0201617044938 -0.0265438466116
0.0176087859969 -0.0219912985358 -0.0278736917152
0.0198111956474 -0.0180003864093 -0.0280430929392
0.00362916892964 -0.0187659790584 -0.0267984311517
0.00940593911072 -0.023217765057 -0.027256367156
0.00401256857642 -0.0215562736344 -0.0268337777054
0.0053247506421 -0.015533953257 -0.0276253069419
0.0082163512634 -0.0164789412886 -0.0274205806029
0.0129399273269 -0.0159388982354 -0.0276579386377
-0.00160602114716 -0.0155923535651 -0.0274784497301
0.000425240346493 -0.0172216618359 -0.0270697008529
0.00223236251042 -0.0154187785327 -0.0275985368078
-0.00260119850559 -0.0192766018224 -0.0264486819178
0.0121329538078 -0.0149999996647 -0.0303812130144
0.0143750706074 -0.0167942664821 -0.0307910937475
0.00522331828504 -0.0163189879316 -0.0307545144308
0.0149997316397 -0.0194217768725 -0.0309933173374
0.0170004597724 -0.0277062130404 0.00891499966383
0.0132950353082 -0.0331982997099 0.0260279117897
0.0131293135263 -0.0330431791571 0.0188977504798
0.0166775081873 -0.0281975635662 0.029191648425
0.014152102014 -0.0296303211869 0.0284375577964
0.0128920003772 -0.0321312978519 0.023433521734
0.0146386825374 -0.0291434747982 0.0104704514058
0.0131034129919 -0.0300879426757 0.0132628409376
0.0165578728539 -0.0279628263511 0.0119900415026
0.013630945243 -0.0297634151248 0.0216239512886
0.0185377731028 -0.0268477922543 0.0140770220443
0.0164497355509 -0.0280503339016 0.0159223521775
0.0150831505635 -0.0288823042246 0.019374801043
0.0138560133852 -0.0296709784899 0.0245533816214
0.0165074925098 -0.0282284463886 0.0264323200274
0.0160077311154 -0.0284551167666 0.0238186427565
0.0185614625437 -0.0305910299193 0.0288604919903
0.0166396238659 -0.0315557164809 0.0308186746323
0.0128920003772 -0.0331368438273 0.0289415925889
0.0174610108305 -0.0311482956303 0.0264650063289
0.0167019985067 -0.0313977594714 0.0141969681776
0.0157977888622 -0.0319139235497 0.0196847601788
0.0156243205538 -0.0320946790927 0.0282407305028
0.016244479888 -0.0317298545978 0.023484570159
0.0163712225407 -0.0315256185753 0.0106079775161
0.0172290893898 -0.031156791443 0.0173706485681
0.0183686248332 -0.0303860763546 0.0122325030308
0.014326875049 -0.0325394622568 0.0158540094071
0.0144328403733 -0.0323113211735 0.00914180225565
0.0189789999276 -0.0276164485799 0.0254607980065
0.0189789999276 -0.0273313940695 0.0221855414537
0.021183814884 -0.0231716833031 0.0141045136356
0.0230250719061 -0.0218927647101 0.0224958367382
0.0207378438943 -0.0233702712064 0.0108564740987
0.0221604700215 -0.0223174823656 0.0166331149088
0.0246072940709 -0.0200279265504 0.0213332951079
0.0232026446225 -0.021377581819 0.019020891404
0.0265763940706 -0.018466750027 0.0281920583658
0.0193705543818 -0.0264490412243 0.0279033386523
0.0203122743043 -0.0250791322086 0.0243689220339
0.0215886343616 -0.0238325636505 0.0262494917714
0.0231678079445 -0.0220032613754 0.0254384364344
0.0210376711431 -0.0240232758625 0.0216395103621
0.0208117035056 -0.0250846400724 0.0304980509183
0.0228764770887 -0.0226007340612 0.0284307439146
0.025187927652 -0.019654606057 0.0243072732977
0.0210911169203 -0.0237248704022 0.0190263497565
0.0235286140202 -0.022835654097 0.00891499966383
0.0274495835025 -0.0171041214583 0.0177736631185
0.0263421725999 -0.018245937257 0.0219068335667
0.0253764276788 -0.0190581207573 0.017294539283
0.0276964176512 -0.0167080268716 0.0105144840662
0.0240871478801 -0.0202324098228 0.0151663408857
0.0255012632791 -0.0188473158364 0.0131540679647
0.0269260291065 -0.0175377541047 0.0149745594481
0.028299761778 -0.0164865506681 0.0261948259653
0.0226774115087 -0.0214954319498 0.0119002008132
0.0256630084016 -0.023728036715 0.0310849994421
0.0256383163302 -0.0211434830368 0.00891499966383
0.0248150567692 -0.0206942973361 0.0299367267402
0.0289789997041 -0.0198059166382 0.0285813288973
0.0247188378101 -0.0253450509674 0.0130439796307
0.0215493735607 -0.0282003349499 0.0114814823229
0.0219197304021 -0.0280430247741 0.0170589248799
0.0246783227695 -0.0255670173601 0.0186982972171
0.0229414151027 -0.0271957460897 0.0197999540192
0.0228726139955 -0.0273908415363 0.0238386087426
0.024837119219 -0.0251313894447 0.00982546267948
0.0231543796645 -0.0268389733631 0.0148593304777
0.0190458831542 -0.0264952898503 0.0171353574185
0.0189810004085 -0.0266230626674 0.011100555074
0.0189810004085 -0.0267630749416 0.0196606758438
0.0284724191168 -0.021024471457 0.0102182412265
0.0289789997041 -0.0185248005523 0.0218919396679
0.0289789997041 -0.0194159443924 0.0174150537678
0.0211717647019 -0.0285742103219 0.0310183796819
0.0200447136374 -0.0292346454032 0.0138146212702
0.0200867436409 -0.0293680672031 0.0184827449336
