0.02573067373992749 0.019582821466377402 0.027629014909423138
0.02790132179106363 0.016196657033193406 0.024203806963862835
0.02671336328736786 0.017719006676051714 0.018433068998372226
0.027783786884344318 0.016526674408905255 0.027778524930928087
0.024368147527682266 0.0214906051444165 0.024747616847279795
0.025413892790352166 0.019600196859358893 0.01711073249448724
0.024973394526968846 0.019870993192420115 0.0081840070465966
0.026200925043290878 0.018115958238441386 0.00994177623756443
0.024800615817048184 0.01999275300343612 0.005041839594394009
0.027458805392400084 0.01649357561507285 0.015811166029506912
0.025752137376870404 0.019263903615771433 0.020999105092821005
0.023838999107818136 0.02185293734042789 0.014880295445138362
0.02421979586979827 0.021167980340284734 0.012178314455502976
0.026324031791543342 0.01856030775572501 0.024453760817118763
0.02292397512249752 0.022586069901841206 0.0002801222479959344
0.02444199424079633 0.021548083495764488 0.028621450094430553
0.026311080409607564 0.018128816229883327 0.014036090940902671
0.02313742548661935 0.023107110918835373 0.01967859882998324
0.02348676735977278 0.021364286892693075 -0.008757540405676728
0.02438121748815503 0.02026257726393276 -0.0033272017889112537
0.028053697209951364 0.02146269648868672 -0.01118902511113615
0.027997371741924345 0.021433561443593745 -0.014991356909526514
0.026528024166986647 0.023096874517873955 -0.02177955785165019
0.02734202086879068 0.02217749789476845 -0.017939910951244257
0.026766302381338897 0.023129936355674126 -0.009133202337026967
0.028173790117424678 0.02158086052508667 -0.0009450077003821701
0.027855196223557636 0.022333679809852843 0.01253648638263101
0.027885887474816146 0.022091192057037724 0.004756972638939894
0.02707188057600278 0.022333989968600955 -0.024881062481876357
0.012813681675214931 0.03361436813329014 0.023476579892081555
0.012205689031421187 0.03312282146472932 -0.013787407610183055
0.016215079668410255 0.03197355326207488 0.0310869999229908
0.023034146945723175 0.025290123864299054 0.03103113329929781
0.017854640847917085 0.027418414903413714 0.030684564123564895
0.022566604117850844 0.02369599975645542 0.003920273998000559
0.023138157847210135 0.02369599975645542 0.010006340923616356
0.022854556619209376 0.02369599975645542 0.016641936124115724
0.011590000241994858 0.030958312718127594 0.012151547258467761
0.011590000241994856 0.030765860820350637 0.009362190498662347
0.011590000241994858 0.031114457731208772 0.02797629821536796
0.011590000241994858 0.03129732285192844 0.02184392762334662
0.01159000024199486 0.03128612853063915 0.0028748781312492836
0.011590000241994858 0.03209462099478895 0.006270241013883381
0.024728784918093816 0.024754425185050475 -0.02717600017786026
0.014279297899564471 0.032533940031201775 -0.0035383849511046598
0.015718086867829308 0.031907034594068316 -0.0006503800181860385
0.01409596456550163 0.03230941522423994 -0.019728485461014165
0.01566923534036159 0.03152635745253193 -0.021641217044522473
0.014721415427223328 0.0320725792413481 -0.01661831367199416
0.014657504948033284 0.03260516352920511 0.009488098832658085
0.0158828478906905 0.03158548707974253 -0.013301330404621345
0.014642787686796672 0.03228702194392588 -0.007410769060236941
0.011834820879129238 0.03019100355223992 -0.009577484613988854
0.011953665839442998 0.029853618645075387 -0.022783717771322404
0.014266410552935701 0.02843100082274374 -0.023547336422359372
0.012018172190475976 0.029909757239318276 -0.0259053845588825
0.014918481030352806 0.02889599573403192 0.029958141524685452
0.018336969511611144 0.02640137868020552 0.016105153049206733
0.015394602619707126 0.028069191122853984 0.00312826783799784
0.012781044748599995 0.029796932439638022 0.004396039574556957
0.013680149091569546 0.02962079623080643 0.02568520633347969
0.014413073679144399 0.028666285150034686 0.0009154804114338451
0.015211579185837217 0.028085467979768297 -0.002222371348163823
0.01312732507311411 0.02935140067460608 -0.007024168081389384
0.016003879749600578 0.027916980096427513 0.015848313793444695
0.01995371355995146 0.025384823036877904 0.018033667434180146
0.012744181107385837 0.029712715679968235 -0.0012266280866523246
0.013719858436602452 0.028885036339465844 -0.0111897850954824
0.021031055527774036 0.024882701511808696 0.02842352915253767
0.013986259458998269 0.02936432787747617 0.022726040034211126
0.01599722293909644 0.027774123916420326 0.008202232991265416
0.01439209816383898 0.029044718193541645 0.01986321535344161
0.018767131860492687 0.026064587173869155 0.013173274206816226
0.019343145894360772 0.025832980335297982 0.020642972712683817
0.016521754188182823 0.027772264243432394 0.02586331702509576
0.01947486059154062 0.025805432962402182 0.02367113468401406
0.012408474381388113 0.030281163230897717 0.016936449492586367
0.013307321216594005 0.029653224177459026 0.014747828074125585
0.014110887575362439 0.02906434740743124 0.01136264940267744
0.017548954925655096 0.02704114411767201 0.02266025866543887
0.01626753625609606 0.027690697202995447 0.013019893113035887
0.01880410128730165 0.026306032694421697 0.026966830892194524
0.021617271395445097 0.02443738090772594 0.02513716177604379
0.018218055131119997 0.026359128241119946 0.009884664130183211
0.011590000241994856 0.03356478249840306 0.008365135068074186
0.011590000241994858 0.03309954532957444 -0.009432678758006035
0.013024678867049942 0.03195610194523656 0.031086999922990795
0.011590000241994858 0.03345678371609127 0.013588382503555234
0.02149963486034618 0.02401460386094489 -0.0044429786575614465
0.018977383222902443 0.025550051935318518 -0.024479765106371582
0.021971706486520193 0.023727225132108017 -0.01684743730388875
0.02179487846233498 0.023834871112072824 -0.01124314394020663
0.01389803376362006 0.028642161077224008 -0.020946805474094117
0.01839959875820403 0.025901784502582622 -0.01317388920822795
0.019431611991771493 0.02527353523962834 -0.015487343189991213
0.02193356001059878 0.023750447213572116 -0.024642010827489604
0.020089831509159023 0.02487283696056523 -0.00736182962137617
0.017078704615496033 0.026705893156042715 -0.015112770615726048
0.016414823423849752 0.027110038040793094 -0.023405625751837654
0.018250188844445334 0.025992739410081712 -0.020958493374278755
0.020284061474899206 0.024754597359704596 -0.019951400966186392
0.018160075509093827 0.026047596881551564 -0.018215004008844016
0.018450007715215464 0.026123336224969256 0.005092639992218943
0.020584481199014425 0.024827056405068895 0.009358496302197036
0.018780440722024175 0.025775441323384572 -0.0028579654980949213
0.016631370075365595 0.0271074587102068 -0.005581206529880699
0.016755899209335436 0.02693830096015945 -0.010802953197056729
0.020755539226607753 0.024662402762327715 0.006145966320234612
0.019232171117144106 0.02553341100739928 -6.54216278211414e-05
0.021379562947217243 0.024529116669543594 0.021763464472721067
0.02163171960209328 0.024220321549200417 0.013162880223835046
0.017677043272724787 0.026568114009666195 0.0021061241698408653
0.021006539535956926 0.024372136910235577 -0.001414220848708889
0.02022767686180566 0.024951856459972544 0.003270751447994052
0.013981813937467287 0.028656930313551474 -0.014363753275535787
0.018181745962168233 0.026060450031163564 -0.00865080966045419
0.013416591585628449 0.02897513076025334 -0.016959312226022313
0.015329934411504256 0.027903503847192975 -0.007850279560602328
0.025082088997496053 0.025280476854599027 0.00543335392049746
0.02492028523138321 0.025716325795526622 0.01768251560703529
0.025760893687321394 0.02504651607741117 0.02527812614131003
0.025326194933848724 0.02463220950997382 -0.012631916245012767
0.024979301783656514 0.025913548678232513 0.029127162171921597
0.025953658224062016 0.02473821358979623 0.020108739473453437
0.025758774355143097 0.024458947281495967 -0.0010651252139427835
0.024147759171827314 0.025754723378543492 -0.015126226845370074
0.02429562600180492 0.026475849807882895 0.023730365449014877
0.024000131631153516 0.025995779619321646 -0.010948609965577418
0.023756486540301314 0.026395791420736697 -0.003956751909588812
0.024179798796720515 0.0255164869910435 -0.024346210373586974
0.02411323333243326 0.02631364317925087 0.008321782834709607
0.024097967762999634 0.025731140286185672 -0.01840713040451856
0.02401365284068407 0.026547564335150833 0.014328757410744982
0.02453721210386035 0.025524105743829982 -0.008023987186166266
0.019077145356553884 0.02946874988868882 -0.025325994724432397
0.018543016671603216 0.030282931325879194 -0.0032188813734811052
0.019278828134917853 0.03006819391109109 0.007515719245387853
0.01783188643413253 0.030573912211848554 -0.009803366839789485
0.017439804321591864 0.030624619934210732 -0.01841730982014139
0.02046155490881554 0.02874828777897248 -0.019501473319267416
0.020108291110928378 0.029084512507346824 -0.01406669014114564
0.01900454850411883 0.030104087635777092 0.0015090023397998208
0.018896012492422065 0.030241510212548808 0.0047285408315589465
0.020192829117438728 0.02909839714112008 -0.011082210249233051
0.016585974242316788 0.03101854110759996 -0.024299654656136416
0.01899232104861336 0.029600891714174692 -0.021686079742329147
0.01962558775803431 0.029541511236936345 -0.006750561979929307
0.02026178972736632 0.029504714430904494 0.01221938767816791
0.019917112547716588 0.029819220459488607 0.015891819750506287
0.026193177413241592 0.02391102562869185 0.0075675974957106745
0.02627778114710537 0.02397579479117065 0.013693442871377666
0.023914028793486804 0.023860151494667768 -0.021768281633822707
0.013894709350106043 0.03298923235103398 0.012960350951303816
0.014320753337808089 0.032893927207060525 0.017519109567836262
0.014140352632106617 0.032747570323889905 0.005104014538934948
0.014330262606373226 0.032957346299818696 0.021301595385168227
0.013924561028803621 0.032544047036504646 -0.011344504172845916
0.01259853548899895 0.033695999532938004 0.02876705321643671
0.015995848126907113 0.032277841219179676 0.02657410888776924
0.016355872358205053 0.03186974022986156 0.014354190244311022
0.01636519038641371 0.03165432730288864 0.0030630150413579593
0.01651977231072155 0.03164282889577262 0.006587852849036228
0.015563862143444927 0.03244840164356143 0.02414007661224508
0.018710693781147255 0.030617732254806948 0.031020460102828416
0.020905718247202682 0.029258922209786008 0.0286510603118749
0.018626596785361823 0.030799284149817717 0.027412254277392578
0.018673933463863316 0.030733165279930988 0.023879466099243178
0.01757521331848052 0.031237193259151228 0.01647560048789514
0.01709400424229926 0.031081089240528603 -0.005973193847795908
0.01711623834021963 0.03160344324148277 0.021899292218376318
0.017712243842445054 0.031066445824789984 0.011657770941708327
0.01696237444927075 0.031636985031263505 0.0190688457895651
0.023257530931162056 0.02745682308310233 0.027942672535742796
0.023517112340763556 0.027116773119903632 0.020677062640876577
0.02299737813760768 0.027385791658003113 0.011754811767510656
0.023638366480862597 0.0265631656577646 -0.0013142571932355403
0.023462849721991905 0.026820103414961598 0.0038182730306331337
0.022613621705981985 0.027032087145741394 -0.020306309507246226
0.022771026977126692 0.027197222101998354 -0.006616171224373671
0.02207946014779589 0.02758764461903928 -0.014607203800707238
0.022599372876221387 0.027611642311802218 0.006240279354603773
0.02152038825135045 0.028169662872274175 -0.008616493425670549
0.022302234930135254 0.027731782512023663 0.0005817440746311471
0.021737421836956324 0.0276799651574636 -0.023269525776679748
0.021273900983445074 0.028888070707228024 0.019167306244878387
0.020739975851781896 0.02889391622145013 -0.0016465897256654235
0.02106542171186309 0.029096582150541526 0.022018512207101673
0.020695310143305244 0.029428408456776484 0.025039132255139575
0.021456277593744827 0.02856267128254283 0.00906096404115108
0.021529121002568586 0.028411561984395033 0.0038989654373753953
0.022144477380082673 0.02816867451490915 0.015316140777931584
0.0141752937472117 0.03216861444303349 -0.02463751278106079
0.011905270470934516 0.03292825875278685 -0.022781888023237017
0.011878607781931564 0.033059853993732305 -0.017127229013489245
0.012100378093486044 0.032840776566758545 -0.02654100520607207
0.013181199491315685 0.033064316214840114 0.0008972597534335487
-0.020870905056903765 -0.003843219492477958 -0.029920990710918256
-0.021196573729460953 -0.0069201022172252795 -0.02986021484062261
-0.009290410462098036 -0.0064541656224977794 -0.028045000508427613
-0.007285256895024834 -0.004514317519462403 -0.028045000508427616
-0.017457358968512776 -0.004357795055553719 -0.02804500050842762
-0.0039370738741361395 -0.005041094473054777 -0.028045000508427616
-0.010688337911735667 -0.009031171653788587 -0.02804500050842762
-0.012279896080816944 -0.004302954062936728 -0.02804500050842762
-0.007225888561436389 -0.009814595829334407 -0.02804500050842762
-0.003677308279222662 -0.009091499474092263 -0.028045000508427616
-0.012602606636831333 -0.006760994218157755 -0.02804500050842762
-0.0061027318050157 -0.0069437500117972865 -0.02804500050842762
-0.015575828115067138 -0.0022959424224593527 -0.02804500050842762
-0.0063122440493452205 -0.013412534946255151 -0.03059584984484132
-0.014124594253977666 -0.014820058795468775 -0.030160709731388305
-0.012230873228031569 -0.012836612847784513 -0.030339577063140104
-0.007076135602965352 -0.010532044687833166 -0.030654000118374825
-0.006740461023027073 -0.006766426665559719 -0.030654000118374828
-0.004537801024823676 -0.003955649061217645 -0.030654000118374825
-0.021682348520861015 -0.013244515973028378 -0.029157937091994674
-0.01712573270764349 -0.008930936801331984 -0.02804500050842762
-0.008129712761621943 -0.012779412446488708 -0.02804500050842762
-0.017073865946613205 -0.013637755908647776 -0.02804500050842762
-0.014147578392911298 -0.011689524808419827 -0.02804500050842762
-0.011225768298864914 -0.012681403028612866 -0.02804500050842762
-0.016170837832626565 -0.01218539497702444 -0.03017803038509954
-0.02032294358979034 -0.010274378067233667 -0.029958787668835606
-0.018407284369432748 -0.0063059571396556265 -0.030158172392856147
-0.0155628084006509 -0.007944701654005789 -0.030301693666562164
-0.01906932984450245 -0.012740449079749071 -0.029986720862271242
-0.013335511773901625 -0.008989700745632835 -0.030418898464585172
-0.01579133199055901 -0.005202434565178764 -0.030343037769163583
-0.009673912937150343 -0.003810721872341403 -0.03052543282864617
-0.010682941249892955 -0.006448368941541406 -0.030570675810153575
-0.00717787649765452 -0.034920763111389974 0.02185369344851732
-0.008495572533410253 -0.03458211922150376 0.017638783458548243
-0.007205175926748969 -0.034964127489312845 0.025284904040867216
-0.006329936576942913 -0.03506160142379712 0.019182787079482063
-0.007658492116552742 -0.034610612490823145 0.007281927472649806
-0.012464939697753887 -0.031392596628609035 -0.0019580000080168247
-0.009288285327338875 -0.033164162292674666 0.0310869999229908
-0.0031950001139193773 -0.03282460173508125 0.0032974946716334934
-0.01245192279956454 -0.03060388364311751 0.0310869999229908
-0.012126086704064582 -0.033474819464451064 0.030912152806527246
-0.012127753874272843 -0.03344900171010732 0.013263153116971068
-0.013707168888888163 -0.032562668960177114 0.002218909286296543
-0.01348698905072143 -0.03281807494962335 0.010684134146697956
-0.012444566728502492 -0.033209422257183874 0.0078020453399364155
-0.013003568909784338 -0.033292228452573416 0.02587200245021902
-0.013377849050520925 -0.033051822230139485 0.021868044356820295
-0.013858941829975283 -0.03273965103342638 0.01648101840900284
-0.0031950001139193773 -0.03396603459245166 0.02547118972804185
-0.003432724780197112 -0.03516240376704899 0.010379119541849188
-0.003531617063426023 -0.03521537529576081 0.014403143700636301
-0.003925573083130438 -0.03532729570313287 0.022905266144122
-0.004015870498552917 -0.03524992473514088 0.017027719243742148
-0.014933999627828596 -0.031547562810540636 0.013860887704117133
-0.014933999627828598 -0.032124980659402 0.031081371981949657
-0.0031950001139193773 -0.03317490920706188 0.02818127770549414
-0.007525913057942689 -0.03119607813309635 0.007904230861616478
-0.006341442067150732 -0.03168649801345151 0.01698926892161109
-0.006134744104037404 -0.03155045762464274 0.002588786848373825
-0.009363586549285617 -0.030686493420251086 0.011934784532212186
-0.006381035864432257 -0.03162870078928415 0.013699071494813118
-0.004993863522126554 -0.032194023762720715 0.02368796716771973
-0.012916025630513864 -0.02942277651241276 -0.00037161191489081067
-0.004241445579612694 -0.032368201609150535 0.01955156128783623
-0.0032612519754694628 -0.03257212506232007 0.012505213493180298
-0.00435615798189068 -0.032143095151471505 0.005860400610626992
-0.008746908643929048 -0.03069356031091146 -0.0012427762225070138
-0.009546556969352304 -0.03054255700429439 0.005613529030441115
-0.006496617588769292 -0.03155677055168152 0.01107601015894362
-0.0034341320313842033 -0.0325770744401924 0.01669933047598665
-0.004666746565396537 -0.03208567711414452 0.008612344741054805
-0.011195527507050662 -0.029988071002859835 0.002216988467189686
-0.008417127122914942 -0.03132150377381536 0.02825977376676854
-0.012870486611676687 -0.029706841875822208 0.01268682753170025
-0.0065987975834376975 -0.03177767721212918 0.02564923145454983
-0.013169203359256369 -0.029450178363836833 0.005090712557206396
-0.005588380849002927 -0.03212790815775229 0.028470798547725964
-0.011016643133291577 -0.03057535803962056 0.02784111101998611
-0.010764126597866254 -0.030417834310646347 0.017724678277667966
-0.013770933274774575 -0.029741518274071906 0.025486748463425652
-0.011009376496569558 -0.0301248224567044 0.007854294008077505
-0.012196322889122379 -0.029966440201182082 0.015714033404477974
-0.006665654179106644 -0.03164656764608827 0.02069604019374553
-0.009159795344112752 -0.03092306886748681 0.01995877034585574
-0.009250178315021767 -0.030975170613003082 0.02339070282339587
-0.009335654311112369 -0.030764866871012354 0.015173268258192582
-0.014933999627828598 -0.03123823488792095 0.004444164166613052
-0.005272201843002396 -0.035390537694087676 0.027772268525864778
-0.004528023069865364 -0.03509741749582743 0.00586595144794448
-0.004226580176211505 -0.03500993702869924 -0.0007116135790005148
-0.010929262861262721 -0.03352619963506052 -0.0013996783202223286
-0.007753230900178869 -0.03437153616547686 -0.00010391670652529103
-0.006526812328016085 -0.03494599231709134 0.01420690380103586
-0.006038177392014286 -0.03497311097351804 0.010168492935254179
-0.006360910743616804 -0.03478862260049672 0.0024630591920528347
-0.009866813775454255 -0.03432356210322581 0.02425488936723605
-0.01153498178745483 -0.033462118289995846 0.0034874010630003968
-0.01199277898600776 -0.03358156697537915 0.018310210233262025
-0.010735776962629465 -0.033915242413716525 0.01576757600688931
-0.007515103634780195 -0.03491695224281782 0.03047312737603844
-0.010294860954562519 -0.034275298205776995 0.028920356957457233
-0.008723831148042099 -0.03426515660931523 0.004066246318051201
-0.009831981303363694 -0.03425428736906648 0.019840591104096382
-0.009735096628217543 -0.034147308322742057 0.012794453117395384
-0.0101826698467309 -0.033905045053268995 0.006675677561356378
-0.009219281601986247 -0.03422662969521444 0.00935115114228564
-0.02799869093491475 -0.021951667642162703 0.014205380679394627
-0.02867112247861701 -0.021263458174439108 0.022645293417691795
-0.026469329269157384 -0.02375507108107161 0.010988801505396823
-0.028121570831326534 -0.021871747245658525 0.018823471200253857
-0.025160474268002674 -0.024566000327467915 0.008285782065542304
-0.025800525642748574 -0.02253466693354311 0.006738000083714724
-0.02771341620792331 -0.016891576623743597 0.006738000083714724
-0.03033826252982183 -0.01668690401538862 0.006738000083714724
-0.025005995723027214 -0.02436269015685922 0.031086999922990802
-0.03023074390278083 -0.013260999694466591 0.023639855208571342
-0.027808336394427167 -0.015110978236809652 0.01395730658846725
-0.02897090765374669 -0.014144497124694207 0.01947495011105341
-0.029022623694933945 -0.013908160087847147 0.007806078469951098
-0.02601176610253823 -0.016668604480028108 0.009379566778664172
-0.029421902539073723 -0.013671483113033824 0.015570974152191656
-0.02896666767998481 -0.014021290453708576 0.011645325666395775
-0.02752472952221098 -0.015425679957407984 0.017475185698170876
-0.025353489225015444 -0.018568657011328166 0.019881009926667914
-0.02474544500524324 -0.020478147608736806 0.02867417366267786
-0.026550232121569414 -0.017229488633693783 0.022551086378673004
-0.027922600418068023 -0.01582995365934574 0.026737416784815737
-0.02825551340477455 -0.01487130558573252 0.022640039854355518
-0.025977812901104604 -0.018598673141893323 0.027291081126798407
-0.02357379422370336 -0.021827501653472966 0.02637606560233175
-0.022893861572166354 -0.02311829759295644 0.02923533971854711
-0.025935267917650648 -0.017103763494929376 0.01445801983930256
-0.02366615315192568 -0.02090221604864126 0.01979457716409386
-0.0240059768468438 -0.02076260370904849 0.02254008982755526
-0.024455600189196767 -0.01913001976195579 0.014216232505328434
-0.025339386608662574 -0.018228351848620015 0.016908980122151016
-0.025400090392627292 -0.01905870973346397 0.02446247862114418
-0.03130571048487629 -0.013260999694466591 0.013648926632890992
-0.029421599184500758 -0.019551911604549884 0.031086999922990795
-0.029961569079617143 -0.01688799235195751 0.0310869999229908
-0.03214233928245058 -0.01474633714092391 0.008857052326950509
-0.03185821763487821 -0.015551066689563504 0.011428227674723086
-0.03249482681548962 -0.014640504865254832 0.020336454753020018
-0.03276207076832169 -0.01419913620971314 0.0231043729842401
-0.029768284475390185 -0.019320851249731957 0.013661539257940397
-0.02899004838209266 -0.020382932886326782 0.010928708272830271
-0.030346824683687976 -0.018764355631333093 0.02175604296251915
-0.030010186064628276 -0.019118580473035725 0.017837250216071944
-0.028683074077267466 -0.0207335778197829 0.008074135721518178
-0.030498165541329593 -0.01810507102275978 0.010509340801873143
-0.030126343934007302 -0.019310980719612632 0.028002625273752014
-0.029082969774304246 -0.020771308497281732 0.025950017911259633
-0.03185025808678629 -0.015924870269710487 0.018000577485884607
-0.031701913651899206 -0.016402438157621498 0.022587266149098555
-0.03184011324940581 -0.016223811088199952 0.025241543871298348
-0.03160907802219747 -0.016269801130941303 0.014232101874561821
-0.03228221129513125 -0.015423577627752667 0.027780085263307126
-0.02322223222298956 -0.02146482303556291 0.007768371619573004
-0.023516961954471123 -0.020982385489793757 0.016629509266157878
-0.02409716434065611 -0.019548496441744 0.011639919278280307
-0.022866394443546677 -0.022190604711869323 0.01406221868736118
-0.022251160405146526 -0.02367756351587451 0.01866863994987002
-0.02394000803835498 -0.02456600032746792 0.02061553351157497
-0.02190696908238243 -0.024553939986495004 0.007798229647696214
-0.026255643509495094 -0.02405942384775603 0.028324706368776598
-0.02680483906626816 -0.02344068961002378 0.025746269342468847
-0.028402618737925656 -0.021640600415901635 0.02898981947478316
-0.02642274590956987 -0.02387116308188057 0.01918092501278369
-0.02649777021922181 -0.023786639257040047 0.022074102295812012
-0.025959263688475363 -0.024393331033231744 0.014195401557834487
-0.031520874151046326 -0.009414467494253774 0.0310869999229908
-0.032937328406696706 -0.013258587351179709 0.016531816469604558
-0.03401855699055936 -0.01096163928962236 0.026831995349572837
-0.033436793095140804 -0.012345356285381017 0.01998028231102603
-0.03323595215784303 -0.013115485359910072 0.029597881689841447
-0.03326626311217367 -0.01195797106024451 0.008340707964127872
-0.03363351562510506 -0.009546420257088774 0.006738000083714724
-0.03437780742524161 -0.009089859401092875 0.015736040490228344
-0.03432100689971787 -0.009660947063201628 0.02110130613190464
-0.034155847731065135 -0.009432678238981407 0.010255145597210916
-0.03366425472840884 -0.01117191990628732 0.011837428174822289
-0.03282976125987288 -0.013260999694466591 0.026059758915538432
-0.03203059032070647 -0.004878359666304218 0.008733064884143465
-0.032561527513705835 -0.002754814019016404 0.011656503940178108
-0.03271695816737744 -0.0021331508686259736 0.008563597442048355
-0.03219921997442234 -0.0042039055653792946 0.016186077933382448
-0.03105429035374297 -0.00878318602360005 0.009998852773857664
-0.03164803830845482 -0.006408421359456623 0.011957706149312738
-0.03216678696665831 -0.005296856313162847 0.02642620839596281
-0.03254425744427001 -0.003378748243504665 0.023979645078719795
-0.031320473394458696 -0.008058877859692538 0.018075456054353234
-0.03067550545108494 -0.01073611453193235 0.016101023299212727
-0.03038666160233684 -0.011595653918927583 0.010123230674572683
-0.03239722527841852 -0.003454623937222612 0.01935044209463634
-0.0308361922763931 -0.009828657339035849 0.012984758839430314
-0.030601632986996495 -0.012298956703943272 0.03071976844989472
-0.03199843265213361 -0.005338871962269982 0.021247652169573757
-0.030672991455401526 -0.011568013297794635 0.026127840727343317
-0.03135161754345618 -0.008108171657457471 0.020668648055785152
-0.03064515347977549 -0.011229535951929907 0.021094313595548416
-0.03145735120724483 -0.007910873242263023 0.023558289990745426
-0.03134349702456468 -0.008716861754399877 0.026942304099197248
-0.03536900132894516 -0.002185310547946269 0.027399595287789874
-0.03536900132894516 -0.003290884396301168 0.01925423164157038
-0.03536900132894516 -0.003425612978498982 0.0157079587298712
-0.03533046535304029 -0.0058033831967770075 0.028172290122040117
-0.03533799552095939 -0.00329203873508556 0.01311763122085454
-0.035019034529982083 -0.005092995969590484 0.010644282598047047
-0.03502483540834604 -0.006058512386508484 0.016800226878398924
-0.03488010841013127 -0.006502946899816522 0.013396203145608155
-0.03479006859118634 -0.0062817990579648 0.008232070632038907
-0.03531066412803666 -0.004956259031531691 0.022148614243247752
-0.03481569694130397 -0.007798164472058684 0.022887726670218364
-0.03472241957805715 -0.008440636976652545 0.02609889732346645
-0.03469476283637111 -0.008749573803044454 0.02870942486906209
0.017299339394489747 -0.013690073352877228 -0.030411657589327568
0.005441829290228049 -0.0019570000004023314 -0.028152684522144776
0.015651978508216754 -0.0019570000004023314 -0.029209851746673798
0.012616840555862026 -0.004915737170788212 -0.02804500050842762
0.017666352333053224 -0.004823333022240587 -0.02804500050842762
0.01620271786407159 -0.007378456045954824 -0.02804500050842762
0.013706924513102799 -0.008837180059951216 -0.02804500050842762
0.012844305816286006 -0.002168281050130161 -0.02804500050842762
0.019235796650128686 -0.010978155614636637 -0.02804500050842762
0.004195553626774078 -0.00544245521947031 -0.028045000508427627
0.010726468204448322 -0.007309378837446142 -0.02804500050842762
0.001945978500364839 -0.004289051452230464 -0.028045000508427616
0.016227043376757386 -0.011924413049195656 -0.02804500050842762
0.007153175640416603 -0.004591357369880073 -0.028045000508427616
0.00013662828687807877 -0.004833683948099523 -0.030654000118374825
0.004292273175445821 -0.009432664904244485 -0.030654000118374825
0.0025798641829525414 -0.00682880070750041 -0.030654000118374825
-0.0031777562484044636 -0.014934092087302866 -0.030654000118374825
0.012212456145712418 -0.005555214471271398 -0.030654000118374825
-0.00016347085355008828 -0.011730974649413478 -0.030654000118374828
0.006274402902259925 -0.0060666841160725285 -0.030654000118374828
0.011254955272854732 -0.002690997984902992 -0.030654000118374825
0.006094503011116716 -0.002152089417133513 -0.030654000118374825
0.00873280570218106 -0.004104053702613919 -0.030654000118374825
-0.002324163930831411 -0.006576090712166902 -0.030654000118374825
0.003917141628714913 -0.0038325472483058155 -0.030654000118374828
0.007835074119067385 -0.008243288809388951 -0.030654000118374825
-0.0031950001139193778 -0.010055825298187942 -0.030423174457338206
-0.0031950001139193773 -0.01270160456691588 -0.028074114944298192
0.0006668941893617649 -0.014999999664723873 -0.028152345866014207
-0.001296599002902703 -0.007172285811502353 -0.02804500050842762
-0.001810328198198345 -0.0028312674586245708 -0.02804500050842762
0.001842348838135528 -0.011940877694621297 -0.02804500050842762
0.005529276674204294 -0.007946455437113734 -0.02804500050842762
0.012514107983558958 -0.011826046027153807 -0.028045000508427623
0.009767155740256488 -0.01251463031887666 -0.02804500050842762
0.0013014757483706613 -0.006843997835913974 -0.02804500050842762
0.004096882713370157 -0.013786735291715403 -0.02804500050842762
0.013842023882853879 -0.01450019940684089 -0.02804500050842762
-0.0006874100902225476 -0.0101287188872396 -0.02804500050842762
0.006328873262834565 -0.010971157190778142 -0.028045000508427623
0.011584106804871068 -0.008506484147441283 -0.030654000118374825
0.01672490622383755 -0.011107745389788577 -0.030654000118374828
0.019340404626292454 -0.007766325528233106 -0.030654000118374825
0.014834318521503758 -0.005441652078996195 -0.030654000118374825
0.005523034808651807 -0.01338718408622444 -0.030654000118374825
0.008676548090186188 -0.011717111318255756 -0.030654000118374825
0.01954216195949274 -0.01057298738578831 -0.030654000118374825
0.017608670259026314 -0.0034637382745464343 -0.030654000118374825
0.014256323607307813 -0.008405891667885489 -0.030654000118374825
0.0025191799551734745 -0.014143980093946788 -0.030654000118374825
0.013405399541314792 -0.012782228337177733 -0.03065400011837482
0.025158257706211704 -0.023407817669832263 -0.028834945502939163
0.01985199935734272 -0.01526551547246948 -0.027961747288473296
0.01985199935734272 -0.01802483833837755 -0.028371405968566497
0.02378775557257776 -0.0019570000004023314 -0.0306631419100293
0.01985199935734272 -0.013264525578705865 -0.02998776017145591
0.020268582215488273 -0.016633943399080295 -0.03096853604126714
0.02122184646750216 -0.004670894745128508 -0.03077686095376464
0.02534101338562432 -0.008095100732479266 -0.031051527813473603
0.025234222163887318 -0.0044035660064082206 -0.030972315232068184
0.022152932473585234 -0.009712583298769902 -0.030924342992889688
0.02269531960279679 -0.006753507104656553 -0.030892275817825866
0.024814627975261988 -0.012564547466585002 -0.031089000403881073
0.027683594288339504 -0.009419383917369425 -0.031089000403881073
0.02376107803863383 -0.017484450058692414 -0.031089000403881073
0.03119441251224567 -0.014969634811599256 -0.028016120644704122
0.023593372499259045 -0.00912110334381998 -0.02764247549566912
0.022815624397284393 -0.011765160988817847 -0.027657277963261576
0.02228233764422266 -0.00432223143425004 -0.027822124738398686
0.02112645149411726 -0.007859198019869288 -0.02785068611668973
0.027945333175921204 -0.007034385462119505 -0.02761000022292137
0.0304772956329341 -0.008573919455815843 -0.027610000222921368
0.020924180043859125 -0.024299611143080557 -0.027610000222921368
0.031234440250712717 -0.002549473938441811 -0.02761000022292137
0.02618829666074653 -0.0037116091066056855 -0.02761000022292137
0.023768533495797634 -0.014919269072192364 -0.02761000022292137
0.028129480744761813 -0.0022187172861754573 -0.027640185888773514
0.030588217964216242 -0.00997061295113439 -0.03036594230913399
0.029512950329075676 -0.013442385257785572 -0.03013277950275127
0.027891715942973832 -0.017047313478290346 -0.030050410313879734
0.02784049357478646 -0.020231725072441083 -0.028948268992620804
0.02558950087141887 -0.019144256967363382 -0.03037847102630311
0.034365370762319436 -0.0031627247590110385 -0.027740932070635063
0.03229500592570081 -0.006623552641168564 -0.029690636003786398
0.029182952850809414 -0.0032156276512506268 -0.03099587538013819
0.021357603151185546 -0.026914256826681242 -0.02859992827765028
0.01988446645077845 -0.024864979192521043 -0.030377012067150502
0.022593661011388624 -0.024711484468416325 -0.02951443116309667
0.028442476664038922 -0.013301080297359309 -0.02761000022292137
0.029384388826853552 -0.01757500434417964 -0.02761000022292137
0.026687785524165685 -0.018473383486157836 -0.027610000222921375
0.023275067488701884 -0.02163983963273113 -0.02761000022292137
0.029791569571736627 -0.0048241513943196096 -0.026389644806661297
0.0257198857320178 -0.014058554361851834 -0.02548578268577719
0.024873802311686566 -0.020749345089072307 -0.025436999276280403
0.020393595055923714 -0.02718985100094743 -0.025436999276280403
0.028955072320672005 -0.009607517150641145 -0.025436999276280403
0.03285988769282165 -0.004652690589140947 -0.025436999276280403
0.023930445391458388 -0.017876595467542535 -0.02761000022292137
0.02630993941133159 -0.011875886550218706 -0.02720143071796287
0.032323175469002034 -0.012470363785796575 -0.026914952106086618
0.03390660120985274 -0.0063143096503567005 -0.027272562175597224
0.03325539845902445 -0.009579083796872633 -0.027560045594924608
0.004845874163599253 -0.034574904381474855 -0.02182480776249856
0.006691340924802072 -0.03430048289189503 -0.019849356761213376
0.005070086917582152 -0.034607953240640074 -0.017527253567622313
0.005154268690577041 -0.03469197461571489 -0.011536910313091897
-0.0010229385136495085 -0.03497840878858621 -0.015342018966861179
-0.0019612295905750633 -0.034974948352037925 -0.008528523404187624
-0.0025129847272812892 -0.03477062354566074 -0.01746152376521887
0.007675000000745058 -0.032149067517719766 -0.015588190707758968
-0.001372666859181374 -0.03245953851018926 0.001420721052555654
-0.0031950001139193773 -0.0326799105555861 -0.015530711670707017
-0.0031950001139193778 -0.03234837295963908 -0.0013256663573582858
-0.0031950001139193773 -0.030552540994290327 -0.017782214331688195
0.00375461763033783 -0.03055451530840178 -0.004904470516882182
0.002155612471096734 -0.03006107422997773 -0.007470204946258145
0.003939966854161733 -0.029016770169892833 -0.022538118278185446
-0.0004016586788400474 -0.027975249930244857 -0.022322874551211035
0.002305228065549257 -0.028807318212765373 -0.02478345836305458
-0.0008192144647859808 -0.03470916703201011 -0.022547502158193195
-0.0003446569497464059 -0.034847803216998714 -0.019953637782990377
-9.262488240401544e-05 -0.03453768736015808 -0.025129690254959165
0.006178949599119058 -0.03383472499401875 -0.025411651309844633
0.00029816477660518366 -0.0350009985268116 -0.010597136530527995
0.0016394988365414037 -0.0350009985268116 -0.00462583581983235
-0.0008776472015225164 -0.0350009985268116 -0.00297175884967076
-0.0014783071503138632 -0.0350009985268116 -0.0003644762170777113
0.001524188749670101 -0.0350009985268116 -0.008152001328032947
-0.001536538229476395 -0.0350009985268116 -0.005733652966714315
0.002365501503200381 -0.03494697379251591 -0.0003721108551083818
0.004167019987353171 -0.03487895558661283 -0.009077882377385608
0.001564950700654706 -0.03493520108601579 -0.014080781717372043
0.0014661857749560126 -0.034887379760779554 -0.0169707956331417
0.0038023466587364346 -0.034948575515934825 -0.006442139012790311
0.002481997986513166 -0.034762739472323875 -0.020567717785321456
-0.0008526010268033478 -0.03129006956057853 -0.0023469857687054723
0.0009706587842062361 -0.0316477428140074 -0.0003963144491929214
-0.0003784253516522088 -0.03054893716169209 -0.0052574093151947325
-0.0030934320377850647 -0.029555561969932607 -0.010483349890406973
0.004783852481242543 -0.03172379103518165 0.0011116310025230192
-0.0006407506372529883 -0.02982128081719506 -0.008918785285602505
-0.0014647143938227788 -0.028884807347893532 -0.013677827961083319
0.00669247611908977 -0.030062525922375224 -0.022966530917782255
0.007601911983407934 -0.031437612152771334 -0.001112470586329061
0.005377720263616677 -0.029681796312572777 -0.014665403032434562
0.006268553113310823 -0.030521125532228757 -0.0069675156634831795
0.006870489667591352 -0.029990545963704242 -0.020073393337567882
0.003858436459165739 -0.028846462575303593 -0.017852100504321726
0.002408038436952458 -0.02949724224932515 -0.010958263169867123
-0.00033057150029454775 -0.028474487280043634 -0.016296911537602696
0.0023390174766754293 -0.029040116144662995 -0.014593594761825845
0.004595930316733765 -0.029987388265685165 -0.009346582924166024
0.001372793567581211 -0.028318152132570582 -0.019407960807345515
-0.0010475861405898177 -0.02807333033719591 -0.018777175127164644
0.007300671811274482 -0.03437691627112722 0.0005705434421067498
0.005299307096863791 -0.034812012943760844 -0.002610695614161668
0.006516842738666465 -0.034567987539892306 -0.005075764577422127
0.00703719771497084 -0.03434116750379941 -0.01378161256990297
0.01030969574974305 -0.02935007405691499 -0.022060111790965526
0.012892000377178192 -0.029155385023489806 -0.019686849207224837
0.012892000377178192 -0.03247097709945279 -0.01518252666971183
0.007675000000745058 -0.031592614701973006 -0.01152841136554678
0.007675000000745058 -0.03405630435837804 -0.010393370675798378
0.01212526392274088 -0.032954741550132144 -0.009797514440658243
0.01147970047897933 -0.03328298573939601 -0.0059621871699217935
0.012322572935816884 -0.03300609337898392 -0.0012453584677777534
0.009368378515415159 -0.03388893028368412 -0.0035597609898903536
0.009192943247244227 -0.033914009059724096 -0.007522695108318503
0.009695804785076666 -0.03384212413021193 -0.0003680066888210677
0.010427303967994205 -0.03346747776891605 0.0022215637605265473
0.008856351069450397 -0.03370470010229509 -0.024642836945297918
0.008805130710508202 -0.03389127358141217 -0.01720848503809589
0.009330146366532384 -0.033748628805659486 -0.02106828720902836
0.009737682777662078 -0.03373561103275046 -0.014582997831461643
0.01163825884253194 -0.03289755087375276 -0.023305458094267692
0.012257414061039026 -0.032722983856392975 -0.020500519726501906
0.010118493539995423 -0.03369352519395543 -0.01131354392488269
0.00871086412983165 -0.030571353069381194 -0.009318288846527432
0.0076838894143847255 -0.03134549759580575 -0.004327641266515133
0.009021647095319893 -0.03022398627048219 -0.014113148497202344
0.010255917754072077 -0.029599642494647003 -0.011222282397073367
0.010203035063280385 -0.02937901888235284 -0.01853054199443258
0.012429918034748076 -0.02987769498043994 0.0007884841637765934
0.010399336526101994 -0.02987892046532814 -0.006841487130883247
0.010621045330880317 -0.030337977537742134 -0.0010497692358693305
0.019049004406321637 -0.02251126103304509 0.005471321828477921
0.018195325781305068 -0.024285829421080943 0.007370334804386029
0.01775428234645124 -0.02760312629676054 -0.025436999276280403
0.0274255565199384 -0.016388070257981703 -0.0254369992762804
0.02265013052041373 -0.02283978659598228 -0.025436999276280403
0.012892999686300753 -0.03104450252144543 -0.0053622211858743545
0.012892999686300755 -0.029015169383659785 -0.0127074580700169
0.012892999686300753 -0.028298855088467818 -0.016968823138421983
0.012892999686300755 -0.031774659592987385 -0.017885732973752403
0.012892999686300755 -0.029079429717664074 -0.009894371463072807
0.017035004571855753 -0.02669512888013419 0.008911999873816967
0.022680845700164293 -0.026414698070223754 0.008911999873816965
0.028761975166233328 -0.019914662803326787 -0.017148965297529507
0.02849451860444945 -0.020803546458957108 0.0006674578404983348
0.028979999944567684 -0.015605204954691122 -0.021837911542759037
0.02897999994456768 -0.01920635084484837 -0.022268421506589805
0.02897999994456768 -0.018697072389508313 -0.011288824618098103
0.014697891027290806 -0.0286567423675264 -0.025436999276280403
0.014061493707035876 -0.02586922841667862 -0.012012452423496233
0.016193783830232615 -0.022265227580735517 -0.007543551138291679
0.014041939940575943 -0.025552933701139965 -0.015496152915470995
0.014128404366573418 -0.026512748082954906 -0.004415960333395455
0.014197253333264086 -0.026966328235680334 0.0013450644334846835
0.013624874621597203 -0.02775847353211901 -0.0015819898555954528
0.013324324993770313 -0.02897573843120162 0.004777875762801964
0.015456851600260228 -0.023328266034591403 -0.010886784879597143
0.014576202640180102 -0.025278243836028474 -0.008184448011759696
0.016825646888902805 -0.021878334885107847 -0.00391469917708
0.015329976189230793 -0.024668926543660166 -0.0007664082473703765
0.014660891069338823 -0.026760463322652854 0.004476519111276549
0.01826131490265769 -0.022318787000800873 0.0029833229013390902
0.01619945591969644 -0.024335727349443437 0.002453279546174079
0.016374296463538746 -0.025383807275357297 0.005865817270037776
0.017777019911033778 -0.021461838216784504 -0.0008169921914903122
0.02897999994456768 -0.014516171952864329 -0.018444791386391577
0.028979999944567684 -0.019725835113176576 0.007136258097908287
0.02897999994456768 -0.015118532396448092 -0.00951244477664883
0.02268173811257377 -0.026848065047926768 -0.012107372364919385
0.021858216534880768 -0.02766612768206414 -0.004301481362900747
0.022004454528628505 -0.02759666353221023 -0.001208610094101989
0.021880694216560193 -0.027566188154061626 -0.009100285789268803
0.02222096782034683 -0.02706612013176215 -0.021829834004367787
0.022677149638262374 -0.02677475537534132 -0.015912640370054333
0.02432660072823481 -0.025443532594422946 -0.007960271841353641
0.0239782071820452 -0.025948965112127582 0.001215219730526432
0.023830135859856136 -0.025662462429904283 -0.019151661929258094
0.02386120549009243 -0.025966807403910226 -0.003056076823976058
0.02372105323269096 -0.015262267049012101 -0.007933118269467866
0.027484650160396452 -0.013037170742446397 -0.013013391970993896
0.02583802195538096 -0.01479219924140601 -0.005053958693442726
0.026408048072234853 -0.014955371503112115 -0.0025519660602503396
0.026376794449700175 -0.013974732145175507 -0.00931739408279504
0.01988135725752584 -0.02886089864313178 0.008911999873816967
0.016789755259098052 -0.02212605204165859 -0.018947559947653438
0.01890673019271157 -0.019747359630135974 -0.018200416092773865
0.024908107604725803 -0.014842073718083578 -0.019326483448047816
0.012970396476413725 -0.02782091405305647 -0.022917636129801813
0.014837179967535884 -0.025240248210032533 -0.021531150522117536
0.02779394557220146 -0.02152340905549814 -0.011716193746981893
0.02802239974641403 -0.02080583593200819 -0.024452657689987143
0.027876326882335538 -0.02129562828988902 -0.015261670211569173
0.028282231596790323 -0.020932906419258598 -0.007050252420351327
0.026429758903059847 -0.022882401877285383 -0.02316986802103529
0.0253013297978078 -0.023896393189425776 -0.025131588588608148
0.024247451042344652 -0.025141603048856636 -0.022070809121614084
0.022926898617628783 -0.02626985034397415 -0.025324461872570675
0.019695631903856717 -0.018004517110646663 -0.011071327351436486
0.02692579282680297 -0.012782528079558602 -0.01735583977299276
0.021128840222460442 -0.0170085865862855 -0.013032123069182697
0.02374837043342545 -0.014966572413755328 -0.012572251266396387
0.018533765479002786 -0.019377094628590347 -0.007321399759363658
0.01733657699772366 -0.02096883230116807 -0.01638113300524485
0.015181091648335195 -0.023880200828251145 -0.017710029318046477
0.022932732389962775 -0.01599700584760449 -0.016581906471803867
0.01909411164993751 -0.01886934993102876 -0.014099446411665481
0.020755836338360048 -0.017821666178386066 -0.016366191641449108
0.013761148625558196 -0.025856248622422834 -0.018723181615827863
0.017481300886887388 -0.020348153681916753 -0.011046715628009952
0.015855291971894118 -0.02274080026077542 -0.014122680880495073
0.016199260339484253 -0.030898279957587208 -0.025072320581668382
0.013661014445357805 -0.03170312357321068 -0.025417826597587356
0.013982896112966499 -0.03195604732915009 -0.022445914704569005
0.020337870094748797 -0.017872815904060264 -0.0057297599120059535
0.018899145876422913 -0.01945022499330268 -0.0037211298910696353
0.021012582720633163 -0.01954128020097405 0.0031569608282244416
0.023356256906051146 -0.0175858422906986 0.002326709149295997
0.024890736384930133 -0.017237811997820464 0.004785356728185486
0.020247371778119763 -0.019219424778012778 0.0001466373512004123
0.02119611961476594 -0.016831784883153084 -0.007833938504086023
0.023032103187614575 -0.016190861052564974 -0.005195020199069388
0.026414016180037463 -0.015822425033887904 0.0026249230781419234
0.021244855847920647 -0.017865956299980043 -0.0021936817161204826
0.02577522294394796 -0.015639724536418525 -6.794239395233712e-05
0.0210584141816589 -0.018370463809133007 -0.020021041596065513
0.025284693229611084 -0.015404136986352417 -0.02206733857380673
0.023078050258056725 -0.016701224836654194 -0.020222094844110763
0.015768419430057395 -0.025512032510724213 -0.024298757962735926
0.024800233773546218 -0.016965842405987024 -0.024739785436254574
0.01839801010599737 -0.021278146187403337 -0.021145381460701607
0.02213451799743492 -0.01875976005496073 -0.023240142509019117
0.020145027738608406 -0.021165636094355456 -0.024126874527685624
0.017572360727307137 -0.023703971161978355 -0.02419675568039866
0.02897999994456768 -0.01592279646638215 0.0038707985555152665
0.02897999994456768 -0.014683134770904948 0.0010707369283379274
0.02897999994456768 -0.01648480144142209 -0.001050708939950612
0.02897999994456768 -0.013892368115251729 -0.007155088798654967
0.02566472897435802 -0.024337877805160172 0.008401849753386016
0.023947193165764796 -0.026058003121171958 0.0051438995171654974
0.025925849911180337 -0.024046209560623477 0.002551759138986661
0.025553980620424584 -0.024297185622299308 -0.004727920563030917
0.02503889289641033 -0.02461632857348725 -0.016552025680941832
0.02786749144215542 -0.02179991120522307 0.003538578655833141
0.027575162194839638 -0.022028491081752245 -0.0023283094068919903
0.027121366469816666 -0.022752803790350447 0.006225219814088306
0.025937971301030024 -0.023748574328757224 -0.010811479083229264
0.025941574955894588 -0.02395808298986897 -0.001489103817536211
0.025968602500525843 -0.02364775099653592 -0.013706465690851214
0.02687880953227713 -0.022508791946531877 -0.018671346496366037
0.020356156153553472 -0.028450885330389995 -0.02098247005721739
0.019933043840793634 -0.028810109438789276 -0.01812488647532522
0.021089947480989534 -0.028388900892984143 0.0022157420615355958
0.020583363360572083 -0.028488592075720406 -0.010944022591513685
0.019398043715316636 -0.029459262124973844 -0.0022115174141407474
0.018899316635513766 -0.02960944969854834 -0.012995196849646005
0.019023048408715243 -0.0297521348729287 0.0003248004287895838
0.020470271080714034 -0.028876619639260425 0.005607231019440743
0.018089943841636095 -0.02998042063731319 -0.019797631872532726
0.0185994290068299 -0.029910876415914375 -0.006449266992403879
0.018647223816449246 -0.029593063334351417 -0.02275104454863217
0.014785877894167975 -0.03209761323507348 0.004709462599170499
0.013393281278834024 -0.032794344772282644 0.007420064780943028
0.017890053478963663 -0.03054212646335778 0.006581353772841387
0.015739359053273894 -0.031536764176266045 -0.006070262738273149
0.016590951227273533 -0.03117100158295304 0.0007787265559072009
0.017436326056116058 -0.03052669334405237 -0.010846764404117791
0.01713689764608236 -0.030801669633412757 -0.0036651600394689014
0.017205651710194593 -0.030877780507222632 0.0038091013396255573
0.013568070594337431 -0.03249665722509215 -0.007494740192018984
0.013953025215891654 -0.03246933400659575 0.0009254708133356081
0.015295656660258021 -0.03148609125327506 -0.019714296021486274
0.015157227320330478 -0.03174501504691999 -0.010719714421615293
0.015951647931378453 -0.03125042955908429 -0.016321496651777016
0.015105148151659168 -0.03170247354731742 -0.013832258003091062
0.02069035873875811 -0.02236161902312738 0.008089276223243989
0.021555335101873033 -0.020227447299403713 0.005638476452068861
0.024650403153031027 -0.01857759017535853 0.007663524736198784
0.031846750152498035 -0.014740991621829843 -0.014988660601845944
0.032719936129662834 -0.013025180782233818 -0.00861346506477414
0.03298811557956077 -0.012643356598222967 -0.003300967740450029
0.031886508951536364 -0.014988329426327315 -0.00717664835735117
