0.0110395142057 0.00478554906061 -0.00775305145749
0.013852764762 0.00517879561621 -0.00762656601538
0.0545851823737 -0.00576403761906 -0.0100508603787
0.054806561229 -0.00413336919326 -0.0106014380133
0.065412621032 -0.00466559741158 -0.0101662763365
0.0610985644599 -0.00564095549907 -0.00993699587372
0.0582223480496 -0.00541325401614 -0.0100834249537
0.0596179283732 -0.00479640136174 -0.0102603151455
0.0513364098375 -0.006171925666 -0.00998953799195
0.0564111828544 -0.00600650260174 -0.00992452324554
0.0568433228866 -0.00439073868627 -0.0104649780224
0.0527615659007 -0.00565452354965 -0.010131819234
0.0639624724083 -0.00506565472923 -0.0100645943212
0.0623727989978 -0.00499071481472 -0.0101281706044
0.0578353004263 -0.00800830231981 -0.00901336676652
0.0458171848441 -0.00697539402849 -0.00955380039827
0.049445590172 -0.00654480826364 -0.00986125754984
0.0437906631256 -0.0082267813947 -0.00874128278597
0.0482404675954 -0.006938761571 -0.00960007155924
0.0480715939641 -0.00819071076483 -0.008804867731
0.0514499475484 -0.00795604785778 -0.00898575294295
0.062757554612 -0.00705823956797 -0.00935289068272
0.0613913649259 -0.00701700812024 -0.00940392996118
0.0703604446922 -0.00632549173721 -0.00945986144489
0.0551817958366 -0.0071733627863 -0.00949622055398
0.0591690601019 -0.00742256188212 -0.00929489505528
0.0565285939465 -0.00732109208496 -0.00940239082401
0.0724176685538 -0.00600558485348 -0.00953823506362
0.0643998567051 -0.00764233388822 -0.00907432154677
0.0537041424463 -0.00669548703234 -0.00972749427972
0.0752813868368 -0.0060429945456 -0.00945116866423
0.0679743542558 -0.00608363664561 -0.00961802148596
0.0578429521359 -0.00680788279098 -0.00957795797229
0.0651239588429 -0.00633285403914 -0.00958827812081
0.0666559993312 -0.00695802860328 -0.00929578237161
0.0409076401263 -0.0071664219425 -0.0093651019323
0.0355498494246 -0.00740145871106 -0.00912042100069
0.0364463515873 -0.00609733123368 -0.00982190421072
0.0418868562615 -0.00616028254328 -0.0099128432848
0.0430591100951 -0.00682828105219 -0.00959065931304
0.0367522366161 -0.00781770402817 -0.00893040090557
0.0379383661517 -0.0068212633963 -0.00947778602697
0.0401097251439 -0.00599318354203 -0.00995966665795
0.0390419297004 -0.00740864455103 -0.00919614120845
0.0511284758062 -0.00405919718222 -0.0106583130958
0.0484157101594 -0.00548433686049 -0.0102294391221
0.0501056573965 -0.00523812750002 -0.0103080525035
0.0443332241512 -0.00589565549485 -0.0100934462311
0.0469543136442 -0.00580977140752 -0.0101283882764
0.0463126866099 -0.00447196571835 -0.0105191798604
0.0427652226104 -0.00478156448013 -0.0104150616496
0.0155627387046 0.000812256115125 -0.00220783343366
0.063471446847 0.00118899479663 -0.00440958996463
0.0194092500172 0.000875563633576 -0.00238652599565
0.0250118774613 0.000329915499599 -0.00260981049557
0.0238330056595 0.00132182311877 -0.00261369151896
0.0614506758581 0.00121730248059 -0.00431928380314
0.0215600833702 0.00141341873909 -0.00251558224205
0.066513397558 0.00138589943348 -0.00455942132738
0.0126244388092 0.000429303979199 -0.00205192932765
0.0428345580771 0.00106640958339 -0.00346347559137
0.0225927835588 0.000330642218755 -0.00249978068283
0.0267480699106 0.000306063853937 -0.00268742636706
0.00862463192562 0.00146636321679 -0.00193007245905
0.0179397084333 -1.94839827505e-06 -0.0022687725384
0.0300627257479 0.000904344877592 -0.00287294219842
0.0380308702345 0.00134733717548 -0.00326119261189
0.0548792890467 0.000917564218947 -0.00400289507819
0.046464536705 0.00139177199561 -0.00364751233161
0.0314428879269 0.000998013194765 -0.00294117326825
0.0116302412066 0.00122286214153 -0.00205271088137
0.0705683668595 -0.00245094555955 -0.00461440045662
0.0394411781776 -0.00135695884717 -0.00321523261278
0.0520768396468 -0.000713188416501 -0.00381868540767
0.0394221057429 0.000467715913944 -0.00327386350695
0.0454324168807 0.000460210066151 -0.00355067161726
0.0747930545966 0.000787355829907 -0.00491475696392
0.0259947455891 -0.000773778997388 -0.0026144221328
0.0203765412711 -0.000453722331558 -0.00236588223598
0.0772490744432 -0.00199743678217 -0.00493714690164
0.0755231875201 -0.00197476851764 -0.00485832926161
0.0668737702255 -0.00104256771243 -0.00449002627138
0.076651301426 -0.00337266164417 -0.00486474012332
0.0571503856752 -0.00236264662235 -0.00399876140166
0.0444451970726 -0.000385134330144 -0.00347759435194
0.0726983880304 0.00022192596865 -0.00479975968822
0.0681422715655 0.00103728392891 -0.00461633186545
0.0561443840066 -0.00107722253085 -0.00399431138575
0.0787763627517 0.00110763888311 -0.00510881833237
0.0352867732837 1.96463203077e-06 -0.00306805007526
0.0710397933086 -6.29283456061e-05 -0.00471401440594
0.0425636221395 -0.00022185012766 -0.00339618613326
0.0499806262289 -0.00102598931675 -0.00371185608536
0.0529221582579 0.000607358049056 -0.00390071982895
0.0643663323358 -0.00257152341601 -0.00432457728362
0.0615601775164 -0.00234340223363 -0.00420266398121
0.0599306016891 0.000473987614178 -0.00421943315599
0.0466366033163 -0.000499852509309 -0.00357486857289
0.0627030754339 -0.00128193678717 -0.00428996601231
0.0583697882124 -0.00149479077393 -0.004083275614
0.0743287809816 -0.00103478786222 -0.00483392816968
0.0743722644479 -0.00253864137501 -0.00478688581814
0.0777745362556 -0.00015256354291 -0.0050215375463
0.0600498832554 -0.00132428576816 -0.004166282585
0.0643154066845 7.59192349029e-05 -0.00440857366928
0.0334317295065 0.000291831373767 -0.00299199321505
0.0286292016647 -0.00031193130271 -0.00275092345424
0.0678901080899 -0.00288980287969 -0.00447662980408
0.029960960839 -0.000504013019589 -0.00280604801492
0.058543616351 0.000443687509169 -0.00415451010002
0.0614337235797 -0.000785908489492 -0.00424763112981
0.0651351657787 -0.00121525440395 -0.00440425108164
0.0564231596821 0.000285090856851 -0.00405159248179
0.0536750990484 -0.000909156447793 -0.00388596788545
0.0507821952405 0.000340721100366 -0.00379337940757
0.0683531456946 -0.000325266879435 -0.00458161405425
0.0314309695655 -0.000717014153942 -0.00286686309662
0.0693886025489 -0.00177435979968 -0.00458208393835
0.0383151109937 -0.000322221211116 -0.00319707212035
0.0728922049866 -0.00152173363461 -0.00475182609782
0.0484998860426 -0.000860990339569 -0.00364898077794
0.0489819257675 0.000568898093845 -0.00371783548482
0.0412306454285 0.000486588270568 -0.00335784593932
0.0413975172912 -0.00121814755806 -0.00330993974324
0.0763105815799 -0.000569040388342 -0.00494047169768
0.0132012800186 -0.00149409354664 -0.00206693933677
0.0658474330519 -0.00302840079702 -0.00438656231301
0.0266172162974 -0.00237033879336 -0.00266937490626
0.0294492243599 -0.00226612000496 -0.00278979804435
0.0474017450061 -0.00314793817411 -0.00358916391391
0.0250124879855 -0.00246163038709 -0.00260189045543
0.035522948539 -0.00153968667735 -0.00303633301188
0.0520341367211 -0.00271053336456 -0.00377991582292
0.0556679857174 -0.00268520840806 -0.00393696397349
0.0123769326839 -0.00293417487396 -0.00206477536939
0.0109031190927 -0.00314787489731 -0.00200582585745
0.0279720787424 -0.00243041202766 -0.00272955130787
0.0149516407576 -0.00271937226582 -0.0021714567508
0.0233106100824 -0.0017163354235 -0.00251067418735
0.0218928084228 -0.00157640676732 -0.0024459044263
0.0451765197948 -0.00198832726158 -0.00346557855524
0.0495690566881 -0.00280698768094 -0.00367522914242
0.0533657608113 -0.00243749942276 -0.00383131280374
0.0349433779347 -0.0031369893208 -0.00304845557678
0.0386044245662 -0.00240114722685 -0.00319010735652
0.0145071849114 -0.00101543548515 -0.00211242343047
0.0106566876603 -0.0008199149956 -0.00194082464275
0.0435201803868 -0.00218508447129 -0.00339831566993
0.02045807187 -0.00287264857093 -0.00241390558914
0.0372016911354 -0.00159054798351 -0.0031103446544
0.0193992588469 -0.00132427807893 -0.0023318503443
0.0468113808386 -0.00195654809438 -0.00353575859869
0.0320211331745 -0.00192130121178 -0.00289332474011
0.0178669027791 -0.00162712098892 -0.00227244090357
0.0337622162916 -0.00254008440073 -0.00298329026393
0.0721305214592 -0.00332762407971 -0.00466610801608
0.0406529395202 -0.00303918428476 -0.00329385868295
0.0162333438157 -0.00204444907568 -0.00221131212506
0.039701886926 -0.000741238225846 -0.0107796809745
0.0379462030308 -0.00139838654704 -0.0107434528507
0.0371016565413 -0.0001423211189 -0.0106653325328
0.00443948637787 -0.000103425729518 -0.00866475780939
0.00865503474988 -0.000873385778118 -0.00894360053341
0.00735322189101 -0.000384441982279 -0.00885749049227
0.00156717967478 -0.000282492330636 -0.00847476548701
0.000472593027378 -0.00101564262541 -0.00840236268304
0.00957719480992 0.000539902326195 -0.00900459796492
0.0230677968887 -0.000648969919773 -0.00989695072672
-0.000831858741304 -0.00211337076143 -0.00831607808791
0.0120740323162 -0.00172969082974 -0.00916975440727
-0.0029563225455 7.62954219519e-05 -0.00817555277021
0.00327820980663 -0.00219549973173 -0.00858794371692
0.0103634679957 -0.00169196421014 -0.00905660698904
-0.00217326398313 -0.00216744563238 -0.00822734915904
0.0156025447484 -0.00150908433515 -0.00940315227903
-0.00409027118105 -0.00276745931562 -0.00810054631826
0.0269728334907 -0.000451643761943 -0.010155254261
0.0124902218484 -0.000168157084407 -0.00919728378486
0.00184322275666 -0.00215776016906 -0.00849302470221
0.0150279130033 -0.000183803713171 -0.00936514254294
0.000334979336794 0.00045579339207 -0.00839326005321
0.0184982009244 -0.000342101086972 -0.00959468908152
0.0111414974482 -0.000432546619054 -0.0091080707211
0.00573925827948 0.000399366836698 -0.00875073284885
0.0163387566229 -0.000292234158463 -0.00945184993504
-0.00093039613965 -0.000535735675666 -0.00830956020834
0.0217497408787 -0.000954952950691 -0.00980976626201
0.00293854505366 -0.000497715487456 -0.00856547616665
0.00569482299084 -0.00150841020147 -0.00874779362106
0.00489764789694 0.0011902066558 -0.00186172439841
0.00204662002203 0.000653826194497 -0.00180110672358
0.000853028084817 0.00207807388695 -0.00189284611148
0.000826277338033 -8.28987958993e-05 -0.00173913760461
-0.000652910760449 0.00204352708022 -0.00187849812217
-0.00241738400214 -0.000523313082011 -0.00189980018834
-0.00136755572412 -0.00196103706247 -0.00178320816041
-0.000316488305007 -0.00114589724972 -0.0017296323392
-0.00296574146164 -0.00294787223294 -0.00187174824328
-0.00205159142069 0.00110976557753 -0.00191895338185
-0.000470914516773 0.000698154560489 -0.00179251343832
0.00410539988755 -0.0029917209987 -0.00186518549753
0.00727353608586 -0.00327178626743 -0.0019218653436
0.00196356524277 -0.00366389469541 -0.0019175525419
-0.00012334433607 -0.00304303282639 -0.00183428191743
0.00628244919076 -0.000286643357097 -0.00181770542696
0.00388394789935 -0.000119180676402 -0.00176537457219
0.00849323667376 -0.000363830434511 -0.00186827478451
0.00242649534522 -0.00103098384874 -0.00170291942833
0.00656312603975 -0.00188998104935 -0.00183347019073
0.00916694993907 -0.00220415272805 -0.00191345536958
0.00520680246467 -0.00138165998536 -0.00178649588953
0.0417791465057 0.0025721839786 -0.0102460197891
0.0391959929097 0.00320602292511 -0.00996726033252
0.036092700159 0.00311599122575 -0.00993992982543
0.0375040019044 0.00360915149835 -0.00978901974924
0.0337870453264 0.00376709769457 -0.00966028519052
0.0441798020299 0.00163340814413 -0.0105717973147
0.0427176708681 0.00120168170212 -0.0106558919938
0.0373415025714 0.00202808617278 -0.0103372579065
0.0403411882269 0.00113825113126 -0.0106265578883
0.0389225338611 0.00180405380575 -0.0104260208873
0.0302331087101 0.00321827494055 -0.00971757926141
0.0288218075113 0.00353288554097 -0.00955655577799
0.0298015239194 0.00464435803822 -0.00925660442596
0.0273384621801 0.00401915917065 -0.00933913726391
0.00908397707779 0.00217009858557 -0.00867412771729
0.0317696563548 0.00280666251937 -0.00991291632571
0.0119655850286 0.0029724587579 -0.00867012967075
0.0177302302749 0.00230784032229 -0.00916972389691
0.0213031685869 0.00227446443091 -0.00939471506485
0.0196023364199 0.0032177485651 -0.00908021399637
0.00412032864885 0.00152298607222 -0.0085166484616
0.0265949055145 0.00280855740814 -0.00959744407084
0.0336707902941 0.00243406869666 -0.0101119858826
0.0225691128697 0.00362792170347 -0.00916910786599
0.0168166335687 0.00330151045156 -0.00889188312716
0.0248195611445 0.00280965209396 -0.00948911298136
0.0144337360825 0.00290620069313 -0.00883521292872
0.034764240501 0.000435553143844 -0.0104945553805
0.035868184603 0.0011609441692 -0.0104402781238
-0.00131385036547 0.00106691841928 -0.00827742433743
0.00278749692997 0.00126657098715 -0.00848810234436
0.0193433153673 0.00152886448323 -0.00942508548539
0.0173433693101 0.000841882694085 -0.00941621667461
0.0324333577416 -8.91156095658e-05 -0.010456507841
0.0310582229485 0.000445118017003 -0.0102901668255
0.0130591776909 0.00135616239183 -0.00908107603586
0.0224303272933 0.00127534261533 -0.00964794092149
0.011497159811 0.00106730251381 -0.00903471804629
0.0146941469514 0.00129435556038 -0.00918757056812
0.02968983188 0.00179294252638 -0.00999470615105
0.0263285017009 0.00137916103574 -0.00986186402344
0.0241494982456 0.00116386578848 -0.00976732038442
0.0278097999677 0.000991396343213 -0.0100111642643
0.00782176805005 0.0010498846787 -0.0088202108904
0.0789223387269 -0.00674614025853 -0.00839418063448
0.0691906466481 -0.00801488606591 -0.00833908343056
0.0718436915791 -0.00779330094616 -0.00820500045806
0.0753093938754 -0.00753919689274 -0.00798743607599
0.0732441320752 -0.00707675429241 -0.00885345189884
0.0769268988976 -0.00661338291523 -0.00885419730994
0.0775171535009 -0.00737779166418 -0.00741798424299
0.0742665915403 -0.00772300903857 -0.00706304105718
0.0760257113626 -0.00756852501631 -0.00685912942221
0.0556824899627 -0.00829810381546 -0.0087932225522
0.0401786798353 -0.00831498260567 -0.00863024833306
0.0505577118692 -0.00884725464505 -0.00824011189969
0.0457879836542 -0.00842244146411 -0.00858490908994
0.0532529998924 -0.00830916105594 -0.0087599578319
0.0414603717887 -0.00865727228363 -0.00824637897275
0.0388675671978 -0.00854507248478 -0.00833540650929
0.0492427589338 -0.00891579315407 -0.00810757672051
0.0548617775482 -0.00904898314657 -0.00798518199955
0.0444920675768 -0.00904767695341 -0.0058205795474
0.0480354680165 -0.00904807858248 -0.00622062592119
0.0525033110443 -0.0090486358639 -0.00711148511479
0.0540977439355 -0.00904868550746 -0.0062957461182
0.0463322698074 -0.00904786170564 -0.00584733490502
0.049531525902 -0.0090481574162 -0.00570023072508
0.051016917563 -0.00904844519176 -0.00677505991885
0.0456455859211 -0.00904779234972 -0.00727442139694
0.0432638489073 -0.00904742791729 -0.00763609408875
0.0392948874115 -0.00904701085808 -0.00618584145866
0.0420424271534 -0.00904741856497 -0.00590564615
0.0406083223397 -0.00904724312745 -0.00564862633363
0.0470368995825 -0.00904798509424 -0.00728051132797
0.040225131431 -0.0090470257673 -0.00741973583271
0.0618140673783 -0.00864397451787 -0.00833210712319
0.0592906243455 -0.00887513153324 -0.0073490289414
0.0607829265685 -0.00881448237893 -0.00712122055244
0.063750417708 -0.00859794541076 -0.00807386360129
0.0566326591369 -0.00896320058612 -0.00804715549717
0.0575949803309 -0.00900909745124 -0.00665471317324
0.00566816214647 0.00476072189551 -0.00306098415565
0.000771322714441 0.00470926108753 -0.00303599679849
0.0100475611695 0.00479042991698 -0.00307109111142
0.00305536458607 0.00430193843332 -0.00272405778656
-0.00380818943632 -0.00021382541847 -0.00202985107945
-0.00415899977088 0.0015585933088 -0.00487461200025
-0.00415899977088 0.00285819686944 -0.00411796634404
0.0120061114994 0.0041830998854 -0.00268327569212
0.00150411713895 0.00367332100928 -0.00229544690114
0.0138108072045 0.00468687585536 -0.00301239800446
0.00884758969339 0.0043697854494 -0.00278107133666
0.00454331246231 0.00399901001017 -0.00252004706208
0.0174453849052 0.00508264186596 -0.00328495464593
-0.000770496505563 0.003602903898 -0.00224230341122
-0.00279207569403 0.00355401040632 -0.00220234086964
0.00678524405739 0.00374498246895 -0.002376609001
0.0356892992549 -0.00471224629634 -0.0103117803173
0.035308090425 -0.00315276209303 -0.0105387154348
0.00820179837414 -0.0035388110298 -0.0087657010428
0.0256497483725 -0.00398790502065 -0.00981549313308
0.02720202281 -0.00425541282594 -0.00986030542731
0.0330967382388 -0.00402466222445 -0.0102966329796
0.0286745580606 -0.00415783181702 -0.0099778295956
0.00471330064079 -0.00316457367511 -0.00861653870696
0.0128806493111 -0.00300395267097 -0.00918712002218
0.0205238551206 -0.00335404704622 -0.00961424530199
0.0315523368901 -0.00328137270557 -0.0103539187195
0.0144565742772 -0.00381239651755 -0.0091179935224
0.0307958675245 -0.00447677898391 -0.0100490236423
0.0188887129442 -0.00407556071587 -0.00935283214802
0.0112817698937 -0.00357005967641 -0.00896126783893
0.0220031459811 -0.00324612876966 -0.00973442010319
0.0237239396236 -0.00365745421708 -0.00975959221018
0.0329286305088 -0.00220817937821 -0.0105290067881
0.036490749017 -0.00176755134583 -0.0106988439296
0.0346157657765 -0.00112201853429 -0.010614049581
0.0236532238619 -0.00216497851544 -0.00992741133156
0.00762113393579 -0.00215832443334 -0.00887475367338
0.0301927575013 -0.0023541507087 -0.0103554278321
0.0283773920934 -0.00105789720119 -0.0102457191269
0.0245376109459 -0.00114447775154 -0.00999295562785
0.0185159452705 -0.00192304904213 -0.00959185668924
0.0258770005281 -0.0013696245529 -0.010079254455
0.0171599953092 -0.00215071064346 -0.00950115448806
0.00957360522039 -0.00285875735442 -0.00899782836401
0.0263772267193 -0.00262122076051 -0.0101029349218
0.0141472344872 -0.00227706425852 -0.00930240391039
0.0310270372939 -0.0010828657063 -0.0104195184884
0.0288669385019 -0.00263891755063 -0.0102662859142
0.0784702981806 0.00209659594857 -0.00795832276948
-0.0504786676691 -0.0185167416357 9.05857877847e-05
-0.0525195334975 -0.0179821642666 -0.000637516355069
-0.0482211272588 -0.00872879334891 -0.00356277442807
-0.0505799431306 -0.0104983393478 -0.000820010500707
-0.0589049311546 -0.00941736562896 0.00123891705043
-0.0603973095321 -0.00897968948711 0.00135429818288
-0.0529885314244 -0.0111754209073 0.000805349399069
-0.0491941960444 -0.010538471304 -0.00130816216818
-0.0490369528317 -0.0137381367735 0.00196016266469
-0.0515820991599 -0.011879162647 0.000999608250371
-0.0508851911855 -0.0087850551578 -0.00248553064508
-0.0525814360269 -0.0101933939537 -0.000371874700598
-0.0543813261353 -0.0108231967686 0.00097154199269
-0.0519380728715 -0.0127067622441 0.00199664068737
-0.0575376153699 -0.00873535584871 6.60510925736e-06
-0.0550181802873 -0.00959421114453 -6.33827510951e-05
-0.0472690391751 -0.0128958118858 0.000407897338701
-0.0489869887859 -0.0125505553993 0.000705674750939
-0.0476967888392 -0.0117809724215 -0.000588246748619
-0.0543459412441 -0.00885416378271 -0.00109027634986
-0.0527644949457 -0.00916800279281 -0.00136853799643
-0.0523726117029 -0.00814273050274 -0.0025849310663
-0.0480639196178 -0.0100901342907 -0.00220675389565
-0.0494016935858 -0.00953481428103 -0.00227287137751
-0.0476185723486 -0.0139678158246 0.00165670868834
-0.0493470447226 -0.0114551510416 -0.000296137515138
-0.0570727794731 -0.0101032877206 0.00125184719728
-0.0591210037641 -0.00813567558498 -1.17370922818e-05
-0.0559803872002 -0.00862687793148 -0.000701711082887
-0.0495241790154 -0.00829774512605 -0.00351289563338
-0.0468400008976 -0.0104283152791 -0.00290068164913
-0.0468400008976 -0.0115149467068 -0.00173688132666
-0.0468400008976 -0.0134499728236 -0.000826255501167
-0.0698557084156 -0.00826421996467 0.00210399995558
-0.06149077255 -0.00968362265009 0.00210399995558
-0.0668083062365 -0.00936103974434 0.00210399995558
-0.0536556187798 -0.0125933761092 0.00210399995558
-0.0554495186045 -0.0123720056799 0.00210399995558
-0.0683634104418 -0.00866466813986 0.00210399995558
-0.0650401885088 -0.0101543453525 0.00210399995558
-0.0592949044344 -0.0112997137071 0.00210399995558
-0.0567310129965 -0.0116218846389 0.00210399995558
-0.0607288175236 -0.0108139900692 0.00210399995558
-0.0637264303928 -0.00874491834738 0.00210399995558
-0.0581302837753 -0.0107050077572 0.00210399995558
-0.0601052500985 -0.0126106250955 0.00210399995558
-0.0522597380755 -0.0182041757015 0.00210399995558
-0.0717431998792 -0.00911378707745 0.00210399995558
-0.0672501676372 -0.0111462354081 0.00210399995558
-0.0497883076079 -0.0167303041361 0.00210399995558
-0.0578690638099 -0.0138717547362 0.00210399995558
-0.0595649661276 -0.0143642669556 0.00210399995558
-0.0500209408696 -0.0150926796231 0.00210399995558
-0.0691845245164 -0.0102101847874 0.00210399995558
-0.0509221815829 -0.0138050952628 0.00210399995558
-0.0631175773443 -0.0121966572955 0.00210399995558
-0.0555306166365 -0.0163075007211 0.00210399995558
-0.0705210859017 -0.00952112382881 0.00210399995558
-0.0580238011143 -0.012382375318 0.00210399995558
-0.0662538773019 -0.00797499995679 0.000916731576138
-0.0663882642763 -0.00797499995679 -0.00252314063974
-0.0654053133633 -0.00797499995679 -0.00379242812083
-0.0698182916081 -0.00816779648779 -0.00204860087087
-0.0468400008976 -0.010176819654 -0.00551272920666
-0.0468400008976 -0.0112844583323 -0.00424477534146
-0.0468400008976 -0.0151474996006 -0.00387821220591
-0.0468400008976 -0.00809080923983 -0.0108553271661
-0.0468400008976 -0.0095280918739 -0.00692061440502
-0.0468400008976 -0.00891245516527 -0.00880611406267
-0.0468400008976 -0.0110502247784 -0.00701842207114
-0.0468400008976 -0.0177197117839 0.000355400232305
-0.0472044263842 -0.0166432919213 0.00210399995558
-0.0541240141 -0.0120185217152 -0.00700576750229
-0.0522111310229 -0.0120209747968 -0.0074343596753
-0.0530734114166 -0.0135124995072 -0.0058331472707
-0.0730429360725 -0.00948264948946 0.00144753711342
-0.0717300231779 -0.00905571478739 -0.000123045963405
-0.0563241695466 -0.0193330442414 0.00183596278391
-0.0551550942727 -0.0190123880362 0.00111330500906
-0.0698158149828 -0.0115546244555 0.00210399995558
-0.0607138901383 -0.0152448012629 0.00210399995558
-0.0533004165233 -0.0171609109969 -0.00161087758216
-0.0516925922739 -0.0154734665108 -0.00388414748692
-0.0562704555806 -0.0165159254097 -0.00176487267092
-0.0569672482549 -0.0177343264621 -4.67618933378e-05
-0.0584903581093 -0.0183626696479 0.00114300199879
-0.0552296048095 -0.0181454422969 1.81254048057e-05
-0.055311215383 -0.0148919274494 -0.0038800504149
-0.0552570305845 -0.0133927020442 -0.00542562812445
-0.0563996052777 -0.0124998059862 -0.00600737890156
-0.0539816339347 -0.0142323678742 -0.00493649608428
-0.0540059882526 -0.0160718490871 -0.00279713320298
-0.0540162350319 -0.0151952899853 -0.0038460396294
-0.0587822882138 -0.0172228858531 -0.000115787136929
-0.0597251534688 -0.0163799644895 -0.000731532700191
-0.0575968667434 -0.0164562926484 -0.00142943906156
-0.0481775566161 -0.0183138104057 0.000706229230182
-0.0496320996803 -0.0189018887759 0.00116481223841
-0.0531615019374 -0.0192956889861 0.00141866855641
-0.0537499398 -0.0182101408423 -0.000261210888574
-0.0516792627616 -0.0190830958052 0.000995679552862
-0.0488275049722 -0.00960323425792 -0.010015051919
-0.0600940066781 -0.0123413436486 -0.00482430474659
-0.0597048663159 -0.0106349645214 -0.00627417954533
-0.0591257215921 -0.0119023794128 -0.00553657289145
-0.0632967144869 -0.0119770002955 -0.00363607409555
-0.0618484162678 -0.0117554765075 -0.00446925194154
-0.061469385173 -0.0133075941929 -0.00323416886894
-0.0579495109073 -0.0132884375516 -0.00465642228332
-0.0564711929132 -0.0136034805277 -0.00485526892354
-0.0573206184718 -0.0143378378583 -0.00380266879073
-0.0598127859385 -0.0135878712393 -0.00367811161917
-0.0585097586477 -0.0151849092478 -0.00248982315508
-0.0597237037335 -0.015274088844 -0.00194878054122
-0.0609091044701 -0.0154300494751 -0.00134847837105
-0.048966866752 -0.00832219441313 -0.0106824311155
-0.05834050522 -0.01068564987 -0.00675713585357
-0.0566310097864 -0.0109977265974 -0.00714165455693
-0.0519339445038 -0.00960289965448 -0.00933105199932
-0.0502867331259 -0.00940187448896 -0.00982260428961
-0.0533994265195 -0.0101928341692 -0.00867781276582
-0.0547509005659 -0.0109174273482 -0.0077936566161
-0.0537780199022 -0.00797531109697 -0.00650881399823
-0.0607622038071 -0.00797520294936 -2.64292975491e-05
-0.0570596081681 -0.00797520442677 -0.00423835926902
-0.0615413541172 -0.00797504013355 -0.00139589137122
-0.0546739852418 -0.00797536532572 -0.00473186552029
-0.0535077346805 -0.00797553725546 -0.00367838389436
-0.0577695893 -0.0079753179141 -0.00185141822876
-0.0574141140479 -0.00797499995679 -0.00695924570762
-0.0624974112103 -0.00797499995679 -0.00399658955291
-0.0636963668711 -0.00797499995679 -0.00101868785335
-0.0595723809968 -0.00797499995679 -0.00537734473387
-0.0614570823433 -0.00797499995679 -0.00306098673413
-0.0613161943855 -0.00797499995679 -0.00494397140659
-0.0638592571924 -0.00797499995679 -0.00373127717541
-0.0601281671264 -0.00797499995679 -0.00399724035564
-0.0471577117788 -0.00797596432553 -0.0078219721472
-0.0491517772868 -0.00797573918211 -0.00934820623494
-0.0532615067273 -0.00797527516599 -0.00812160688709
-0.0497001361558 -0.00797567726871 -0.00623239870354
-0.0518731839206 -0.00797543191698 -0.00755287927296
-0.0600694747131 -0.00893406550672 -0.0068815574828
-0.0541396991526 -0.00898610770682 -0.00888023464581
-0.0577636943638 -0.00937504007917 -0.00760630222917
-0.0564473916348 -0.0096004875518 -0.00798298371368
-0.0635184254502 -0.0138250939656 -0.00163869279862
-0.0660842332299 -0.0148610854501 0.000832217042934
-0.0649805882988 -0.0136959631096 -0.00096994559244
-0.0651885614354 -0.0159883036661 0.00149957018858
-0.0641091500129 -0.0155013972286 0.000407599255427
-0.0608173009762 -0.0168830339011 0.000256674571436
-0.0616328698491 -0.0174337646581 0.00124733081732
-0.0604699956023 -0.018278804383 0.00175196924426
-0.0629197349925 -0.0130727380902 -0.00273972137071
-0.0622847765972 -0.0146641915696 -0.00145219974211
-0.0627703663221 -0.0165135833073 0.00071407926166
-0.0628642433376 -0.0154457383797 -0.000331759217924
-0.06851089525 -0.0132553605062 0.00202109430202
-0.0558246709281 -0.0179340124667 0.0020347900942
-0.0585677689843 -0.0171091593973 0.0020152343555
-0.0659256823616 -0.0133154000668 0.00210325051836
-0.0668811952592 -0.0143090744111 0.00198263861961
-0.0593323018595 -0.0160586624624 0.00208268363025
-0.0645514626685 -0.0141912357835 0.00207195091141
-0.0686115447398 -0.0128347823666 0.000486258115546
-0.0668615134318 -0.0133518402123 -0.000140308673354
-0.066846405196 -0.0119136180511 -0.00148604188279
-0.071167906835 -0.0114613764055 0.00113236748426
-0.069837578476 -0.0123857617838 0.000991021462678
-0.0698373889935 -0.0104347058 -0.000655054938989
-0.0691799151164 -0.00947349953387 -0.00183715485309
-0.0706479944627 -0.00897336258921 -0.00111593638393
-0.0667482679571 -0.0108324278037 -0.00250877626382
-0.0679760041682 -0.0108595948397 -0.00171050845299
-0.0654658684145 -0.0117003453238 -0.00254831789004
-0.0666616527943 -0.00871536655933 -0.00392422676872
-0.0630614614219 -0.00873853692759 -0.00578738466873
-0.0610505584803 -0.00992193252969 -0.00618445855875
-0.0617378009611 -0.0106391185608 -0.00534477398214
-0.0632859448209 -0.0101497179909 -0.00491843466508
-0.0646913336854 -0.00991650835018 -0.0043844952582
-0.064468713994 -0.0111441248713 -0.00363111972937
-0.066280507009 -0.00995549352404 -0.00351659419567
-0.0519040545464 -0.013165293973 -0.00640311986983
-0.0503007793454 -0.0135244593699 -0.00627066562829
-0.050136580896 -0.01459381065 -0.00508545334647
-0.0488156650723 -0.0139387546378 -0.00590155013647
-0.0520670613908 -0.0144008124528 -0.0050774414552
-0.0476894104702 -0.0107896088424 -0.00927795420772
-0.0475116213989 -0.0118716241185 -0.00819314250202
-0.0486758488356 -0.0124125520884 -0.00756210736835
-0.050171254796 -0.0118372875384 -0.00797353628732
-0.04980545668 -0.0105494041259 -0.00923119898301
-0.0510461286283 -0.0110206593534 -0.0086133630491
-0.0477181723911 -0.0169293153507 -0.00206364441385
-0.0500166381706 -0.0157883695839 -0.00368260102987
-0.0474814907106 -0.0141175255322 -0.0056732394587
-0.0487157370332 -0.0151173460026 -0.0044699517519
-0.049184116237 -0.0165483982384 -0.00269210119699
-0.05184480696 -0.016662798187 -0.00242998473802
-0.0502822461189 -0.0173410982091 -0.00161726877941
-0.0484715237343 -0.0179538338888 -0.000662414612399
-0.0597692124231 -0.000460000010207 -0.00434107529637
-0.0678454968265 -0.000460000010207 0.00186055210008
-0.0658242767371 -0.000460000010207 -0.000394638719545
-0.0635390530818 -0.000460000010207 -0.00227465514904
-0.0571346204868 -0.000460000010207 -0.0033057575679
-0.0614747501823 -0.000460000010207 -0.0033577689139
-0.0645133696155 -0.000460000010207 6.23371772758e-05
-0.0666010937228 -0.000460000010207 -0.00336405641729
-0.0579307067706 -0.000460000010207 -0.00479701781504
-0.0585942506737 -0.000460000010207 -0.00336106583936
-0.0651566226446 -0.000460000010207 -0.00336170641555
-0.0629209143931 -0.000460000010207 -0.00373033828641
-0.0673793626444 -0.000460000010207 -4.39017406464e-05
-0.0551316378018 -0.00656973224749 -0.0021152786183
-0.0645278079914 -0.00590001930676 0.00145894915323
-0.0572092106712 -0.00607097388456 -0.00137889562396
-0.0616340519649 -0.00665873173097 0.000443115866453
-0.0532772737775 -0.00692311530791 -0.00278665726501
-0.0659149662343 -0.00371466214113 0.00166586235882
-0.0593919290369 -0.00587523984438 -0.000554780854354
-0.0662879176517 -0.00196720167625 0.0015431836144
-0.0607794514245 -0.00449670828182 -0.000223693787551
-0.0630074992538 -0.00448868802021 0.000647017405361
-0.0634426645306 -0.00687717460872 0.00118449515091
-0.064722514627 -0.0022995591144 0.000981657326779
-0.0659266691427 -0.00528197319287 0.00191138122642
-0.0581697184089 -0.00428851276035 -0.00127701539954
-0.0564300579166 -0.00743295364205 -0.00147444235643
-0.0645249118128 -0.00461448137782 0.00126019309229
-0.0549769703718 -0.00797499995679 -0.00328096546784
-0.0621429191381 -0.00797499995679 -3.69295487348e-05
-0.0630543688339 -0.00797499995679 -0.00239604986412
-0.0651626045463 -0.00797499995679 -0.0015667611806
-0.0503426475731 -0.00797499995679 -0.00489303462547
-0.0585614122017 -0.00797499995679 -0.00326274983376
-0.0592101576727 -0.00797499995679 -0.00184368290577
-0.0475147225197 -0.00797499995679 -0.00513720118455
-0.0520467471767 -0.00797499995679 -0.00469474125679
-0.0646359975679 -0.00797499995679 0.000126288841407
-0.0697838830028 -0.000460000010207 0.000106660791375
-0.0715487224273 -0.000460000010207 0.000143671407944
-0.0699020934346 -0.000460000010207 0.00193204384684
-0.0716885514074 -0.000460000010207 -0.00274713710585
-0.0672127529737 -0.00472541585645 0.00210399995558
-0.0722538824696 -0.00113829779509 0.00210399995558
-0.0731626667272 -0.00219271195194 0.00210399995558
-0.0681543429717 -0.00193718490154 0.00210399995558
-0.0754855797796 -0.000703700184148 0.00210399995558
-0.0712340436411 -0.00768604707068 0.00210399995558
-0.0714864133616 -0.00463293752216 0.00210399995558
-0.0711449373544 -0.00797499995679 0.000563771140372
-0.0677170193132 -0.00797499995679 0.000823868720932
-0.0692648481432 -0.00797499995679 0.000876525174275
-0.0670087384599 -0.00797499995679 -0.000951671385111
-0.0699240355916 -0.00797499995679 -0.000574914303634
-0.0684045895665 -0.00797499995679 -0.000507653572966
-0.0524372693536 -0.00797499995679 -0.0063237966868
-0.0548563233816 -0.00797499995679 -0.00799344536717
-0.0481457521824 -0.00797499995679 -0.00674521824003
-0.055819306773 -0.00797499995679 -0.00656098896021
-0.0571530686584 -0.00797499995679 -0.00562975049725
-0.0506867421011 -0.00797499995679 -0.00873717734072
-0.0491552519905 -0.00797499995679 -0.00760930936251
-0.0469806308079 -0.00290068275317 -0.0114551778781
-0.0520748999506 -0.000460000010207 -0.00676393034155
-0.0521096256843 -0.000460000010207 -0.00952842624132
-0.0647258862389 -0.000460000010207 -0.00489297375897
-0.0575843981183 -0.000460000010207 -0.00685964765067
-0.048287925052 -0.000460000010207 -0.0107400628811
-0.0546270597187 -0.000460000010207 -0.00733665820947
-0.0468429997563 -0.00437205413056 -0.0104258306645
-0.0468429997563 -0.00665100304613 -0.0102380606004
-0.0468429997563 -0.00677321115684 -0.0068564716369
-0.0468429997563 -0.0036138007798 -0.00923021032672
-0.0561804394286 -0.00797499995679 -0.00819904864932
-0.060979599789 -0.00797499995679 -0.00677339709416
-0.0714149530112 -0.00313826431866 -0.00273085794803
-0.0702963552763 -0.00239504899687 -0.00354400494026
-0.0719349548814 -0.00443373673581 -0.00220514743154
-0.0693712211792 -0.00570557219372 -0.00353359940634
-0.0706366070965 -0.00554660987134 -0.00276071848422
-0.0696654119227 -0.00423668094149 -0.00371189514561
-0.0662829567451 -0.00756720447021 -0.00474920164754
-0.0678794431237 -0.00719954983844 -0.00398612842992
-0.0717835811103 -0.00589010052016 -0.00181880349232
-0.0735835313814 -0.00549051026904 -0.000577711318285
-0.0746039161615 -0.00606079691398 0.000762036909268
-0.0752372600355 -0.00657139598548 0.00186737803595
-0.0763288897625 -0.0037165091908 0.00152563608797
-0.0743116829621 -0.00403651749483 -0.000351737067851
-0.0750910289815 -0.00466138309649 0.000584803095537
-0.0495479131512 -0.00556000902565 -0.0107614641391
-0.0480103345532 -0.00409010969592 -0.0112814943027
-0.0564932879699 -0.00381682727741 -0.00841244314763
-0.0522560407835 -0.00447697150109 -0.00984553824285
-0.0615905320315 -0.00480073440304 -0.00668848531787
-0.0587856314319 -0.00459154850409 -0.00763714115854
-0.0492864364837 -0.00388822731491 -0.0108498991332
-0.0578030311375 -0.00370592401619 -0.00796947005052
-0.0531048397968 -0.00277376753408 -0.0095584627787
-0.0545467223496 -0.0035700535212 -0.00907079832974
-0.0569864927452 -0.00563418667751 -0.00824563453032
-0.0543272680695 -0.0051600874965 -0.0091450207762
-0.0664715676912 -0.00610868743157 -0.00491634121021
-0.0482138233799 -0.00171953489008 -0.0112122709571
-0.0497759118446 -0.001737719367 -0.0106803278135
-0.0655701390196 -0.00269810751942 -0.00531157954805
-0.0655337570685 -0.00479003067274 -0.005350137981
-0.0620116264824 -0.00326996264015 -0.00653104192473
-0.0586960052299 -0.00231820049794 -0.00764870034866
-0.0611577966646 -0.0020274731876 -0.00680638380042
-0.0679789843826 -0.00179317542658 -0.00447961869512
-0.0601406329142 -0.00324970209591 -0.00716819655331
-0.0546167185978 -0.00169911151775 -0.00903068422633
-0.0570418947609 -0.00240372956873 -0.00821329060192
-0.0515939363247 -0.00192997072111 -0.01006336974
-0.0646846621111 -0.00178848858935 -0.00560186616113
-0.0641979668927 -0.00353646589355 -0.00578953506072
-0.0632604868543 -0.00254908877576 -0.00609656551426
-0.067312818553 -0.000589357794623 -0.00469151108179
-0.0659402839984 -0.000888710720468 -0.00516284867661
-0.0669309449469 -0.00285219678169 -0.00484990889102
-0.0696493071192 -0.00111228440988 -0.00389615980913
-0.0686051638338 -0.00309464334094 -0.0042641602408
-0.0673904631819 -0.00422640048025 -0.00470055373695
-0.0574904165956 -0.00723951911641 -0.00805366915417
-0.0630728371254 -0.00610156641184 -0.00617788822064
-0.0594169133435 -0.00637253490716 -0.00741278682618
-0.0589313032483 -0.00780647709102 -0.00755780220465
-0.0556444950023 -0.0065336251126 -0.00868864692357
-0.061174483349 -0.00634622899141 -0.00681770049061
-0.0622845239601 -0.00736717619063 -0.00636453448637
-0.0641465318797 -0.00681886205882 -0.00572713740196
-0.0572549863054 -0.00344954562243 -0.00188941960672
-0.0501346622149 -0.0032868442788 -0.00507901827872
-0.0470801914389 -0.00387623266929 -0.00625209048972
-0.0594114359524 -0.00353801859717 -0.000911815729868
-0.0480915732012 -0.00154706921381 -0.0064955962964
-0.0483619270262 -0.00663278025199 -0.00487032508636
-0.0561553994871 -0.00242134341276 -0.00267902068424
-0.04706740002 -0.00559252639123 -0.00574950068269
-0.0523216331525 -0.00211928725408 -0.00445988749515
-0.0540052011761 -0.00393759037621 -0.00317867278443
-0.0494600298584 -0.00557633123493 -0.00469869094904
-0.0510691148792 -0.000885290027695 -0.00537790101674
-0.0589549124531 -0.000951312838223 -0.00187921143124
-0.0516464586283 -0.00552150438158 -0.00375029487818
-0.0611456908435 -0.00267619673345 -0.000401883878993
-0.0537452931915 -0.0025929325796 -0.00369152519491
-0.0542719192158 -0.000973420750184 -0.00393875677055
-0.0574251486186 -0.00179522252387 -0.00230422797631
-0.0598743650361 -0.00218279269166 -0.00110888876922
-0.0556732160697 -0.00399336813426 -0.00242624345702
-0.0545739332379 -0.00511701452946 -0.00257849954046
-0.0515199507178 -0.00334805349329 -0.00444971676399
-0.0558642451907 -0.00104407970817 -0.00321531401402
-0.0625744168549 -0.00210476940124 5.92439084004e-05
-0.0621273505725 -0.000733608703756 -0.000544029065877
-0.0526006963726 -0.0043246466451 -0.00368371083363
-0.0503976416996 -0.00636140232183 -0.0040525482939
-0.0485973330169 -0.00457950932678 -0.0053744860116
-0.0487765826551 -0.00290543052405 -0.00579113524937
-0.0523932102076 -0.000614826867994 -0.00488018734412
-0.0468429997563 -0.00126985694276 -0.00755214201826
-0.0468429997563 -0.0044235208776 -0.00803649326632
-0.0723324315327 -0.00199499935337 -0.00225575996205
-0.0735786291499 -0.0013870277907 -0.00134745603461
-0.0729625962267 -0.00326731821877 -0.00166652070678
-0.0765083123428 -0.00148487842887 0.0013844812857
-0.0751173854222 -0.00292517816792 0.000162853041955
-0.0747773387859 -0.00130914708573 -0.000400108645517
-0.049126107888 -0.00689437329217 -0.0108483540419
-0.0527827748607 -0.00796645570555 -0.00955013864624
-0.051933369381 -0.00702319007653 -0.00992460744772
-0.0505330833193 -0.00797499995679 -0.0102581218225
-0.0736024897835 -0.0075433227583 0.000482774527447
-0.0715830693365 -0.00748170484072 -0.00126583077293
-0.0725501085492 -0.00774882196098 -0.000361039530492
-0.0687637896454 -0.00786650236404 -0.00293875223913
-0.0553181385802 -0.000603558368748 -0.00874000804109
-0.0632430997965 -0.000673973032804 -0.00607201556217
-0.0602996442403 -0.000803246852621 -0.00707575532548
-0.0629609282947 0.0145001577298 -0.00114980704092
-0.0640511923627 0.0147138585009 -0.000369155117089
-0.0562989880817 0.0119005372213 0.00210399995558
-0.0606040252429 0.0145105409559 0.00210399995558
-0.0537243469941 0.0132239573183 0.00210399995558
-0.0569592185274 0.0135412214854 0.00210399995558
-0.0645555427284 0.00789223506827 0.00210399995558
-0.0524802310607 0.016050942891 0.00210399995558
-0.0576840103657 0.0122579010125 0.00210399995558
-0.0598212407169 0.0108392563251 0.00210399995558
-0.0505234836747 0.0137061362093 0.00210399995558
-0.051851558034 0.0144371250765 0.00210399995558
-0.0608845615834 0.00931197925903 0.00210399995558
-0.052043407989 0.0128280985001 0.00210399995558
-0.0573739124513 0.0155850562907 0.00210399995558
-0.0544183015158 0.0121426384071 0.00210399995558
-0.0626120036285 0.0101175291666 0.00210399995558
-0.0612127477678 0.0111806823779 0.00210399995558
-0.0588315630447 0.0135108027101 0.00210399995558
-0.0642638552686 0.00942327787147 0.00210399995558
-0.0625738275964 0.00751311039447 0.00105906731455
-0.0469325391826 0.00784901903188 -0.00443246893201
-0.0564877633803 0.00893204762949 0.000258177779995
-0.0578062175929 0.00766091310742 -0.000567709603425
-0.0470944577391 0.0121968509582 0.00013662583308
-0.0481582642218 0.0127834764058 0.00114213348673
-0.0527338706687 0.010452124577 0.000432913821612
-0.0596208399643 0.00885252935172 0.0013454913969
-0.0493671605146 0.0109565832732 -0.000300972554153
-0.0598385624117 0.007786777876 0.000321611500745
-0.0579076302211 0.00873632134931 0.000585337256706
-0.048466057751 0.00840305723099 -0.00328538097077
-0.061276169466 0.00741190625183 0.000469623307555
-0.0550436225337 0.00918300314764 -2.07727556194e-05
-0.0459178453489 0.00899068299925 -0.00362742799015
-0.0502433960107 0.0122541966106 0.00137178757535
-0.0570190011389 0.00973722751274 0.00129148217502
-0.0515576382627 0.0102065587024 -0.000260895469738
-0.0504435052243 0.00793772539619 -0.00302961902097
-0.0545702600172 0.00805842035699 -0.00136368502817
-0.058765842629 0.00987435775678 0.00208588921435
-0.0478810439483 0.0112101070435 -0.000592932003311
-0.0485516213181 0.00957168872411 -0.0020415803555
-0.0548894054409 0.010581463456 0.00137183202437
-0.0528760826551 0.0115219214357 0.00159537470219
-0.0467677147169 0.0095656938704 -0.0027138405605
-0.0528178599416 0.00740270142701 -0.00269793659701
-0.0510902930567 0.0088476808109 -0.0018445218243
-0.0463621603588 0.0133316869846 0.00104002251024
-0.050371208411 0.0100390538658 -0.000877563906897
-0.0535374352185 0.00914661977428 -0.000620855492014
-0.0508326699437 0.0113162639659 0.000619177356004
-0.0457670018077 0.0149123511251 0.00130136253228
-0.0457670018077 0.0124313019138 -0.00278763151004
-0.069181406781 0.0100751214274 0.00210399995558
-0.0637677471955 0.0137169520008 0.00210399995558
-0.0667609961786 0.0101963100051 0.00210399995558
-0.0677772121504 0.00943314464155 0.00210399995558
-0.0707507763757 0.0092590878237 0.00210399995558
-0.0714736392427 0.00765014120693 0.00210399995558
-0.0639279010199 0.0152081395486 0.00210399995558
-0.065899747396 0.0129863634765 0.00210399995558
-0.0457670018077 0.0104454166001 -0.00752794194349
-0.0457670018077 0.0122240142586 -0.00410551028997
-0.0457670018077 0.00817694049444 -0.00509259975909
-0.0457670018077 0.0125229530872 -0.00581579586048
-0.0457670018077 0.0136793578348 -0.0035789212692
-0.0457670018077 0.0109241899835 -0.00599591857453
-0.0466409351297 0.0161127878059 0.00210399995558
-0.0578092684545 0.0184392966701 0.00210399995558
-0.0553664687584 0.0176262293834 0.00210399995558
-0.047854214609 0.0168264402454 0.00210399995558
-0.0478685906589 0.0073259277437 -0.010724635913
-0.0473409987136 0.0073259242412 -0.00637489815831
-0.050691869987 0.00732575185566 -0.00685188695194
-0.0494168835538 0.00732581264652 -0.00600072530356
-0.0590729507879 0.00732531461558 -0.00719744184616
-0.0509160898725 0.00732573012371 -0.00546141697725
-0.0489949332705 0.00732584491842 -0.00741434096171
-0.0613349644028 0.00732518341143 -0.0054500975387
-0.0552441624533 0.00732550954953 -0.00636813450021
-0.0528625716183 0.0073256477639 -0.00821822054678
-0.050987880758 0.00732574867837 -0.00857503009191
-0.0522899698776 0.00732566045058 -0.00503964627828
-0.064516246452 0.00732504477459 -0.00159602608188
-0.0544065390899 0.00732555512279 -0.00427569611731
-0.0495268534192 0.00732581191342 -0.00417155535005
-0.0569143195588 0.00732544295102 -0.00168373142831
-0.0583495783945 0.00732535577243 -0.00327087941859
-0.0637294290781 0.00732509539986 -0.000347338178768
-0.063268608524 0.00732509526562 -0.00359575783909
-0.0651755270018 0.00732500012964 -0.00353044654098
-0.0661599438284 0.00732500012964 0.000428757518887
-0.0686109196969 0.00732500012964 -0.000817288737514
-0.0665070210779 0.00732500012964 -0.00286171770598
-0.0677124588687 0.0128242573182 0.00210399995558
-0.0699491631142 0.0130178325751 0.00178889521281
-0.071036775588 0.0118051094406 0.00139338060209
-0.0502589260583 0.0081062701239 -0.01017013407
-0.0530821110383 0.0104780390806 -0.00824649352333
-0.0513404136411 0.00989731850235 -0.00907596623736
-0.0538481963866 0.00948461827887 -0.0087115330844
-0.0551604294466 0.00994775697585 -0.00806957113232
-0.0480570303242 0.0171572117937 -0.00107732488151
-0.0508587523532 0.0185539836967 0.000764472147545
-0.049401476628 0.0175552748546 -0.000604961709001
-0.0507298176143 0.0177061280902 -0.000504727068038
-0.0590853630136 0.0180664731393 0.00131123357151
-0.0606526095 0.0178711600621 0.00154676527142
-0.0597218465321 0.0163739608829 -0.000504603482728
-0.060947764929 0.0153849954755 -0.00119292747237
-0.0584797418179 0.017138619254 -7.41823833428e-05
-0.0483667339812 0.0088691146702 -0.0102217052344
-0.0470357392162 0.0088892732019 -0.0104447815738
-0.0465933898629 0.00755173711173 -0.0111984825577
-0.06331971625 0.00945922163955 -0.00530528884109
-0.0640423135144 0.0105764585897 -0.00421939039802
-0.0702472064035 0.009870770118 -0.000744254480442
-0.0683843805856 0.00925601821451 -0.00251050608771
-0.0706449379917 0.0108773778678 0.0002472333453
-0.0688461237321 0.0107105977121 -0.00114587324438
-0.0697413993705 0.0120764702469 0.000665912196088
-0.0669356192147 0.0103293388807 -0.00279329497996
-0.0683910977988 0.0127049541607 0.000287999562432
-0.0513399392369 0.0117722890624 -0.00751561443904
-0.0460713416693 0.0105525133872 -0.00908171020271
-0.0477604726953 0.0103352108298 -0.00914987523777
-0.0500460129027 0.0114579372531 -0.00798142613484
-0.0497593095477 0.00975495872983 -0.00947703963133
-0.0473337053973 0.0175945092839 -2.77111638462e-05
-0.0493681761752 0.0182789092056 0.000632954957735
-0.0458471195203 0.0171884327028 0.00115535503535
-0.0570470592549 0.0168208738851 -0.000912876676139
-0.056204954875 0.0159910939343 -0.00205856506685
-0.0547977329509 0.0146803624108 -0.00388594351205
-0.0593267392248 0.0151733259668 -0.00198791637314
-0.0572008973533 0.0140475705606 -0.00396519417137
-0.0571394361564 0.0150920452824 -0.00281940792349
-0.0555831492943 0.0120313054149 -0.00642842792872
-0.0541581063315 0.0120850056387 -0.00665972358394
-0.0526212694266 0.0118955303305 -0.00715044858614
-0.0549450790128 0.0134001826952 -0.00521681318182
-0.0534044702038 0.0144726981396 -0.00438816539602
-0.0525800553384 0.0133094141672 -0.00573687517377
-0.0735328305439 0.00838234741368 0.000887773889672
-0.0723172081498 0.0100031896688 0.000916324054862
-0.0710194524501 0.00837162606718 -0.00120092286243
-0.071436086325 0.00952185088197 -9.93967957653e-05
-0.056465938044 0.0187843509086 0.00199814633013
-0.0546707524298 0.018902603729 0.00197563748422
-0.0571754749568 0.0120908736971 -0.00586372034933
-0.0584404252647 0.0129266274687 -0.00461755467125
-0.0594330944783 0.0117209586614 -0.00534990118513
-0.059864068291 0.0132831555407 -0.00375167011818
-0.0612178759986 0.0101688227672 -0.00588304585378
-0.0623556560179 0.0105530878975 -0.00509247665972
-0.0621482280172 0.0116908172079 -0.00424851235347
-0.0606126953464 0.0122958562404 -0.00436256196211
-0.0617775005771 0.012732866707 -0.00346313267479
-0.0585461355463 0.0105559976013 -0.00665129752529
-0.056175130416 0.0110038341903 -0.00708541213046
-0.05674352998 0.00962941339802 -0.00778285858861
-0.0601380833047 0.0093102923847 -0.00671180849021
-0.0458465016699 0.0119576482551 -0.00755264239679
-0.0469987920379 0.0126576959709 -0.00685640515222
-0.0472016814065 0.0136907395988 -0.00559671375526
-0.0465769106073 0.016099871949 -0.00244533193977
-0.0502692618119 0.0163810891645 -0.00236115275114
-0.0490028582327 0.0156563585324 -0.00321110015495
-0.0473203729314 0.0148170457319 -0.00417886284551
-0.0484300571081 0.0142428113655 -0.00501446180821
-0.0521868531502 0.0153767375936 -0.00352414598603
-0.0516564152811 0.0163643029449 -0.00238087870635
-0.0502494429072 0.0149766276419 -0.00408885912391
-0.0484089651987 0.0132483129431 -0.00619283167173
-0.0497617800248 0.0134330067843 -0.00589419311985
-0.0510532940329 0.0139559364568 -0.0052224418356
-0.0511671865367 0.0129704977611 -0.00631392269717
-0.0486660361313 0.0120367605302 -0.00748409550998
-0.0529037341192 0.0178446740299 -0.000320114838962
-0.0523706063683 0.0189099155778 0.00125320401169
-0.0532231058896 0.0168995411857 -0.00150637200056
-0.054387965413 0.0180279586685 8.81683063703e-05
-0.054381403636 0.0161735533945 -0.00223777737714
-0.055628763617 0.0170064889708 -0.000982968644525
-0.0560416272165 0.0179560858388 0.000271449554074
-0.0575048169196 0.0180279977078 0.000745007045006
-0.0643476944322 0.0165168136959 0.00169132672204
-0.0631077166397 0.0160958516428 0.000620537216075
-0.0616506632003 0.0163076773023 0.000123982079926
-0.0628072726786 0.00752518743951 -0.0061276142174
-0.0605269789056 0.00753062971068 -0.00688889803052
-0.0619575223237 0.00846964494321 -0.00626629162155
-0.0590755274654 0.00878151322876 -0.0072667202443
-0.0577542693409 0.00826324866014 -0.00789641992334
-0.0557916744683 0.00849168602385 -0.00848675225536
-0.0526827001918 0.00839539532793 -0.00943386562169
-0.0659440797727 0.00732500012964 -0.00462082783291
-0.0691890042621 0.00789219151602 -0.00278955223216
