0.022112156275219234 -0.011013286244498441 0.002326403493757224
0.025679851212691576 0.00555137179589008 -0.006576600624617146
0.01901165065387456 -0.01745656557728129 0.010063361644947179
0.02113148620081679 -0.009188720082868546 0.0047734574404744495
0.02158829474455157 -0.007812630365347954 0.003633533172149943
0.023658183471975437 -0.0009137734335648955 -0.0015317028730856732
0.023084255939318257 -0.0004426952606206354 -9.957368733081384e-05
0.02134118485122933 -0.01690941207516736 0.00425038188755442
0.020967435418238308 -0.01535770634329688 0.0051829728736530484
0.021166084830648045 -0.01045745730592472 0.0046871539561025135
0.020551280099339472 -0.017602948044857403 0.00622147545022024
0.01859286416397439 -0.016713045946498382 0.011108355299676931
0.02060296102886532 -0.01632940225868253 0.00609248248855047
0.020194803067297772 -0.020728147450860303 0.007111082718745044
0.01761952996144383 -0.019710426875169086 0.01353722410754126
0.026994263580733473 0.010653407580628676 -0.009856625920753585
0.024944777627539324 0.000270088755680584 -0.004742214672900094
0.027344833182391094 0.013291412099947202 -0.010731480020841084
0.023392131211321682 -0.0072654649248839135 -0.0008676551153703211
0.020094276530563414 -0.01949683987768913 0.007361899290853012
0.01960933355997446 -0.01442410660470731 0.00857186744922122
0.0225227707818134 -0.006810895699087251 0.0013016782622468847
0.01914920748717556 -0.012980586865098015 0.009719999708889072
0.025620642883831046 0.00755267988027239 -0.006428905997584547
0.01954808773278197 -0.019856630646739135 0.008724831796752878
0.020559055353866162 -0.019682479796513747 0.00620212547888041
0.02441967340842739 -0.0014190396822732522 -0.0034318620667217747
0.023064256057117587 -0.0017573373309097587 -4.963449778656805e-05
0.02659615731315021 0.007961735015971375 -0.00886315061840474
0.0240968434243483 -0.002242146459679576 -0.0026262728636165583
0.025998220119346875 0.0067137650734569 -0.007371066414664508
0.02824203045613099 0.016859691280537027 -0.012970375998970099
0.024102745858042923 -0.0004345457605259666 -0.002641046509071934
0.024965652369563957 0.005326259698154004 -0.0047944302848268805
0.020130782614816406 -0.013132910214385975 0.0072706456278614625
0.02015969722914375 -0.0167251469578852 0.007198583634771447
0.021205306824245373 -0.01321908910578256 0.004589350883689442
0.022309536239133104 -0.0036555150257642777 0.0018336909567159333
0.021194053585465538 -0.011709907251392418 0.004617393818506517
0.02074571818047647 -0.011138557680688048 0.005736126184305764
0.019805252143026517 -0.01781651518186228 0.008083069773259711
0.02886684696957373 0.019641417750753273 -0.014529571354163611
0.022732329676517202 -0.00252669378962641 0.0007786519125656536
0.026272862354917267 0.011206245316835096 -0.008056502640499582
0.019321095649091066 -0.016075121344555472 0.009291158529825799
0.020610626513482576 -0.013526200103105486 0.006073284600780179
0.023459223265659038 -0.005275529682664874 -0.0010351218568299954
0.02281012529783108 -0.008276771008008957 0.0005846693164506239
0.019404774119865006 -0.01830884821005238 0.009082408522474007
0.0217620066905378 -0.017818322371466085 0.0032003134827135633
0.018782543878194273 -0.015258439513602099 0.010635004748012987
0.01877097672751725 -0.014037036519477386 0.010663838178256037
0.024575764010126677 0.0037129589465590774 -0.003821488315295139
0.022697261513378298 -0.004977644628078498 0.000866219849295063
0.02375737185630163 0.00036340820807164494 -0.0017792428971474287
0.017446013121028354 -0.018561248886795244 0.013970177922156976
0.021047980583973485 -0.0063869745650090735 0.004981761946894141
0.01788801099007737 -0.01774154936109108 0.012867225117812459
0.023440304000144577 0.020859493064713727 -0.0009937963139519312
0.02692863285801906 0.020789625730392364 -0.009692909939068309
0.02549300931590476 0.02078999353737128 -0.006110357527905134
0.018849562645778386 0.020696001386045416 0.008303910533175255
-0.004505220203838246 0.020647876679242977 0.012901392918165035
0.0038387709394389954 0.020628424694717314 0.012054301649734714
-0.003291390390834845 0.020578144206445454 0.014230405781778664
0.008610380423877163 0.02056850652409052 0.012629049849517692
0.016162803412365114 0.020398895532541223 0.01516184344230087
0.0020202270770807327 0.020575574472650703 0.013478155697246575
0.00682482966980802 0.020447855502470417 0.01551962135353592
0.013615249598425874 0.020456259927643012 0.014304194619586187
-0.002093073893247475 0.020571039357206042 0.014202335027425208
0.00507271469033786 0.020662494146587912 0.01112704990181115
0.009059397148244159 0.02075529280405444 0.008506215797921407
-0.00031278041904774304 0.020669459873761748 0.011795115806453215
-0.004594286539368317 0.020569881332866188 0.014607969398105757
-0.0005273098755672907 0.020596736123031548 0.013406349057040967
-0.006399695555927966 0.020573706227060524 0.01479959144361025
0.01582519150389911 0.020695531880220584 0.008774184964254408
0.010179392814411735 0.020706545004685606 0.009393993662675421
0.0012666146790530058 0.020686123069653978 0.011193145854042325
0.010150959528121688 0.020530673537160808 0.01321592103544107
0.012597983029996485 0.02059892812881825 0.011362080267842849
-0.008730754702482437 0.02057860115470957 0.015047951131752548
0.017272738140083087 0.020670488131279675 0.009097595649336179
8.507085264850217e-05 0.02049158233906352 0.015595739812229403
0.006793571261764424 0.02061719872343769 0.011848481753504048
0.017686404583425335 0.020511337092507183 0.012489321980580344
0.015033168479799266 0.020654317104751987 0.009789311360941168
-0.002261205335794752 0.020634885097398355 0.012842027087241529
0.014327304900078589 0.020779762460587284 0.007173677164020849
0.008842434954151098 0.02065084049443023 0.01080654374229999
0.011259628598079906 0.02047528430693207 0.0142495859900567
0.015494398574713873 0.02053110840716888 0.012393609836302
-0.006482468642377789 0.020659365496340464 0.012952797033232778
0.014371762931876414 0.02060590188723029 0.010940865910167212
0.007557562682034006 0.020727246689768195 0.009343473247223559
-0.0008572865349079535 0.020541639649062863 0.014652513444608634
0.010525676011978877 0.020647412406028 0.010624893145218542
0.01210155498719994 0.020518573144919863 0.013181846831985271
0.007552318662588401 0.020493481138393405 0.01441856666245116
0.015182550595080922 0.020475708207391117 0.013643609302456101
0.0007455254138250839 0.020634987229667258 0.012382410698080075
0.01254134937345039 0.020408405351492704 0.015506330277027058
0.005418935113513185 0.020597352582694538 0.01248839417591689
0.015629238399635825 0.02076279716545442 0.007343882112448444
-0.01013627165249295 0.02060957716599404 0.014589376403747648
0.01651601989228658 0.0204585975450123 0.013812172316049908
0.019147213381050087 0.020753647499641672 0.007007319284675955
0.014393168215319585 0.02072061217444323 0.008447619507154594
0.006218351487029728 0.02074372363712117 0.009189539628775837
0.0017004733064589412 0.020524646953339002 0.014632270375364406
0.00734404770783739 0.020675703251789135 0.010494795936805577
0.0176541761433145 0.020598341760322828 0.01060563419718731
-0.007406521668799261 0.02061027217770041 0.01415902626162797
0.016231880683423617 0.0206343840728864 0.010039638853012647
0.00349640378796205 0.020701534660105506 0.010519402916698003
-0.011140305326192645 0.020584099221342037 0.015295159148455783
0.01648533458640976 0.02056694899793797 0.011464879972748903
0.017396320168246132 0.020755407793369103 0.007235463917118852
0.012872899072309422 0.02066275454027465 0.009934793218065124
0.014114086742639129 0.020544485180279015 0.0123132234366091
0.011652841819284332 0.020711188406162546 0.009069051721934174
0.00305819792269319 0.020470901915771986 0.015592357596361621
0.00594941976714562 0.020496262372391258 0.01460203631586829
0.004240667633582261 0.020519772299115134 0.014351655891639515
-0.022839510152700568 0.008196948777204588 0.0005116711141284706
-0.027276552755462275 0.020717131526675245 -0.010560978982082735
-0.02093427204475315 -0.013062114872111914 0.005266211402114905
-0.026355341507377165 0.010978108002248436 -0.008262087806112164
-0.02548333680880597 0.01176560071112179 -0.006086000959098718
-0.02293424515351962 0.017930542360900546 0.00027525125175607065
-0.022180108803823487 0.0068137086226739705 0.002157208282062363
-0.02179977116159503 0.0035386180205110047 0.003106343714616849
-0.01944799109140091 0.0025961640628323476 0.008975211247677382
-0.018526223837144213 0.014607559156064237 0.011275470525452004
-0.017216017563734445 0.01962795754474714 0.014545085536582137
-0.02140889688379451 -0.015618772714471511 0.004081787493516745
-0.02655145471654813 0.006915348838585665 -0.008751484654267203
-0.024192069206158406 0.017401433875466617 -0.002863647946298847
-0.02134097991498174 -0.001000656857660185 0.004251261229367661
-0.018856300434814347 0.015448876461207978 0.01045176369153673
-0.02102396407326027 0.005630584820181944 0.005042368280444428
-0.025929514286094475 0.014585760087620157 -0.007199439280787364
-0.026589692972241476 0.01535102849783191 -0.008846915742203839
-0.02012777797621785 -0.0046122472102321024 0.007278809646654838
-0.02173921666825863 0.014646709838721149 0.0032574475269711864
-0.024764852356838642 0.013908909821730412 -0.0042930250666130395
-0.020751167351206502 0.009828945547086559 0.005723128698548916
-0.027439240039191466 0.019330313747160075 -0.010966963828207438
-0.028952430913583262 0.02037355390731623 -0.014743132281829049
-0.022627130092432245 -0.010705407978446897 0.001041682381483792
-0.02295704424805517 0.0014188151286815952 0.00021837085206721004
-0.020933829439640207 -0.0030847972875211204 0.00526730701867941
-0.02612528171541299 0.015741705306468713 -0.007687977892900701
-0.0227475595285396 0.011935341853443755 0.0007411305418356072
-0.020443433023779933 0.012732286138249078 0.00649107705959125
-0.022817386787926847 -0.0081921051284361 0.0005668945931251363
-0.019632402198696563 0.0010982183464028706 0.00851501470339154
-0.027868159508664708 0.01675203717031404 -0.012037329976951058
-0.02159701644410717 0.017048354426915244 0.003612306014344679
-0.02364788711521069 0.007363959041029576 -0.0015056326897429926
-0.024904159430639908 0.0018522824718499517 -0.004640655081136511
-0.024741510208243524 0.020556680415126587 -0.004234780672392683
-0.02150145421939276 -0.014229177317145777 0.003850809440990215
-0.01981326968257473 0.011504100494271285 0.008063650646882409
-0.021816792687201676 0.018428764470188645 0.0030638532119573432
-0.020699430234471964 -0.005297411300564574 0.005852252162692223
-0.019215188672425595 0.005637452709009519 0.009556166923143315
-0.020450434781990844 0.0035962655963682243 0.006473612326962474
-0.02272714940615423 0.013417929744532655 0.0007920626749837838
-0.02204137795313405 0.01036509221857515 0.0025034079225577602
-0.022244229289253188 0.020172567963225835 0.001997183701261485
-0.023290303626732765 0.008228875227405636 -0.000613283938105209
-0.025992036988677924 0.00885658091386125 -0.0073554595594124425
-0.01867865449165465 0.0037853842010153764 0.010895089516204043
-0.021388456501156127 -0.011957107093651047 0.004132793196369839
-0.023829006614966838 0.018519603022800913 -0.001957626320961037
-0.021516861218963818 0.013631738967061094 0.0038123364117707862
-0.021704404010860257 -0.0022974525461297076 0.0033443376285742375
-0.022008662648221853 -0.005111331629592257 0.0025850627715484228
-0.023723637074920763 0.011326048398748808 -0.0016946702349830596
-0.02146224304398608 0.0194043131941344 0.003948630904617773
-0.021491892056536628 -0.019265030582345813 0.003874676310795936
-0.021520822323237362 0.006126655188614689 0.0038024581748770736
-0.022850269887461215 -0.0009567558102637121 0.0004848283675583948
-0.024046596630811358 0.0032939576757077035 -0.002500608573364314
-0.023386455602991754 0.004677985524997589 -0.0008532280064677527
-0.024310764356282863 -0.0023358844740367906 -0.0031598340546871145
-0.023276680332056043 0.01288737201664428 -0.0005792911665255763
-0.022742581748852225 -0.009426013016323224 0.000753571654303373
-0.022631492041949065 0.0063600204943082455 0.0010307819070462815
-0.02132053193197721 0.007396449827190402 0.0043022816727179775
-0.01933559037622722 0.017251297359274664 0.00925569413058437
-0.020542014500934267 0.011053438853279678 0.006245068501501061
-0.021826844139356247 -0.008059878833794174 0.003038793455312633
-0.024099380700946922 0.0075164429709768535 -0.0026323349781865388
-0.020642965306464263 0.014402187386158796 0.0059931427979733375
-0.021837766309292826 -0.011372201574324217 0.0030115401385654205
-0.020689988608656302 -0.009983418978903346 0.005875817920112808
-0.021632373653361205 -0.017441506228825735 0.0035241028867558696
-0.02146525852198959 -0.010326538059891519 0.003941132313608089
-0.018323243416980717 0.015810060027358658 0.011782007049937262
-0.021412444644880797 0.009240488667400057 0.004072911870421453
-0.02213180731261774 0.004953438965621986 0.0022777463038726464
-0.020657827811826752 -0.007406089251740462 0.005956072881953346
-0.021688438720397288 -0.003774418927582398 0.0033841803258527437
-0.0262902838913064 0.013828430725235968 -0.008099739082111201
-0.02398360724970504 0.006107704640212177 -0.002343421096658374
-0.022540176729235677 -0.006663271129416501 0.0012586708743791515
-0.023130212281942515 0.00294502421242149 -0.00021377130374251093
-0.0248325432862632 0.003948586224985138 -0.004461938878132273
-0.02109405303250695 0.017194453342304086 0.004867450976400554
-0.024195762791755542 0.00039989663510324285 -0.002872850115137978
-0.02040646649598615 -0.006378237213713209 0.006583344077733759
-0.022145239184802983 0.013870001516834492 0.0022442191118179486
-0.01909325810415992 0.0013447759062588053 0.009860448462779302
-0.022457109734658615 0.014828062983485968 0.0014659453623703557
-0.021036488108929764 0.011414736246444774 0.0050111093897990955
-0.019637944705578093 -0.0008155933760135084 0.008501185086593714
-0.020528557387379888 0.016965326702860977 0.0062786454495158016
-0.021101150072733058 -0.0070720701637011826 0.004849761970964926
-0.023780382474532333 0.01693675744790318 -0.001836283375656566
-0.026687549101503887 0.008814480912103871 -0.009091109859448646
-0.01993654552247084 -0.006041737465039119 0.007756031472271346
-0.02507537542751509 0.005381064070630022 -0.00506792771620084
-0.019542627749530903 0.010503019429704238 0.00873903842976549
-0.02665966785598795 0.020806073567216532 -0.00902154291894937
-0.023451929823348636 -0.010067112560349242 -0.0010166057507113328
-0.02378789093863774 0.001058092445294848 -0.0018550065751695398
-0.020826700542131725 0.006793767647066792 0.005534638344583268
-0.027362711856468283 0.012307162958761716 -0.010775981495704842
-0.021454293658304015 0.004372675669000625 0.003968482010196764
-0.0214123738207856 0.010658987900566283 0.004073087345975987
-0.02562567005057921 0.004945378305931519 -0.0064411874484949705
-0.02022466307669167 0.009373627383605171 0.007037020416015041
-0.024572489674810495 0.00899376281983414 -0.003812979645722067
-0.02022419140208005 0.01815214410913298 0.007038189645395339
-0.025570477660320022 0.013159915740886883 -0.006303462180895127
-0.022491335451070356 -0.005249130210205342 0.0013805530121419082
-0.019760375515492333 0.017630057219194792 0.008195642562991988
-0.019315730594652972 0.01435280766274287 0.009305256798307123
-0.025480207257622886 0.010022129988127477 -0.006078189608764621
-0.027805733744022162 0.020182112074218092 -0.011881549555068118
-0.025047742890118144 0.007114873927377106 -0.004998972272051322
-0.027452560919568787 0.015535128977783794 -0.011000202695439453
-0.021259651938978205 0.015006202491443818 0.004454200891559787
-0.017755912434337703 0.01940137180509432 0.013197778197847062
-0.022271605908333138 0.0009895535409979884 0.0019288824740232224
-0.019421530256342398 0.019938162085220916 0.009041228779116952
-0.02489898534880722 -0.00028027535387183805 -0.004627741257731129
-0.0187648109617127 0.01860293775119048 0.010680072838363742
-0.0228577051747618 0.01603051641467462 0.00046625844905160644
-0.022201422646319163 -0.002774142148221725 0.0021040281492234144
-0.02102255543395697 -0.008735229265447089 0.0050458963605272775
-0.023215872867609972 -0.007575168470966422 -0.00042752788913660595
-0.022282050677918695 -0.008218907024483456 0.0019028257718519937
-0.024695512277668204 -0.003159651805331499 -0.004119971679903338
-0.025101111946172313 0.019298713739179612 -0.005132165614345217
-0.017896884008669192 0.01110517320058056 0.01284599106653468
-0.02689464845751183 0.010582519441592903 -0.009607927838607084
-0.02041221292602679 0.0015590079332641546 0.0065689967790108885
-0.02312957387390466 0.006928588674188932 -0.00021218171180398173
-0.022718710091647956 0.00016668139427470242 0.0008131348089101638
-0.02550836396012997 0.003109192867425276 -0.006148448484651696
-0.02351418990686833 -0.0002779247121413326 -0.0011719845131136072
-0.017732079787460647 0.014838169908434722 0.013257256635830782
-0.023309134577568127 -0.0022406937830187802 -0.0006602672284028591
-0.019112451014333794 0.01123975686010284 0.009812543728379104
-0.026024722749325754 0.012291536403177743 -0.00743702993410944
-0.027544469409750385 0.01409221417007116 -0.011229559026443337
-0.017965123328473012 0.017432833710617567 0.012675694210480145
-0.022742553281990523 0.0038904694154767404 0.000753630808857801
-0.022072459474379507 -0.015281077737281799 0.0024258668808504334
-0.025981262310187575 0.0076003464792605314 -0.00732857023026268
-0.022130178947817384 -0.017014418407428112 0.002281829493446021
-0.018946580660643083 0.01366994979599313 0.010226470993776585
-0.018527052716629678 0.009855784564236133 0.011273406297654866
-0.022561480528175526 0.010700630519769425 0.0012054917517386023
-0.02576118597363529 0.020542458903122354 -0.006779381327060471
-0.017300231452305036 0.016818782822963136 0.014334932301689269
-0.024654254578020104 0.016059232947608363 -0.0040170302509133565
-0.025244520779188564 0.008316741043686814 -0.0054900325272559
-0.02472911825455036 0.010430543971462525 -0.004203847517223468
-0.024148659983403622 0.016119044574290628 -0.0027553190951614594
-0.01726452481878596 0.015311228852958717 0.014424039543890396
-0.020314457094118044 -0.008320435742832604 0.006812955254925867
-0.02189183152377957 -0.010058164101344882 0.002876619233960217
-0.02034820412390195 -0.002174676743700675 0.006728734064016364
-0.026889277172124706 0.013211909029113917 -0.00959452614364223
-0.020918255834828495 0.002779964900471555 0.0053061657122589635
-0.020043998610047863 0.004578115598635011 0.007487872835998021
-0.023600534665307815 0.0028621469631599106 -0.0013874606428291485
-0.022011047355890302 -0.00041330057997912735 0.0025791075412138096
-0.024028491179827492 -0.004776007416875411 -0.0024554192219165575
-0.0183074629192085 0.00849040961796182 0.011821393811483633
-0.024283134931482618 0.011995547600252114 -0.00309089762095775
-0.01831373894091462 0.013033430518215521 0.011805727946092134
-0.02596243435446014 0.01944082143008127 -0.007281595637741707
-0.023108808074854215 0.005572696598373087 -0.00016035945436590569
-0.02385765583016434 0.014215567076878426 -0.002029116590520689
-0.023101457508636992 -0.0053586177567399255 -0.00014200636203546592
-0.022050437286228398 0.01635145647682354 0.0024807950160236954
-0.020141575476729675 0.0025735235899580007 0.007244371573855609
-0.022922284093686216 0.014467929523146274 0.0003051031644240084
-0.02734874586183676 0.017913256297359525 -0.010741134362153607
-0.024240439919203646 -0.0009659925561699909 -0.0029843406586868033
-0.022211598425415622 -0.012728741254690777 0.002078643378666063
-0.02152472806085738 -0.005397682254730728 0.003792721692498919
-0.019712134886287817 0.00588701340511406 0.008316037523719549
-0.025511349675333646 0.007127488826861331 -0.006155902922529826
-0.021978024491157832 -0.013922216371354268 0.0026615281497422007
-0.02081912929054676 0.01824378288473005 0.005553522182653338
-0.024325641044352052 0.018642468269195845 -0.003196977549213927
-0.02529649438544058 0.01707096783513148 -0.005619740464040052
-0.023325452349507333 0.016124357577756918 -0.0007010046151575593
-0.018710360979321897 0.005652793373406377 0.010815964316013137
-0.019791447455247003 0.01601921559551455 0.008118103981206
-0.026191534923576665 0.005713492490258146 -0.007853303810713965
-0.020574148798363792 -0.0004546660520630382 0.006164887639311355
-0.017563163918836198 0.01347738903635357 0.013678787366443677
-0.02205570981749718 0.012125315690361283 0.0024676411869856947
-0.02187121945803854 -0.01841353398044946 0.002928064096743863
-0.02877846867583062 0.019104412397810522 -0.014309008419857083
-0.019296227176683865 0.012575890806935785 0.009353929159760552
-0.0186888799889771 0.017121507403321558 0.010869559887671486
-0.020478143951821043 0.015652525812273315 0.006404453339437624
-0.02007320547100734 0.020289715034463515 0.007414973098299452
-0.024164779260192726 0.0017373046915842953 -0.0027955319119471024
-0.02303452769529478 0.020003932541387368 2.4994338506651934e-05
-0.018794004651878252 0.012315340319300531 0.01060722560188988
-0.020589740349592357 0.005176242272671555 0.006125973900969696
-0.022502889816272294 -0.013707734877498486 0.0013517266451132052
-0.02675070931460103 0.011889860437269507 -0.009248728903192002
-0.02239564449300984 0.008497134289951698 0.0016193375106687393
-0.019553888451767625 0.004643852932680286 0.008710942578700052
-0.022922201348607306 -0.004141139236435058 0.00030532626269254466
-0.024852748345928526 -0.0015739866324444539 -0.004512355671759054
-0.018346846777381586 0.011756753277348812 0.011723108486240285
-0.024723057443884824 0.012409813626456963 -0.004188724531855853
-0.020886955197885672 0.007992936507405415 0.005384271793057387
-0.020265115744210863 -0.003396672883852446 0.006936082189405426
-0.02011360055138311 0.01469651285449626 0.007314172175086502
-0.0225514782968615 0.0019654061986609257 0.00123046011385128
-0.023849732984264717 0.0126796475674457 -0.002009343759418125
-0.020430505575070885 0.019378068381126618 0.006523331574116048
-0.02012515122170898 0.007934358070915328 0.007285353514598299
-0.02118781088585362 0.012720896799710817 0.004633482264731736
-0.024306637472691874 0.01494677550411835 -0.003149550841683682
-0.023600956172788526 -0.006065739365722376 -0.001388504546837243
-0.023627894254413584 -0.004151067036953593 -0.001455730232890049
-0.02143060987673114 0.002771570733843395 0.004027586311276282
-0.02333975671734062 0.018818569851643464 -0.0007367035666971675
-0.01941333295370133 0.009024149722242903 0.009061694886581304
-0.02480954567430169 0.017589585625068765 -0.004404560516223041
-0.01911194626739048 0.003793353538493651 0.009813809969928202
-0.02388883741067936 0.019764113220933435 -0.0021069351703043955
-0.02681775796045921 0.01653716797721012 -0.009416052932998714
-0.023071096988302266 0.009941442508895455 -6.625534441599863e-05
-0.021175286570726603 0.001207288190433915 0.004664746966102714
-0.0238706713630026 -0.0024891567244006577 -0.0020615819417199
-0.028128061545926366 0.018247923367636087 -0.01268591679366699
-0.0238637303144809 0.009802169031576085 -0.0020442715261075137
-0.018899864848521724 0.0205784818754108 0.010343044127903031
-0.023639953555033226 -0.00866079165953363 -0.001485820190388887
-0.02571724548304428 0.016645761209624115 -0.006669724363966213
-0.01914984645635627 0.007352893415482075 0.009719226879225785
-0.026006041652156038 0.018018049252487834 -0.007390416370593079
-0.023110157599740312 -0.011257831259351385 -0.00016371217279218756
-0.021752973323230937 0.0017548656249092714 0.0032231293027743827
-0.02158288468030848 -0.006726317279163929 0.0036475930461208946
-0.02012245766297643 0.006631789798246664 0.007292076452369858
-0.019997418905221113 0.012934441158741636 0.007604105022293308
-0.025251778159362158 0.014748003015591447 -0.005508149057694406
-0.02347482944119364 0.014960316532989654 -0.0010737740785378876
-0.021883370878711284 0.007884863513939968 0.0028977167585032713
-0.01712919950671002 0.01821769586310227 0.014761741239026458
-0.0208726456808139 -0.011882026424732755 0.005419998927737566
-0.024010435594724835 -0.006523187086274532 -0.002410359953629417
-0.019823376997067217 0.019162324037005147 0.008038421010904424
-0.02086686175186405 -0.0018114706523445086 0.0054344237336505005
-0.024331253153687716 0.013390336948730697 -0.003210977879588947
-0.018791976148932268 0.008693003299957494 0.010612290963392076
-0.022854233147186636 -0.0026092272312861296 0.0004749395284838276
-0.029305731157700556 0.01839522329880367 -0.016000059387111024
-0.029185928545228054 0.014147897668502224 -0.015443056297616914
-0.029323030442631327 -0.0011505586199794958 -0.016080489646131364
-0.029315009963006327 -0.009056204782789996 -0.01604319970864045
-0.029246747530885506 -0.004178774744636628 -0.015725824446090098
-0.029317556509416268 -0.018343801952436612 -0.016055039468964562
-0.029302200497554033 0.005474953160804357 -0.015983644147334705
-0.029300144733610155 0.020678529350526557 -0.0159740862016073
0.010390314616405341 0.020969616370562418 -0.011552805409053131
-0.002972556459170805 0.020932398785218773 -0.0063441139135499425
-0.019296675308795117 0.020900029059646892 -0.001813892171831795
-0.017861681979614057 0.020995008895224106 -0.01510655093105442
-0.021552660496406945 0.020969217079942717 -0.01149692371667926
0.00012554860550396084 0.020962114674743494 -0.010502924852507457
-0.00384418033909788 0.02094468342155735 -0.008063378616814967
-0.022813855935460176 0.020984643529023655 -0.013655892746823651
-0.016463874261893847 0.02097313781594852 -0.012045640246807491
-0.02061801635764951 0.020912934754271417 -0.0036200754911861793
-0.0254351200215378 0.02098146848818951 -0.013211538067765545
0.001798004734436344 0.02093348448212743 -0.0064960598338079725
0.003829124892037839 0.02093937699625162 -0.007320731502386305
-0.00483152953823725 0.020974520191787496 -0.012239107104197584
-0.01602836684996612 0.020953211833280874 -0.009256950558796405
-0.00918168936860421 0.020944767134752032 -0.008075094481807163
-0.006792543138038428 0.020898795150471404 -0.0016412035847234124
-0.0280482968438029 0.020978927241891848 -0.012855884474004542
-0.024276038665819392 0.020979576695894512 -0.012946777139639197
0.014040809479882916 0.020965373594830278 -0.010959018636771
-0.004804649029580046 0.020915479599232067 -0.003976232726577296
-0.00707350803617839 0.02099461480184558 -0.015051396605211239
-0.018178851859969775 0.020907773927993034 -0.002897805314392253
0.0006466150763258342 0.020931893406900035 -0.006273384989936917
0.0252491575388892 0.02099359857334933 -0.014909172958054311
0.008195294406096886 0.020990480186841975 -0.014472747189682654
-0.006344976873097993 0.020925468706208122 -0.005374232518165704
-0.0058989391210992805 0.02098649547484806 -0.013915077064576564
-0.011051017056277458 0.020992554674366646 -0.014763076759092216
-0.018361416571031478 0.020867707416461698 0.0027096003230444045
-0.00708103638804462 0.02094712709376461 -0.008405376479552034
-0.022418321592821984 0.020994344435641844 -0.015013558198095514
0.0030420674957238845 0.020983126189768747 -0.013443537431456959
-0.0089744981707159 0.020929695649004952 -0.0059658034326818595
-0.009763693193344806 0.02090102964584145 -0.0019539266408605607
-0.004787803854410979 0.020993257886932633 -0.014861493066280363
0.015431957613686192 0.02096726245861244 -0.011223369712410492
-0.023258584234260506 0.020956511483894928 -0.009718744679314037
-0.000627785318426537 0.021000386833361723 -0.015859206440059018
0.0016795861452362625 0.02096463470818518 -0.010855609655534743
-0.007765915375214246 0.020933396939790815 -0.006483808071099302
0.006350502183976347 0.020937352986887363 -0.007037466474172574
-0.015939089904787374 0.020908898208891077 -0.0030551511577118634
-0.002095197412882278 0.020943423021344956 -0.00788698254472689
-0.01204873744638059 0.020982030381721854 -0.013290176432836184
-0.015021286409556798 0.020985341160579613 -0.0137535279780982
-0.008943143697670096 0.02089108910983276 -0.0005627244741660889
-0.008181500998127748 0.02096412481639558 -0.010784249060708368
-0.016976485100794074 0.020879248558920715 0.0010943893946724322
0.00822128493560311 0.021000515421193734 -0.015877202619575908
0.01950732309940179 0.020975517886630855 -0.012378736921600346
-0.01916728994727977 0.02092210987501506 -0.004904155931826243
-0.016002236564582606 0.02091882838638262 -0.004444903624763111
-0.012343492889156467 0.020930956727031824 -0.006142294366553008
-0.0258834366220284 0.020970406056003612 -0.011663323805227598
-0.01182460517967468 0.020945525676934917 -0.008181254303313245
-0.02293586017305576 0.02096586392871656 -0.011027642055508392
0.007157137752564848 0.02095354518966763 -0.00930360459507084
-0.0229301951579529 0.02089347761093403 -0.0008970010065717771
-0.01896795921237342 0.020986441480411035 -0.013907520411926255
0.01954084373153003 0.021000955284855214 -0.015938762607725802
0.014438990209348015 0.020991634972026163 -0.014634362181962929
-0.0210028527311124 0.02088442568202234 0.000369838437870217
-0.013332456867747946 0.0208934487722161 -0.0008929649579283872
-0.015908423168832262 0.020933887340903866 -0.006552440898386324
0.028707862821540538 0.021000960530346058 -0.015939496726913808
-0.000805977459813046 0.020985682332387123 -0.013801275801496595
-0.0161422088909579 0.020944061091550205 -0.007976282020254877
-0.01477416500684776 0.02092970612547763 -0.005967269640487565
-0.020628926949406275 0.02099408555564071 -0.01497732731294192
0.00511742738453697 0.02095273249344039 -0.009189865783480518
0.01644015556074355 0.02098611084371961 -0.013861247003621636
-0.02164671488359072 0.020905234604161715 -0.0025424207744664485
-0.012135753808828437 0.020918184302503678 -0.004354762520990414
-0.012158816610949042 0.0209967457998483 -0.015349634953325135
-0.02492605522066557 0.020927098105583623 -0.005602270919679273
0.022365451780425226 0.020989324156371322 -0.014310957916535735
-0.012470377651732461 0.020906191064482806 -0.0026762797202915705
-0.003288543282619247 0.02092408178813776 -0.005180129964457213
0.007021857683415601 0.02096788749440002 -0.011310844989517323
-0.022988429473825997 0.02092715693716948 -0.005610504543060871
-0.011205259910529307 0.02092576026120537 -0.005415036348414821
-0.011127972271120475 0.02096384279342257 -0.01074477926041191
-0.02435771303409675 0.02099292606510383 -0.014815053795120499
-0.003660259607609069 0.02096379164085455 -0.010737620334233196
-0.0096110779391873 0.020955082024049776 -0.00951868830086107
-0.0004061529532079578 0.020977086657305608 -0.012598290189136257
-0.01704734074673392 0.02091427819675167 -0.0038080935304268208
-0.008591909479098183 0.020904699135771046 -0.002467480672177667
-0.024033914016777524 0.02096961164619224 -0.011552144221968225
-0.0017989460890561288 0.020978169189241107 -0.012749793163710473
-0.004698903345367557 0.020984189404728848 -0.013592336948390736
-0.020288662347326944 0.020985119793427126 -0.013722547107257909
-0.005624447052268998 0.020959038650249746 -0.010072427750865278
0.002333137933447079 0.020945941612697368 -0.008239465523857315
0.021433624166958536 0.02098260166999949 -0.013370129615336885
-0.01460697358987496 0.02097231704326817 -0.011930771115981646
-0.01767361184458357 0.020929822174340966 -0.0059835109608722195
-0.0030911980541641817 0.02091030031178724 -0.0032513788646847397
-0.019627558834620636 0.020860153578206357 0.003766778340256169
0.006490049301898488 0.02098626203686797 -0.013882406852084334
-0.013073500946642534 0.02096401406857073 -0.010768749633539439
0.0007109775365179835 0.02094878059001239 -0.00863678729688876
-0.01629138512441189 0.020897140536174412 -0.001409636293683879
-0.023559504806004154 0.02091941146681072 -0.004526507147371882
-0.0012552166519106504 0.02095229278908348 -0.00912832809039192
-0.02193195471894757 0.02091523189116624 -0.003941565380914127
-0.006602201241783091 0.02097670158903845 -0.012544398949556175
-0.018922504400284625 0.020940050277984543 -0.007414958916765063
0.004623068800636495 0.02096210951995719 -0.010502203427639687
0.008380394383480663 0.02095667864392867 -0.009742139132180904
-0.021476424311982146 0.020861186926431834 0.0036221587453989937
-0.0035225342863410064 0.020974549723459333 -0.012243240133423598
-0.007900952153559486 0.020915966668610744 -0.004044399269543239
-0.022010512858867876 0.020942076462514097 -0.007698528364647336
-0.013601829198631128 0.0209371937720235 -0.00701518396713406
0.00873313322440305 0.020982625398502038 -0.013373450476920616
0.0019312888044251274 0.020990244383329255 -0.014439745915151486
-0.011202482504404216 0.02089652110867362 -0.0013229459099397697
0.006513116639431146 0.020946570401782147 -0.008327466084025662
-0.020903651655586622 0.020872782345560385 0.00199935166525107
-0.019293374999354403 0.020948060450538212 -0.008536002027772296
0.018161727091584492 0.020979115261719448 -0.012882198305703429
-0.0013412762985715154 0.020926999018952612 -0.005588403504920429
-0.0193158715703953 0.020891106784593827 -0.0005651980999216029
-0.008320718995893718 0.020954003102181113 -0.009367690563911783
-0.01518409369849845 0.02096379752363213 -0.010738443643248574
0.010049344479524398 0.020958335124104027 -0.009973967557431098
-0.01712768398152828 0.02094908795273113 -0.008679803456168115
0.003018230388826674 0.020928030754271545 -0.00573279736958719
-0.026986527960718116 0.02098662387109728 -0.013933046431616617
0.003534198404001083 0.02095844788372963 -0.00998974854100404
0.003119934044575909 0.020994182761998527 -0.014990931578898832
0.0028894906627974165 0.020966338727401924 -0.011094091285132179
-0.011412151153775843 0.020954320711192166 -0.009412140716695324
-0.02065297024214579 0.020922342364165056 -0.004936693353241253
-0.013000098748645876 0.02097362074035029 -0.012113226690185488
-0.014705600113866117 0.02099929573826059 -0.015706505029648214
-0.023998507744357057 0.02094892599283604 -0.00865713677533968
-0.017647732094495445 0.020984778829761914 -0.013674828413880138
-0.014544135116722683 0.02095625384406421 -0.009682687359023529
-0.0025382546056526515 0.020967561874219654 -0.01126527365412363
-0.019588105461073153 0.0209568988072563 -0.009772951524808508
-0.00849419319691601 0.02099479428251253 -0.01507651536063009
0.016606662960404278 0.02097533960317902 -0.012353785719344706
0.01051188027181766 0.020985606043707833 -0.013790599015472407
-0.01635747417997224 0.02088671906737776 4.887358519645689e-05
0.0054684024062601035 0.02096862930994408 -0.011414663877279307
-0.006120273958253651 0.02090994536639694 -0.0032017033949105415
0.012484078765550058 0.020957428759485624 -0.009847119626914291
-0.010357765866503242 0.02093918090410679 -0.007293287930276812
-0.013524184844936109 0.020949987947849844 -0.008805759959728163
0.018453941550732503 0.02099067133971953 -0.014499499499335865
-0.014286591970353202 0.020886590015053802 6.693477148998067e-05
-0.00784617219150032 0.020982912946281934 -0.013413693487364885
-0.020432758355796977 0.020940794070825546 -0.007519054532038871
-0.015171816891911043 0.020874229025812395 0.0017968852490189836
0.012163245264141847 0.02096853037974645 -0.01140081835575247
-0.0034093396859612908 0.020983727496589888 -0.013527691782056126
0.013479450375899878 0.02097700918004977 -0.012587447058936708
-0.003153789801681824 0.020994293360901937 -0.01500641016415085
-0.001963956810308682 0.020994507908126337 -0.015036436569485355
0.02100946015604048 0.020991478928289238 -0.014612523481845266
-0.016210713235850112 0.020993032611510348 -0.014829965223585356
0.014690527159884339 0.02097840078439286 -0.012782205467899642
-0.017989761120062422 0.020968446415157525 -0.011389067307525947
0.011320401265060906 0.020993437522315948 -0.014886633474631103
-0.02395164820767174 0.020933816371048013 -0.006542508494625968
-0.013609357602623313 0.020915202591140172 -0.003937464771076338
-0.007289161526993603 0.020906738573062862 -0.002752904876338555
0.004542021309750223 0.02099454264308016 -0.015041297810667414
-0.0001132901090587033 0.020923349046219973 -0.005077580952738187
-0.020104563828937345 0.020971988232057974 -0.011884753188210508
0.012908307634562521 0.020988395809129645 -0.014181033464480217
0.024420575713238076 0.0210015367679325 -0.01602014257720709
-0.010189534383090917 0.020889357221688012 -0.0003203425203825139
-0.013295272985936054 0.02092404676070485 -0.00517522779011655
-0.0098283016295996 0.02099470775276626 -0.015064405312400216
-0.013557191688585064 0.020983040652370524 -0.013431566264747615
0.015498490738592545 0.020998329079079576 -0.015571218728597121
-0.010837283662442333 0.020983548881480095 -0.013502694163464155
-0.023094321255647678 0.02090934137320932 -0.0031171730807951882
-0.018582266016249186 0.020883160190210484 0.0005469470916743815
-0.0118393157550274 0.02088890682376227 -0.0002573082363539242
-0.019753742378601807 0.02087976014546472 0.0010227916148492066
-0.02197949491463862 0.020977301533006094 -0.012628362565497715
0.0021243544248241274 0.02095555121876423 -0.009584353241139765
-0.02580917284218464 0.020991511754863072 -0.014617117640610779
-0.013649916313600543 0.020991756245789243 -0.014651334739762312
-0.02135239433950425 0.0208956122766526 -0.0011957526604314491
-0.014924510097900552 0.020947200218487366 -0.00841561046217095
0.004712973101541437 0.02098307678071895 -0.013436622514890287
-0.02154636651811137 0.020952430506198265 -0.009147601935214092
0.0007253907455622311 0.02097175217954393 -0.011851717065338685
-0.008897202043635703 0.020978363395349177 -0.012776972780392665
-0.00207264626404941 0.020918442673975635 -0.004390922236249661
0.0005122280926880189 0.02098892158191283 -0.014254616642944758
-0.018055040819717327 0.02089649134543953 -0.0013187804730138562
-0.014438033070453368 0.020904813058152213 -0.002483424386216662
0.02333515311167078 0.020995639931033358 -0.015194865925771104
-0.0012061230741576357 0.020965695190981862 -0.011004026799560094
-0.006966340024333257 0.020965700098333664 -0.011004713595367742
0.016639111261930756 0.02096634429305354 -0.011094870211598462
-0.018267946480213237 0.020959070873974736 -0.010076937539471018
-0.010384782412041587 0.02097200124969906 -0.011886575038708488
-0.021579666116886477 0.020987467877129733 -0.014051167126518993
-0.014944600602130546 0.020894666461766437 -0.0010633835690893444
-0.025483220055251006 0.02095896021211194 -0.010061450142900231
0.008071580000870224 0.020973525179237312 -0.012099852680241482
-0.010390932965032275 0.02091704028131157 -0.004194653975554314
-0.005289578901506723 0.020943003095091457 -0.007828212845265478
-0.005028460115385636 0.0209319736761028 -0.006284618859891669
0.02214705990483761 0.021000827441858088 -0.015920870669660907
-0.0007849563450171067 0.02094161742481312 -0.007634284923083273
-0.028144408605680713 0.020999531911783494 -0.015739558088003765
0.008181127431066115 0.020946354686719723 -0.008297276236921721
-0.025525771287556516 0.020946768563670053 -0.008355199321707082
-0.021909794922964382 0.020931801995610816 -0.006260591757911698
-0.003634328819273432 0.020953299595831976 -0.009269233141058038
-0.006334858739574867 0.020936302114539992 -0.006890394335878779
0.010533098114401233 0.020863573616224464 0.0032881357100384137
0.00047274965687630656 0.02088005657093253 0.000981306150411731
0.004157475788630273 0.02086040837934816 0.0037311183013766826
-0.012189175285310236 0.02086727464740179 0.0027701674044663593
0.006510960370672359 0.020909383144195978 -0.0031230190318680285
0.006812589471513702 0.020883806433245986 0.00045650380869460957
0.009469287400730473 0.020912918884196222 -0.0036178544356035344
0.013363535666518458 0.020926049837347017 -0.005455563233013559
0.012686147176469209 0.020914689154591545 -0.003865608078611629
0.01911930434774276 0.020858935897413465 0.003937195725790646
0.0179515042122703 0.02095418469455176 -0.009393104857394599
0.025129450338490927 0.020949945335140982 -0.008799796207587826
0.012144050646022721 0.02090469986589706 -0.0024675828550873276
0.006469545607841928 0.020920105117876096 -0.004623585299318663
0.02039351906851749 0.020863118732972627 0.00335179772635198
0.024162602663747576 0.02095523759348323 -0.009540460621056717
0.023219360839675997 0.020981736784607477 -0.013249086803333124
0.008985864031297234 0.02093879886783749 -0.0072398210261644495
0.017467178325934384 0.020930119186701335 -0.006025078562349769
0.023789034463404527 0.020933645772711583 -0.006518632842944229
0.021056636158525273 0.02093650697424241 -0.006919064948974696
0.018220994998765443 0.02089004529729209 -0.00041664037297386113
0.0031101019198262 0.020913156252708356 -0.003651074735605044
0.0010730081182147785 0.020916375905164594 -0.004101672919566562
0.0016303530301128126 0.020906423186388478 -0.0027087657449710524
0.0018982911781398933 0.020869759592397417 0.002422393314718463
0.023670924475900593 0.020966566658596014 -0.01112599080954366
-0.009607887896617923 0.02087222325697317 0.0020775974714360864
0.0031159430198673503 0.02090065962604306 -0.0019021414710474359
0.006864011956352188 0.020870691875079735 0.0022919180881838417
0.009803081840511868 0.020896741142054018 -0.0013537401161363251
-0.009608871615569458 0.020862218990797383 0.0034777188298592684
0.0166241884292083 0.020905295424872045 -0.002550932780651466
0.018220099239789827 0.02092040885583012 -0.004666094163968941
-0.0018934615624988348 0.020874099329754668 0.0018150365274170073
0.019316552152304274 0.020945993605711782 -0.008246742072550297
0.019700580716634664 0.02091591161118822 -0.004036693849489322
0.008312671914010921 0.020929904688907586 -0.005995059074954676
0.018390293987966762 0.020962640112924712 -0.01057646120261312
0.010900912502682419 0.020900537726970557 -0.0018850813996757231
0.017128420553443595 0.0209416392002813 -0.0076373324527621266
0.0014159506792202833 0.020888549354212985 -0.00020727950439658775
0.012163134442435934 0.02092398862686738 -0.005167091818315947
-0.014942604212401546 0.02086168077344449 0.003553043656090272
0.012593310694774365 0.020885104683498433 0.00027481053153723123
-0.0054645054370876 0.02090053918097065 -0.001885284890521957
0.011648015366305135 0.020892506587625096 -0.0007611039352150367
-0.006444246258602085 0.02088347806678155 0.0005024594932160472
-0.003653872418229549 0.020881927167901947 0.0007195115595976073
0.022672999834884158 0.020959733630529342 -0.010169691929571671
0.020903786571493433 0.020890733510540046 -0.0005129574891604249
0.018757321972442818 0.020931232410474017 -0.0061808769341092215
0.026004826388625262 0.020963038362778054 -0.010632197237205723
-0.0006983625403823197 0.020907960205457723 -0.0029238752981701898
0.018831245398034012 0.020908635275959053 -0.0030183530550328495
0.020320548911891934 0.020907825681988203 -0.002905048411762247
-0.007438183846042114 0.020889502785002064 -0.000340714459855698
0.014612517984780901 0.02094594854458404 -0.008240435658239672
0.009795379838085212 0.020871442554100127 0.002186858735373029
0.016975530242869567 0.020914631746714644 -0.0038575737067568566
0.021170719175993953 0.020915747388154615 -0.004013710436927885
0.01954428761102122 0.020924293131913102 -0.005209708039312995
0.013148797000833514 0.02089570828249158 -0.0012091889108599093
0.021660906261099875 0.02092719891538766 -0.005616379496688517
0.02226681885925406 0.020907494770026586 -0.0028587364787256756
0.027399303407257415 0.020988980480823174 -0.014262859688552752
0.02484275827382239 0.02093803589836043 -0.007133041594080825
0.015786159805049653 0.02088236870984835 0.0006577166913952238
-0.001189624807918498 0.020892934252423303 -0.0008209566628108031
0.0022558288547693314 0.020921293617692908 -0.0047899187363505645
-0.008122776211436623 0.020863330267455668 0.003322192961490104
0.0032246643936764147 0.020890695790632283 -0.0005076784964211344
0.023021991894528644 0.020951386957108232 -0.009001554704578248
0.0017624110954241323 0.020897785255855755 -0.001499866379547717
-0.003755202424830151 0.02089098966950856 -0.0005488075591869503
0.005132010944959683 0.020925925721966204 -0.005438192983908815
0.005506099220152693 0.02086778743128711 0.002698402053817636
0.027995829720320418 0.0209795007481921 -0.012936148074158275
0.021453652758385303 0.020881359100544245 0.000799013966527888
0.010880550774393349 0.020910894229050948 -0.0033344990287671986
0.006479079060036189 0.02086199662771861 0.003508839083003649
0.01332513015423397 0.020948146027476928 -0.008547978728269446
0.012833216624438117 0.020874800353231006 0.0017169265886440477
0.02460265299428728 0.020922641733538968 -0.004978590824491031
0.012025042103462622 0.02093355469802825 -0.006505886719729277
-0.016404559329835672 0.02086901125739761 0.002527124616152618
0.026234014595929146 0.020972717255316454 -0.01198678176452413
0.007856932707110409 0.020904935988776713 -0.0025006288257963675
-0.0036192569142663705 0.020868954682524844 0.0025350424070548503
0.024419761330508372 0.020976028747024734 -0.012450233074948486
0.014756409975219015 0.02087345867830368 0.0019046972545575908
0.01558874884388085 0.020925045137065723 -0.005314952987551072
0.02294848374763379 0.020917144877554993 -0.004209292473956294
0.01489942107935426 0.02093673242771144 -0.006950617709744263
0.00037677558109426405 0.020900345376172906 -0.0018581614381947918
0.02132824242221567 0.02095798277028484 -0.00992465478433084
0.019555784698557812 0.0208969881995054 -0.0013883164067264465
0.010472181220325496 0.02094045151390684 -0.007471112858963523
-0.01684250182593834 0.020857627811862983 0.004120265476803865
0.0028423009494077164 0.020881961037665122 0.0007147714039488435
-0.00348676559833052 0.02090060185182302 -0.0018940558285807877
-0.005401792211873374 0.020863965417272402 0.0032333022014302067
0.023675939808674776 0.02090817823765596 -0.0029543894340606333
0.017980658049311336 0.02090294072690891 -0.0022213870795591405
0.004197929784781885 0.020881202600811027 0.0008209164844349222
0.013753440957796409 0.0208684521308059 0.00260537574115842
-0.012787841795496652 0.02087464300979655 0.0017389471845890379
0.01997664987047458 0.020956757052184905 -0.009753112558147523
0.0026654617922286968 0.02086096543638829 0.0036531568151429872
0.0196550771566637 0.020937950157509926 -0.0071210419537309265
-0.0024761909095086816 0.02089024839648914 -0.0004450645990663987
0.02473488946263561 0.020984174141047886 -0.01359020075915457
-0.002135741915340366 0.020903494253143265 -0.002298854420945846
0.016121307030867636 0.020873307396565143 0.0019258695014322353
-0.0007974957592846565 0.020860201784861282 0.0037600317017721795
0.011996885486897181 0.020858857015339866 0.003948235463647979
-0.002203129422525882 0.02086232952646127 0.0034622490951319116
0.01077841413927514 0.020930008246906218 -0.0060095522684758965
0.020754250239020132 0.020949252167593264 -0.008702785725112707
-0.005776817104059877 0.020891488052363644 -0.000618557450664527
-0.014012571768679219 0.020866909127301273 0.0028213228306295593
0.026713782664706892 0.02098040030635152 -0.013062043424204103
4.602044578082276e-05 0.020889453695047973 -0.00033384420150758213
-0.004519001060581111 0.020857204466908322 0.004179513631799775
-0.010784103015428025 0.02087810007780485 0.001255122117273817
0.022029733681219413 0.020941481861228694 -0.0076153124700669966
0.008387029337272789 0.020921150497787307 -0.004769888757826738
0.021512190588171883 0.02090043200781912 -0.0018702857475689397
0.00115363452342963 0.020862830762865804 0.0033920998424759943
0.01961434523576603 0.02088812944832945 -0.00014851265576068008
0.00848493653719868 0.020885369946663193 0.0002376863071257109
-0.0069725882695398506 0.020865940030856116 0.0029569502327188623
0.006692955045822379 0.02089343683524016 -0.000891294349143105
-0.010838859473227325 0.02086756708988941 0.0027292393677838664
0.0050017727493094945 0.020912712307271722 -0.0035889434931045214
0.00974105575023617 0.020881680550729396 0.0007540262320958756
0.014611960395583818 0.020861627348762485 0.0035605205701415166
0.013429687453180596 0.020936434461768787 -0.006908916652109383
