0.0136995348978 -0.0156959547454 0.0154975326132
0.00972187726374 0.00291256253575 0.0155637537622
0.00362381761006 0.00279423451261 0.0156652759529
0.0103521462441 0.0158784022644 0.0155532608692
-0.00214592225478 0.0174950132305 0.0157613321846
0.0168040859545 0.0139047413746 0.015445847185
-0.0135416662072 0.0201711175001 0.0159510516948
-0.00852077551878 0.0169407935004 0.0158674625122
0.00352830755577 0.0138889674571 0.0156668660308
0.0155090893504 0.0174048104269 0.0154674066481
-0.001776247742 0.0104868812822 0.0157551777406
0.00579870254014 0.016961198783 0.0156290678646
-0.0119913953014 0.0183597745578 0.0159252423542
-0.00585141619576 0.0113308933072 0.0158230222768
0.00125859804891 0.00816567301692 0.015704652785
-0.00034936179379 0.000880436231679 0.0157314225471
0.00235106604279 0.0101822023833 0.0156864650745
0.0152091845455 0.011438017474 0.0154723995466
-0.00368104732568 0.0140473643745 0.0157868893731
0.0057967275738 -0.00175867205387 0.0156291007443
0.00268022696627 0.016059028285 0.015680985112
0.00572403279727 0.00553661971673 0.0156303109872
0.00722256378128 0.0193155057892 0.0156053630272
0.00160472346371 0.00340154748364 0.015698890393
0.0155675859355 -0.0109337110827 0.0154664327807
-0.00630899995665 0.0100333506922 0.0158306402583
-0.00221095069101 0.0118360019237 0.015762414796
0.0135543230836 -0.0118507877949 0.0154999501398
0.0053514824492 0.0158211459948 0.0156365133088
0.0113951788158 0.0134249998968 0.0155358961732
0.00200738115668 0.000865441040191 0.0156921868359
0.0148576118834 0.00933666422149 0.0154782526259
-0.00791093319345 0.0112983375205 0.0158573096878
0.0123070912075 0.00950729743755 0.0155207144025
0.00446908297054 0.0185014079048 0.0156512037404
0.0059097000343 0.00420723064057 0.0156272199474
0.00230733235861 0.0191306862461 0.015687193165
0.0159687753486 -0.00593473457969 0.015459753668
0.0137450497118 0.00661650398413 0.0154967748699
-0.00156810165738 0.0139587495507 0.0157517124668
-0.00447758330946 0.00600057034548 0.0158001503254
-0.0152074161797 0.0199387369398 0.0159787835629
0.0105901710581 -0.00469427934702 0.015549298166
0.00836571547546 0.0188040118228 0.0155863315203
0.0154685228102 -0.0146282407369 0.0154680820112
-0.00111336254536 0.0184405293865 0.0157441418438
0.00175054441534 0.0167806185118 0.0156964627253
0.00759198556707 0.0158484341526 0.0155992127907
0.00888677374852 0.0057651193576 0.0155776567974
0.00720719471717 -0.000700090529541 0.0156056188956
0.0161435326171 -0.00449897567351 0.0154568442604
0.0138969464203 0.00179249459653 0.0154942460514
0.0121675247911 0.0107986207194 0.0155230379429
0.00546125978055 0.00243837658882 0.0156346857053
-0.00533432142271 0.0164895893318 0.0158144135394
0.00962657011223 0.00956483754517 0.0155653404621
0.0157558619768 0.0187299415198 0.0154632983089
0.00864742047283 0.0149015662163 0.0155816416173
0.00912856541218 -0.00567182686022 0.0155736313827
-0.00759556228906 0.0136954819344 0.0158520593054
0.000647813190371 0.00260596230473 0.015714821301
0.0132664332124 0.000305263349303 0.0155047430104
0.0151308134701 0.00656944300489 0.01547370429
-0.00444331034546 0.0131283233617 0.0157995797395
-0.00621117168886 0.0137925274778 0.0158290115862
-0.000399490329439 0.0109759573399 0.0157322571008
0.0098794157646 -0.00256346752706 0.0155611310175
0.0062257716365 -0.0030982465611 0.0156219578996
-0.000642983711588 0.0163624443147 0.0157363108463
-0.00639353722959 0.0190629383968 0.0158320476583
0.014488672028 -0.00889253715911 0.0154843948391
-0.00972396363501 0.0169383862308 0.0158874935221
0.0127546850832 0.0142592394709 0.0155132627353
0.0149173259317 0.00452892032968 0.0154772584899
-0.00366203294361 0.0194719529246 0.0157865728164
0.000712674356377 0.0136493618639 0.0157137414743
0.00371114448536 0.01066336942 0.0156638221108
0.0123066447788 -0.00217483491587 0.0155207218348
0.00587460066207 0.0110804189195 0.0156278042915
-0.00285597249154 0.007878888672 0.0157731532981
0.0146072463096 -0.0124120987948 0.0154824207815
-0.000920165612656 0.0121867009542 0.0157409254476
-0.0121861706712 0.0197832474175 0.0159284850286
0.0112410723204 0.0194786292257 0.015538461781
0.0084605345204 0.00991876520808 0.0155847529465
-0.014127614838 0.0179108454076 0.0159608067303
0.00531847732955 0.0203771362233 0.0156370627872
0.0126567264986 0.00355002812149 0.0155148935771
0.0142388960143 -0.00671630636032 0.0154885531795
0.00787922943177 -0.00218531255536 0.0155944306751
0.00796083676939 -0.00375530136966 0.0155930720534
0.00339674750338 0.000621595782074 0.0156690562791
0.00863352454134 0.0124287725877 0.0155818729606
0.00381919472167 0.00708432481123 0.0156620232605
0.006335459737 -0.00455286029222 0.0156201317817
0.0106596755201 -0.00750342359067 0.0155481410364
0.00224164385931 0.0022197299887 0.0156882867654
0.00781055080128 0.0135926435334 0.015595574056
-0.00749570404819 0.0182320312479 0.0158503968376
0.0110452311444 0.00584238519097 0.0155417221993
0.0167155182704 -0.0167614607815 0.0154473216844
0.0111097716188 -0.00290021641393 0.0155406477115
0.0108785953347 0.000611478594693 0.0155444963985
0.00843822304817 0.0175404966791 0.0155851243941
0.0150026558988 0.0155763782308 0.0154758378929
0.00299156148667 0.0180595505879 0.0156758019284
0.0109840724158 0.00245791984526 0.0155427403868
-0.00662663317014 0.00873981361988 0.0158359283043
-0.00169719653777 0.00256450780272 0.0157538616742
-0.00325778310583 0.00669122083276 0.0157798427528
0.0158629689966 -0.00830570432395 0.0154615151615
0.00686949419459 0.0180119844047 0.0156112410277
0.0124986452113 0.0184145813888 0.0155175253582
0.00809090219622 0.0084344664853 0.0155909066881
0.00679129216771 0.00805722031929 0.0156125429568
-0.00624107817348 0.0155347443788 0.0158295094776
0.0144919728768 0.0193314910292 0.0154843398857
0.0231458578031 0.00700007483633 -0.000253320776247
0.0179451361197 0.00795631721348 0.0127246533195
0.0176816004318 0.0149644487996 0.0133822849982
0.0201800563858 0.0169950029442 0.00714759323344
0.0212694808974 0.00975165955844 0.00442902378267
0.0184702545726 0.00138367530839 0.0114142633209
0.020068507859 -0.00880281015057 0.00742595342641
0.0174314264403 -0.00822430552662 0.0140065736601
0.0281334669525 0.0181922563053 -0.0126994900353
0.0199687402846 -0.000133030658528 0.00767491521958
0.0185812258638 -0.008242563335 0.0111373435722
0.0204950258988 0.0200067550395 0.00636161266568
0.0218624447971 0.0103326471243 0.00294933104019
0.0219878855181 0.00657616090945 0.00263630401692
0.0231024872757 0.00896271152302 -0.000145093184864
0.0192268773802 0.0074494573577 0.00952617320667
0.0195127599791 -0.00297508051987 0.00881277664585
0.0220256457434 0.00108401252427 0.00254207647382
0.0221535040602 0.0194867517812 0.00222301653869
0.0176880739805 -0.015820498355 0.0133661307887
0.0199347122816 0.0155243084268 0.00775982930808
0.0173608025189 0.0117805577992 0.0141828098594
0.0221469224583 0.003692812825 0.00223944038607
0.0206166495296 0.0126056967525 0.0060581108778
0.0212482207953 0.0128070854205 0.00448207662232
0.0186475807463 0.0129227121904 0.0109717604091
0.0174953211363 -0.0175182789408 0.0138471296906
0.0235323971897 0.0138457433623 -0.00121789808911
0.0191472542057 0.0184407564719 0.00972486630343
0.0246129003433 0.00858068332511 -0.00391420502341
0.0257154607024 0.0200380660982 -0.0066655539035
0.0231756443024 0.00150457663941 -0.000327650540537
0.022302867562 0.00787236078877 0.00185029217938
0.0171925316907 -0.000120561205723 0.0146027158997
0.0187783690295 0.00563905125488 0.0106453889833
0.0227572842517 0.0149352138982 0.000716332627959
0.0179920679215 0.0107404411564 0.0126075388601
0.0214823326424 0.0194089036323 0.00389786972337
0.022831140603 0.0182693773717 0.000532030165271
0.0267181017082 0.0177083290333 -0.0091675622386
0.0189522088136 0.00430271530931 0.0102115860705
0.0178162954727 0.0125916934194 0.013046164579
0.0242390081491 0.0155804907913 -0.002981187741
0.0207986352055 -0.00622680689232 0.00560398056047
0.0230257762165 0.0121161685791 4.63329669873e-05
0.0181274467377 -0.00281534748828 0.0122697121359
0.0189389878155 -0.00743384658933 0.010244577986
0.0203911513156 0.0094100513412 0.00662082316236
0.0235919081546 0.0161164504657 -0.00136640281741
0.0216440965093 -0.000556605495065 0.0034942012707
0.0187980902801 -0.0109037384996 0.010596176221
0.0235950679713 0.00678863080956 -0.00137428788062
0.0171328734056 -0.0014598914871 0.0147515882535
0.0186065458625 -0.0140221109169 0.0110741595935
0.0205346522093 -0.00277902322178 0.0062627284603
0.0171534374487 -0.00318432850741 0.0147002723719
0.0211459304536 0.00056654399801 0.00473733377422
0.0215400176723 -0.00221262193506 0.00375392146597
0.0200629253319 0.001144622946 0.00743988416439
0.0170483927023 -0.00686267123112 0.0149624029146
0.0174456869075 0.0163386709893 0.0139709878346
0.018337134127 -0.00577584422171 0.0117464544667
0.0234121760089 0.00414929355593 -0.000917895999806
0.0244170237811 0.00964843659596 -0.00342541113943
0.0252810740905 0.013256789614 -0.00558157776711
0.0209541360822 0.00681621847671 0.00521594088598
0.0204965394434 -0.00768670587692 0.00635783573936
0.0229331871976 0.00362308564957 0.000277381264112
0.0172114057915 -0.00548483550495 0.0145556171304
0.0171640205255 -0.00963016118913 0.0146738631723
0.0209966044696 -0.00349917880663 0.00510996451089
0.021280849733 0.0111951176649 0.0044006537864
0.0202129255098 -0.00422190125879 0.00706557103232
0.0211468357335 0.017951916029 0.00473507472268
0.0240824524243 0.00734180219391 -0.00259051577948
0.0177001648735 -0.0140142095778 0.0133359589576
0.0177926506017 0.00429434958153 0.0131051684141
0.0184729738514 0.00845373360045 0.011407477584
0.0249747520853 0.0193972821698 -0.00481717634537
0.0180070184985 0.019400931351 0.0125702309225
0.0179969212843 -0.00810938670805 0.0125954276916
0.0206238989153 0.0163882566652 0.00604002063066
0.0179957141335 0.00225023572032 0.0125984400375
0.0182323204651 0.0119368139084 0.0120080083572
0.022317697409 0.0106214083784 0.00181328551339
0.0223335386852 0.0176800904065 0.00177375490881
0.0197957557556 -0.00510380566164 0.00810658391343
0.0271194860527 0.015619251201 -0.0101691839254
0.0203970540457 0.00242222975318 0.00660609338381
0.0250039141118 0.0118992431208 -0.00488994778898
0.0227758722446 0.00628884866627 0.000669947817422
0.0256469130388 0.0106059997651 -0.00649449883516
0.0217799946181 0.002723445455 0.0031550786946
0.0245854505074 0.0141761443691 -0.00384570621078
0.0171340053328 -0.0110870003272 0.0147487636223
0.0182167095621 0.0149950613084 0.0120469640842
0.0184647270607 -0.00980174277955 0.0114280567733
0.02219144921 0.00909540272538 0.00212832753194
0.0219508717224 0.0137741720786 0.00272866890593
0.0173857995192 0.00590394323379 0.0141204318969
0.0209398607811 0.0138373161211 0.0052515637283
0.0251830109707 0.010579768748 -0.00533686930048
0.0177583081893 0.0179401329598 0.0131908670853
0.0210707469837 0.00425854751167 0.00492494795247
0.0171445946936 -0.0142775728178 0.0147223387414
0.0195904887492 -0.00103236806206 0.00861881087992
0.0214360994717 0.00174167071427 0.00401324080624
0.0191437596653 -0.00612162837709 0.00973358664223
0.0181861444374 -0.0136930253982 0.0121232368443
0.020145986569 0.0192592434099 0.00723261166479
0.01713257312 0.00135408255603 0.0147523375917
0.0212837561987 0.0076160291051 0.00439340093994
0.017591796804 -0.00228312420259 0.0136063825804
0.0173177926745 -0.0128471304118 0.0142901373959
0.0169563802658 -0.0154135788792 0.0151920123978
0.0206225070278 0.0186404280087 0.00604349397185
0.0245656553576 0.0122385147404 -0.00379630903935
0.0168948493699 0.005659639436 0.0153455576981
0.0204835852172 0.00568664516291 0.00639016194768
0.0257559919812 0.0133531538359 -0.00676669638284
0.02078086226 0.0151051274997 0.00564833148724
0.0226896168554 0.0197513076581 0.000885191061494
0.0249090422593 0.016732255415 -0.00465320286798
0.0239818068546 0.00883102402804 -0.00233936302114
0.0234599258705 0.00980642741742 -0.00103705186045
0.0225178662715 8.78939716689e-05 0.0013137805466
0.0262361369517 0.0171269917388 -0.00796485874736
0.0186007946761 0.0157349823183 0.0110885112073
0.0194588315435 0.00105243915878 0.00894735063067
0.0180143904419 0.0164630462828 0.0125518348428
0.0208166695138 0.0114608577385 0.00555897742449
0.028158070451 0.0206357940731 -0.0127608860462
0.0190501948308 -0.0019659083051 0.0099670700071
0.0195811724352 -0.00938563926775 0.00864205897696
0.0266900450545 0.0192622190361 -0.00909754916216
0.0183396687982 0.00445969274625 0.0117401294029
0.0202557270354 -0.00188467377784 0.00695876333834
0.0179512171059 0.00571736927654 0.0127094787175
0.0225116238406 0.00159324049345 0.00132935802051
0.0194852655942 0.016195012051 0.00888138662669
0.0262909028307 0.0145341865614 -0.00810152250349
0.0171411354517 0.018425613891 0.0147309709958
0.0197171345014 0.017505729403 0.00830277680008
0.0208544686904 0.00281531512535 0.00546465268171
0.020680981337 0.000421654336521 0.00589757613256
0.018198956756 0.0177503918947 0.0120912647546
0.0186253706001 0.0185163686068 0.011027184006
0.0238818762699 0.0147311172365 -0.00208999444921
0.0250811539504 0.00820238394329 -0.00508269346657
0.023513923461 0.0191815470437 -0.00117179841538
0.0195611837305 0.0193000490965 0.00869193914888
0.0194549617995 0.00276868740197 0.00895700725916
0.0198847425893 0.00901663508831 0.00788452457378
0.0173311787807 0.00775228502958 0.0142567334666
0.0191144987907 0.01025835775 0.00980660475298
0.0202570520549 -0.00650994305092 0.00695545686087
0.0213830862767 0.00556568078336 0.00414553088307
0.0217292062487 0.00914079845891 0.00328181690168
0.0193401322425 0.00885012755199 0.00924355499359
0.0189576300512 -0.00933616020132 0.010198057817
0.0213498466705 0.0167491194498 0.00422847759193
0.0227233051336 0.00999476431553 0.000801124728264
0.0235283141097 0.0120677565482 -0.00120770909811
0.0262827886769 0.0118748193081 -0.00808127429862
0.0257595425834 0.0153437387838 -0.00677555661926
0.0186552901368 0.0172933530672 0.010952522258
0.0223708987597 0.0141121270128 0.00168052590934
0.0174229795726 0.00938254435278 0.0140276521252
0.0219975613848 0.0117602987929 0.00261215868578
0.0173749051325 0.0137896674735 0.0141476179446
0.0233285916667 0.0176901313426 -0.000709318134379
0.0185537665482 0.0102448544772 0.0112058660403
0.0199459228904 -0.00303126315505 0.00773185415402
0.0173232022893 0.00425747938701 0.014276638146
0.0196339893167 0.0101840946939 0.00851025878415
0.0198681416272 0.00455508206989 0.007925950912
0.0208668730142 0.00864944232277 0.00543369870974
0.018518770499 0.00675987104643 0.0112931958089
0.0228999793337 0.013712161932 0.000360248763004
0.0200861078192 0.0104520385428 0.00738203417018
0.0242031580633 0.00473407237888 -0.00289172679451
0.0176815214235 2.8970550407e-05 0.0133824821569
0.0255280328701 0.00935505131632 -0.00619784313157
0.0190428375093 -0.00463650877471 0.00998542959897
0.0203488966634 0.00686297432413 0.00672626617866
0.0240270507378 0.0130124555861 -0.00245226541827
0.0198045666636 0.00685452208654 0.00808459701579
0.0220410764194 -0.00221216216108 0.00250357048852
0.0276369603553 0.0197039423972 -0.0114604985744
0.0239320713488 0.0105671457552 -0.00221525214873
0.0199583925014 0.0141548071947 0.00770073726318
0.0244523469559 0.0188142461798 -0.00351355722287
0.0184531851457 0.0199123448892 0.0114568586749
0.0180272558589 -0.0104265645076 0.0125197302506
0.0212233973766 -0.00456716759632 0.00454402142621
0.0178087974485 -0.00576138622292 0.0130648752832
0.0217730361415 0.0160808127566 0.00317244300175
0.0217306983087 0.00414478660987 0.00327809358845
0.0245760304383 0.00582314718228 -0.00382219920159
0.0276484639295 0.017660737064 -0.0114892047995
0.022333499488 0.0163654454937 0.00177385272225
0.0188498435148 -0.00314763371654 0.0104670302718
0.0286652629554 0.0194537540731 -0.0140265433118
0.020046062596 0.0124750869493 0.00748196373798
0.0189627973296 0.0197387064257 0.0101851632978
0.0192147770085 0.0149905403871 0.0095563686913
0.017747191015 -0.0115587899855 0.0132186090813
0.0196013372841 -0.00813238623457 0.00859173925146
0.0181420487422 -0.00116099882555 0.0122332740322
0.0212401787481 0.0149921504304 0.00450214489106
0.0168684670726 0.0158632031232 0.0154113925555
0.0239987711673 0.0190012381063 -0.00238169607111
0.0209069485978 -0.000844984444991 0.00533369338036
0.025710489065 0.0181195979629 -0.00665314759025
0.0254519738081 0.0165606604998 -0.00600804398512
0.0230559442754 0.00518970591516 -2.89489476804e-05
0.0187729827742 0.000212212239483 0.0106588299414
0.0172704971842 0.00265805893532 0.0144081594101
0.0192311023651 -0.0113563962525 0.00951563010386
0.026579339947 0.0160673268959 -0.00882129365288
0.0192819609825 0.0124417316039 0.0093887165983
0.0246232383736 0.0108076751363 -0.00394000272933
0.018787569841 -0.0122949457793 0.0106224291133
0.018675927956 0.00332503982056 0.0109010222741
0.0186991637323 0.014403386093 0.0108430393015
0.0180205081614 0.000914273551269 0.0125365685759
0.0169601443052 0.00876765980816 0.0151826195464
0.0187519473356 0.0113249351745 0.0107113221517
0.0191525488558 -0.000750321559636 0.00971165393862
0.0185991289714 -0.00439939609364 0.0110926678366
0.0271779832838 0.018311674948 -0.0103151589642
0.0235165745893 0.00285622205989 -0.00117841408858
0.0205096476783 0.0140824683022 0.00632512521522
0.0242009988929 0.0168333353073 -0.00288633876198
0.0177374178262 -0.00424021150717 0.0132429972717
0.0262509272628 0.0199809208893 -0.00800176675482
0.0206126982147 -0.00504573334605 0.00606797105985
0.0238140902704 0.00548990821059 -0.00192084005103
0.0196119012074 -0.00646572175551 0.00856537784795
-0.0170765731935 0.0119381408041 0.014893071402
-0.019867874213 -0.0154107045154 0.00792740115369
-0.0169750518996 0.016965374443 0.0151464170109
-0.016942645866 -0.0124998234592 0.015227286019
-0.0170393956301 -0.000766460557026 0.014985847726
-0.0193623963813 -0.018678270511 0.00918881719915
-0.0182830232611 0.00582518798278 0.0118823845277
-0.0177530215838 0.00951391515167 0.0132049996413
-0.0173887361542 0.0137378846972 0.014114071132
-0.0171368156739 0.00363988992305 0.014742736755
-0.0180213680561 -0.0173823094937 0.0125353430815
-0.016924596618 0.000627190182101 0.0152723277786
-0.018621740519 -0.0028853255004 0.011037118213
-0.0184973162274 -0.00633341976594 0.0113476180767
-0.0169448181165 0.0146104325895 0.0152218651844
-0.0179253475292 0.000829451797923 0.0127749615686
-0.0179227940882 -0.00945425354222 0.012781333661
-0.0180165133145 0.0020801993546 0.0125474580518
-0.0175036134144 -0.0194501459981 0.0138273958118
-0.0204777690466 -0.0206048577991 0.00640541328235
-0.0168341097496 -0.0102079430618 0.0154981370634
-0.0196001031686 -0.00804956562419 0.00859562173764
-0.0188287375178 -0.0145178444835 0.0105205587927
-0.019421884787 -0.016192524587 0.0090403643396
-0.0182882755427 -0.00399053307269 0.0118692774993
-0.0206115005746 -0.0168318049799 0.0060716872817
-0.0202770695773 -0.0192991552657 0.00690625726585
-0.016768779667 -0.0196813166291 0.0156611677828
-0.0190800903247 -0.00895363975764 0.00989330979428
-0.0198721213543 -0.0142235028678 0.00791680244523
-0.018774330465 0.00114246158416 0.010656331175
-0.0166523459708 -0.00355987649144 0.0159517271769
-0.0181703344622 -0.000944293588787 0.0121635985594
-0.0178287133687 0.00534803981268 0.0130161113736
-0.0169425444939 -0.00445706561607 0.0152275389922
-0.0184882567893 -0.0174418247486 0.0113702258348
-0.0206906224035 -0.0153539283552 0.00587423936555
-0.016954435911 0.00887007781076 0.0151978640522
-0.0174685669859 0.00786624389848 0.0139148539049
-0.0173630719014 -0.012892246753 0.0141781160777
-0.0187652119625 -0.00761040827683 0.010679086328
-0.0169857116802 0.00519595241233 0.0151198156105
-0.0188213282573 -0.00523973089785 0.0105390485455
-0.0176592301207 -0.00523106727317 0.0134390555167
-0.0175762820254 -0.0157834009163 0.0136460518513
-0.0191762896853 -0.00133350984265 0.00965324502904
-0.0173180483485 0.00674658424253 0.0142904720081
-0.0179589976757 -0.0118540033146 0.0126909878865
-0.018220187673 -0.0189310276106 0.0120391902551
-0.018505575333 0.00339277293639 0.0113270075421
-0.0167927708347 0.00754612575693 0.015601298008
-0.0192014360558 -0.0199589765058 0.00959049245473
-0.0190102995075 -0.00374405273667 0.0100674722424
-0.0168031027982 -0.0142752430366 0.0155755146725
-0.0175905607136 -0.0112333893991 0.0136104194947
-0.0190471661542 -0.0174801461165 0.00997547180891
-0.0170984257439 -0.0155574308501 0.0148385385305
-0.0184410747528 -0.0107326231756 0.0114879682445
-0.0174246470595 -0.0145206914032 0.0140244557438
-0.0175654834885 0.00441756967101 0.0136729995172
-0.0187581801196 -0.0200062604917 0.0106966342379
-0.0168887918338 0.0102508715316 0.0153616783425
-0.0197951208756 -0.0192341916844 0.00810895654813
-0.0178677796299 0.0032642304964 0.0129186218188
-0.0197024190202 -0.012999713456 0.00834029331612
-0.0174546019153 0.00114981499702 0.0139497036313
-0.0172783895969 -0.00926287004529 0.014389440118
-0.0189798070432 -0.0118265791165 0.0101435659529
-0.0178129323679 -0.00740222363064 0.01305549274
-0.0199526652627 -0.00973480590427 0.00771580574059
-0.0203853333699 -0.0181086374798 0.00663608580321
-0.0182856073226 -0.0143716298332 0.0118759360221
-0.0167837107165 0.0158841915127 0.0156239074633
-0.0174522952776 -0.0173027652822 0.013955459828
-0.0179863862057 -0.0132032387169 0.0126226400202
-0.0181843411745 -0.00511976616233 0.0121286449164
-0.0187601042405 -0.0186395262799 0.010691832609
-0.0169136497349 -0.01772826621 0.0152996456412
-0.0174066932889 -0.00157186794862 0.0140692592404
-0.0202872303785 -0.0134145223368 0.00688090106466
-0.017001456117 -0.00627753458467 0.0150805254894
-0.0180373277232 -0.0159455431278 0.0124955158549
-0.0195239346659 -0.00593416697698 0.00878569965093
-0.0181539485995 -0.00239448942661 0.012204489354
-0.018453107666 -0.00894100384773 0.0114579402019
-0.0176234602516 -0.00342239530604 0.0135283189503
-0.0211366499261 -0.0190279434976 0.00476118110978
-0.0189723636118 -0.0131551006345 0.0101621409786
-0.0170999307145 0.00212184563706 0.0148347828878
-0.0170960072935 -0.00265127012519 0.0148445737549
-0.0198892305207 -0.0110018019908 0.00787410665193
-0.0187719196803 -0.000269536984223 0.0106623472697
-0.0191558203423 -0.0104760682077 0.0097043261173
-0.0182396627695 -0.0201079295655 0.0119905903013
-0.0198337534958 -0.0172088053938 0.00801254914125
-0.0167998887522 -0.00812365946276 0.0155835352996
-0.021033922377 -0.017600788242 0.00501753691923
0.00669187730586 -0.0161846443082 0.015614198043
-0.00103260393716 -0.000390297804906 0.015742797352
-0.0124904186696 0.00172029228683 0.0159335502338
0.0108645412342 -0.0149905881119 0.0155447303751
-0.0117863958595 0.00888604057189 0.0159218294665
-0.00828099533539 0.00199083852798 0.0158634705851
-0.0143170450026 0.00375941219395 0.0159639604163
0.00503653664259 -0.00869713506723 0.0156417566141
-0.00684950238404 -0.00768458990641 0.0158396386929
-0.013080906676 -0.00892504076388 0.0159433808421
-0.0120691139739 -0.0204083169153 0.0159265362362
-0.00390694616796 0.000179107373479 0.0157906501997
-0.0125905607037 -0.0167852110449 0.0159352174262
-0.00678254744801 -0.0118110971103 0.0158385240085
-0.011882720693 -0.00816255237533 0.0159234331091
0.0113204476752 -0.0138246617919 0.015537140318
-0.000537185840148 -0.0121994477664 0.0157345494939
-0.00929051184663 -0.00967314365649 0.0158802772963
0.00266156255945 -0.00760124680212 0.0156812958422
1.89354343502e-05 -0.0091030331811 0.0157252910325
0.00562959154216 -0.0152064066352 0.0156318832714
-0.00237091364158 0.00147499963345 0.0157650779037
-0.00534449869669 -0.0032908091488 0.0158145829735
-0.0165695884748 0.0185755051687 0.0160014613856
0.000607443003565 -0.010751076233 0.0157154933951
-0.00809330139621 -0.0205288855329 0.0158603458042
-0.00269043796119 -0.00382724330677 0.0157703974333
0.00890367406573 -0.0146246996046 0.0155773754363
-0.0083748726016 -0.0134521344349 0.0158650334799
-0.0150019428643 0.00688338085313 0.0159753627861
-0.0157330529867 0.0164776617727 0.0159875345105
-0.00803977110965 0.00834724098466 0.0158594546172
-0.0123793146269 0.00035113071057 0.0159317005428
-0.00850531561707 -0.000484729353105 0.0158672051314
-0.0152793200998 0.00148550712768 0.0159799806394
0.00218009921746 -0.0176873003954 0.0156893113776
0.000153257466185 -0.0157652905739 0.015723054802
-0.00957507721488 -0.00172755696175 0.0158850148196
0.00153483614248 -0.0119214461432 0.0157000538965
-0.0142741136109 0.0149994132008 0.0159632456826
-0.00829997653828 -0.0113519393185 0.0158637865894
0.0027546497291 -0.0110545434414 0.0156797461012
-0.00632602016828 -0.00416138601663 0.0158309236155
0.00627876084907 -0.0192585929439 0.0156210757205
-0.00173633580428 -0.00276622251883 0.0157545132756
0.00536851014334 -0.0124368799828 0.0156362298271
-0.00458579697677 0.00120864472927 0.0158019518965
-0.0153251579352 -0.00435615765558 0.0159807437604
-0.0140321280794 -0.0168917139047 0.0159592170402
0.00872619918108 -0.0117954117227 0.0155803300874
0.00271695311857 -0.0133892229894 0.0156803736848
-0.00624069061292 -0.00550532193436 0.0158295030254
0.000794151040454 -0.0178501518753 0.0157123850278
0.00981001541198 -0.0194980842792 0.0155622864138
-0.0118912179967 -0.0178849557704 0.0159235745746
0.00685020752911 -0.0148889221505 0.0156115621175
-0.016024725617 0.0113089591551 0.0159923903574
-0.00412349285147 -0.0143779546201 0.0157942553291
0.00675575616411 -0.0132261743981 0.01561313457
-0.00912601190787 -0.00813060471596 0.0158775386557
-0.0102048612202 0.012323804857 0.0158954996386
-0.000396664892257 -0.019024857419 0.0157322100622
-0.0100681452994 -0.0176855288469 0.015893223554
-0.00151089155484 -0.0070201713634 0.0157507600171
-0.00552850713908 -0.0150344796392 0.0158176463971
-0.014967456509 -0.00924623532351 0.0159747886477
-0.0107715121811 -0.0192268518684 0.0159049334012
0.00124372656282 -0.0164656007436 0.0157049003697
-0.0163468015519 -0.00121129435496 0.015997752367
-0.00145857232456 -0.0177032970917 0.015749888992
-0.0111849967526 -0.00288882466449 0.0159118172072
-0.00949656197911 -0.0139965277823 0.0158837076761
-0.0165154248583 -0.0159650238629 0.0160005596547
-0.0162049030246 0.0131559453655 0.0159953900009
0.00185267280779 -0.0102421610227 0.0156947624635
-0.00793657846471 -0.00481626506656 0.0158577366374
-0.0133436518169 -0.0136892058741 0.0159477550962
-0.00544120664128 -0.012379062332 0.0158161929942
-0.000303909553119 -0.0169696029396 0.0157306658455
-0.0127055675185 0.00784463444229 0.0159371320916
-0.00824402539663 -0.00248954035971 0.0158628550993
-0.00405821535447 -0.00426978858908 0.0157931685712
-0.00131688646362 -0.020360917215 0.0157475301665
0.000227322578691 -0.00568160885643 0.0157218217455
-0.00341119937569 -0.013317445325 0.0157823968695
-0.0129193693787 -0.0033995512334 0.0159406915243
-0.0143753229109 -0.00576946351406 0.0159649306431
0.00232643383754 -0.0154957188172 0.0156868751583
0.000966659649381 -0.0042198481028 0.0157095130566
-0.00902713237562 0.00477454937339 0.0158758924817
-0.00825660170059 0.00988585131087 0.0158630644731
-0.0145517427657 0.00848823050099 0.0159678677298
-0.00902633718361 0.00100011222295 0.0158758792432
-0.014942630731 0.00492861276852 0.0159743753412
0.007452499142 -0.0122465267439 0.0156015349994
0.00360052703543 -0.0191100442165 0.0156656637008
0.00828281241196 -0.0183096400408 0.0155877117135
-0.0137761044957 0.0113120101083 0.0159549546885
-0.00713463761094 -0.00138157906563 0.0158443857033
0.010045720145 -0.0135598389212 0.015558362336
-0.00316632112751 -0.00516395692328 0.0157783200684
-0.0132862576843 0.00888662609375 0.0159467995827
-0.0112829433308 -0.0117572880638 0.015913447849
0.00691486551304 -0.0174479848608 0.0156104856734
-0.00962037913046 -0.00523412949034 0.0158857690185
-0.0145196908606 -0.0117698453708 0.0159673341208
0.00423319237077 -0.0134628741584 0.0156551309126
-0.011143259358 -0.00455044707717 0.0159111223514
-0.0147897473369 0.0139334872283 0.015971830096
-0.00739751106765 -0.005912304094 0.0158487620936
-0.00545788979015 0.00483647234652 0.0158164707399
-0.00433459410835 -0.0112870019879 0.0157977698014
-0.00384385377551 -0.00893633431927 0.0157895998201
-0.014570375409 -0.0136912530262 0.0159681779313
-0.0101873411532 -0.0163735762088 0.0158952079597
-0.0112427476634 0.0113178363113 0.0159127786604
-0.00302778674485 -0.0010711080966 0.0157760137095
-0.0161144542615 0.00578516443056 0.0159938841848
-0.0148382355213 0.0026745006897 0.0159726373408
-0.0057025417258 -0.0070853637458 0.0158205437733
-0.0153939159172 0.0184996248374 0.0159818884624
-0.0140557641953 -0.0149962944818 0.0159596105408
-0.014484714264 -0.00736766084986 0.0159667518207
-0.000271624555306 -0.0141797499038 0.0157301283559
-0.00590843586202 -0.0093693865384 0.015823971556
-0.0127760704381 -0.0155714176396 0.0159383058438
-0.000319157041154 -0.00775189042562 0.0157309196899
-0.0100179545459 0.00336580261116 0.0158923879644
-0.00992442709063 0.010992448141 0.0158908308934
-0.0156550385934 -0.0199561524928 0.0159862357052
-0.0089652434294 -0.00403732247868 0.0158748621374
-0.0106852241504 -0.000936746727273 0.0159034968541
0.00575172446822 -0.00703111311072 0.0156298499685
-0.00216003698487 -0.00598614748878 0.0157615671705
-0.0159917456018 0.0148376490532 0.015991841297
-0.0115091669231 -0.00667641899227 0.0159172140822
-0.00163483177194 -0.00157377632519 0.0157528234083
-0.0155895890373 -0.0023454460749 0.0159851460828
-0.012395107261 0.0139926953334 0.015931963463
0.00638737999696 -0.0105398327599 0.0156192673988
-0.0136070779582 -0.0204056586718 0.0159521406878
-0.00770418680441 -0.0145520684363 0.0158538677165
0.0140846640715 -0.0173527391889 0.0154911208758
-0.00323608586542 -0.0182514438508 0.0157794815311
0.0132411222819 -0.0183589656095 0.0155051643938
-8.52760504433e-05 -0.00318924549385 0.0157270259743
0.00325673717813 -0.0162355633838 0.0156713872099
-0.00396351188609 -0.0191926568369 0.0157915919215
-0.00689355398857 0.0047420722709 0.0158403720762
-0.0127947568438 -0.0112941631706 0.0159386169402
-0.00341480407232 -0.00259978665124 0.0157824568815
0.00501907423128 -0.0103662652018 0.0156420473332
-0.0080697446284 -0.00729255090428 0.0158599536246
-0.0107038942685 -0.00855911574239 0.0159038076794
-0.0149651039036 -0.0159770350825 0.0159747494809
-0.0135557625352 0.013716654316 0.0159512863743
-0.00552339773427 0.00313845636936 0.0158175613344
-0.00492737682921 -0.0101022111884 0.0158076386128
0.00756087128878 -0.0101687492582 0.0155997307898
0.00982522151225 -0.0173029714682 0.0155620332584
-0.0129259629651 0.00645240174022 0.0159408012962
-0.00187916242725 -0.0133756219428 0.0157568910929
-0.015496260133 -0.0106461006226 0.0159835923173
-0.0103396485589 -0.0125091786767 0.0158977436157
-0.0158064849882 -0.018562777463 0.0159887570268
-0.00183068194341 -0.0188762919826 0.0157560839763
0.000837898974567 -0.00236188041022 0.0157116567001
-0.0123457628338 0.0107130534905 0.0159311419633
-0.00637836042582 0.00727579561439 0.0158317949907
0.00304777483862 -0.00420034323104 0.0156748660729
0.00351244014406 -0.00961726988826 0.0156671301959
0.00106788317972 -0.0192675807162 0.0157078278591
-0.00186814553978 -0.00848521818467 0.0157567076807
-0.00943844825489 -0.0152581184215 0.0158827401827
-0.0108049315645 0.000824003747352 0.0159054897764
-0.00937744083288 -0.00651033685381 0.0158817245142
0.000435688101056 -0.00100191649421 0.0157183528184
-0.00432560549172 -0.0173996904502 0.0157976201564
-0.0115736258006 -0.0105118831636 0.0159182872115
-0.0095956327043 0.00727492425711 0.0158853570331
-0.00885508230365 0.00308463687286 0.0158730281444
-0.0111526184068 0.00451111641116 0.0159112781635
-0.0134971555264 -0.0181750704373 0.0159503106686
0.00418611901084 -0.0118866466492 0.015655914603
-0.0161077483689 0.00869259216875 0.0159937725433
-0.0125214681688 0.00393834651472 0.0159340671545
-0.00335546239469 0.00258558103134 0.0157814689447
-0.00457955289366 -0.00656916832801 0.0158018479433
-0.0115694947411 0.00597225204303 0.0159182184365
-0.00165986086881 -0.0101616299133 0.0157532400996
-0.00725312201713 -0.010121329051 0.0158463582646
-0.00287066142358 -0.0121466388451 0.0157733978435
-0.00655149995741 -0.0142324975558 0.0158346774657
0.00384908015989 -0.00829587375563 0.0156615257194
-0.00512046243849 -6.93138339275e-05 0.0158108531556
-0.0101822875839 -0.0108896614665 0.0158951238265
-0.00781956748752 -0.0192233651513 0.0158557886061
0.00406276528369 -0.0150034100227 0.0156579682301
0.00185816909291 -0.00867796137358 0.0156946709598
-0.000597104704979 -0.0108706915743 0.0157355470398
-0.00298382436616 -0.0106398922177 0.0157752818116
-0.00957942271457 -0.0201590289201 0.0158850871647
-0.00132719184514 -0.00393959685177 0.0157477017333
0.0129665244367 -0.0168773275945 0.0155097359749
-0.0118905744325 -0.0143592812022 0.0159235638604
-0.0143874383695 -0.00300489477974 0.0159651323446
-0.0150142294965 0.000205259228251 0.0159755673374
-0.0140110912981 -0.00445025628242 0.015958866814
0.0030754666719 -0.00568220362932 0.0156744050516
-0.00792118834665 -0.0176258289199 0.0158574804184
0.00447818004561 -0.0171702163133 0.0156510522898
-0.0112849804653 0.012983385187 0.0159134817638
0.00171996245838 -0.0203880017673 0.0156969718622
0.0118508757104 -0.0197100282114 0.0155283096048
0.0148567750641 -0.0195106047746 0.0154782665575
-0.0152627388986 0.0123242509614 0.0159797045909
-0.01247817214 0.0120489608824 0.0159333463502
0.00092671418001 -0.0147771630559 0.0157101780798
0.00872354505909 -0.0132419658951 0.015580374274
-0.016059336819 0.0037862742152 0.0159929665743
0.0015224147703 -0.00597102828401 0.015700260691
-0.012906912778 -0.00197547849077 0.0159404841434
-0.0103398939389 0.00976385486401 0.0158977477008
-0.0129211168889 -0.00685151526004 0.0159407206174
0.0116701482642 -0.0165705345653 0.0155313184055
0.012094943248 -0.0149935733497 0.0155242463006
-0.00501586520903 -0.00818186712029 0.0158091117919
-0.00589636004395 0.00606418911702 0.0158237705145
-0.00743910038369 -0.0159614284353 0.0158494544841
-0.00945858802772 -0.0188260975979 0.0158830754753
0.00449259958061 -0.00547000185824 0.0156508122294
-0.00441217348973 -0.00138736293766 0.0157990613645
-0.00308384058546 -0.0152895591497 0.0157769469094
0.00250902531663 -0.00299268970205 0.0156838353246
0.00852524764237 -0.0166441233574 0.0155836755845
-0.0155356995626 -0.0147394027426 0.0159842489159
-0.0149154348355 0.0107553003667 0.0159739225764
-0.00681809927092 0.00190196692507 0.0158391158851
-0.0023833521427 -0.0164025082054 0.0157652849833
-0.00626029434934 0.000722452924454 0.0158298293939
0.0139579012779 -0.0203083447209 0.015493231258
-0.00454678301089 -0.0203288783462 0.0158013023812
-0.0121042173568 -0.000976485469261 0.0159271206471
-0.00698359290238 -0.00261378786967 0.015841871069
0.00481364611224 -0.0185436123149 0.0156454673575
-0.0136829135743 0.0011385401524 0.0159534032202
-0.015507306727 -0.00670536493176 0.015983776224
-0.0114801197753 0.00305926540247 0.0159167304972
-0.00580302373533 -0.0183334832093 0.0158222166257
-0.0102916084287 0.00591634638249 0.0158969438302
0.000952058046789 -0.00751151476542 0.0157097561481
-0.00545957629337 -0.016997736825 0.0158164988173
-0.013896563471 -0.0103855067774 0.015956960123
-0.00594518281512 -0.0109342950077 0.0158245833295
-0.0162186440706 0.00249877275763 0.0159956187657
-0.013891020894 0.00734156523238 0.0159568678486
-0.00749195037356 0.00330665815942 0.0158503343454
0.00696202181838 -0.00902010195317 0.0156097006021
-0.0031072517479 -0.00684684073968 0.0157773366649
-0.00780723868729 0.00573389083098 0.0158555833528
0.0170858803356 -0.0207298066044 0.00784168214409
0.0170256212137 -0.0205555388016 0.0116374168215
-0.000463175348241 -0.0205621009239 0.0141576997778
0.00977282359445 -0.0204635900286 0.0147396365965
0.0205996814563 -0.0208463677937 0.00477397863983
0.0126121794507 -0.0205836776015 0.0116980023699
0.00910356843983 -0.0205447085589 0.0130789628582
0.00769744568082 -0.0205329207403 0.0135491913436
0.0057811033174 -0.0205344115606 0.0138085830407
-0.00561039420544 -0.0206179574456 0.0137277496105
0.0156414062809 -0.0206766996292 0.0092155489771
0.00290386115488 -0.0205044032695 0.0148987077267
0.00686904990691 -0.0204917799288 0.0145692477581
0.008181281267 -0.0206902999898 0.0100559234989
0.0139387632709 -0.0204646957712 0.0140812990908
-0.00559098674062 -0.0205560139661 0.015070726955
0.00870619198822 -0.0206206485711 0.0114894133891
0.0158375643825 -0.0205719563001 0.0114615860465
0.00290542849461 -0.0206054592811 0.0127026842097
0.00963122696592 -0.0206654389176 0.0103753440266
0.00648605020724 -0.0206493054878 0.0112047863324
-0.00790772856662 -0.0206415661664 0.0135645651891
0.00417444154371 -0.0206107387843 0.0123947474743
-0.0011278582037 -0.020631447067 0.0127521249263
-0.0090176490653 -0.0206230735853 0.0141353772494
0.002152351045 -0.0206549650116 0.0117416687441
0.0110418695091 -0.0205185281293 0.0133526932666
0.00950217315682 -0.0207626553677 0.00828263656325
0.0143039706273 -0.0207291403118 0.00827973686921
0.0172113454723 -0.0206447612212 0.00967047828004
0.0185190491174 -0.020668830409 0.00894838078611
-0.010166678266 -0.0206044019683 0.0147160342161
0.0117514735685 -0.0207733278645 0.00770825888447
0.00659433846027 -0.0205818848438 0.0126532405606
0.0114589488961 -0.020671261704 0.00997053286364
0.014144222679 -0.02053362738 0.012552242389
0.0127920048619 -0.0205219879618 0.0130110387352
0.016669103902 -0.0205002644984 0.0128927224759
0.000188884225052 -0.0206567687447 0.0120014365806
0.00987178637488 -0.0205810356356 0.0121726639296
-0.00684505803477 -0.0205551857918 0.0152796684114
0.00167557455594 -0.0205968091264 0.0130778973728
-0.0044016367818 -0.0205744712111 0.0144885886567
-0.00231706028655 -0.0206628091081 0.0122517476134
0.00398906126096 -0.0205252369262 0.0142807918133
0.0036340394473 -0.0207122803638 0.0102706943285
-0.00218143799811 -0.0205830858142 0.0139633567544
0.00509444342208 -0.0207029251058 0.0102516060208
0.0114663868326 -0.0204613078738 0.0145313599752
0.00144903212199 -0.0207091219714 0.0106720132348
0.0126327564166 -0.0204315969736 0.0149993371511
0.013943126648 -0.0206442046363 0.0101801953055
0.00140314981997 -0.0205362774639 0.0144346329589
0.0107567749542 -0.020621030278 0.0111688950328
0.0123636018762 -0.0207103824316 0.00898275860655
-0.00311445733305 -0.0205166767085 0.0155483827529
0.0152555413495 -0.0204938982673 0.0132462813638
0.00765659470303 -0.0204426481538 0.0155168897262
0.0175683260012 -0.0207925706374 0.0064044626656
0.0057735361847 -0.0204614826305 0.0153943637752
0.0140576481105 -0.0207898723989 0.00699763152387
0.0173482528222 -0.0204440794057 0.0140101262138
0.00855172528627 -0.0204799101982 0.0145709515621
0.0247020319465 -0.00195998959101 -0.00413642745625
0.0231895200242 -0.00201202980001 -0.000362203590741
0.0220543560823 -0.00396703461602 0.00247045847492
0.0277770407117 0.0158072942079 -0.0118100449781
0.018788359276 -0.0202650443862 0.0106206183074
0.0216403426412 -0.0185064847638 0.00350392310326
0.0248274034603 0.00383799573892 -0.00444941593451
0.0224466843097 -0.00278225712246 0.00149143891162
0.0254001921275 0.001294838567 -0.00587865157008
0.0184184447052 -0.0196226288611 0.0115436627187
0.0186472815144 -0.0153797503696 0.0109725325627
0.0205856952954 -0.0124123566058 0.00613546852776
0.0272965691254 0.011735432316 -0.0106110062507
0.0247283271518 0.000927972891664 -0.0042021148361
0.0214127018762 -0.0145885224195 0.00407186510833
0.0234629456419 -0.00706556217867 -0.00104436576615
0.0179107014476 -0.0204352404665 0.0128106720559
0.0231254920382 -0.00803953980262 -0.000202281981923
0.0240812952292 -0.00133956814201 -0.00258749744233
0.0202392631611 -0.0136842063237 0.00699996417767
0.0200606335733 -0.0205585180105 0.00744587619902
0.0200372850552 -0.015126854322 0.00750400302702
0.0235272596517 -0.00864916864584 -0.00120481119496
0.0176086154075 -0.0188699906657 0.0135644385965
0.0182092105826 -0.0159993822979 0.0120656813548
0.0224099125861 -0.0115769966764 0.00158341608459
0.0265159252886 0.0107889705223 -0.0086630154545
0.0234543488731 -0.000169485803249 -0.00102308601984
0.0179204240923 -0.0170780057487 0.0127863270426
0.0209522168276 -0.0187521171252 0.0052210330357
0.0236953261491 0.00117262490202 -0.00162443831939
0.0209876223518 -0.00798208873607 0.00513241570106
0.0225414342603 -0.00818263282185 0.00125514087416
0.0193759539519 -0.0136364727704 0.00915420788975
0.0243442270616 -0.000162680771265 -0.00324362957255
0.0228499804674 -0.0116565381014 0.000485301681638
0.0220158082671 -0.00810967913033 0.00256675151549
0.0269492266674 0.0128599028178 -0.00974429882969
0.0197787216908 -0.0116318713135 0.00814911780227
0.0236134368665 -0.00139386796715 -0.00142003316406
0.0266763004773 0.00948670974453 -0.00906317263783
0.0255497563493 0.00558461982823 -0.00625197130625
0.0200757240759 -0.0173320406742 0.00740813984968
0.025061319467 0.00211023587508 -0.00503307141181
0.0228669131666 -0.0100116434161 0.000443007898299
0.0206229856642 -0.0197094958092 0.00604259867008
0.0219956537598 -0.0108185735526 0.00261711133422
0.0231753423003 -0.0059577301656 -0.000326726983835
0.0234932524607 -0.00302917610975 -0.00112009211625
0.0181056553035 -0.0185303901716 0.0123241495247
0.0237042979694 -0.00463445405335 -0.00164668111617
0.0227947621766 -0.0010652285688 0.000622825501669
0.0253395784745 0.00353802756599 -0.00572745622494
0.0212986444 -0.0199145875334 0.00435660950797
0.0260484827042 0.00506610052278 -0.00749644724538
0.0206661194672 -0.009192317176 0.00593470300669
0.0228504835021 -0.00342996736615 0.000483841180788
0.0242379258279 0.00347531818101 -0.0029784632515
0.0187079074656 -0.0168406997995 0.0108212870121
0.0220852651639 -0.00663728295541 0.00239339661516
0.0198901741258 -0.0189437427511 0.00787118917989
0.0214881698812 -0.0173398277202 0.00388361587018
0.0193681176379 -0.0148968536807 0.00917379355906
0.0216350972022 -0.00521451429657 0.00351668057843
0.0200905745392 -0.010575638684 0.00737091440342
0.0257901646231 0.00384117829083 -0.00685182676748
0.0237891487691 -0.00612302671748 -0.00185837506812
0.0261104349917 0.00812679382834 -0.007651115268
0.0210012430573 -0.0133766547126 0.00509856209006
0.0207119943858 -0.0170432818252 0.00582042564753
0.0219759073116 -0.0131716029144 0.00266644403003
0.0239483066272 0.00217693120563 -0.00225573418986
0.0244182210467 0.00223391024084 -0.00342832908367
0.0250559353975 -0.000682394756317 -0.00501956668062
0.0216827231132 -0.0119498247262 0.00339800607155
0.0227539900188 -0.0066229548113 0.00072470432763
0.0208189859617 -0.0109947849551 0.00555329500455
0.0206278210524 -0.0147765938318 0.00603040968021
0.021303875079 -0.0107803965116 0.00434332930932
0.0215689977642 -0.00898036984995 0.0036817147215
0.0195228155104 -0.0197550415291 0.00878789190019
0.0212748443217 -0.0161751413009 0.00441590535195
0.0264300792144 0.00678636827699 -0.00844870094973
0.0260713080514 0.00965907284178 -0.00755351871161
0.0227902998914 -0.00513757560286 0.000634062003069
0.0194225224422 -0.0183376195114 0.0090381212464
0.0225769467408 -0.0136187172771 0.00116666100666
0.0275608731439 0.0135389015756 -0.0112705780775
0.0189505039142 -0.0184660373775 0.0102159683766
0.0193633029309 -0.0166728468165 0.00918585217446
0.0250474233547 0.00680194209066 -0.00499851303157
0.017151944685 -0.0194119181672 0.0147039981415
0.0248561465064 0.0209170660631 -0.00469537506695
0.0218069028303 0.0206595788365 0.00308803708297
0.0210313674565 0.0207069730309 0.00502342020316
0.00931145054317 0.0205054966762 0.0138901398781
0.0151631535565 0.0205337795487 0.0123860186783
0.0143426593176 0.0207592746632 0.00761606533021
0.0131415192544 0.0207541344976 0.00791036537173
-0.00616050765332 0.0205873828042 0.0144663305942
0.0117907063738 0.0207350770003 0.0085295347726
0.018099291105 0.0208089090068 0.00596718566966
0.000126823091994 0.0206223193963 0.0127515086732
0.0173387282323 0.0204592471598 0.0136729166294
-0.0106681327146 0.0205673243271 0.015587458625
0.000906121746332 0.020507544669 0.01512434664
0.0159204280532 0.0204679162467 0.0137004978864
0.0104902545564 0.0205039826526 0.0137436786825
0.0160142083985 0.0206021497004 0.0107724564802
0.0175630819682 0.0205877313641 0.0108498093733
0.0012418759174 0.020677367257 0.011386969677
-0.00347741724737 0.0206144202282 0.0134712697934
0.0138163795114 0.020681183647 0.00939122966734
0.00846877422841 0.0205676859736 0.0126684032192
0.00862285599287 0.0206366067486 0.011148915913
0.0176346378761 0.0207499009806 0.00731874492812
-0.00758362082681 0.020583428771 0.0147686512271
-0.00157088827269 0.0205306783825 0.0149990039508
0.0064263012861 0.0206580864839 0.0110168114421
0.0119724543153 0.0204222258953 0.0152928741335
0.00425216180815 0.0206474130214 0.0115792392038
0.0158172744955 0.0207383192604 0.00784661340741
-0.0105954616074 0.0206278171709 0.0142632991156
0.00790182985948 0.0204813873411 0.0146279145196
-0.00423723404689 0.0205180605995 0.0156785136031
0.0169593718598 0.020398028987 0.0150594752393
0.00292202246289 0.0206687516602 0.0113183938984
0.00611412026532 0.0205886490959 0.0125715636246
0.0123849262649 0.0206048119036 0.0112667738028
0.00986610431941 0.0205915658881 0.0119374782664
0.0132893527226 0.020408637919 0.0153874918497
0.013330647793 0.0205220932184 0.0129184614441
0.0164599063378 0.020680229311 0.00900979825318
-0.00199118665892 0.0206295792652 0.012916122943
0.0116913500665 0.0206804780946 0.00972981539791
0.00273125216303 0.0206051739084 0.0127274826634
0.00758543764299 0.0206934975782 0.0100718170545
0.00185698992348 0.0205433377255 0.0142027439163
0.00738559228291 0.0206115190081 0.0118817087435
-0.00321561897194 0.0205533583958 0.0147568989984
0.00965250429564 0.0207357955195 0.00883921239445
0.0178603238056 0.0206676026814 0.00907084288416
0.0167131515351 0.020539899112 0.0120173890032
-0.00913336405494 0.0206061772909 0.0145106092312
0.00694079660273 0.0205240374396 0.0138483158774
0.0138713626529 0.0206003182301 0.0111381925631
0.0144290864191 0.0204844254951 0.0135690059871
-0.0127331934094 0.020605384771 0.0150754369334
0.00437572746897 0.020706634592 0.01027493259
0.00322905311402 0.0205437313064 0.0139854752006
0.0104457389528 0.0206813412737 0.00990056736942
0.00645534599944 0.0204774937225 0.0149324790167
0.00551713731083 0.0207203815931 0.00980289239732
0.00827474355831 0.0207372849407 0.00901647395363
0.0110986740634 0.0206260769691 0.011000849197
0.0188871936193 0.0207168993234 0.00784455914095
0.0102667543325 0.0204461743891 0.0150325095248
0.0149517929174 0.0206956009397 0.00890555181479
-0.00501564183628 0.0206072566226 0.0138607712284
0.00902488110791 0.0204403890898 0.0153470098761
0.00482528540748 0.0205343407675 0.0139464863837
0.0129891070529 0.0204660143579 0.0141877094608
-0.00456637955934 0.0206629657483 0.0125831618053
0.0119407627077 0.0205179880946 0.0132190069392
0.0155540041969 0.0204171348089 0.0148585413028
0.0153403762214 0.0207962096208 0.00666254874956
-0.0214700695873 -0.0178568767709 0.0039291330217
-0.0176764726628 0.0162690821757 0.0133960229273
-0.022647916037 0.0161737433059 0.000989787072279
-0.0187571682616 0.00527127654405 0.010699157093
-0.0204631277072 -0.00611161615907 0.00644194579862
-0.0218213964937 0.0197542027429 0.0030523632308
-0.0246107957319 0.0115515877779 -0.00390857468618
-0.0182519505923 0.0195112806215 0.0119599149763
-0.0239170230041 0.015641399811 -0.00217726863363
-0.0196063861633 -0.00210800831617 0.00857994057585
-0.0273339471309 0.0199502779932 -0.0107042059501
-0.0215825555954 -0.00484388427163 0.00364841259745
-0.0279048137522 0.0145796561083 -0.0121287986955
-0.0241375237929 0.00664503519362 -0.00272752027877
-0.0222933504002 -0.00473837421189 0.00187462421092
-0.0197138668831 0.0141913463916 0.00831170791469
-0.0238270337587 -0.00228424277996 -0.00195268449184
-0.018284991062 0.0103617254112 0.0118774706565
-0.0191904783231 0.015933131174 0.00961782240628
-0.0191185833419 0.0173077495806 0.00979723509073
-0.0201403602821 0.00948232800393 0.00724739792605
-0.0264301533114 0.00982273588567 -0.00844877961696
