0.00767045337545 0.0574826872438 0.00299013789703
0.00870592660095 0.0558990862106 -0.000643248806821
0.0102881219723 0.0545457602819 -0.00282084470565
0.00597246894221 0.056779351093 -0.00149372210574
0.00626155878195 0.0575018981884 0.001176987427
0.00849597978359 0.0531482015289 -0.00630119824291
0.00620386799252 0.0560341226769 -0.00351411595031
0.00793593529031 0.0546373100223 -0.00448375462799
0.01117064521 0.0530476046898 -0.00481758322025
0.0120413563596 0.0534863636389 0.0226353147242
0.00646320563889 0.0539291748031 0.0248462246437
0.00453602641867 0.0549937637199 0.0242870830776
0.00311784843215 0.0542422387754 0.02581372252
-0.000960774888612 0.0524242992048 0.0264002978091
0.000735331810999 0.0545787401327 0.0257481371916
0.00245268730618 0.050650171318 0.0269703070505
-0.00067884670527 0.0405898426483 0.0277612518974
-0.000600782530717 0.0467184436574 0.027201695508
0.00130650523911 0.042793728477 0.0276431795417
-0.00354755689704 0.0491915921466 0.0268493697737
0.006065369375 0.0505587534013 0.0263076113834
-0.0137900245414 -0.0571612872327 -0.00338733589934
0.00331231173473 -0.0528975468647 -0.0239495157535
0.00258954469173 -0.0497998777884 -0.023608409601
0.0125442992667 -0.0499341567414 -0.0237673880063
0.0129209084995 -0.0537517793658 -0.024180302592
0.0109436640346 -0.0516489602989 -0.0239271453556
-0.00597333392462 -0.0497533056082 -0.0234790164613
0.00835276136438 -0.0515055727665 -0.0238741950454
0.00950744760667 -0.0535919383099 -0.0241136440945
-0.0037611627329 -0.051556905085 -0.0237036525729
-0.00151970960371 -0.0531343262641 -0.0239045749007
-0.00483358200583 -0.0559454946789 -0.00130000000354
0.014209059573 -0.055324539366 -0.00130000000354
-0.00655327227513 -0.0522330983199 -0.00130000000354
0.0073943800129 -0.0550773264321 -0.00130000000354
0.0136719057931 -0.0512901615472 -0.00130000000354
0.0126198387752 -0.0532666246841 -0.00130000000354
0.00928619289263 -0.0530451379305 -0.00130000000354
0.00174631206053 -0.056905867671 -0.0238459907939
-0.0115490394283 -0.0569082944319 -0.0234615735934
-0.0169286291456 -0.0563659123318 -0.0233309670159
0.00810693692242 -0.0553834380819 -0.0242597958572
-0.00589819931573 -0.0532197880005 -0.0237632853633
-0.0145857052545 -0.0534714336407 -0.0234417352707
-0.00951472105957 -0.0550074780341 -0.0236151083272
-0.00872836069454 -0.0525137437056 -0.0236652375544
-0.00132250141705 -0.0555879703285 -0.0239113683788
-0.0122089964579 -0.0520358780044 -0.0235413326726
0.00565711547756 -0.0548346870424 -0.024174393505
-0.0187356458001 -0.0544293607276 -0.0232810062037
-0.00526110779814 -0.0560674548595 -0.0237624800741
0.00106170597558 -0.054573953151 -0.0240076548876
-0.0162432199256 -0.0509351974685 -0.0234023734368
-0.0126770743492 -0.0562617310301 -0.00130000000354
0.0178058164373 -0.0520743468325 -0.00829164018445
0.0180468676107 -0.0513046490434 -0.0107776660326
0.0174285959489 -0.0537507749576 -0.00405847243062
0.0174657387332 -0.0514800729121 -0.00600473752253
0.0172936404297 -0.0497279893619 -0.00848226036793
0.0155701219399 -0.0497279329069 -0.0103498066692
0.0068370243622 -0.0497277008516 -0.00484691419566
0.0125988356711 -0.0497278685241 -0.00443976514708
-0.000480374428675 -0.0497274984988 -0.00242966175487
0.0173463688334 -0.0497279765971 -0.012441227602
-0.00884933718019 -0.0497272504185 -0.00427861281295
0.00147005634956 -0.0497275464248 -0.00473965560762
0.0056161119962 -0.0497276514862 -0.0087675546105
-0.00895690052594 -0.0497272574907 -0.00145887918214
0.00762128473885 -0.0497277149925 -0.00719741949988
0.00291869316269 -0.0497275770644 -0.00782888263997
0.00928654977033 -0.0497277775174 -0.00318205250329
0.00518690665416 -0.0497276470178 -0.00657481521402
-0.00319343969954 -0.0497274156639 -0.00369743045143
0.00759932139743 -0.0497277045381 -0.00991904147216
0.0183115357085 -0.0554775880533 -0.0162910803507
0.0181934822495 -0.0545349280078 -0.0141535045672
0.0183400050468 -0.0521003855197 -0.0151689607652
0.017709037745 -0.0556003117468 -0.00762321351846
0.0180359214911 -0.0534466906853 -0.0113777603869
-0.0142577444635 -0.0575268983237 -0.0228201732834
-0.0106280050277 -0.0576557151512 -0.00844158681523
-0.0135654401159 -0.0575095090453 -0.012705769729
-0.0105326648378 -0.0577969269901 -0.0130889986664
-0.0129649382773 -0.0574798640203 -0.00974620898111
-0.0142052396802 -0.0576402778462 -0.0193373367825
-0.0130711894848 -0.0576266287572 -0.0152328860769
-0.0143287756204 -0.0575641871049 -0.0170638388748
-0.0122786845056 -0.0578537741419 -0.020664973141
-0.0167165743245 -0.0574696517474 -0.0213827942548
-0.0117808214003 -0.0574767655165 -0.00585168926189
-0.00951022919664 -0.0580033355134 -0.0170587197167
-0.00891856559457 -0.0581471218347 -0.0202095730239
-0.00874647818049 -0.0582363730369 -0.022789373465
-0.0191991983946 -0.0497270002961 -0.00713242271785
-0.0199472483237 -0.0522337733563 -0.0158430807812
-0.0200808134895 -0.0519994861165 -0.0197401105151
-0.0197523945077 -0.0500830747453 -0.0135847273415
-0.0188925175735 -0.053404895361 -0.00479062018128
-0.0193812052653 -0.0536456244015 -0.00980227711515
-0.0196431208642 -0.0513794725923 -0.0106859989309
-0.0191835595185 -0.0527363604474 -0.00716441538846
-0.0197922094901 -0.0531997495836 -0.0135294057318
-0.0184069662314 -0.0521088813725 -0.0023785630083
0.01531864257 -0.0549288616042 -0.0238225848166
0.0156581410914 -0.051917179427 -0.0239866177125
0.0183669999242 -0.0536694888429 -0.0191278634404
0.0171361219907 -0.0566194919507 -0.0108615104801
0.016444888748 -0.0568652982736 -0.00561560500904
0.0170777405123 -0.0570757381905 -0.0207871078208
0.0166145281733 -0.0572809158785 -0.0183024965054
-0.00875064988237 -0.0578364051453 -0.0106594391519
-0.00607919449447 -0.0582052592347 -0.0165604159049
-0.00465594782577 -0.058435573662 -0.0204546569355
-0.00859569921579 -0.0580000773233 -0.014160258627
0.00212137737455 -0.0576947153578 -0.00664174502533
0.00424840766884 -0.0579286859129 -0.0100303053423
-0.00339092256612 -0.0579081149764 -0.0106413765121
-0.000908756288692 -0.058330750945 -0.0169282386409
-0.00309405733493 -0.0577005017328 -0.00736811744323
-0.0023211741944 -0.0581979400799 -0.0150297676751
-0.00572370120811 -0.0580672934867 -0.013407785077
0.00513261872212 -0.0577620505892 -0.00732432126652
-0.00893766198557 -0.0574349265573 -0.00394011582121
-0.00643548017264 -0.057517877113 -0.00492825448349
-0.00103883126499 -0.0574220467989 -0.00277583798255
-0.00588313334937 -0.0578817347516 -0.0105340507627
-0.00317937721367 -0.0583626143437 -0.0177020031102
-0.00618155527577 -0.0576823257014 -0.00746131940694
0.00232285539531 -0.0578455159717 -0.00896841167242
0.00708282712719 -0.0575471770227 -0.00373619463348
-0.000150477203818 -0.0581334225317 -0.0137590568608
-8.34594586408e-05 -0.0576989563986 -0.00697680522837
-0.000218712647502 -0.0578945767903 -0.0100433623951
0.00131259297835 -0.0575324341047 -0.00421015161028
-0.00253991007107 -0.0575359690142 -0.00473517615419
0.00793283938012 -0.0580381233563 -0.0118211661354
-0.000318379955911 -0.0585083863426 -0.0198126295739
0.00923164629742 -0.0575906172172 -0.00421642356994
0.00598459256858 -0.058212661884 -0.0147872049326
0.00347884574814 -0.0581921553767 -0.0144387254484
0.00232082996797 -0.0584178772043 -0.0182745530276
0.00545774060499 -0.0584931114731 -0.0195530544752
0.00895454358777 -0.0577535438324 -0.00698513411422
0.00834775346301 -0.0583326383955 -0.0168260383791
0.00491673789208 -0.0583212005406 -0.0166316679912
0.00731683426343 -0.0579088441891 -0.00962424703331
0.00236045518765 -0.0585179999471 -0.0205975555352
-0.0199836459249 -0.0515671794196 -0.0223146178288
-0.0199982805611 -0.0539815308001 -0.0187901829626
0.0044679756828 -0.0569338622115 -0.0239051159636
0.0107452566732 -0.0573342779977 -0.0235833407501
-0.00308667419604 -0.0585179999471 -0.0226327004656
0.000900589703074 -0.0585179999471 -0.0226650740317
0.0058984277792 -0.0584645944765 -0.0222357060286
0.0162889004944 -0.0574572288106 -0.0232618319501
0.00893969957876 -0.058201685036 -0.0222213707717
0.0136811236322 -0.0577703769067 -0.0224100782818
-0.0149912898007 -0.057135617112 -0.00535674015105
-0.0161062670248 -0.0571673707752 -0.00990016642331
-0.0165129495633 -0.0574150985103 -0.0188351843916
-0.0162761365749 -0.05723959674 -0.0126692202904
-0.0173684693164 -0.05677080281 -0.00729200749175
-0.0183072247186 -0.0566959526645 -0.0170236284387
-0.0184956755081 -0.0561909848578 -0.00949011906558
-0.0178569545084 -0.0561743701181 -0.00440625373776
-0.0185283105625 -0.0563324864618 -0.011940876932
-0.0187681929747 -0.0564106626915 -0.0197670010205
-0.0190775516193 -0.0556797386393 -0.0142911238631
-0.0196795940311 -0.0548083791423 -0.0164599047041
0.0118737315586 -0.0577225085106 -0.0093978185688
0.00891823294549 -0.0581893133007 -0.0146502704776
0.0104649081313 -0.0579734019368 -0.0124901355636
0.0121725160472 -0.0574656442773 -0.00451794777131
0.0121491098428 -0.0575914511111 -0.00709225774944
0.00801644693513 -0.0584979463435 -0.0197001202796
0.014156782131 -0.0574515340093 -0.00892144119617
0.0146092528908 -0.0576277715826 -0.0199320170938
0.0130106861061 -0.0576862876279 -0.0127553393348
0.0113751892702 -0.0580761897789 -0.0207834491472
0.0147113228252 -0.0574326436632 -0.0114766324209
0.0117289811083 -0.0579787562806 -0.0184371854365
0.0113828000477 -0.0579498827127 -0.0149481326633
0.0135952557345 -0.0576923940565 -0.0166607043631
0.015342249155 -0.0574294145919 -0.0152343632706
0.0116850631972 -0.057345508432 -0.0017170027323
0.0157804756773 -0.056980556717 -0.00263804520938
0.00152369576189 -0.0497275441876 -0.0166287555018
-0.0125926169155 -0.0497271490959 -0.00561044524236
-0.0171438396422 -0.0497270371524 -0.00798949009464
-0.0135659137783 -0.0497271525797 -0.0166558988588
-0.00340517523283 -0.0497274271711 -0.0208250228791
0.0037163599128 -0.0497276081734 -0.0193456713073
0.0143537989841 -0.0497278921329 -0.0223600018944
0.00933787406476 -0.049727752324 -0.0186670999254
0.000661297683903 -0.0497275356288 -0.0219411785962
-0.00580668183373 -0.0497273581122 -0.0182417415623
-0.018060478777 -0.0497270482039 -0.0213775685646
-0.0148717591566 -0.0497271309122 -0.0213542428312
-0.0149219642393 -0.0497270865476 -0.0048090176431
-0.00979905175571 -0.0497272415422 -0.0132696451159
0.00807501941623 -0.0497277278168 -0.0218455815661
0.00534792730734 -0.0497276601267 -0.0230353549633
-0.00977860188246 -0.0497272239716 -0.00631463766419
-0.0013368234551 -0.049727467756 -0.0157905798711
-0.0059507538552 -0.0497273439803 -0.0142488128285
-0.00184935864569 -0.0497274722833 -0.0226416744071
-0.00640761987537 -0.0497273240853 -0.0111611211604
-0.0172034835835 -0.0497270584142 -0.0167536006942
-0.015035661465 -0.0497270944654 -0.00898515533821
-0.00812836073066 -0.0497272912395 -0.0157023177522
-0.0123616982645 -0.04972718941 -0.0187970715012
0.00204589278774 -0.0497275494532 -0.0134439477597
-0.0183851421813 -0.0497270340415 -0.0191739962153
-0.012697481134 -0.0497271941871 -0.0233423549078
-0.00901812339791 -0.0497272906084 -0.0233777411285
0.00951846178292 -0.0497277550395 -0.0127444312024
0.000488442997702 -0.0497275064082 -0.00909859459573
0.0172953121332 -0.0497279691662 -0.0165033579868
-0.00186122239855 -0.0497274417128 -0.00780928444051
-0.00432085175429 -0.0497273739898 -0.00643847608161
0.0112225051175 -0.0497278019584 -0.0172302472946
0.00964494457613 -0.0497277585221 -0.0154512007861
0.0181888025677 -0.0517796061664 -0.0234495214424
0.0183669999242 -0.0547581853158 -0.0220107822333
0.0183669999242 -0.051269311564 -0.0180610779458
0.0183669999242 -0.0520472267445 -0.0209658741678
0.00910887953675 -0.0574046046125 -0.00141675977534
-0.0113978634498 -0.0573579336289 -0.00367884240759
-0.00692434758395 -0.0571533526427 -0.00208453529497
0.00321442920408 -0.0573720401241 -0.00196881514242
0.0185531772263 -0.0505213324217 0.00877381946813
0.0170320638374 -0.0498712097646 0.0153096306782
0.0211050264211 -0.0518943365846 0.0120023834215
0.020625466703 -0.0515955278363 0.00934543693346
0.0185775472966 -0.0506156487877 0.0128866854583
-0.0166676099065 -0.053803182643 -0.00129599997308
-0.00208938004011 -0.055149033772 -0.00129599997308
0.000247909615322 -0.0537955095254 -0.00129599997308
0.00460151600492 -0.0556491778593 -0.00129599997308
-0.0017302884878 -0.051576182192 -0.00129599997308
0.00655764716454 -0.0521265690186 -0.00129599997308
0.00272760682821 -0.0522176393373 -0.00129599997308
-0.0102746211306 -0.0538078595578 -0.00129599997308
-0.00400191592184 -0.05339213937 -0.00129599997308
-0.0119000720643 -0.0521304770692 -0.00129599997308
0.0106543520347 -0.0549895587161 -0.00129599997308
0.00246356823397 -0.0545542714856 -0.00129599997308
0.00864292749666 -0.0497279986739 0.0146234903733
0.0115886461522 -0.0497279986739 0.00903783066546
-0.0115716733302 -0.0497279986739 0.0135338872369
-0.00321394438572 -0.0497279986739 0.0167099417773
-0.00737315903698 -0.0497279986739 0.0129497786351
0.0106594716484 -0.0497279986739 0.0161445996891
0.00185786716842 -0.0497279986739 0.0078415501299
0.00448546946331 -0.0497279986739 0.0158537020219
-0.00226586183597 -0.0497279986739 0.0100152735115
0.0100663896472 -0.0497279986739 0.0120202721119
-0.00374623404974 -0.0497279986739 0.0131882326218
0.0135654260844 -0.0497279986739 0.0152841406053
0.0065344228902 -0.0497279986739 0.00948151022242
-0.000951328778379 -0.0497279986739 0.0150322536288
0.0122015058821 -0.0497279986739 0.0130568393045
0.012404363401 -0.0497279986739 0.00487261576171
-0.000321249414589 -0.0497279986739 0.0122636206731
-0.00839217694919 -0.0497279986739 0.0161621550393
0.0103295482391 -0.0497279986739 0.00692922936189
-0.0136397978269 -0.0497279986739 0.0161505034876
0.0134395408378 -0.0497279986739 0.00748613958815
0.00238361181871 -0.0497279986739 0.0124975376424
0.013963346871 -0.0497279986739 0.0106591023121
-0.00612493752346 -0.0497279986739 0.0108589936614
-0.0110462601149 -0.0497279986739 0.0158671321054
-0.0141194695725 -0.0519201588313 -0.00129599997308
-0.0177552853657 -0.0497279986739 0.00920930136538
-0.00924141458319 -0.0497279986739 0.00484644336712
-0.0116178950957 -0.0497279986739 0.00402296007841
-0.00592847207332 -0.0497279986739 0.00559324895307
-0.0146859782971 -0.0497279986739 0.0106560745809
-0.0163311877664 -0.0497279986739 0.0138903031859
-0.00599715463781 -0.0497279986739 0.000541290633896
-0.0111763761116 -0.0497279986739 4.9909656582e-05
0.00870932652556 -0.0497279986739 -0.000907017013327
0.00280082805817 -0.0497279986739 0.00446406392098
-0.010502650448 -0.0497279986739 0.00682028515399
-0.0134748498958 -0.0497279986739 0.00211086394208
-0.0176545800772 -0.0497279986739 0.00457414946199
-0.0084773729382 -0.0497279986739 0.00932552860878
-0.0125085918123 -0.0497279986739 0.00934275692691
-0.0040585681063 -0.0497279986739 0.00257916955523
-0.0154191476974 -0.0497279986739 0.00809314146961
-0.000766567545933 -0.0497279986739 0.00564142549297
0.00612555301019 -0.0497279986739 0.000609947305059
0.0137550645823 -0.0552560501086 0.0144966489489
0.00592968903473 -0.0553608165237 0.0140783584828
0.0161023219389 -0.0555525830913 0.0133092296311
0.0208924012267 -0.0557363177902 0.0125730190769
0.00108939066858 -0.0554990339599 0.0135257320887
0.00830640571917 -0.0554566624104 0.0136943288641
0.02268355355 -0.0553942259572 0.00899115075442
-0.0153161998155 -0.055956349712 -0.00129599997308
0.000822662205517 -0.0565013648013 -0.00129599997308
0.00409016031213 -0.0569255375504 0.00546862356278
-0.00158731618607 -0.0571488232493 0.00407616177596
0.00378226715034 -0.0555832741157 0.0131150224535
-0.00284967136632 -0.0555276901316 0.0132924540669
-0.00934788348024 -0.0553909279707 0.0139355330464
0.0123472352533 -0.056182683825 0.00987763921458
-0.00728046465672 -0.0561700080634 0.00953711216191
0.0142251382968 -0.0559155121554 0.011440405278
-0.00501496186703 -0.0560613396241 0.0102043286159
0.00118665042062 -0.0559754215428 0.0108246163888
-0.0184444633518 -0.0553952886387 0.0137193572443
-0.0065424460538 -0.0556587350688 0.0124676411975
-0.00580147476094 -0.0564827906881 0.00778489669471
0.00761020209373 -0.0559135444179 0.0113125030681
-0.0128076570271 -0.0557905609745 0.0115842737867
0.0184245581755 -0.0559368161453 0.0114072608006
0.0081026775183 -0.0565059270723 0.00794540874624
-0.00219058906871 -0.0561213009047 0.00992186163531
0.000841542682929 -0.0564628594264 0.00803824597266
-0.0145913261581 -0.0554102487609 0.0137150993355
-0.0105197336431 -0.0561647319111 0.00949906770276
0.00468145048049 -0.0559642322511 0.0109619122483
0.00434852930883 -0.0564598283324 0.00812928441499
-0.0031977745686 -0.0568235821559 0.00589664386202
0.00187261774157 -0.0568781730147 0.0056920330578
0.0116584482918 -0.0556643697814 0.0128183048942
0.0102965754119 -0.0560466146882 0.0106103050785
-0.00809063522612 -0.0566180194753 0.00696574966874
-0.010158278928 -0.0569735216628 0.00344454411167
-0.00707863835123 -0.0569918863566 0.00423729598202
-0.00473842469537 -0.0570874780511 0.00415188561536
-0.0165687372723 -0.0558254307794 0.0111454540657
-0.010938152328 -0.0564976243724 0.0072142443141
-0.0140319546993 -0.0561700041146 0.00902274441194
0.00109003967463 -0.0574189983308 0.00071125874898
-0.00173467953001 -0.0574189983308 0.00123646472725
0.00390916276673 -0.0574189983308 0.000883307576878
-0.00501637154859 -0.0512673002458 0.0182649726911
-0.00762594468182 -0.0521419363268 0.0180425021857
-0.000461448836288 -0.0521120848558 0.018008806725
0.00264400525931 -0.0527886289809 0.0177158389629
0.0179474655887 -0.0563948256432 0.0067837794914
0.0142481355646 -0.0569793734451 0.000295983211983
0.0168217243256 -0.0565751634489 0.00471792933867
0.0150807756343 -0.0531489172696 -0.00129599997308
0.0195281815099 -0.0561553223293 0.00486627390246
0.0170067802137 -0.056625084219 0.00117656620658
0.021132494852 -0.055727741499 0.00311701750449
0.0210578815778 -0.052000807597 0.00151629500287
0.0233120005578 -0.0538731229369 0.00597504548849
0.0233120005578 -0.0550187984354 0.00360090693793
0.0177632215745 -0.0523787872064 0.0162767740015
0.00548653335219 -0.0528264268705 0.0176823510111
0.0111256847235 -0.0518474598582 0.0180046690193
0.0186090374076 -0.0543213054729 0.0155502743212
0.0145333794179 -0.0526041505457 0.0173272226526
0.0118167259448 -0.0540143178745 0.016418488898
0.00923275159434 -0.0535549748741 0.0170294461118
0.0161382930381 -0.0546819144357 0.0154791436355
-0.0228105076936 -0.0540951138123 0.0131472637484
-0.0232904753981 -0.0546649022184 0.0053722627303
0.0232175580127 -0.0529724901039 0.0093715052675
0.0178408952508 -0.0500399243592 0.00288293531175
0.0216649757304 -0.0521256730692 0.00733596895982
0.0200210517886 -0.051229036019 0.00601089008148
-0.0121915651863 -0.0546534118619 0.0157735303419
-0.0206564037664 -0.0551617500966 0.0147583202383
-0.00496214624402 -0.0544081480525 0.0162630528022
-0.000268958404464 -0.0548518338819 0.0153758176486
-0.00735229160379 -0.0549274589528 0.015225336831
0.0106552857541 -0.0551873935203 0.014704103676
-0.0174025208336 -0.0544817458661 0.0156436218829
-0.00942859330944 -0.0540506530744 0.0166105489887
-0.0116605113222 -0.0529978904262 0.0174524399008
-0.0151434773541 -0.0542176656469 0.016052139991
0.00410710759802 -0.0544206311404 0.016182055405
-0.00229606912239 -0.0541859959361 0.0166725775698
-0.0150702339726 -0.0565914204475 0.00293903421568
-0.0148506313023 -0.056422825494 0.00591802224801
-0.0200030707105 -0.0555608572035 0.0118732670408
-0.017335300789 -0.0561416882591 0.00667174192386
-0.0185294832293 -0.0558490451779 0.00951406850323
-0.0132579077956 -0.0569024202653 0.000721367451704
-0.00794584816384 -0.057362473796 0.000175644454395
0.00635911162372 -0.0573502116155 -0.00112575693752
-0.0100210553902 -0.0568595613667 -0.000982194611814
-0.0200539691677 -0.0508033840293 0.0146158244723
-0.022567574821 -0.052028236895 0.0111246678627
-0.0202590834402 -0.0508246287904 0.0100307500442
-0.0186506754547 -0.0498640306639 0.00260281824615
-0.0185304119354 -0.0499907738578 0.0128965577392
-0.0210905391666 -0.0514959543545 0.00204853692898
-0.0215131632091 -0.0515595940511 0.00587878611548
-0.0217816296141 -0.0515963624955 0.00841592110027
-0.0227660763462 -0.0525837062757 0.00321730532521
0.0232318882575 -0.0530797183705 0.012029589893
0.0183682102006 -0.0562330500791 0.00908299964953
0.0113965217919 -0.0572190349762 0.000931133625109
0.0143166603784 -0.0568945455621 0.00309301185815
0.0130051172143 -0.0568331812917 0.00505338804509
0.00695635058482 -0.0569586183985 0.00512748545971
0.00876741721806 -0.0572284554315 0.00276392980798
0.00937821011185 -0.0568214260892 0.00588303257472
0.00258343614546 -0.0572762824619 0.00321322980506
0.0151520969363 -0.0563883872616 0.00851753453737
0.0111107136073 -0.0565857611289 0.00750491647473
0.0181011176503 -0.0541087931807 -0.000824613703521
0.017893760571 -0.051788899629 -0.0008220481824
0.0200499532563 -0.0548277683965 0.000345293054977
-0.0120370330506 -0.0497279986739 0.018475167828
-0.00162473075597 -0.0498555297621 0.018485000357
0.00491028938145 -0.0504531812422 0.018485000357
-0.0095584576601 -0.049902436878 0.018485000357
0.00910158911163 -0.0506424791458 0.018302479675
-0.0218207859445 -0.0526901678114 0.0144108674352
-0.0171541665401 -0.0522721025613 0.0170228341546
-0.0149758925442 -0.0506616461519 0.0181183658571
-0.017596559166 -0.0502067647865 0.0167080979249
-0.021712266864 -0.0554472653046 0.0105959450231
-0.0176267362792 -0.0562640728604 0.00133438203044
-0.0225288730343 -0.0552840037462 0.00791623480965
-0.0199626350551 -0.0557970638073 0.00653683697368
-0.0198474997039 -0.0558200824637 0.00210111865015
-0.0205257321397 -0.0528319491501 0.000324338946744
-0.0188679582489 -0.0547261666924 -0.000968080550554
-0.0190351795382 -0.0509010627791 -0.000548462817565
-0.022568712966 -0.0550077494215 0.00239308138701
-0.0157886908684 -0.0255207799837 0.0160412125601
-0.0168064212283 -0.0497270002961 -0.0107309709351
-0.0166414015826 -0.0497270002961 7.66736197366e-05
-0.0158241718918 -0.0497270002961 0.00305330175413
-0.0163585306504 -0.0497270002961 -0.00307026189491
-0.0185115748495 -0.0497270002961 -0.00479221010378
-0.0167923983534 -0.0497270002961 -0.0134970893116
-0.0143415862466 -0.0497270002961 -0.0143208954748
-0.0143003927826 -0.0497270002961 -0.0113266107353
-0.0140519998968 -0.0371907968417 0.000939673684406
-0.0140519998968 -0.0394212041643 0.00315901228506
-0.0140519998968 -0.0428430154347 0.0139427445
-0.0140519998968 -0.0450928732496 -0.00700566070521
-0.0140519998968 -0.0412902499894 -0.000419730352349
-0.0140519998968 -0.0426698537825 0.0165864579033
-0.0140519998968 -0.0382265194727 0.00571526461846
-0.0140519998968 -0.0474992358262 0.00678562105168
-0.0140519998968 -0.0322462556768 0.0132483539958
-0.0140519998968 -0.0474573420285 -0.00866915897488
-0.0140519998968 -0.0475969710131 -0.0158961458595
-0.0140519998968 -0.0346118378972 0.0172631662555
-0.0140519998968 -0.0443376426051 0.00407281228681
-0.0140519998968 -0.0387710181702 0.00805355323889
-0.0140519998968 -0.0431233296608 0.00636867617505
-0.0140519998968 -0.0402279047809 0.0107773003039
-0.0140519998968 -0.0405882900042 0.0150519807608
-0.0140519998968 -0.0297238430235 0.0128034087125
-0.0140519998968 -0.0473043810373 0.0150221570654
-0.0140519998968 -0.0426929278885 0.001517978329
-0.0140519998968 -0.0413847890257 0.00868106257299
-0.0140519998968 -0.041537779762 0.0040376844068
-0.0140519998968 -0.0429257077013 0.0112291801104
-0.0140519998968 -0.033638689203 -0.0103656873819
-0.0140519998968 -0.0394510789198 -0.00694741894112
-0.0140519998968 -0.0267344440327 -0.0069779504829
-0.0140519998968 -0.0293826034986 -0.00483955997444
-0.0140519998968 -0.0321005816055 0.00100924571585
-0.0140519998968 -0.032556846064 -0.00611788467128
-0.0140519998968 -0.0433572550838 -0.0118756487837
-0.0140519998968 -0.0346422761334 -0.0182733009656
-0.0140519998968 -0.0267653727595 0.00669990564154
-0.0140519998968 -0.0439421490141 -0.0160773346999
-0.0140519998968 -0.0356372184065 -0.0158727251513
-0.0140519998968 -0.0293283229507 -0.0106803647846
-0.0140519998968 -0.0456731405512 -0.0182748696384
-0.0140519998968 -0.041240413741 -0.0172409667103
-0.0140519998968 -0.0353372091238 -0.00606153043315
-0.0140519998968 -0.0374438233568 -0.00440027396904
-0.0140519998968 -0.0275106598828 -0.0127642230285
-0.0140519998968 -0.0316571947828 -0.00830077351468
-0.0140519998968 -0.0332097623921 0.00662716940905
-0.0140519998968 -0.030585156132 0.00529759324691
-0.0140519998968 -0.0331527773389 -0.0153020503489
-0.0140519998968 -0.0260864098012 0.00915466131086
-0.0140519998968 -0.0274704006192 0.0114414807563
-0.0140519998968 -0.0314057602379 -0.0121348056023
-0.0140519998968 -0.0288016277618 0.00924363058082
-0.0140519998968 -0.0339266104401 -0.000699515052318
-0.0140519998968 -0.0305513456506 -0.000712718564437
-0.0140519998968 -0.0363967825062 -0.00139971967805
-0.0140519998968 -0.034713472353 0.00171252198845
-0.0140519998968 -0.0304767836844 -0.0152342533366
-0.0140519998968 -0.0277241132947 -0.00260886538747
-0.0186196815446 -0.0481849886677 -0.0237863159074
-0.0170345868262 -0.0417237914425 -0.0259413546997
-0.0160013278584 -0.0473246455471 -0.0226764402698
-0.0161663510092 -0.0448529795904 -0.024181286306
-0.0151972857305 -0.025001000613 -0.0147779202941
-0.0166558817952 -0.025001000613 -0.00913581430725
-0.0145993109661 -0.025001000613 -0.0125769768513
-0.0182286371674 -0.025001000613 -0.0189579742438
-0.0172066820999 -0.0389510048717 -0.0267626638296
-0.0194074435827 -0.0403346147826 -0.0261500536966
-0.0186591891764 -0.0450605898952 -0.0248002163526
-0.018435815165 -0.0372724241415 -0.0271555427602
-0.0198521884164 -0.0430781394844 -0.0252874562557
-0.0199510867953 -0.0274906911767 -0.00699688055486
-0.0196741640232 -0.0289883183216 -0.00258020389914
-0.0192871063744 -0.0283922916139 0.00167051825705
-0.0197493922362 -0.0272326275568 -0.00474429378408
-0.0194331435513 -0.0276525657595 -0.000622861570642
-0.0188919689101 -0.0272242726691 0.00560996264161
-0.0202261049309 -0.0274786516535 -0.0103285260919
-0.0204954924793 -0.027202511837 -0.0137809374715
-0.0201437916081 -0.0299893770207 -0.00753906754811
-0.020967171719 -0.0346971519739 -0.0181076386103
-0.0207222158727 -0.0312869490014 -0.0145650661108
-0.0206350251881 -0.0448652995045 -0.0192996647885
-0.0201817017273 -0.0489464484105 -0.0204427858169
-0.020286750934 -0.0480007187228 -0.0182011714835
-0.0208711861289 -0.0427392062201 -0.019809337117
-0.0193856446927 -0.047348027803 -0.00304258089839
-0.0202003126849 -0.04662790248 -0.0144439318266
-0.0207093931784 -0.0421938189344 -0.0159278646687
-0.0197217281175 -0.0444181923492 -0.00401862408581
-0.0190378567806 -0.0473177153562 0.00230291582277
-0.0199627250235 -0.0471055735922 -0.0114978202815
-0.0192346075422 -0.0470595197799 -0.000331307343227
-0.0198747103164 -0.0463686285951 -0.00911252366676
-0.0204327492183 -0.045876094383 -0.0169233809926
-0.0196100268034 -0.0471171351166 -0.00613674358971
-0.0185820260784 -0.0488311831941 0.00711000088548
-0.0196395657188 -0.0491407309438 -0.00945213378125
-0.0200448403783 -0.049640338908 -0.016338539619
-0.0204084506532 -0.0438885409392 -0.0137389173611
-0.0201756332902 -0.0431042243461 -0.00907880477638
-0.0168742182619 -0.0300644970982 -0.0269564889458
-0.0150233025011 -0.037279760082 -0.0270093713877
-0.0145840062397 -0.0421527643575 -0.0238620617082
-0.0149290968579 -0.032091853918 -0.0276472288856
-0.0202803651131 -0.0307815173468 -0.0272270733433
-0.0151859468701 -0.0349792504187 -0.0276699997485
-0.0180630645613 -0.0347527690616 -0.0276699997485
-0.0146339967538 -0.028875908329 -0.0259627722329
-0.0177499105141 -0.0252938056211 -0.0213508190471
-0.0171700697241 -0.0350185954402 0.0179150237562
-0.0168166839954 -0.0392766575962 0.0184404631466
-0.0140519998968 -0.0313688636811 0.0195617318874
-0.0140519998968 -0.0388063007953 0.0191030806275
-0.0166701504151 -0.027070099352 0.0182983437244
-0.0181959482643 -0.0254874764795 0.00886607164211
-0.0175087126321 -0.0254452298474 0.0132255860923
-0.0159799572331 -0.0251189462571 0.0064534232555
-0.0163057588545 -0.0252594643952 0.0103304692953
-0.0167659868785 -0.0269715339701 -0.02452663184
-0.0204351129422 -0.0281284702592 -0.0253158720699
-0.019156579686 -0.0266408673791 -0.0239486554997
-0.0142673042793 -0.0295530861566 -0.0235404732776
-0.0142449903421 -0.0271409275028 -0.0222076957343
-0.0140519998968 -0.0392938788885 -0.0195456664737
-0.0140519998968 -0.0364403910829 -0.0205201161213
-0.0140519998968 -0.0479769995032 -0.0196592183011
-0.0140519998968 -0.0342719175978 -0.0212875267271
-0.0140519998968 -0.0282737792101 -0.0197257036467
-0.0140519998968 -0.031526642998 -0.0204028668808
-0.0143235161398 -0.031481557287 -0.0249522296759
-0.0140804054511 -0.0408733948813 -0.0217043340577
-0.0143431952827 -0.0390701667518 -0.0241042679649
-0.018157267892 -0.0318407868617 0.014021926333
-0.01864812028 -0.0378642053574 0.00872225595361
-0.0180848292915 -0.0353171104115 0.0148040366262
-0.01942867777 -0.0359619007008 0.000294676685462
-0.019629107639 -0.0312179030125 -0.00186933894406
-0.019735354377 -0.0337305568711 -0.00301647136904
-0.0194756642471 -0.033146977509 -0.000212630290765
-0.0199775694052 -0.0323368758951 -0.00563163601295
-0.018510783625 -0.036343829734 0.0102050622315
-0.0182124775383 -0.0405035698804 0.013425834852
-0.019059118553 -0.032933233495 0.00428476022957
-0.0192791191278 -0.0315937872895 0.00190944219436
-0.0182227419107 -0.0377209899911 0.0133150117373
-0.0184633602845 -0.0277830394123 0.0107170859666
-0.0188877755412 -0.0357113524968 0.00613472878648
-0.0182730372485 -0.029463001756 0.0127719794154
-0.0180399734269 -0.0275495438055 0.015288339653
-0.0203775295779 -0.0310188926585 -0.00994995478241
-0.0183162185957 -0.0349813367708 0.0123057559389
-0.0183618434025 -0.0324963454317 0.0118131507422
-0.0192182024622 -0.0367676672389 0.00256715163254
-0.0185198237667 -0.0301948774551 0.0101074569797
-0.018837162425 -0.0307604029658 0.00668119212194
-0.0198808345487 -0.0299556694089 -0.00458720215426
-0.0179637443864 -0.0388432088035 0.0161113748416
-0.0186228874406 -0.0323995561067 0.00899469169013
-0.0177574968217 -0.0411060500715 0.0170413186975
-0.0177056196042 -0.0289064539683 0.0171191581305
-0.0178458157596 -0.0315336506249 0.0169088001013
-0.0204305853491 -0.0419402279395 -0.0115372417648
-0.0206314451952 -0.0403378364262 -0.0135241680709
-0.0204663396085 -0.0386727068816 -0.0112282969309
-0.0184743767383 -0.0477543467614 0.00998941169678
-0.0209021169012 -0.0384611502659 -0.0162644799949
-0.0195152677419 -0.0442195863963 -0.00136683179159
-0.0199471040383 -0.042844029427 -0.00609841700777
-0.0197430984973 -0.0422721511152 -0.00359169948423
-0.0189983286556 -0.0462793834684 0.00420541717598
-0.0193193096432 -0.0449553512528 0.000755471853483
-0.0201465940849 -0.0406179535788 -0.00793078958635
-0.0208651818882 -0.0357945131643 -0.0157011608059
-0.0211277097077 -0.0392744717106 -0.0191125910346
-0.0206426482937 -0.0330944109199 -0.0128124076079
-0.0201838501654 -0.0371764396693 -0.00785882296612
-0.0187724949437 -0.0400944087749 0.00737939863691
-0.0190121374976 -0.0380576315296 0.00479200866862
-0.0200086515804 -0.0348935495806 -0.00596722627866
-0.0202440895098 -0.0336974820091 -0.00850921945374
-0.0198049294031 -0.0362056734205 -0.00376766401748
-0.0205023746036 -0.0351631615998 -0.011297890538
-0.0185092253543 -0.0401078232039 0.0102218866813
-0.0183587953806 -0.0426753612286 0.0117613206714
-0.0179319644208 -0.0432117421448 0.0164005004996
-0.0186406537612 -0.042479494809 0.00868573286688
-0.0189270882642 -0.042607512874 0.00553521797058
-0.0192099450369 -0.0426464207463 0.00243074213856
-0.0181881928839 -0.04725374496 0.0132820977025
-0.0179197795899 -0.0462414095937 0.0163025882716
-0.0183628475273 -0.0454409093331 0.0115055544366
-0.0190600853587 -0.0404606962877 0.00424096831024
-0.0194975067518 -0.0418498939348 -0.000661481646916
-0.0181541979843 -0.0430852366846 0.013973393846
-0.0185777291437 -0.0452514343281 0.00916387325331
-0.0198359735879 -0.0386651582794 -0.00412937650193
-0.0194757417297 -0.0394321797466 -0.000238075513367
-0.0187848390982 -0.0444700174982 0.00695264213214
-0.0166424484059 -0.0482879288715 0.0178916805819
-0.0204534585828 -0.0464998947031 -0.0222634984553
-0.0209610902672 -0.041125078597 -0.0223951406693
-0.0206839646781 -0.0387724593653 -0.0253719742974
-0.0207545378924 -0.0437775286343 -0.0222868407892
-0.0206684877037 -0.0346041332913 -0.0273433352831
-0.0209306408235 -0.0359715908759 -0.0243490098544
-0.0210931624561 -0.0377952489474 -0.0224019577652
-0.0207864720998 -0.0320564660356 -0.0252392851432
-0.016153716148 -0.0327036543114 0.0189734927333
-0.0161069990757 -0.0292499397431 0.0190585661651
-0.0140871627967 -0.0415242686903 0.0189623178655
-0.0164179044185 -0.0458208781739 0.0182406867551
-0.0208517473399 -0.0319371194393 -0.0173279688502
-0.0206723911762 -0.027670997123 -0.0162623435252
-0.0195450279771 -0.0251659875196 -0.00734499862286
-0.0189391531182 -0.0258608542753 0.00269275064569
-0.019214242795 -0.0255830232709 -0.00174094684667
-0.0200268437273 -0.0255160855475 -0.0123600367519
-0.0205028437629 -0.0259632015514 -0.0183894416701
-0.0195741884314 -0.0250303217756 -0.0101927358674
-0.0210619438427 -0.0365368846524 -0.0201611832006
-0.0208377351372 -0.0309406344817 -0.0192887272694
-0.0208127604389 -0.0305920743514 -0.0220996463646
-0.0207148187731 -0.0279627967103 -0.0196539859179
-0.0206827262274 -0.0274734294083 -0.022598148598
-0.0209198496311 -0.0331305383726 -0.021388347025
-0.0140659526173 -0.0252703857452 -0.00160918825033
0.00293492275144 -0.0288660637885 0.0194319315504
0.00742184159068 -0.0289503320361 0.0193191572662
0.0100835689925 -0.0297262559706 0.0193814210602
-0.0140500003472 -0.0453288125096 0.00891378658295
-0.0140500003472 -0.0359266975793 -0.00896177373485
-0.0140500003472 -0.0378501845163 -0.0106227263046
-0.0140500003472 -0.040653579036 0.00654234565022
-0.0140500003472 -0.0389957388231 0.0127527137452
-0.0140500003472 -0.0310052696908 0.00750617745781
-0.0140500003472 -0.0307120120436 0.00304327163337
-0.0140500003472 -0.0323103322292 -0.00378541503853
-0.0140500003472 -0.0389780192562 -0.00150590915523
-0.0140500003472 -0.0372981428712 0.0172767269596
-0.0140500003472 -0.0359453327819 0.00770172376036
-0.0140500003472 -0.0400581989824 -0.00364139381008
-0.0140500003472 -0.0299267000173 0.0168433056203
-0.0140500003472 -0.0320825750378 0.0101443099392
-0.0140500003472 -0.0348894470737 -0.0039766214416
-0.0140500003472 -0.0471538127774 0.0174451479125
-0.0140500003472 -0.032840816154 0.0153491428645
-0.0140500003472 -0.0349976624801 0.0103153456701
-0.0140500003472 -0.0348316216691 -0.0131038282469
-0.0140500003472 -0.0469402951826 0.0124437260817
-0.0140500003472 -0.0348848546068 0.0136931169179
-0.0140500003472 -0.0360423236005 0.00424645450915
-0.0140500003472 -0.0332281073677 0.00395833631265
-0.0140500003472 -0.0323971046359 -0.0174131021292
-0.0140500003472 -0.0451151524805 0.0141565604986
0.0150699997321 -0.0398596113073 0.00245638655189
0.0150699997321 -0.0323370556184 0.0183429613586
0.0150699997321 -0.0365816112396 0.00872716781536
0.0150699997321 -0.0327389931066 0.013185447713
0.0150699997321 -0.0442483558252 -0.00954117562681
0.0150699997321 -0.0364273499198 0.0110691228902
0.0150699997321 -0.033866137718 0.0107342188835
0.0150699997321 -0.0373171750886 0.00131895669887
0.0150699997321 -0.0428621976566 -0.0118506351854
0.0150699997321 -0.0289025534229 -0.0195010786248
0.0150699997321 -0.0279939361165 0.00514971120549
0.0150699997321 -0.0392069767658 -0.00313714087836
0.0150699997321 -0.0379184438895 -0.0170820478788
0.0150699997321 -0.0268303894511 -0.0117981174051
0.0150699997321 -0.0322497710583 -0.0166554873914
0.0150699997321 -0.0392091230361 -0.0150488656632
0.0150699997321 -0.0321838691131 0.00289011028734
0.0150699997321 -0.0414721979917 -0.00983934525696
0.0150699997321 -0.0303306331407 0.0129906652228
0.0150699997321 -0.029306326069 -0.0029379010017
0.0150699997321 -0.0354896703424 -0.0184523420462
0.0150699997321 -0.0357753529803 0.00594180605533
0.0150699997321 -0.035739351373 -0.0104722512988
0.0150699997321 -0.0292649952937 -0.00595326460451
0.0150699997321 -0.0357558251727 -0.0157694676557
0.0150699997321 -0.0345726166737 -0.00373046041645
0.0150699997321 -0.0341046260859 -0.00641397837289
0.0150699997321 -0.0307260912567 -0.0145703205274
0.0150699997321 -0.0387668335979 -0.00539553951412
0.0150699997321 -0.0274188790874 -0.00895609732266
0.0150699997321 -0.0332537256028 -0.00890158090827
0.0150699997321 -0.0296877573408 -0.00949262957387
0.0150699997321 -0.0350385254576 -0.0133730194953
0.0150699997321 -0.0296760767573 0.00765175028117
0.0150699997321 -0.0296083599 0.0155152233272
0.0150699997321 -0.0338108823265 0.00109495150446
0.0150699997321 -0.0270718561044 -0.0155293192089
0.0150699997321 -0.0279889705304 -0.000316975678739
-0.0140500003472 -0.0421349129983 -0.00427331910761
-0.0140500003472 -0.0381042693418 -0.0142764326297
-0.0140500003472 -0.0467034545779 -0.00525306934751
-0.0140500003472 -0.0447067941903 -0.00426312353613
-0.0140500003472 -0.0456512822989 -0.00155372545233
-0.0140500003472 -0.0458715065023 -0.0108116764221
-0.0140500003472 -0.047404808784 0.00989748926374
-0.0140500003472 -0.043084756365 -0.0193557487313
-0.0140500003472 -0.0476695529456 0.00366220476437
-0.0140500003472 -0.0457702554003 -0.0140128325166
-0.0140500003472 -0.041499267223 -0.0147474233343
-0.0140500003472 -0.0478162016456 -0.00270555615607
-0.0140500003472 -0.0380496525078 -0.0168640168338
-0.0140500003472 -0.0477619914631 -0.0127568126309
-0.0140500003472 -0.0450590282445 0.00162731172986
-0.0140500003472 -0.0411961948939 -0.00986127650753
-0.0140500003472 -0.0399800537666 -0.0124398326325
-0.0140500003472 -0.0423749200301 -0.00749414669434
-0.0140500003472 -0.0433473393334 -0.00172035507589
-0.0140500003472 -0.0473164120876 0.000662591924903
-0.00902398725187 -0.0497270002961 -0.0185297255502
-0.00908074966215 -0.0497270002961 0.00172903438106
0.00516303050529 -0.0497270002961 -0.015338624463
0.00666139483196 -0.0497270002961 -0.0133588589301
-0.0068079553053 -0.0497270002961 0.00330566536217
-0.0139806592456 -0.0497270002961 -0.000493740494639
-0.0122581615186 -0.0497270002961 -0.0128616726026
-0.00990485831552 -0.0497270002961 0.0110782292473
-0.0110164181239 -0.0497270002961 -0.00331094700612
0.00145862482859 -0.0497270002961 -0.0196072857769
0.0120779279569 -0.0497270002961 -0.01964483872
-0.00856963186664 -0.0497270002961 -0.0107864273262
-0.0104001073947 -0.0497270002961 -0.00931128129233
-0.00400519893133 -0.0497270002961 -0.0118354792487
-0.000830385268 -0.0497270002961 -0.0184737639303
-0.00575499459828 -0.0497270002961 -0.00412450482681
0.0073323961574 -0.0497270002961 -0.0167671185442
0.00675110072965 -0.0497270002961 -0.0191818347815
-0.000773408481174 -0.0497270002961 -0.0130609083473
-0.00279755008259 -0.0497270002961 -0.000735100781611
0.00444490788025 -0.0497270002961 -0.0123882609448
-0.000833442697592 -0.0497270002961 -0.00546356730645
-0.0110325963622 -0.0497270002961 -0.0166310397613
-0.0129434587149 -0.0497270002961 -0.00795485119183
-0.00220662112235 -0.0497270002961 -0.0102878217504
-0.00297703403919 -0.0497270002961 -0.0177417019309
-0.00656272461103 -0.0497270002961 -0.00205209551135
-0.00352669133696 -0.0497270002961 -0.0141317406765
0.00215382020194 -0.0497270002961 -0.0111550696131
-0.00487472497085 -0.0497270002961 -0.00890811787818
-0.0134863796745 -0.0497270002961 0.00541106001046
-0.00713664669375 -0.0497270002961 -0.006612705995
0.0150699997321 -0.0441388427878 0.00804139052445
0.0150699997321 -0.0447428283662 0.00551887423302
0.0150699997321 -0.0496766283435 -0.0197585169901
0.0150699997321 -0.0483971978084 -0.00236953114417
0.0150699997321 -0.0393535449807 0.0149593312267
0.0150699997321 -0.0450210997854 0.0182666572793
0.0150699997321 -0.0472966096073 0.00680844270108
0.0150699997321 -0.0421418036605 0.0162785577039
0.0150699997321 -0.0377138820281 0.0166553714164
0.0150699997321 -0.0477033564033 0.0155216026885
0.0150699997321 -0.0467839157666 0.0120809706005
0.0150699997321 -0.0420078299684 0.0140314512094
0.0150699997321 -0.0427885387188 -0.000444414132328
0.0150699997321 -0.0388830556249 0.00758461550297
-0.00584279266915 -0.0497270002961 0.0159696600837
0.00891650613269 -0.0497270002961 0.00496513577782
0.0111277600769 -0.0497270002961 -0.000338032398199
0.00685336189106 -0.0497270002961 -0.00245818393878
0.0132995631244 -0.0497270002961 -0.00947538442829
0.0047326964638 -0.0497270002961 -0.00370305351539
-0.00150915884681 -0.0497270002961 0.00195334184642
0.00421559904085 -0.0497270002961 -0.00144579188802
0.010150626243 -0.0497270002961 -0.00631704903821
0.00453512906414 -0.0497270002961 0.00284963447012
0.000425001321614 -0.0497270002961 0.00342182246247
0.0090049054314 -0.0497270002961 0.00958839674107
0.0123903499464 -0.0497270002961 0.00214359667635
0.012202456542 -0.0497270002961 -0.00730181922054
0.00754370168003 -0.0497270002961 0.00722496453254
0.00954824980922 -0.0497270002961 0.00183751951087
0.00502291004907 -0.0497270002961 0.0115404343393
0.0147567459941 -0.0497270002961 0.00275964964693
-0.00504864682567 -0.0497270002961 0.00890691063503
0.0104455345245 -0.0497270002961 -0.00918093204649
0.00643983702826 -0.0497270002961 0.0141900076849
0.0140612792646 -0.0497270002961 -0.0173673819797
-0.00112574236306 -0.0497270002961 0.00811057666712
0.00166319745706 -0.0497270002961 0.0146744597559
0.00693719040261 -0.0497270002961 0.00317977409066
0.00417298088207 -0.0497270002961 0.00919032318302
0.00543724393576 -0.0497270002961 0.00537869274302
-0.00294869460152 -0.0497270002961 0.00509749256304
0.0127812300318 -0.0497270002961 -0.0123515757379
0.0015864631662 -0.0497270002961 0.0103448559615
0.00197429714422 -0.0497270002961 -0.000114797480384
0.0126349876292 -0.0497270002961 -0.0149070492772
-0.0140500003472 -0.0291469973697 -0.00772537440029
-0.0140500003472 -0.0280009198976 0.0148879646402
-0.0140500003472 -0.0277836700255 0.00415628499671
0.00862249517544 -0.025001000613 -0.0166970431341
-0.00624345725584 -0.025001000613 -0.0160725675427
-0.00135595543957 -0.025001000613 -0.0182560324019
-0.00157906649909 -0.025001000613 -0.0152974274934
-0.00325595824222 -0.025001000613 -0.00327429568239
-0.00846879849916 -0.025001000613 0.00126905456024
-0.00356832994218 -0.025001000613 -0.0126539112209
-0.0122326464156 -0.025001000613 -0.00313587813739
-0.00160305263259 -0.025001000613 -0.00512044572443
0.0064135866755 -0.025001000613 -0.0181876483019
-0.0103635287474 -0.025001000613 -0.0152939078859
-0.00832511065265 -0.025001000613 -0.0111445337013
-0.0115722879142 -0.025001000613 0.00136330113316
0.00337357288203 -0.025001000613 -0.0179530527617
-0.00546405465881 -0.025001000613 -0.0193756324744
0.00113221986077 -0.025001000613 -0.0193845513382
-0.00165834850428 -0.025001000613 -0.00820657720291
-0.00866757631392 -0.025001000613 -0.00319537189716
-0.0103216127709 -0.025001000613 -0.00103662936522
-0.00127335444402 -0.025001000613 -0.0111919771031
-0.00414549470949 -0.025001000613 -0.00998440072548
-0.0001608336897 -0.025001000613 -0.013343166583
0.000938662687944 -0.025001000613 -0.0160647399805
-0.0140500003472 -0.0291170840532 -0.0172203251541
-0.0140500003472 -0.0267494588334 -0.0177121559923
-0.0140500003472 -0.0263806737316 -0.00462718397468
-0.0140500003472 -0.026222905425 0.00207838732154
0.00948197164605 -0.025001000613 0.0108616734363
0.00110282227777 -0.025001000613 -0.000476012697997
-0.0067338445037 -0.025001000613 0.00556994371843
0.0111461259998 -0.025001000613 0.00926113109076
0.00379162813897 -0.025001000613 0.0107435694749
0.00941110643574 -0.025001000613 -0.00673939788031
0.0043445740235 -0.025001000613 0.00806438937557
0.0103195836637 -0.025001000613 -0.00918023185309
-0.00929387911971 -0.025001000613 0.00787627815283
0.00656999888942 -0.025001000613 -0.0018180017185
0.00765645135456 -0.025001000613 -0.0113059043549
0.00136142914793 -0.025001000613 0.00705558998784
-0.00108836084059 -0.025001000613 0.00640267369192
0.01007735014 -0.025001000613 -0.0147170246874
0.0081953421074 -0.025001000613 0.00137488956738
0.00417421739878 -0.025001000613 -0.00271535193945
0.00390729704869 -0.025001000613 -0.000386593258918
0.00157167828578 -0.025001000613 -0.00660585459598
0.006323302361 -0.025001000613 0.00660166897902
0.0111467201099 -0.025001000613 0.0137567966324
-0.000554580397557 -0.025001000613 0.00321877461471
0.0119056572848 -0.025001000613 -0.0168285788132
0.00468921412157 -0.025001000613 -0.00955332869591
0.00441174842775 -0.025001000613 0.00240706999391
0.0125447195592 -0.025001000613 -0.0102732664411
-0.00951355132683 -0.025001000613 0.00402831711178
-0.00210530451687 -0.025001000613 0.0116194960532
0.00106007547218 -0.025001000613 0.0164186692973
0.00468662372876 -0.025001000613 0.0134962225543
0.0150699997321 -0.026578957453 0.00235236197982
0.0124213580013 -0.0255241440955 0.0163302053245
-0.00986668483503 -0.0268250541823 0.0184062150102
-0.00773334740187 -0.0256712067277 0.0177323138519
0.00012553285037 -0.0406313343545 -0.0227328919382
-0.0076190929377 -0.0401704703156 -0.0226328691123
-0.00995900190264 -0.0449539566632 -0.0215711813047
0.00188344586431 -0.0354227840641 -0.023868870806
0.00686963672301 -0.0374540356073 -0.0235698280031
-0.00926730303093 -0.0419038051698 -0.0222278426361
-0.00208455169762 -0.0421266382316 -0.0223634779528
-0.00832543012142 -0.037228484352 -0.023231378798
-0.00556898316888 -0.0367834775363 -0.0233945910643
0.00428122445322 -0.0357481437506 -0.0238615625044
0.00460922258581 -0.0388430668583 -0.0232214039401
-0.0108390785606 -0.0382868576041 -0.022945809997
-0.00362481539291 -0.0399185766812 -0.0227870389598
0.00817687759692 -0.0354331287368 -0.0240264548129
-0.0113759687136 -0.0411250764379 -0.0223374849122
-0.000375783133009 -0.037914936875 -0.023289337919
0.00251543503078 -0.0376419099095 -0.023419935972
-0.0106495604225 -0.048445468705 -0.0208220699051
-0.00291850187404 -0.0368399201076 -0.0234500439844
-0.00552247393785 -0.0437976800292 -0.0219260740557
0.0131904332922 -0.0478368489694 -0.0207836637571
0.0127004783677 -0.0441421161878 -0.0218344157808
0.00892467905984 -0.0449901807093 -0.021710973565
0.00766055338746 -0.039752477114 -0.0230204630638
0.00139671215977 -0.0429757197972 -0.0222134212645
0.00019791093105 -0.0468219350266 -0.0212514606926
-0.00282305504605 -0.0452613654405 -0.0216411744238
0.0111782897172 -0.0465905617106 -0.0213111749768
0.0047432924166 -0.0481056146384 -0.0209312421733
-0.000858186538788 -0.0443024424073 -0.0218812886036
-0.00600469882978 -0.0493574116856 -0.0206164072139
0.00739139102972 -0.0470011556773 -0.0212078637011
0.00333365911028 -0.0408495402652 -0.0227454067039
0.00497329360506 -0.042708020971 -0.0222809655807
-0.0079911945084 -0.0474979973236 -0.021081023086
-0.00474710781025 -0.0474760716981 -0.021087054794
0.0108812809494 -0.0405492769604 -0.0228217660596
0.009439723896 -0.0378788658046 -0.0234892663547
0.00576629296403 -0.0448368573494 -0.021748777898
0.00317066696108 -0.0445615282131 -0.0218171854016
-0.0023757496949 -0.0312025579379 0.0195840001106
0.00781164351311 -0.0313625761264 0.0195840001106
-0.00509802730336 -0.0323725854182 0.0195840001106
0.0020122441601 -0.0338695101522 0.0195840001106
-0.000188974889332 -0.0344560880278 0.0195840001106
-0.0112565637741 -0.0299585241168 0.0195840001106
-0.00517941891932 -0.0298874753526 0.0195840001106
0.00150610074081 -0.0309244182366 0.0195840001106
0.00358969498133 -0.0322922869595 0.0195840001106
0.0150699997321 -0.0332606030258 -0.0226793527836
0.0135958659691 -0.0314150300874 -0.0231452963212
0.0148090371734 -0.0449833044313 -0.021168452013
0.0137449208715 -0.0398018890388 -0.0227756448244
0.0133168352211 -0.0365372504532 -0.0236948447167
0.0139537509981 -0.025001000613 0.00553638961501
0.0124490887327 -0.025001000613 0.0112377630698
0.0148836226 -0.0252690049359 -0.000338500243944
0.0139476762136 -0.0251759003601 0.0134187956545
