-0.0694226435525 -0.00646325619126 0.00611449335788
-0.063125533937 -0.00269589383318 -0.00293896489743
-0.0519245778374 -0.0145413242206 -0.0124189447453
-0.0752881511738 -0.00761375846882 0.0137050528383
-0.0492385379515 -0.0174861104564 -0.014655072829
-0.0786705728406 -0.0075178193655 0.0178110358089
-0.0565110475415 -0.0148773691523 -0.00668486824919
-0.0563755564496 -0.00130112063166 -0.0116993981222
-0.0502687276816 -0.00677746342411 -0.0172186051623
-0.0738017070892 -0.00495047157048 0.0109343954386
-0.0636550887438 -0.00768805997808 -0.000507839705968
-0.0599853257634 -0.0139586697836 -0.00276029271836
-0.0597769445885 -0.00265449046355 -0.00705258658658
-0.0626172244507 -0.0120294600518 -0.00022772852574
-0.0714153102922 -0.00312642854832 0.00736188387712
-0.0607866708536 -0.017266775047 -0.000597936176191
-0.0491134106614 -0.00281788459126 -0.0200469105924
-0.0607977825662 -0.00664718053027 -0.00437706448939
-0.0633101676311 -0.0193549882769 0.00323673929935
-0.0554154170758 -0.0190351613967 -0.00654104017054
-0.0638773984033 -0.0149220487817 0.0023478572142
-0.0461660100415 -0.0233421476905 -0.0163245436455
-0.0466041731395 -0.0186458614907 -0.0174654636052
-0.0470814527421 -0.00862507718449 -0.0204601181977
-0.0490446705361 -0.024681527216 -0.0123225724935
-0.0508448618552 -0.0198815165554 -0.0118333489041
-0.0533876554762 -0.00846935000792 -0.0127966393076
-0.0605828151123 -0.0216431081269 0.00071551778614
-0.081584077673 -0.00469654049691 0.0203697019215
-0.0663644280912 -0.0170687453615 0.00615878222056
-0.0539525521643 -0.00450960248258 -0.0135193805231
-0.0778893311937 -0.00341717847782 0.0153902371248
-0.0484832022159 -0.0122275783834 -0.0174576958773
-0.0557492834654 -0.0235481450884 -0.00452058439953
-0.0481288625262 -0.0309538878416 -0.0112034266352
-0.05317801008 -0.0233174041373 -0.00775035476991
-0.0509480500223 -0.0274753869206 -0.00899493271618
-0.0722381773541 -0.00852938917033 0.010298750382
-0.0704143286669 -0.0119914814006 0.00930273884921
-0.0743088434406 -0.0113463921314 0.0138394225046
-0.0692176250974 -0.000658718146831 0.00379048215626
-0.0666142716662 -0.00883278316881 0.00352317434165
-0.0550415762349 -0.0120712558379 -0.00948575981722
-0.0449368406745 -0.00713147887706 -0.0236186570943
-0.0585434463081 -0.0107006943867 -0.00568879058035
-0.0569191544211 -0.00635904863382 -0.00922759693603
-0.0448782487929 -0.0140733652764 -0.0221505919333
-0.0457633135468 -0.0268543865056 -0.0257103265993
-0.093950600142 -0.000615883351332 0.0226542071399
-0.0717631407932 -0.000343515146032 -0.00172956162368
-0.0585753210962 -0.000183813253651 -0.016280061745
-0.068959896265 -0.000564052706806 -0.011476950824
-0.0575669488024 -0.000392980689602 -0.0231814393454
-0.0665825140999 -0.000284894112008 -0.00755310728561
-0.0763801730819 -0.000382787619715 0.00379963125742
-0.0897351241679 -0.00732521028843 0.0301019996405
-0.0909588241716 -0.0206091533673 0.0301019996405
-0.0905064393144 -0.00264013519746 0.0301019996405
-0.0908403282316 -0.0142655270025 0.0301019996405
-0.0901909574312 -0.0265426281136 0.0301019996405
-0.0761784433995 -0.0199491038016 0.000857281924576
-0.059130368609 -0.0245451832405 -0.0203361330919
-0.0729546302376 -0.0228812730993 -0.00223624258161
-0.0643206955572 -0.0223849823398 -0.0142209240345
-0.0683897593627 -0.0238741738185 -0.00801644814125
-0.0876725331751 -0.0195587620332 0.016346380213
-0.0635149426641 -0.0179842847025 -0.0172688987649
-0.0579961045208 -0.018225026881 -0.0246822954433
-0.0567814410119 -0.0231959549251 -0.0241346978685
-0.0707577704523 -0.0184637052212 -0.00718724175458
-0.0807617857099 -0.0207113321246 0.00744039110226
-0.0672452616265 -0.0171901618542 -0.0125377870236
-0.0604414626974 -0.0193515539033 -0.0208510160752
-0.0850419154263 -0.0211447518295 0.0134646350739
-0.0558286302869 -0.00262566451386 -0.0283696868119
-0.08192636336 -0.000380548387375 0.0131320850313
-0.0884761888476 -0.000507059632086 0.0221734433024
-0.091346446019 -0.000564919578119 0.0263085105276
-0.0539401197461 1.91457094239e-05 -0.0154327870973
-0.0868579815085 -0.000458269889673 0.0186865948241
-0.0947142282974 -0.00196914296007 0.0301019996405
-0.09500752961 -0.0164836646235 0.0301019996405
-0.0961114909045 -0.00735374271287 0.0301019996405
-0.0942758491198 -0.0271630124092 0.0293413304168
-0.0957751834175 -0.0214109676496 0.0288655156562
-0.055474015038 -0.0339672057018 -0.0106245713594
-0.0591007471868 -0.0340913899044 -0.00871675849248
-0.0751098305415 -0.0340118049601 0.0140636114274
-0.0492229598528 -0.033856704385 -0.01628126953
-0.0776090786935 -0.0342920012772 0.0095958752452
-0.0602395658187 -0.0340181727586 -0.0126863362039
-0.0591889434493 -0.0304482240799 -0.016578692484
-0.0621152092989 -0.0303420959022 -0.013019777464
-0.0562775822926 -0.0293480499102 -0.0209932417092
-0.0670179395196 -0.0315997683243 -0.00601686383545
-0.053724851508 -0.0279535243914 -0.0251542595878
-0.0557917604496 -0.0156710497864 -0.0283685028295
-0.0531482805465 -0.0239448205188 -0.0279488707258
-0.0499209587963 -0.0293763616856 -0.0282619515623
-0.0554400935714 -0.0198158622997 -0.0271688265621
-0.0926231401357 -0.0311547415523 0.0286204731911
-0.0707779152113 -0.0306728062384 -0.00167232732119
-0.0834169025513 -0.0325375496467 0.0163066618056
-0.0727326964143 -0.0329295520543 0.00207635328537
-0.0823420776394 -0.0294980942077 0.0134876943496
-0.0760583916086 -0.0290765973318 0.00473859512262
-0.0774925591836 -0.0251548499506 0.00495480895165
-0.0881823012974 -0.0297218752291 0.0215448984324
-0.0808338133433 -0.0269940901957 0.010322786718
-0.088633704233 -0.0228612854821 0.0191195539997
-0.0855997910972 -0.0287542830788 0.0175970955728
-0.0652075284717 -0.0275043626305 -0.0107438275727
-0.0923363482525 -0.0269170923135 0.0259622956597
-0.0858024344921 -0.0327047378419 0.019623962355
-0.085222133472 -0.0250422481601 0.0154374117106
-0.0736650951426 -0.0264212072709 0.000300630833872
-0.0917228194943 -0.0223653746201 0.0231090822654
-0.062605083285 -0.026314382121 -0.0148173511306
-0.0823943573576 -0.022787414676 0.0105849313158
-0.070793437572 -0.0255178452581 -0.00401270608406
-0.0768888100461 -0.0137220277172 2.97692402373e-05
-0.0808746054537 -0.0162009059415 0.00609652860736
-0.0748010892844 -0.0118279312305 -0.00323985159372
-0.0672096803363 -0.0115677228615 -0.0141063690413
-0.0900239512912 -0.0186737961623 0.019526280267
-0.0793558168412 -0.0121868425218 0.00331117988378
-0.0892194079022 -0.00780472104739 0.0167018431388
-0.088198196551 -0.012302589085 0.0159394597856
-0.0842487723118 -0.0130701390359 0.010425480101
-0.0819226822436 -0.0111878456323 0.00681773379384
-0.0965658169708 -0.00497294061109 0.0267418776616
-0.0926763218359 -0.00803800540928 0.0216678613084
-0.0694447600825 -0.0108391385759 -0.0110312625561
-0.0610002199689 -0.0130555303861 -0.0227323311374
-0.0832664897478 -0.0171426069708 0.00965297707019
-0.064944090158 -0.0112892704578 -0.0173803688076
-0.0847102866131 -0.00725693201306 0.0101867093221
-0.0718642389497 -0.01237885783 -0.00734318895918
-0.0936683425407 -0.0112245624382 0.0235742876901
-0.0905539507617 -0.0108351706944 0.0190726654244
-0.0931588468157 -0.0164521108772 0.0236542659866
-0.0752251148948 -0.0165533925323 -0.00190601635576
-0.0977908562748 -0.000641717727365 0.0283324778059
-0.0970062525897 -0.0118431390547 0.028806641064
-0.0697161136098 -0.0165398935781 0.0100242806852
-0.0502877329673 -0.032191358162 -0.00827455579093
-0.0618886223994 -0.0337608638998 0.00226745433692
-0.0857797867885 -0.0111918574733 0.0270066489166
-0.0846058229764 -0.0194772014017 0.027643134768
-0.0758845346895 -0.0144884087504 0.0165717452596
-0.0741825035392 -0.0325600512761 0.018933330563
-0.0715254060569 -0.0299995097455 0.0153131401097
-0.0671220916602 -0.0291856512028 0.0101281131503
-0.0647410991426 -0.0261737556795 0.00671375344898
-0.0664915608725 -0.0334021289364 0.0104145123193
-0.0568176523777 -0.0288791144806 -0.00162620836389
-0.0858169346333 -0.0230295103318 0.0298595896997
-0.0624539525085 -0.0236636076125 0.00352492028179
-0.0722684861704 -0.0227949385018 0.0144448142738
-0.0629153837484 -0.0316975389519 0.00595565958242
-0.0850306596238 -0.00675026866117 0.0251027607111
-0.0593030902734 -0.030401726487 0.00155292732417
-0.0688927072047 -0.0219433511334 0.0104156849783
-0.0807871202338 -0.0102803709462 0.0211303266004
-0.0743419604279 -0.0193145487243 0.0159689776999
-0.0783659612368 -0.0129788517687 0.0190263506811
-0.0829264754763 -0.0125374685598 0.0240915310298
-0.0870372667929 -0.0157312597833 0.0295100523797
-0.0769368861256 -0.0248130719517 0.0202163059107
-0.0873908012876 -0.00375714619715 0.0270676027743
-0.0737844885305 -0.0258783048852 0.016895556282
-0.07724983889 -0.0314230478102 0.022140608365
-0.0772392754595 -0.0189525332337 0.0191675329364
-0.0798627770327 -0.0232840277001 0.0231701471416
-0.0653039263504 -0.0214849440631 0.00623844793093
-0.0801555891867 -0.0161760666426 0.0218143189893
-0.0846652863278 -0.0276648170912 0.0296546788465
-0.0826846390627 -0.0165623043751 0.0247730650673
-0.0699305398636 -0.0260644761873 0.0125707680533
-0.0820482102343 -0.029685667118 0.0271677011111
-0.0559172921804 -0.0336038037204 -0.0025018964227
-0.0831848812305 -0.0335622013671 0.0289290372974
-0.0554007839362 -0.0067794058725 -0.0303798787265
-0.047205881122 -0.0186579198035 -0.0302537790814
-0.0490557515477 -0.0133818708884 -0.0302515137176
-0.05045980835 -0.00704297380722 -0.0302221468377
-0.0461174045759 -0.00692829780563 -0.0300794216542
-0.052440691011 -0.0110657748979 -0.0303342793198
-0.0514628084573 -0.0173374678906 -0.0303767243616
-0.0502008889143 -0.0214414274837 -0.0303830001503
-0.0496125315831 -0.025865604261 -0.0303830001503
-0.0583868939669 -0.00919496763772 -0.0269214930375
-0.0622236362017 -0.0026084691825 -0.0224043302637
-0.0605422676295 -0.00695010659463 -0.0242269318027
-0.0593751690223 -0.00173313933718 -0.0263797299319
-0.0912040770014 -0.00142602563756 0.0186451059563
-0.0854729344838 -0.00102185235228 0.0104589064396
0.0149383231279 -0.0820628431042 0.0227405318263
0.0168126579077 -0.0710332099298 0.0102892725297
0.0269378321202 -0.0662049520766 0.00685465072689
0.025342511622 -0.0704729770284 0.0114842870024
0.0214894994818 -0.0828483078262 0.0250755379919
0.0232710829912 -0.0640421223066 0.003538978181
0.0100335279343 -0.0846915440849 0.0247421588176
0.0258866495903 -0.0762838818612 0.0183760102536
0.0214342645841 -0.0695958881635 0.00961509241666
0.0241096347151 -0.0730549498978 0.0142270027377
0.0134497039571 -0.0751555769381 0.0143661372837
0.00903771938602 -0.08162762742 0.0209547679519
0.0271768699243 -0.0547017620756 -0.00650294299785
0.0222683640971 -0.0668804183617 0.00663035860405
0.0193127801193 -0.0806358302375 0.0220248212915
0.025070365034 -0.0809634138324 0.0236541308105
0.0272730721342 -0.0582390513567 -0.00235864621824
0.0280241020136 -0.0517899201675 -0.00971374442935
0.0180224321186 -0.0673082563015 0.00620916722986
0.0210230008488 -0.0768478041434 0.0179796188502
0.0068770076527 -0.0862961915606 0.0259288187443
0.0154197797543 -0.0783706890323 0.0185408635429
0.0242423178579 -0.0611336494476 0.00035897060503
0.0184549436022 -0.0732552944033 0.0132353973306
0.00312341954778 -0.0561840966962 -0.0201199721636
0.00318189434101 -0.0739545802862 0.00339104385833
0.0032797087267 -0.0711071287355 -0.00391252726726
0.00324424337957 -0.0620856245752 -0.0156576321809
0.0294759999961 -0.0699649986805 0.00377051746882
0.0294759999961 -0.08443923509 0.022866206841
0.0294759999961 -0.0784707882878 0.0151653237632
0.00700229719488 -0.0957599256001 0.025876872083
0.00748218549719 -0.0856133069013 0.0113441847934
0.00873469213795 -0.0886184350301 0.0156286585985
0.00512800657171 -0.0932608519502 0.0223256399532
0.0092124246473 -0.0937732426452 0.0230015490261
0.00612451145781 -0.0811556960231 0.00498181816456
0.0095568413023 -0.0913067575259 0.019465665189
0.00380951861272 -0.063216786441 -0.0206668904865
0.00570167190714 -0.07443479521 -0.00463386841207
0.0049039302953 -0.0909946971011 0.0190845705812
0.0290448164932 -0.0460780337948 -0.0288746623873
0.0137175258935 -0.0450825547322 -0.0232296926233
0.0225187640053 -0.0456481471243 -0.0261979005687
0.0294557074336 -0.084249008519 0.0272273967848
0.0290853698722 -0.0528546833669 -0.0140793736033
0.0190559209247 -0.0853631738132 0.027350560567
0.0120026049433 -0.0877590569675 0.0284670043981
0.00309169646377 -0.0671916494921 -0.00285183880174
0.00336545040251 -0.0892147282137 0.02227847788
0.00313055494996 -0.070272779765 0.000720347256632
0.0032454162102 -0.0788688423292 0.0113363924735
0.00320255183032 -0.0763030807987 0.00730299449827
0.0223927377079 -0.0866967236406 0.02922414095
0.0253080470217 -0.0838170934774 0.0269342786819
0.014710642703 -0.0649159238498 -0.0162739429913
0.0226486455918 -0.0721245935207 -0.0037792923405
0.0200902377519 -0.0670543001332 -0.011641494034
0.0151303390866 -0.0593960798234 -0.0238520664198
0.0184520249183 -0.0742794995889 -0.00205545378774
0.0252124737654 -0.0862607781178 0.0167420444538
0.0224143995547 -0.0803954769622 0.00769650900256
0.0177892123098 -0.0705694500493 -0.00743820859855
0.0223106583481 -0.0768718065922 0.00274512581498
0.0163334079821 -0.0622421308079 -0.0195102002146
0.0106256251268 -0.0624191766573 -0.0210104112339
0.0215848898168 -0.0882756090934 0.018474487046
0.025054453681 -0.0902433511385 0.0222699014918
0.00996297110998 -0.081319018957 0.00524959543419
0.0178632999668 -0.0817359488731 0.00820191322241
0.0122246741009 -0.0675993786125 -0.013282587635
0.0133366470844 -0.0945986350319 0.0248551527929
0.0134587573784 -0.0824434910386 0.00787212448274
0.0263313135371 -0.0923655474581 0.0256242063871
0.0221650175815 -0.0937443202673 0.0263057018028
0.0137160821605 -0.0748929240481 -0.00262303583797
0.0176102943873 -0.0850614518533 0.0127824322318
0.013148995322 -0.0695660941887 -0.0102516786324
0.017407377113 -0.0940534093829 0.0253121395928
0.0220443197614 -0.0829904047233 0.0112118797981
0.0142855601282 -0.0904650956156 0.0193518551329
0.0120137750411 -0.0780210896316 0.00124666814638
0.0169005441339 -0.0788005298271 0.0038031024936
0.0220240788271 -0.0854747182402 0.0146843482512
0.00979966453029 -0.0728505908873 -0.00665686033001
0.0208691460266 -0.09167951112 0.0230260507074
0.00673621552268 -0.070071433856 -0.0108625296444
0.00479906381156 -0.0608052063902 -0.0241024899732
0.00929882067327 -0.0765137374171 -0.00162718134572
0.00562134670345 -0.0666958054152 -0.0156959696392
0.00749600410121 -0.06441051767 -0.01890260761
0.0109569843669 -0.0583417818958 -0.026573185022
0.0160837532067 -0.0558625332732 -0.0283259333113
0.0288572198826 -0.0501604925259 -0.0284701402381
0.0251306280078 -0.0538842507162 -0.0263018138524
0.0212209084205 -0.0545208559307 -0.0277022389332
0.026575325511 -0.0796332937794 0.00799274115496
0.0208863133481 -0.0636734957503 -0.0160860378147
0.0244868605994 -0.0666831927668 -0.0101523479197
0.0287858542518 -0.0679045214187 -0.00617310108862
0.0258355654104 -0.0749899251147 0.00147339212377
0.0270314322641 -0.0557395192353 -0.0230765268422
0.0254081846829 -0.0700131548264 -0.00528116399914
0.0191546351227 -0.0576386920564 -0.024949395945
0.0250905716352 -0.0589028849271 -0.0200078854564
0.0108933605284 -0.0546629273153 -0.0302065593449
0.0185240787182 -0.0481779988366 -0.0302257447518
0.00733641435704 -0.053550229781 -0.0303124947011
0.0231834088666 -0.0505267910309 -0.0303799734101
0.00813426592751 -0.048997854902 -0.0301557083234
0.0131115942788 -0.0491809169797 -0.0302181368398
0.00677570456078 -0.0978406848939 0.0293325940507
0.0114794358526 -0.0970653321474 0.0294191187331
0.0151723318821 -0.0926075498853 0.0297649031901
0.0185562713457 -0.0897498594263 0.029969199766
0.00444494882549 -0.0909946589097 0.0300816618268
0.00833980884142 -0.0918831344583 0.029939284569
0.0161359100074 -0.0965875570894 0.029382388389
0.0248131436366 -0.0906206629895 0.0297835800061
0.0290629562388 -0.0873207894822 0.0300166825819
0.0265023848652 -0.0947807498699 0.0291277489985
0.0199570458198 -0.0457833222177 -0.0195625204937
0.0256546252484 -0.0461948939734 -0.0170882768824
0.0116599325313 -0.0707844794476 0.00863576183082
0.0196282575415 -0.0513975106788 -0.0126907841072
0.0088905985541 -0.0512620151512 -0.0165665706003
0.00362016214146 -0.0596453479512 -0.00797458005663
0.0195056774768 -0.0605469791281 -0.00136982771944
0.0159389442923 -0.0562870145442 -0.00789206074607
0.00769696238362 -0.048096965809 -0.0209095772585
0.00503352499573 -0.0775272716105 0.0147220746026
0.00396343965071 -0.0627842481746 -0.00395766200821
0.0102987364413 -0.0535565087791 -0.013230696689
0.0161207466998 -0.0653729689344 0.00345511106333
0.0118203157567 -0.0566873376545 -0.00881695807122
0.00708240881678 -0.0570706312113 -0.00997683031193
0.0131245154543 -0.0682252425771 0.0059629822363
0.0124458870602 -0.0479130284467 -0.0194983082323
0.00583667751692 -0.0542648056544 -0.0138916825622
0.0164448619871 -0.0533503137389 -0.011364644338
0.00748072368327 -0.0708963582689 0.00733171080078
0.00763413421161 -0.0600576913369 -0.0060765186781
0.00458673920675 -0.0741290302202 0.0103473255871
0.00817687095453 -0.0679952546769 0.00396902015201
0.0109869396252 -0.0644164773797 0.000494581594614
0.00914489697336 -0.0769521049067 0.0154273174937
0.0142102690644 -0.0607098464388 -0.0029959552075
0.0187107509614 -0.0578713312194 -0.00496735024741
0.0153277637848 -0.0511240219768 -0.0145153238223
0.0202198568736 -0.0546320176181 -0.00846938553627
0.0165011090774 -0.0625683732188 0.000103244983594
0.00555094391247 -0.0801619918941 0.0181729486089
0.0241260300991 -0.0494602112451 -0.0135438399748
0.00823638445686 -0.0622661577869 -0.00312574459289
0.0175128274431 -0.0486625900583 -0.0168178654136
0.0230865234046 -0.0520934074069 -0.0106324352257
0.00514130501497 -0.0514684406788 -0.0176047568729
0.00531560728707 -0.0662559578567 0.00082094261774
0.0285242032139 -0.0605585694074 0.00060251884145
0.0804387163009 -0.0474710149071 0.0220586410636
0.0741956679217 -0.0471601556081 0.0140413043066
0.0547141699402 -0.0611815028402 0.0235570046976
0.0486946829132 -0.0512695040597 0.00648862492574
0.0526976331526 -0.0589895843666 0.0191303350229
0.048163352955 -0.0610995592047 0.0172297101017
0.0316162581974 -0.0816852289933 0.0250363451629
0.0636240743002 -0.0525294749333 0.0221364900362
0.0376283565189 -0.0573824767487 0.00295219649694
0.0401812494797 -0.0540003414187 0.00151190478454
0.0394735496353 -0.0589096523526 0.00645528106434
0.0369060101759 -0.0736772978004 0.0209079311958
0.0351067606492 -0.072339542046 0.0176652825064
0.0387991024857 -0.0650098363099 0.0127927912957
0.0344301303142 -0.0777424566751 0.0232029612811
0.0333908825535 -0.0755869024566 0.0197478524622
0.0317106287481 -0.052660254574 -0.00808166828409
0.0391856937899 -0.061758016298 0.00944021348041
0.0621017335763 -0.0506280466182 0.0185124342712
0.0427475819871 -0.0580940671452 0.00863762194208
0.0605140252827 -0.0479645027109 0.0139542314977
0.0725689947893 -0.0500523425496 0.027814065899
0.0330040878633 -0.0702126695789 0.0132310685479
0.0495483264157 -0.057949873303 0.0149440127322
0.0646110232591 -0.0475624494209 0.0173928061008
0.0323548366634 -0.0479545807188 -0.0128524778268
0.0395601470409 -0.0701376096903 0.0193837218698
0.0664271432789 -0.0534611736937 0.0258697657254
0.0456287150542 -0.048661578863 0.00058739300297
0.0357343776745 -0.0615691127933 0.00593992789936
0.03393220481 -0.0495268345057 -0.00955267221175
0.0477691187039 -0.0667354082771 0.0233026107253
0.0315644722375 -0.0555226738174 -0.00494581861183
0.0373633299637 -0.0489501240985 -0.006947547534
0.0434565320686 -0.0477453874544 -0.00252781018847
0.0419528427991 -0.0657667476224 0.0166597779228
0.0440665590635 -0.0542518664464 0.00549681029009
0.0502365433193 -0.0679619368642 0.0270538165409
0.0461211918719 -0.0551856605054 0.00852029599875
0.0494713520767 -0.0478174073804 0.0032780934858
0.0586030736943 -0.0620254018853 0.0282230723522
0.0541455171278 -0.0507625517813 0.0110954493903
0.0374821297111 -0.0683730892834 0.0153875404704
0.0335624145199 -0.0658795362961 0.00880476525947
0.0425650797389 -0.069894753321 0.0219652621455
0.0321323122085 -0.0613830504296 0.00229944477871
0.0621748855345 -0.05918740002 0.0283748997965
0.0498139575634 -0.0547007897205 0.0114794639925
0.0473604382344 -0.0643315535121 0.0201634454301
0.0446831906039 -0.0721209837702 0.0265278431037
0.0398960625252 -0.0501501620683 -0.00316450505136
0.0400233600457 -0.0770161602043 0.0276943303739
0.0598397743889 -0.0543322942333 0.0205981014307
0.0377235751193 -0.0530384602938 -0.00192723674645
0.0585521627595 -0.0594586175354 0.0252379391284
0.035124484474 -0.0566734859781 -0.00024157041281
0.0423708635711 -0.0624390504352 0.0132502953895
0.0536293000143 -0.0552548477802 0.0157439226633
0.0516580095094 -0.064754188283 0.02473641426
0.0691839023827 -0.0494156349591 0.0238644587183
0.0799674501445 -0.0509460379197 0.0299952991347
0.0415312820328 -0.0827132294517 0.029884868567
0.0718098074532 -0.0562216651488 0.0297034466992
0.0663086398717 -0.0589773232721 0.0293598529775
0.057772455981 -0.068571202535 0.0297999729392
0.0468109096447 -0.0773504552966 0.0297171648703
0.0757572383717 -0.054357911956 0.0299707881383
0.0612550985222 -0.0660359603862 0.0298727788115
0.0758120752517 -0.048420826617 0.0288827212667
0.047926709743 -0.072034543205 0.028620008686
0.0522410884358 -0.0710408394805 0.0293505166518
0.0371662933264 -0.0799271983593 0.0282023548967
0.0324094455908 -0.0901749041268 0.0297706935922
0.0334896783427 -0.0856330361434 0.028840111633
0.0370362617344 -0.0836135111461 0.0291286839853
0.055426972588 -0.0438076074881 -0.00221860497536
0.0706334045002 -0.0443503756858 0.014287968591
0.0556359300766 -0.044895303663 0.00149824983019
0.0644486925303 -0.0434440594537 0.00535954974552
0.0448038324462 -0.045220356542 -0.00796066989514
0.0298371741082 -0.0526460249339 -0.0244231367226
0.0292890194185 -0.0498903838307 -0.0210762156726
0.0261645546973 -0.061557056769 -0.0133667386173
0.0282379825026 -0.0536627877815 -0.0188782168721
0.0300884357108 -0.0495789241951 -0.0161007002636
0.0271164461142 -0.0578689481599 -0.0160631315039
0.0652378734699 -0.0697223609293 0.0301003717085
0.0517936063697 -0.0775138653392 0.0300975958516
0.0612133966928 -0.0716152266835 0.0300991701467
0.0675663973389 -0.0643665239955 0.0300974738642
0.0792528613593 -0.0570673043584 0.0300994428361
0.0467962825781 -0.0821114822845 0.0300979989131
0.0706503155884 -0.0615010897171 0.0300972013642
0.0772808763576 -0.0609039543739 0.0301013073979
0.0567102803313 -0.0731284421309 0.0300973156676
0.0286733469682 -0.076150569927 0.0118969962657
0.0309252773124 -0.0741015609435 0.0151319757509
0.0289497011438 -0.0714721540968 0.00727576031957
0.0277469506698 -0.0648998123252 -0.00314271199365
0.0276042044543 -0.0681559827941 0.000196061566139
0.0274176429396 -0.0755368752841 0.00810232054618
0.0301352958741 -0.0650800009586 0.00295586169226
0.0296198916509 -0.0808146399819 0.0195200249501
0.0291558581672 -0.0588256479168 -0.00655102637158
0.0288560259409 -0.0560916223094 -0.0108936989719
0.030840680505 -0.091799836388 0.0264392179388
0.0283931658238 -0.083518468855 0.0151940573294
0.0429919374103 -0.0444895413191 -0.0149246103425
0.0518148863336 -0.0440677313824 -0.00498794229121
0.0362031267007 -0.0451832381965 -0.0207658559007
0.0317802469473 -0.0462112949485 -0.0216890107015
0.0525323213396 -0.0431655418083 -0.0120093602792
0.0498153983463 -0.0435691164864 -0.0148671959642
0.0644211289169 -0.0435629740637 0.000908417122387
0.0560394020737 -0.0458803040602 -0.00746037869309
0.0485927684437 -0.0854793634751 0.0289167784446
0.0439412812165 -0.0875460529744 0.0292350030444
0.0567106717874 -0.0797992483839 0.0286811940884
0.059750630524 -0.0763889131846 0.030101443486
0.0514112756801 -0.0824611572221 0.0301006399775
0.037877305724 -0.0896752198327 0.0300978243588
0.0680139699334 -0.067522499746 0.0253012709168
0.0572512671887 -0.063487010534 0.010501637526
0.0542760718582 -0.0615792980589 0.0056184535135
0.0635479133822 -0.07214698813 0.0254581324614
0.0599403525478 -0.0636379152597 0.0133421200778
0.0508472011159 -0.0581781503345 -0.00121169768585
0.0476903944118 -0.0570714505354 -0.0054756388517
0.062567343013 -0.0662245457785 0.0185558457043
0.0403034919572 -0.04988551193 -0.0200487876588
0.063424301445 -0.0687178386783 0.021905876598
0.0673292213258 -0.0514449407137 0.00918847719151
0.0700826444287 -0.0529466755636 0.0134841425308
0.0690227478215 -0.0588284406373 0.0180090105848
0.0475455806907 -0.0480705239319 -0.0143756996035
0.065963977938 -0.0560744286792 0.0122107179911
0.0555634645978 -0.0496159465832 -0.00466204562207
0.0517854899116 -0.0550072166218 -0.00336863711547
0.0587333986513 -0.0523937857647 0.00125698449092
0.0585529888068 -0.0559448467481 0.00447831977693
0.0450575025986 -0.0471142530424 -0.0178473034605
0.0620830518212 -0.0573667999106 0.00946635129481
0.0516404590538 -0.0520325982941 -0.00637108530265
0.0632076734164 -0.0607894111018 0.0139042040358
0.0553577739996 -0.0526587572582 -0.00195422946861
0.0518143135122 -0.0473256667694 -0.0107079803361
0.0658314153128 -0.0611515414955 0.0169451190484
0.0668660518742 -0.0651995089367 0.02189049963
0.0595648897933 -0.0491556199971 -0.000995792204904
0.0548645173304 -0.0561743005485 0.000911866371721
0.0639799416033 -0.0530927584852 0.00731358973572
0.0470425134764 -0.0512730059986 -0.0118199957813
0.069342739656 -0.0693087909693 0.0287598689337
0.0709181583949 -0.0641570629706 0.0251051736641
0.0765063803995 -0.0566920950613 0.0241235811143
0.0736022016993 -0.0568758247341 0.0210733175108
0.0719242814872 -0.0553029520599 0.0176934809864
0.072002413437 -0.0605318162278 0.022817612204
0.0752004905449 -0.0602325357984 0.0260831521799
0.0740783923066 -0.0642078311943 0.0287321242516
0.0385776349086 -0.0690969591151 0.00126156032168
0.0371791514911 -0.0650036638374 -0.00482468880129
0.0303567844166 -0.063089670506 -0.0115640447504
0.0323963856818 -0.0551972140392 -0.0203098278093
0.034436526252 -0.0631687025627 -0.00888847715732
0.0463440118994 -0.0823205911908 0.0229739698588
0.0356113010335 -0.0683895462233 -0.0015100527334
0.0328217319475 -0.0585290185307 -0.0158058481288
0.0355534627255 -0.0594692299453 -0.0128863731083
0.038018994869 -0.0757931285304 0.00953339712464
0.0313564717684 -0.0712297415198 -0.000343301109319
0.031445330949 -0.0884429129032 0.0222323592818
0.0435453571124 -0.0856646612117 0.0256898462103
0.0381268858581 -0.0790705266288 0.0138851428197
0.0352592024779 -0.0819941300524 0.0160297088653
0.0348864988725 -0.0860221415286 0.0210819209219
0.0406614045344 -0.0825911593304 0.0199776152211
0.0340643702795 -0.0729910164644 0.00354867021406
0.0329357202715 -0.0669070622956 -0.00507382998447
0.0406738159913 -0.07995393449 0.0165340608226
0.0343639708774 -0.0787723296634 0.0112891861138
0.0349524370514 -0.0890593258279 0.0250947528388
0.040096508165 -0.0854501124878 0.0233874446349
0.0313675794915 -0.0765568297715 0.00663374767225
0.029996775987 -0.0745903634026 0.00351266666618
0.0306854913223 -0.0797357361663 0.0103947973074
0.0798591298922 -0.0539105609236 0.0259509701788
0.0837089235421 -0.0507664390232 0.0284539869773
0.0708070020698 -0.0492582583352 0.0113302378243
0.0753817783115 -0.0507308977329 0.0180821481064
0.0661986611317 -0.047418621211 0.00427047328705
0.077852800646 -0.0530425409637 0.0228287058753
0.0469676465716 -0.060582995383 -0.00213346396727
0.0574434728527 -0.0697345780568 0.0172810754474
0.0454203675328 -0.063815694973 0.00032212409592
0.0504027893162 -0.075178761469 0.0176960339305
0.0575075573162 -0.0721262941356 0.0201119529201
0.0570240415375 -0.0755710041503 0.0237061161721
0.0447469031954 -0.055881989461 -0.00945499185968
0.046208723288 -0.0714632328391 0.00986334299152
0.0526130897475 -0.0674833217793 0.0106147965402
0.042708249033 -0.0589240704315 -0.00763295806605
0.0425143275768 -0.0542362959235 -0.0132388015655
0.0485401999118 -0.0734635364446 0.0141418735373
0.0540849682944 -0.0797494020769 0.0260922022089
0.0527620295071 -0.0709810428817 0.0148010862493
0.0501373589159 -0.0611453677787 0.00117863183088
0.052665853003 -0.0765450578728 0.0211810012855
0.0454538689511 -0.0686288963367 0.00593902774143
0.0559941775944 -0.0672001434571 0.01312241486
0.0477938557794 -0.0656377261012 0.00442889936286
0.0484272702448 -0.0787152998706 0.0201451665052
0.0495713144337 -0.070163630014 0.0111752334489
0.0501761799046 -0.0822511841917 0.0257179995504
0.0394053167281 -0.0586054984637 -0.0107598704902
0.0344713420302 -0.0493679189852 -0.025611840338
0.0359732258122 -0.055883533411 -0.016779900328
0.0381165471184 -0.0619672586382 -0.00791769866854
0.0413805956475 -0.065258394428 -0.00137479375948
0.0424492202859 -0.0623874754882 -0.0038285562922
0.0466864887666 -0.0767350143848 0.01639239448
0.0419059377654 -0.0694228021722 0.0039089873263
0.0363600418433 -0.0512340817648 -0.0218703487427
0.0424357974835 -0.0723296682046 0.0078468641583
0.0441367574131 -0.0751093682955 0.0124825029513
0.0715868855478 -0.044264753538 0.00985567945736
-0.0529698238394 0.0475123628499 0.00494482340278
-0.0559235239075 0.0612372442305 0.0226335558869
-0.0555991288486 0.0498561427161 0.0101191298284
-0.0597897305027 0.0500354823676 0.0145583874228
-0.0470167563402 0.0744077054472 0.0277079064391
-0.0629868444744 0.0595360900064 0.027970930469
-0.049552949758 0.0694402443967 0.0249597606257
-0.043440295015 0.0588352438249 0.00740980757259
-0.0554032081653 0.052775484912 0.0130462755069
-0.0469550373646 0.0608144399242 0.0130911618886
-0.0697527881609 0.0531603024714 0.0280018196313
-0.0559073882098 0.0643278189001 0.0259262535779
-0.0667216367027 0.0522988955843 0.024007399439
-0.0499511149395 0.0504352109657 0.00501478292187
-0.0702955457989 0.0482274233744 0.0232703221376
-0.0609780316192 0.0528394486267 0.0187649314873
-0.0417534173414 0.0744311467243 0.0223985285819
-0.0522679517893 0.0635504514594 0.0214053073877
-0.0573653867489 0.0543347212883 0.0167044349823
-0.0471279365816 0.0643254984557 0.0170256578373
-0.0435995657214 0.0472453512449 -0.00483796646503
-0.0501240068112 0.0606877063647 0.0161672693641
-0.0432257286479 0.0641750457817 0.012909620816
-0.0574865972028 0.0580663681187 0.0208227255397
-0.0496752960232 0.0573562200084 0.0121455004523
-0.075828301356 0.0463605234 0.026878982656
-0.0591632174188 0.0633618578994 0.0281918412416
-0.0537938343813 0.0584606596901 0.0175022173439
-0.0432634520577 0.0693196497397 0.0184561368831
-0.0647624621912 0.0496127090637 0.0191456689001
-0.0731446435011 0.0500605768126 0.0281206686039
-0.0484970103867 0.0670703824872 0.021352159015
-0.0488822031535 0.0542973717259 0.00806660614465
-0.0454633342437 0.0504526865642 0.000485058109946
-0.0655093938203 0.0560970931003 0.0268454694681
-0.0627658509014 0.0557021246126 0.0236419565653
-0.0521805360739 0.0536287147077 0.0106935927768
-0.0558078587077 0.0445843458931 0.0020543314568
-0.0701656741801 0.0457878783925 0.0200188660224
-0.0645041591559 0.0433729856081 0.00726196982952
-0.0491259943684 0.0456907195436 -0.00143351979675
-0.0739339931558 0.0444154985249 0.0197975990138
-0.0401420437888 0.0805747710774 0.0240997701851
-0.0391007077429 0.0767209733802 0.0178383577323
-0.0381974591253 0.0711907745964 0.00948509789023
-0.0390100702815 0.0670723357925 0.0072921141754
-0.0408256052128 0.0569835285914 0.0014342424196
-0.0413669103611 0.0530093976432 -0.00135563351636
-0.0396307838458 0.0639345592828 -0.00310976771528
-0.041309356925 0.0707599461488 0.00529348262297
-0.0579274105726 0.0677501298665 0.0292099804221
-0.0549856391396 0.074219455354 0.0299592015473
-0.0736447664424 0.0556311484433 0.0297886954086
-0.067558126782 0.0609890557403 0.0297002783028
-0.0439837181112 0.0797733143402 0.0289561773063
-0.0485475416883 0.0784010527003 0.0295624135008
-0.0688588867475 0.0568218934617 0.0289845410757
-0.0512446296463 0.0719044234751 0.0287092373027
-0.0774758826661 0.0499098156947 0.0292417164733
-0.0817697362162 0.0440875654891 0.0247019629201
-0.0718343592429 0.0424712669335 0.0118976951319
-0.0768174168473 0.0436233206684 0.0160461828913
-0.0744896444533 0.046051593686 0.0135477740239
-0.0840068528316 0.0482094546581 0.0268936310355
-0.0783139815066 0.0466338808098 0.0187074209566
-0.0770426867457 0.0505823055059 0.0199469059208
-0.0808355957964 0.0480987390235 0.0228805545377
-0.0457516773013 0.0473014509958 -0.0166344732045
-0.0424633041139 0.0476929572697 -0.019854214864
-0.0492361763194 0.0464794427824 -0.0135063477935
-0.0605211970141 0.0458740347365 -0.00194260465712
-0.0685498774819 0.0468639176076 0.00738926376494
-0.0712304853429 0.0488761500083 0.011872100977
-0.0734205154266 0.0503739671618 0.0154181439383
-0.0491737085299 0.0498121944629 -0.0110833241461
-0.0652380706647 0.0490997515705 0.00561108926701
-0.0703955577923 0.052911464582 0.0141884266703
-0.0556215149172 0.0484479563464 -0.00524131266254
-0.0643683204339 0.0463285490022 0.00246968752974
-0.0602615748477 0.0499453334099 0.000937029000374
-0.0682002201699 0.0520911184969 0.0111761785954
-0.0746064023613 0.0534827042205 0.0191680390246
-0.0791827546039 0.0549869264364 0.0261297881106
-0.0773730181294 0.0540494384879 0.0228927863064
-0.0833903669744 0.0516687501073 0.0299071322778
-0.0374163872685 0.0756497724499 0.0108082182403
-0.0397327455135 0.084613074749 0.0228371358466
-0.0414875532171 0.0884655463252 0.0299151997319
-0.0454907167027 0.0790378784466 0.0183797811795
-0.0456491467812 0.0819085683053 0.0223280631336
-0.0469570748099 0.0838269830266 0.0256784068483
-0.0426908354388 0.0857853903181 0.0257816875083
-0.0409859305502 0.0821069786856 0.0198331298539
-0.0658354393411 0.0649454417229 0.0300993964212
-0.0727570981088 0.0604987478315 0.0301008859854
-0.0631458299843 0.0698925542385 0.0300997228889
-0.0454497661566 0.085328469851 0.0300970584346
-0.0852861235873 0.046770936457 0.030101985342
-0.0502045565432 0.0832474487455 0.030032955902
-0.0641808015423 0.0748630003246 0.0293202645643
-0.0600303580804 0.0780229060426 0.0296520606047
-0.0763275977242 0.0622530493154 0.0301019996405
-0.0725981733304 0.0665608552651 0.0301019996405
-0.0694152288948 0.0696825437436 0.0301019996405
-0.0790223305442 0.0590606723119 0.0301019996405
-0.0381419977355 0.0545881586196 -0.0117346219423
-0.0383791696133 0.0566465767783 -0.00776973182812
-0.0375773633033 0.0659034475882 0.00168522290896
-0.0380700254335 0.0531431920109 -0.0160138525676
-0.0586489289088 0.0625589356899 0.0108390500111
-0.0676105211289 0.0630800401082 0.0206728078059
-0.0649061035839 0.0614716912631 0.0163143402578
-0.0644815603123 0.0668560657222 0.0210329847592
-0.0609929198123 0.0631824478357 0.0138781500136
-0.0543712713953 0.055849751656 -4.71608617403e-05
-0.0649941793169 0.0697510914238 0.0243417620894
-0.0495119637274 0.0550278566332 -0.00589633167961
-0.0541127801937 0.0620704284402 0.00564602495309
-0.0616890389421 0.0661065425291 0.0174059210724
-0.050987251794 0.056924814442 -0.00254148319716
-0.0578393297792 0.0599432983636 0.00748873139356
-0.0688728596777 0.0649840747592 0.0238126336759
-0.0570846025888 0.0530252609196 0.000164743822764
-0.0743849103352 0.0596245778591 0.0245397538532
-0.0521988068652 0.0513003190274 -0.00658996918128
-0.0677982411746 0.0569603757477 0.0151185160033
-0.061989616293 0.0524627052089 0.00481245856309
-0.0583669636342 0.0557918381576 0.00408938611556
-0.0714250745505 0.0561716337369 0.0182084317079
-0.0610840171095 0.0573702490515 0.00842154552852
-0.0720917347363 0.0627665787848 0.0250441921573
-0.0645756859171 0.0571490494023 0.0118967566885
-0.0688114065474 0.0597551558568 0.0187855995897
-0.0639484414349 0.0538109173641 0.00813122073829
-0.0421572407503 0.044239607127 -0.0165673377095
-0.043551339291 0.0452114888193 -0.00942061195897
-0.0517425190525 0.0438206432385 -0.00522174616946
-0.0475157812597 0.0447388138042 -0.0063297633244
-0.0576316385944 0.0430271298811 -0.00685620160347
-0.0484178165693 0.0749833365929 0.0158263641129
-0.0495658875269 0.0774156556806 0.0196066740432
-0.0416795970668 0.0678337060506 0.00195506700922
-0.0454391259009 0.0687217913861 0.00607563967254
-0.0429066817765 0.0572501870992 -0.00938903889263
-0.0429907845045 0.0643568184817 -0.00102673974734
-0.0433427709655 0.0611164878167 -0.0045193860468
-0.050682102256 0.0628571329928 0.00363397963314
-0.0518548925243 0.0650128534935 0.00712108553465
-0.0559868771122 0.0660731218829 0.0118186126245
-0.0567177723915 0.076023927623 0.0239867631785
-0.0523799790971 0.0679599694321 0.0109838098786
-0.0626372032927 0.0733159616493 0.0258080612877
-0.0536897110744 0.08056224563 0.0267164686044
-0.0511737907273 0.0597998973181 0.00049635746608
-0.0447306643557 0.0534267660499 -0.0123093543956
-0.0472125384369 0.0646525839726 0.00280825596837
-0.0529889122658 0.0776069185708 0.0226968040605
-0.0465889383688 0.0620744999463 -0.000708587034086
-0.042433537871 0.0512793963149 -0.0167299711662
-0.0480302642723 0.0699979115911 0.0097013096022
-0.0471373875279 0.0588424413361 -0.0040015991438
-0.05275498298 0.0728078442143 0.016927814684
-0.0552999679027 0.0701437559125 0.0159692346701
-0.0501451191378 0.0717368019442 0.0134946869427
-0.061188827531 0.0694004946233 0.0200463263222
-0.0581947931306 0.0723165382683 0.0209207715583
-0.0441406539531 0.075981425188 0.0135187068119
-0.00785673132035 0.0573990811034 -0.0150211187819
-0.00796322499108 0.0794527844523 0.00834078270544
-0.00795412879596 0.0569115582607 -0.0229162884237
-0.00802341757024 0.0714034653251 -0.00751368193971
-0.00788410824668 0.0627088915471 -0.0095248049123
-0.00785699653075 0.0506631070822 -0.0245823271619
-0.00796155125973 0.0674581215023 -0.00852599814049
-0.00803701380784 0.0802783313625 0.00405194842913
-0.00791941322554 0.0616912988391 -0.0135777817373
-0.00797880277344 0.0615334018432 -0.0181945483237
-0.0219682945639 0.0439192748086 -0.0272505863801
-0.0401940010488 0.0741915758308 0.0146197011301
-0.0401940010488 0.0625101263581 0.00212499581625
-0.0401940010488 0.067670711279 0.0130258273575
-0.0193845418002 0.0955265195003 0.0299346400984
-0.0111326455166 0.0973344622222 0.0292353694248
-0.0277943930326 0.0691399444952 0.0132053604146
-0.0204422568736 0.0773614310622 0.0198222058003
-0.0336248451835 0.077196342649 0.023949550361
-0.0375645377119 0.0770720659661 0.0251008159023
-0.0316320732283 0.0611551868545 0.00569960011044
-0.0350370527328 0.0665039078897 0.0126804975706
-0.0252077618262 0.0759256468763 0.0198045246168
-0.0376530975478 0.0544212740511 0.000279715776806
-0.0161874229883 0.0804183833183 0.0217853629726
-0.0288319065371 0.0768020778432 0.0219505299349
-0.0366683861664 0.0802783765486 0.0283255504825
-0.0362769760951 0.0713427664005 0.0183944232423
-0.0376447908885 0.0740708155466 0.0218343917024
-0.0332468970525 0.0694445840917 0.0153216191624
-0.026158674404 0.0728558591371 0.0167474659406
-0.0323551728318 0.0640651523285 0.00912843574775
-0.0359868292469 0.0611765188531 0.00714626713507
-0.0350403064444 0.0583909613529 0.00378089737019
-0.0279549315106 0.0797767958161 0.0249274531482
-0.0211939121625 0.0843960604415 0.0277855176174
-0.0198696166224 0.0819598236614 0.024679918091
-0.0251487238002 0.0826826654446 0.027198312632
-0.0373665219842 0.0507258236783 -0.00386820145585
-0.0272197983805 0.0653736117406 0.0088855453514
-0.0230587207979 0.0714848514237 0.0142301847719
-0.0162988034015 0.0834669883355 0.0251663711677
-0.0317627402039 0.0737805015616 0.0195934608658
-0.0125929331657 0.086156837993 0.0269061999954
-0.0395517509347 0.0689782989249 0.0167964547701
-0.0400998691638 0.0846921668914 0.0291329914429
-0.0357495712035 0.0861389180646 0.0301019996405
-0.0283795222457 0.0912798636773 0.0301019996405
-0.0239912821189 0.0918400097109 0.0301019996405
-0.0401940010488 0.050937734558 -0.00815446618257
-0.0401940010488 0.0512699546638 -0.012558043876
-0.0401940010488 0.047230167416 -0.0103325680235
-0.0401940010488 0.0577267629879 -0.00328664378266
-0.0212510195568 0.093016662731 0.0250684019376
-0.0258736874876 0.090163272782 0.0224208318701
-0.0157314134505 0.0959851243585 0.0275965051167
-0.0128126845682 0.0549149435141 -0.0295972548549
-0.0314775169591 0.0521149431143 -0.024874452054
-0.0375215656679 0.0504923514906 -0.021722477583
-0.0358107212977 0.0570892883238 -0.0154209735186
-0.0361887640369 0.0632120443291 -0.00792860833404
-0.0354242345368 0.0543558916756 -0.0189478523972
-0.0376242976499 0.0600943151523 -0.0103824598283
-0.0284610234769 0.0502241030627 -0.0288440388752
-0.0356622766669 0.0463844324837 -0.0273246383918
-0.0268477550572 0.0621247951478 0.00519493841206
-0.0315723136595 0.0552401268787 -0.000815061722332
-0.0302329968001 0.0584182352351 0.00223909519024
-0.0212686803329 0.0651240456545 0.00612641512762
-0.0176869997255 0.067338922427 0.00701444766085
-0.0100851170365 0.0469632440239 -0.0215315028733
-0.0164315247256 0.0528368587141 -0.0112148250113
-0.0207520878487 0.0512976384779 -0.0109116626914
-0.0284670426401 0.046274013471 -0.0131312291941
-0.00941977727524 0.0636585333092 -0.00160590959661
-0.0088417566589 0.0503669371215 -0.0180258551791
-0.0144248762359 0.0572607659104 -0.00685467796584
-0.0187412562597 0.057881631271 -0.00393232995233
-0.0106982860435 0.0597470533519 -0.00571010065456
-0.010313998991 0.0719869391958 0.00895003660185
-0.024258405206 0.0521435336016 -0.00812328383312
-0.0223547342797 0.0467954497024 -0.015569810723
-0.0215508476432 0.0681202310499 0.0099041042349
-0.00852747071768 0.0865810591204 0.0257624560673
-0.0213281178131 0.0618152540516 0.00214102661434
-0.0291698332097 0.0526919128715 -0.00498989513564
-0.0103464978838 0.082213032235 0.0213758432825
-0.0180153208374 0.0605061963258 -0.00111216385215
-0.0113040425194 0.0551037152226 -0.0110404583496
-0.0320627198198 0.0478757325993 -0.00938074751796
-0.0278800072305 0.0496392489007 -0.0093424561142
-0.0121524371076 0.0744973510938 0.0129202387089
-0.0218360964033 0.0442030042202 -0.0189763801807
-0.0159103757569 0.0777403789725 0.0187440007527
-0.0137363630865 0.0663675372579 0.00385052097817
-0.0338082844704 0.0500883506573 -0.00581858914072
-0.0140568896752 0.0449203316902 -0.022014838835
-0.0139436364552 0.0600571158268 -0.00370309288122
-0.0161196401128 0.0712474581178 0.0109699222779
-0.035834208394 0.0462272486122 -0.00948608030375
-0.0117229122762 0.078823848281 0.0179546603898
-0.0161147532505 0.0747126585958 0.0151725256109
-0.0118602472666 0.0690685508162 0.00618550848931
-0.024184597192 0.0595010853513 0.000768098679921
-0.0244038946839 0.049355195712 -0.0114338561032
-0.0144456538451 0.0484143214514 -0.0175794952088
-0.0130518491899 0.0511291293552 -0.0149854134401
-0.00980940312284 0.0665377993611 0.00208389302457
-0.0278137088887 0.0563670729063 -0.00121148164254
-0.0136488181408 0.0635307160628 0.000364017119073
-0.0183873761956 0.0462888028093 -0.0181781746877
-0.0190140317553 0.0494396751118 -0.0140396707512
-0.0217599830166 0.0549680070184 -0.00595117674035
-0.0247998118932 0.0478026013403 -0.0303127809735
-0.0202566760744 0.0496922308857 -0.0303266269527
-0.0164658135917 0.0516246047503 -0.0303513772718
-0.0111985725919 0.049150279653 -0.0301943162214
-0.0174713956814 0.0452607371581 -0.0300395874535
-0.0133471025386 0.0583277142605 -0.025728084773
-0.0177784218894 0.0563022585396 -0.0268769713809
-0.00811337983453 0.058320873198 -0.0273200674647
-0.0191551598649 0.0584008302177 -0.0238808603286
-0.0156771760396 0.071209794547 -0.00719347012824
-0.0115947921035 0.0650204875035 -0.0169869032328
-0.0109525790478 0.0869314386626 0.0134562361945
-0.0135059072294 0.068280275416 -0.0118958185705
-0.0102325931462 0.0759131727597 -0.00214462749301
-0.0133206696538 0.061783194141 -0.0210280806886
-0.0157345154696 0.0644088471508 -0.0166824898319
-0.0138245649821 0.0743763567322 -0.00328663655593
-0.0132670768629 0.078768174875 0.002695301607
-0.0112851881927 0.0894454420098 0.0170629747166
-0.0138750513552 0.0845213663003 0.0109062745471
-0.0121668232086 0.082392903433 0.0074531563388
-0.0281414852697 0.0866495204648 0.0181157250855
-0.0193936517064 0.0782501703962 0.00375335678212
-0.0205557734057 0.0633868448336 -0.0167308924127
-0.0179282770561 0.0731229866314 -0.0038657724357
-0.0119660214377 0.0940459784281 0.0236878401814
-0.024569774628 0.0772096880704 0.00382898919813
-0.0202674469929 0.0821298934894 0.00944908100461
-0.0180613321258 0.0915705006648 0.022024912942
-0.0122997752805 0.0916744122329 0.0204633592782
-0.0250433135953 0.0816584886277 0.0102035877621
-0.0176294562692 0.0867538971894 0.0151472419342
-0.0255894069958 0.0842620719349 0.0140139055753
-0.0219805036811 0.0861023666427 0.01552345576
-0.0169865650063 0.0805493227341 0.00626202546978
-0.0204838777104 0.070684712107 -0.00652539357109
-0.020867747488 0.0659995766509 -0.0129771247796
-0.019954162396 0.0889548668467 0.0189203697712
-0.0182769128781 0.0760319976565 0.000314046446367
-0.0158264281438 0.089212352012 0.0180581323955
-0.0188257990583 0.0685372762809 -0.0100259782205
-0.0243077830807 0.088081919686 0.0189870658521
-0.0225588997821 0.0543827900952 -0.0274065922568
-0.0257479894378 0.0728166167284 -0.00145603641977
-0.0289611338015 0.0730777159937 0.000716171706288
-0.0282306785028 0.0650927095149 -0.0101622521244
-0.0232179207327 0.0589896989041 -0.0210138443042
-0.0236640500088 0.0680318463491 -0.00891224093499
-0.0270918070611 0.0557174134741 -0.023094927799
-0.0287873650692 0.0698833079991 -0.00356828461279
-0.0272355775663 0.078382743633 0.00668428078819
-0.0277359830693 0.0623816361792 -0.0139962070112
-0.0269278091526 0.0592929170484 -0.0185035206083
-0.0359929657704 0.0910932984051 0.0291880923797
-0.0327061076728 0.0899046898372 0.0252324518049
-0.0290202854415 0.0917712631184 0.0258228508083
-0.0387782215641 0.0885012263158 0.0266730993881
-0.030809761964 0.055056296475 -0.0218236493772
-0.0344204708733 0.0668506069468 -0.00427085195496
-0.0322646409186 0.0599314737585 -0.0145907352058
-0.0319421769004 0.0576532962377 -0.0177565407514
-0.0370899383295 0.0706211240843 0.00224843540485
-0.0343835254233 0.0750812724257 0.00648499322026
-0.0302368606986 0.0671909757894 -0.00625915007191
-0.032564629614 0.0731335167999 0.00287796333661
-0.0326236116392 0.0626995933872 -0.0107611960914
-0.0365884955317 0.0870421977898 0.023437829987
-0.0349445982545 0.08078566649 0.0142857337798
-0.0362073025845 0.0845616757212 0.0199661707806
-0.0307563887257 0.0842110377438 0.0163463603143
-0.031896135277 0.0777555567643 0.008547436414
-0.0302654725372 0.0806619833514 0.0114108053945
-0.0329747887655 0.0867624744516 0.0209761198495
-0.0146642694066 0.0881352856584 0.0297308327163
-0.0326117968923 0.0830780559757 0.0300603626086
-0.0218770534208 0.0881914651882 0.0301019996405
-0.0172686663124 0.0919186493136 0.0301019996405
-0.0104004244225 0.0929595846992 0.0301019996405
-0.0289650877779 0.0865009786704 0.0301019996405
-0.00798746732861 0.0860929055183 0.0190665407677
-0.0324092874991 0.044256222269 -0.0200863413509
-0.0185622353713 0.0437052023119 -0.0217715101443
-0.0267102126879 0.0440294372516 -0.0255635407273
-0.0330305033727 0.0442809425012 -0.0152640232548
-0.0273366400049 0.0440543648643 -0.0179698476425
-0.0399956694005 0.0471646529197 -0.0231330228743
-0.00788743417145 0.0669192012785 -0.00377429030566
-0.00796708062989 0.0834325602521 0.0143444165197
0.0673942825514 0.0217752238634 -0.0103010341216
0.071092417757 0.0174668153483 -0.00711270485001
0.0584686829038 0.0209094048921 -0.022821816366
0.0683751565719 0.0179949049295 -0.0105853120297
0.0655543062911 0.0201326787882 -0.013509343111
0.0595184569892 0.0166424143392 -0.0232207940246
0.0619792560771 0.0184428396049 -0.0190997617335
0.0754433443814 0.01781084857 -0.00104267421372
0.0866923799472 0.0353729985654 0.0238713081054
0.0824787754871 0.0353729985654 0.0223377429415
0.0870423703212 0.0353729985654 0.0281935270569
0.0753634015792 0.0353729985654 0.0134558649344
0.0786497614029 0.0353729985654 0.018370609007
0.0525222882379 0.0310171771871 -0.00557907301688
0.0583890738761 0.0266650176653 1.76575011025e-05
