-0.0318623724068 0.0284092370585 -0.114589961675
-0.0352518761256 0.0230071372309 -0.114123647346
-0.051534864571 0.00403449846988 0.022245021487
-0.0514558549901 -0.00424678514319 -0.0391911488674
-0.0515904243492 -0.000167259131649 -0.00442270312201
-0.0513548508675 0.00368714563252 0.0113478684977
-0.0517481802062 -0.00467245818922 -0.0283931382813
-0.0501048174741 0.00455441266094 -0.0414680637617
-0.0521653814278 0.000606010563217 0.0280395376129
-0.0510376529931 0.000581435489259 -0.0252330575329
-0.0516996799454 -0.00198908396261 -0.0119752729838
-0.0510019829677 0.003274158819 -0.00814589731423
-0.0508096392756 0.00346334279083 -0.0158842750269
-0.0521042068551 0.00209977030517 0.035569669903
-0.0515750532816 0.00299678254677 0.0169050950953
-0.0514407930011 -0.00113838385028 -0.018236578989
-0.0514548501895 0.00175669069988 0.00260235850592
-0.0509504087384 0.00441326359535 -0.00263545778219
-0.0491656111789 0.0153217383543 0.0398890725235
-0.0515574951053 0.00673193194343 0.0542756213039
-0.0515452838302 0.0077223309346 0.0671873437378
-0.0490591953951 0.0147213858424 0.0257703772134
-0.0497335621294 0.00793181241967 -0.0300926320609
-0.0494944250594 0.0118032635723 0.00979808155928
-0.0479021118473 0.020317515308 0.0385760868114
-0.0520744999017 0.00601134710113 0.0729708188933
-0.051570382576 0.00562323805685 0.0397784528848
-0.0498599712991 0.0149238790224 0.0728159506197
-0.0498592788851 0.00944733569609 -0.00235220382796
-0.049908452942 0.00808303622999 -0.018349935632
-0.0507028467697 0.00644775090563 0.00313129363882
-0.051359442902 0.00555105983619 0.0271273259364
-0.0490196406584 0.0179024667764 0.067223363624
-0.0508697859566 0.00880088617529 0.044641305623
-0.0482811343497 0.0211585376181 0.0710663726752
-0.0509545013897 0.00765646079628 0.0336246751462
-0.0511122441343 0.00819634365414 0.0497512229268
-0.0489340343606 0.0155963672228 0.0308547719165
-0.0499530224227 0.0139732592625 0.0649188447224
-0.0520507042939 0.00513381759571 0.0596169991597
-0.0495650500482 0.00984569752036 -0.0131525405017
-0.0481697283321 0.0199459346176 0.0482726632575
-0.0506648959607 0.00752648040331 0.0158318702293
-0.049367874367 0.0117756109498 0.00242288365023
-0.0502731149285 0.00949970803885 0.0212435258711
-0.0492921848311 0.0153976254795 0.0479272439754
-0.048917995357 0.0174576170538 0.0555016479103
-0.0503508598579 0.010379732474 0.0376139434264
-0.0482305537241 0.02077520812 0.0630115263662
-0.0490483233713 0.0143919220095 0.020649616495
-0.0486957338314 0.0153718366815 0.0146010671611
-0.0500132362724 0.012791257973 0.0520322582337
-0.0492062778547 0.000517210780199 -0.0579715917375
-0.0476559349831 0.00559952577258 -0.0658791390439
-0.0461106011621 0.00608626195048 -0.0808178006625
-0.0504638823317 -0.00336150869344 -0.0511812335822
-0.0480952130014 0.00611261193783 -0.0606287570038
-0.0494592356889 0.00643354465966 -0.0462861765504
-0.0471008492149 0.0044405936164 -0.0733005138468
-0.0461484647133 0.00891624923995 -0.0760722755266
-0.051199512481 -0.00390991185144 -0.0445579832996
-0.0502796119725 0.000504646756317 -0.0470941096186
-0.0450530133583 0.0106009385203 -0.0845974883263
-0.0485346338341 0.00717314167717 -0.0545332929675
0.0696392213144 0.0165254105626 0.0283695333406
0.0687483085164 0.0135758533701 -0.00668503027314
0.070515661614 0.0146294348072 0.0433734315949
0.0700821929205 0.0206686356497 0.0566679494253
0.0670170204275 0.0149576251925 -0.0459202893718
0.0699481889643 0.0170280015318 0.0384136385559
0.0709652078718 0.0130016917733 0.0484085493471
0.0686755835267 0.0192173788267 0.0143391405303
0.0698273117653 0.0194165283251 0.0449813757425
0.0667042942841 0.0126253676813 -0.0634912992468
0.0711126685695 0.0156805391557 0.06310600135
0.0699256763224 0.0133611839447 0.022941000619
0.0674207923644 0.0135763107525 -0.0410702294475
0.0699334455256 0.0103125574478 0.0107629904212
0.0720922320445 0.0088365722518 0.0606893089505
0.0712903888708 0.00913359278313 0.0411250023778
0.068995605414 0.0162803834097 0.0107027963589
0.0682774892725 0.0154960896573 -0.0110834900511
0.0693730873578 0.0196375221145 0.0341128299339
0.0677715319172 0.0135643436865 -0.0320335091534
0.0692768259001 0.0165154243392 0.0189417441409
0.0706126800464 0.0114011667336 0.0327778185355
0.0706944053616 0.0158210686496 0.0528422360175
0.0694102810401 0.010291920233 -0.00287249857915
0.0719343015596 0.0124170096974 0.0711371180948
0.0689960118944 0.0150599119597 0.00575747697771
0.0696889516908 0.00970518809056 0.0019635068219
0.0714535688467 0.0164009288619 0.0748616611092
0.0687939031674 0.0100919656401 -0.0196506588876
0.0706844945917 0.0203449809571 0.0709553207809
0.0680133831021 0.0135773971194 -0.0257157592373
0.066148821617 0.0124293757269 -0.0786757227143
0.0676773613235 0.0173976528869 -0.0189072965706
0.0717604850801 0.00830517083078 0.0499381564216
0.0707053191162 0.00927010539693 0.0265240851596
0.0703776978331 0.0208480397376 0.0650509920102
0.0670473763172 0.0125088486553 -0.0550774779035
0.0687530971381 0.0149659380155 -0.000916408928368
0.0721023089015 0.000628807391402 0.0547367106125
0.0673174362979 0.00622926002747 -0.0573038104145
0.0724473376144 0.00764257224623 0.065379833658
0.0688111153942 0.00547430847714 -0.0219850951154
0.071123870689 -0.00100963075356 0.0308637837583
0.0652580037556 0.0117231635772 -0.104460729865
0.0716347083368 0.00460304964559 0.0449721834031
0.0706814506056 0.0019172015867 0.0213369965215
0.0666369178298 0.00749949207479 -0.0730747855888
0.0720215005882 0.0066650786218 0.0548984303284
0.0692093727827 0.00125800768469 -0.0139560073765
0.0729827680058 -0.0108531861686 0.0717403557593
0.0724585900661 0.00305871793772 0.0640633458061
0.0675490645535 0.00823219919182 -0.051094021389
0.0696429902937 0.00333410973166 -0.00290951032165
0.070985823783 0.00398856677895 0.0293032347714
0.0723924762204 -0.00410850356464 0.060010974915
0.0679066129404 0.00862936651381 -0.0424398689397
0.0704795198257 0.00768862631994 0.0185220082848
0.070331132365 0.000579035391723 0.012529787717
0.070709076001 -0.00619225823137 0.0191918017724
0.0699874574305 0.00480880596299 0.00580551922269
0.0714263806623 -0.00507957862041 0.0366627427593
0.0708965772167 -0.00545885004129 0.0239116324933
0.0712197457896 0.00263103577043 0.0344060313299
0.0660186378432 0.0105675492906 -0.0867417669112
0.0719590781378 -0.00642177113351 0.0488877225226
0.071426070174 0.000450796928242 0.038567058568
0.0682834611639 0.00782517907107 -0.0337412693098
0.0708908642533 0.000146084016896 0.0257130334513
0.0716037446751 -0.00913581359211 0.0394854444906
0.0702423717757 -0.00444109992328 0.00868016132521
0.072529718674 -0.00885728425169 0.0616385788416
0.0684177720089 0.00172696109728 -0.0326499633046
0.0718105682557 -0.00102156331457 0.0472169085566
0.0686745477015 0.00200439033952 -0.026437623539
0.0690015557113 0.000792865001123 -0.019067032505
0.0698649157599 0.000650999623588 0.00144930731921
0.0678730265415 0.00305217736747 -0.0451677964902
0.072400124238 -0.012445608312 0.0573112245969
0.0705892791846 -0.0015070562551 0.0179577782455
0.0692188220563 0.00879961769134 -0.0111239792745
0.0696371123326 -0.00175774073233 -0.00480964892715
0.0668826855305 0.00751566385099 -0.0672149681423
0.0727277985657 0.00139988322298 0.0699025193535
0.0728446864711 -0.00604516872873 0.0701132414365
0.0681448002888 0.00427197809974 -0.0382724464657
0.0721559191678 -0.00462287398679 0.0541983418933
0.0726890167678 0.00700075582016 0.0709148112622
0.0669034464315 -0.00128535753949 -0.0674601533444
0.0662217389911 -0.00720836953047 -0.0829132292588
0.067836414359 -0.00299345769594 -0.0463114561809
0.06671200236 -0.00335282838428 -0.0717998445303
0.0674697335215 -0.00712895174052 -0.0546234482204
0.0721601809445 -0.0148122149058 0.0517005198242
0.0671152082352 -0.00506509533062 -0.0626598958791
0.068345489599 -0.0112073845124 -0.0347716403216
0.0650759280548 -0.00170131433067 -0.108886692853
0.0660157408772 -0.00846905994406 -0.0875828342907
0.0652874101048 0.00681379654171 -0.104092776901
0.0687869478291 -0.00350078639487 -0.0247645799045
0.0652231212764 0.00172020837755 -0.105550088479
0.0670700957655 -0.0108682778241 -0.0636825140563
0.0695983247988 -0.0083007643773 -0.00637213005576
0.0660677819993 -0.000928382315284 -0.0864031560838
0.0692941995574 -0.0135978713676 -0.0132660997627
0.0726977755588 -0.0140827648602 0.0638868183654
0.0664712308619 -0.00280925103362 -0.0772576993472
0.0692141272583 -0.00365329749112 -0.0150811941036
0.0685699700451 -0.00854191076015 -0.0296830742167
0.0652567757314 -0.0098257909277 -0.104787202792
0.0694259410924 -0.00430107303295 -0.0102797572051
0.0676852355217 0.00135570910429 -0.0497384072598
0.0680941779021 -0.010077286908 -0.0404684224039
0.0689180997225 -0.00754301790383 -0.0217916034556
0.0665861357498 0.00149788377369 -0.0746530131573
0.0704518185258 -0.00672897678746 0.0129750305827
0.067143351833 0.00140201176291 -0.0620219313697
0.0701599332462 -0.00965473584193 0.00635851869232
0.0718847584324 -0.012148920799 0.0454571891276
0.0678934792124 -0.0123317839761 -0.0450178990628
0.0655529484981 -0.00974274543607 -0.0980735013169
0.0655424063748 0.00894803858976 -0.0983124722047
0.0650704083038 0.0103010510642 -0.109011815634
0.0698464234059 -0.00760880128474 -0.000748182915227
0.0657726065979 0.00520852628533 -0.093094249088
0.0668794243586 -0.0084385708428 -0.0680046903323
0.0650631470404 -0.00775291599983 -0.109176415356
0.0683484387077 -0.00248157097192 -0.0347047893569
0.0656198061346 0.00122250009761 -0.0965579595019
0.0663221461117 0.00111407249936 -0.0806371812576
0.0658517869838 0.000282735861235 -0.0912993728102
0.0699117881437 -0.0128911543734 0.000733517586434
0.0664891635956 -0.00784117964661 -0.0768511966768
0.0680909470942 -0.00300535064746 -0.0405416589798
0.070900574325 -0.0123184279132 0.0231475137067
0.0660359779103 0.00547439512254 -0.0871240973154
0.0688443903634 -0.0128342796904 -0.023462461444
0.0674978812752 -0.00071486906736 -0.0539853895047
0.0677455555124 -0.00714198021782 -0.0483710620622
0.0657118338365 -0.0042142568361 -0.0944718577816
0.0712624573293 -0.0139334491279 0.0313507475386
0.0711772487373 -0.0091682614989 0.0294192227177
0.0649761849837 0.00373149514044 -0.111147688052
0.0666571160749 -0.0113304821757 -0.0730440174392
0.0654476267079 -0.00372324195669 -0.100460955999
0.0672900227942 -0.00214924261922 -0.0586971656956
0.0691747026836 -0.00844035789014 -0.0159748779762
0.0673267562161 -0.0106763751199 -0.0578644853926
0.0664219992974 0.00526473702973 -0.0783736899595
0.0166146428361 -0.0609534428525 0.00590249288888
0.0190695204437 -0.0590770785235 -0.0235721139611
0.019876397656 -0.0614330205199 0.0281091983197
0.021662388277 -0.0560955946977 -0.0753406717876
0.0179617316797 -0.0585519700803 -0.0385921961198
0.0166327220684 -0.0592727733162 -0.0287257686089
0.0169636747483 -0.0606645712644 0.00125574575344
0.0135400865292 -0.0603041891007 -0.0191008082984
0.017914081443 -0.0620574708364 0.0335971065893
0.0208145696605 -0.0577758991783 -0.0438504248629
0.0218368600691 -0.0567932341036 -0.0602800459281
0.0146066439029 -0.0617899551312 0.0155959465537
0.0203842123995 -0.0623107202316 0.0481447186485
0.0200149769029 -0.059151254911 -0.0184737235998
0.0212238005756 -0.0603199667936 0.010214376475
0.020237038782 -0.055724982338 -0.0883693771787
0.0136903325725 -0.060021640764 -0.0243670037863
0.0183950752439 -0.06017436176 -0.00346389969123
0.0189800610447 -0.0596405057582 -0.012277993951
0.01429068349 -0.0616138952521 0.0107692202556
0.0183632175601 -0.0569600589589 -0.0699415564532
0.0185129751283 -0.0578616799711 -0.0507630886865
0.0123290757692 -0.0611267026471 -0.00668943758156
0.0682963776137 0.0265496968879 0.0687464034896
0.0592462009697 0.0390802177573 0.0586062086056
0.0674631839902 0.0281995185834 0.0630475896786
0.0598770054427 0.0375581757345 0.0655421802794
0.0556837575812 0.0434817126465 0.0597133023143
0.0673858131268 0.0288391867193 0.0578467539207
0.0642167250716 0.0321659075339 0.0644857372138
0.0618379915732 0.0296149200779 -0.0311536116972
0.0523972115104 0.0475996744592 0.0580520396476
0.0647970192009 0.0314973231384 0.04752687944
0.0563904075379 0.0360994768086 -0.0348921947093
0.0540542087506 0.0450574755145 0.0511084829196
0.0538060753717 0.0429880536824 0.0174005985543
0.0564419932529 0.0369464390933 -0.0219742604873
0.0581779272444 0.0358676177942 -0.00677733539922
0.0564200985275 0.0365664745669 -0.0277475896559
0.0636289399536 0.0316651378204 0.0293860529159
0.0570247240609 0.0334970852946 -0.060655834962
0.0646183201207 0.0287513389214 0.00544376048424
0.0633971820689 0.0328155500468 0.0416297621889
0.0528183733107 0.0448481506336 0.0264286979878
0.0554140676395 0.0425712541082 0.0397386846587
0.0593951902556 0.0335088890325 -0.0188441448402
0.0608232804598 0.0327700758361 -0.00423339299949
0.0554239639251 0.0395294320401 -0.00322678866855
0.0622016820126 0.0298953864742 -0.0207867136434
0.0560323115909 0.0379769248169 -0.0145571174854
0.0594878234101 0.0354549602487 0.0103825486431
0.0633250632996 0.0339087757975 0.0558669847484
0.0664470993266 0.0291555666904 0.043304492381
0.0557184439108 0.0415739051227 0.0309414867926
0.0627623867947 0.0324174247855 0.0248314552577
0.0580076244013 0.0334292155483 -0.0443508006851
0.0645522812509 0.029577052699 0.0159939212512
0.0556830724616 0.0403784886227 0.013366602583
0.0581296734645 0.0378323607078 0.0202390633747
0.0616136669019 0.0325391839626 0.00637757101589
0.0600142441123 0.0312767698017 -0.0396246920842
0.0632269485379 0.0308694375745 0.011039202202
0.0668068647819 0.029332004783 0.0521270998144
0.0569880398595 0.0339102094252 -0.0554413470605
0.0581799467124 0.0365349867267 0.00272281493414
0.054386949612 0.044181874456 0.0445362309628
0.0623202631279 0.0312165470584 3.33071258934e-05
0.0598829697977 0.0368458664678 0.0370503983713
0.0612862756351 0.0338988308717 0.0199085762536
0.0593586823242 0.0340818724255 -0.0113594251133
0.0568746742606 0.0330274763607 -0.0699519323584
0.0641910405069 0.0313897010019 0.0353547568584
0.0550770477721 0.0407744718292 0.00833583776914
0.0577578868203 0.0301630541018 -0.0950591116396
0.056961412641 0.0416435131404 0.0537651149662
0.0596067836097 0.0378474825383 0.0464033549828
0.0590352704491 0.0306367476203 -0.0659001148915
0.0521570834693 0.0466689971416 0.0406345463369
0.0592709475266 0.0371210593007 0.030201210764
0.0595547077999 0.0312407664348 -0.0482084163537
0.0664920703825 0.0161385354103 -0.0518436389613
0.0664476069625 0.0152011735716 -0.0590938803077
0.0674490335757 0.0197811057407 -0.00759631813718
0.0672187671217 0.0241359868229 0.0171337992774
0.0677412285139 0.0199241952857 -0.000639670069349
0.06854206277 0.02090603178 0.0224143736249
0.069457284008 0.0239408578045 0.0616962662355
0.0682966381106 0.0227732607481 0.0300110988645
0.0664784281787 0.0190903966066 -0.0321613526281
0.068245643912 0.0248511810143 0.0430177867001
0.0677311910497 0.0256891684228 0.0381401173811
0.0687981764742 0.0240691814451 0.0490545777467
0.0682270347097 0.0195064465686 0.00649269568201
0.0670517177718 0.0166118827472 -0.0371717583836
0.0661125254305 0.0146776973406 -0.0695019162143
0.0636409186133 0.0184247930149 -0.0878919024551
0.0617206813894 0.0275946404536 -0.0551527259784
0.0632238905495 0.0279954419925 -0.0258389047888
0.0619066868604 0.0285602341428 -0.0448852263673
0.0628730890379 0.0189072034863 -0.0978840332746
0.0654815339656 0.0221674623125 -0.0284247445314
0.0642482501472 0.0270358553011 -0.0147991964339
0.0647512787224 0.0196263948017 -0.0596744998556
0.0628720175362 0.0224020974861 -0.0725677494688
0.0649865702134 0.018385005564 -0.0645399563136
0.064873758195 0.0207341602315 -0.0494923951174
0.0620781534944 0.0258828139952 -0.0612819996198
0.0661454668947 0.021379187943 -0.0224751290753
0.0638788439463 0.0239509019814 -0.0436522900528
0.0606457252533 0.0274453459651 -0.0751197898153
0.063715252676 0.0154335836068 -0.108269812339
0.0592892824621 0.0272943393664 -0.100044415308
0.0663135901332 0.0246186989661 0.00396224694233
0.0612292856775 0.0241510173708 -0.0887489890402
0.0631020898861 0.0228907643541 -0.0649834113859
0.0618181866965 0.0196622012003 -0.110943417627
0.0644081187508 0.0157434665781 -0.0938511623375
0.0630484243054 0.0212928760245 -0.0775095834879
0.0633976730411 0.0168232289713 -0.103775256841
0.0597952028988 0.0244958546251 -0.111443131582
0.0660577703366 0.0280822118103 0.0245756317264
0.0650995215892 0.0165238907903 -0.0760471813287
0.0622797923507 0.022346444731 -0.0833753829003
0.0653583236858 0.0251451647681 -0.00900340506494
0.0657010516028 0.0194085614533 -0.0445680271667
0.0647530851388 0.0272447891408 -0.00441566983433
0.0660553058429 0.0224001232386 -0.0166581346403
0.0632651781673 0.0266191097854 -0.0350908418397
0.0612729749583 0.0230015701566 -0.0963140040886
0.0666992054733 0.027612076531 0.0324362533693
0.0615230598545 0.0216288736679 -0.101871439993
0.0588127175426 0.0277747649777 -0.104934004801
0.0597657161542 0.0284410199792 -0.0833619489313
0.0662665761121 0.0255114977647 0.00960836304767
0.0650435826643 0.0221953043572 -0.0359168297143
0.0594842031835 0.0282443597714 -0.0897331863161
-0.0151843463231 -0.0513689182209 -0.056301750566
-0.00731972078142 -0.0543075801584 -0.0632270098397
-0.00762725605202 -0.0521116874025 -0.102230820805
-0.0115389052794 -0.0540204440214 -0.0351770225704
-0.00662938100559 -0.0559125086389 -0.0384131829732
-0.0109566596074 -0.0509558986068 -0.0976333127562
-0.00972772633106 -0.0572959422923 0.0122745043258
-0.0105447845503 -0.0517457028102 -0.0859944799226
-0.0123875307053 -0.0528513561898 -0.0505095541221
-0.0107938451502 -0.0553484872684 -0.0160229617818
-0.00927509354734 -0.0565576371752 -0.00525018304918
-0.00683097103528 -0.0579476994147 0.0015963711175
-0.00958774504018 -0.0536021732974 -0.0585488931498
-0.0102243600116 -0.0568417105019 0.00764133018745
-0.0152705013839 -0.0501041805524 -0.0794878738477
-0.00930379459846 -0.0580674136169 0.0234716974588
-0.00733902890703 -0.0549650563189 -0.0506652133053
-0.0119927696361 -0.0541648297549 -0.028851683033
-0.00803967402313 -0.0525608681528 -0.0904818234615
-0.0154465474087 -0.04918917843 -0.0953603229348
-0.012365286993 -0.0543880927113 -0.0216829774724
-0.00843658894069 -0.0587543418694 0.0295569791159
-0.00944672312015 -0.0524723821405 -0.0809902598167
-0.0111576691746 -0.0536951608932 -0.0443403304674
-0.0124071886456 -0.0520983230031 -0.0645657081843
-0.00653214232692 -0.0528737303027 -0.0965357964707
-0.00943824288671 -0.0591920113231 0.0457629014022
-0.0119986269624 -0.051953154687 -0.0705464490671
-0.011383464133 -0.0519382727205 -0.0757071651035
-0.00489924232588 -0.0530024539932 -0.107059536323
-0.00774166712828 -0.0560341517634 -0.0272940646142
-0.0155016709973 -0.048845819241 -0.101403311441
-0.0100628462364 -0.0574728549885 0.018271776029
-0.0185416330688 -0.0489069296936 -0.0736675293606
-0.018690533978 -0.0551905915637 0.0548759105355
-0.0141397509553 -0.0557462781507 0.021722223299
-0.0171795906208 -0.0507870963002 -0.0489267011355
-0.01877210134 -0.0527393479758 0.00609369358683
-0.0190426432959 -0.0542104684646 0.0384871385198
-0.0181345001659 -0.0516580885796 -0.0219952263436
-0.0138505192615 -0.0570303697784 0.0448723150663
-0.0125468676175 -0.0580839736552 0.0534650062135
-0.0217026586317 -0.0527068643057 0.0340242139653
-0.0165733331721 -0.0551924621621 0.0342604968029
-0.0166573966679 -0.0534600005712 4.04362668691e-05
-0.0181051651165 -0.0497996914066 -0.0598686115958
-0.018379761573 -0.0482974715225 -0.087573247536
-0.0222610160706 -0.0531942528702 0.0493287112248
-0.0172220463551 -0.0517118438079 -0.0298089609298
-0.0195371905251 -0.0526518856894 0.0117881435371
-0.0168452337322 -0.0512607914961 -0.0426075694683
-0.0166465896489 -0.0515927897822 -0.0378304692384
-0.0161702413019 -0.0503452935776 -0.0677086127488
-0.0139683906256 -0.0544016377294 -0.00714557010299
-0.0209391977884 -0.0500918269483 -0.0263140641477
-0.0153192588438 -0.0546850831457 0.0117649772996
-0.0207924540306 -0.052354581771 0.0180200576124
-0.0172692592306 -0.0563202793229 0.0638600340498
-0.012630975809 -0.05872550818 0.0672609089746
-0.0122998393052 -0.0575574704126 0.0404063994505
-0.015736005396 -0.0530487339051 -0.0172658360432
-0.0175391593155 -0.0554447389039 0.0487845615994
-0.0119992932865 -0.0586023612889 0.0586081383384
-0.012415602433 -0.0556177681354 0.00230399816318
-0.0200338149966 -0.0515488093707 -0.00567769056888
-0.0181822090562 -0.0522251538067 -0.0100605851883
-0.0206095136279 -0.0536908797341 0.0432629237572
-0.014322326863 -0.0554083015738 0.0166674637704
-0.0169210747595 -0.0545981348727 0.0256320745129
-0.0176519559697 -0.0453373601989 -0.115114529958
-0.00945747894165 -0.0508318530329 -0.108429561228
-0.0169242439485 -0.0469192454163 -0.109618563628
-0.018715406215 -0.0469381220277 -0.104922683055
-0.0209439577622 -0.0441729941642 -0.109670295109
0.0356032469451 -0.0539342213432 -0.0199374614161
0.0374253006954 -0.0526530737881 -0.0243109293844
0.0372408883292 -0.057959991067 0.072407096686
0.0412797548269 -0.0536798954853 0.0359302814496
0.0378312464386 -0.0521293517543 -0.0297164848482
0.0368882362102 -0.0562600155301 0.0370300173367
0.039189792437 -0.0562427244069 0.061277760014
0.0378975988375 -0.0514695305641 -0.0412781044115
0.0365923893686 -0.0546517242233 0.00396428485965
0.0344307507885 -0.0528671563401 -0.0522969276678
0.037347140667 -0.0553477470542 0.024964448457
0.0420613398471 -0.0548348730027 0.0657515499214
0.0357883691256 -0.0529514940672 -0.0362359180212
0.0383806464143 -0.0559484152832 0.0471671368102
0.0356797407459 -0.0556695323978 0.0131487011319
0.0392200969126 -0.05515261973 0.041329838636
0.0402003570415 -0.0553260365018 0.0550190216551
0.037711066054 -0.0554880644398 0.0314587005006
0.0363938690401 -0.051499734496 -0.0567688652844
0.0389557566066 -0.0527908821599 -0.00541053350361
0.0392337492038 -0.0537581321004 0.0155438939636
0.0351850835151 -0.0547021833344 -0.0101204808693
0.0345990499657 -0.0521680290408 -0.0635011882449
0.0381297557799 -0.0527564278886 -0.0148688609412
0.0406666643268 -0.0522590927348 0.00296445828026
0.0426249116105 -0.0526831826283 0.0737778827155
0.0594133502653 -0.0329828884746 0.0750206713624
0.0321496636691 -0.0524432429847 -0.0778177575076
0.0330691064121 -0.0513203507447 -0.0940724935094
0.0282582991301 -0.0545029021755 -0.0633454868087
0.0279804626825 -0.0539687385848 -0.0760548396035
0.0273234160292 -0.0559079756081 -0.0415055852659
0.0318877719426 -0.0513278885808 -0.102140864906
0.0254302415021 -0.0542935591525 -0.0872480160342
0.0319250856224 -0.0549749527103 -0.0283068223427
0.0293254152845 -0.0549602056216 -0.0466943958694
0.0334614481574 -0.0516853548999 -0.0839788976931
0.0296700385205 -0.0564424057495 -0.0143949960611
0.027164889246 -0.0531716956393 -0.0978093116022
0.0279014137082 -0.056078926542 -0.0340348345869
0.0315738603409 -0.0545670997597 -0.0389787192491
0.0342553939699 -0.0532258200321 -0.0473774262642
0.0318074077347 -0.0535965485709 -0.0569330616037
0.0304423899206 -0.0557820499203 -0.0223422603839
0.0247921335389 -0.0548233233784 -0.081001107036
0.0329996106793 -0.0571123672015 0.0222897025184
0.0320700342458 -0.0529106999125 -0.0689415806533
0.0319515219935 -0.0563543839158 -0.000294776883996
0.0296116062027 -0.0518353501658 -0.107742472791
0.0265994864911 -0.0553115136773 -0.05857590385
0.0257481924672 -0.0533750920044 -0.103564305213
0.0326628478742 -0.055844143519 -0.00563832571417
0.0314403048186 -0.0586757590852 0.0439310787623
0.02685062848 -0.0566738564243 -0.0288454842581
0.0222670504353 -0.0580756342538 -0.030890486228
0.0223843894797 -0.0595189384541 -0.000117252654069
0.0290452276034 -0.059039853522 0.0352116555786
0.0275886964474 -0.0576813468775 -0.00290397006658
0.034201286148 -0.0588822145786 0.0669874314449
0.0346230537336 -0.0580337632385 0.0522332603237
0.0317448160077 -0.0594794936138 0.0626936197947
0.0238247699576 -0.0612225096488 0.0450551352481
0.0218047832752 -0.0605656999932 0.0176826168557
0.0276970566837 -0.0573623825659 -0.00879184362197
0.0228842974573 -0.0609300804089 0.0325886303332
0.0227790679094 -0.0620359500005 0.0548408054603
0.0311525713309 -0.0574686498864 0.0169050109532
0.0263597192553 -0.0572439198692 -0.0203430843853
0.0236047694063 -0.0579033383833 -0.0253753367274
0.0281046490306 -0.0599858163108 0.0484642538636
0.0275426370115 -0.0605678440913 0.056731796802
0.0325079007929 -0.058067909675 0.0385641004278
0.0227753183966 -0.054878495406 -0.093835893507
0.0246029804227 -0.0580787625752 -0.0149463839986
0.0247388541624 -0.0594179633474 0.0137907487636
0.0238154418219 -0.0608720081171 0.0377122545188
0.02908422807 -0.0576734574565 0.00709846707792
0.0226514964356 -0.0577041903997 -0.0359915235652
0.0230990980491 -0.056887672549 -0.0499068628483
0.0293610854704 -0.0578215900034 0.0120570061488
0.0240734549159 -0.0600514382498 0.0224239795528
0.0236694303333 -0.0557433077832 -0.0697968690344
0.0325994776862 -0.0575271000829 0.0279546936898
-0.0402861010233 -0.0371088273063 0.0727082162502
-0.0507237435323 -0.0114947055159 -0.00645694338522
-0.0513463385299 -0.0108463020509 0.0147436140914
-0.0491396303845 -0.018366500248 0.0592186993305
-0.0464700292992 -0.0249950674911 0.0564645422466
-0.0476263505832 -0.0223824224465 0.0635782990902
-0.0501912316031 -0.0152064671606 0.0477296296353
-0.050355122657 -0.0145061151215 0.0411776490393
-0.0499203661899 -0.0162100184291 0.0550321627321
-0.0455230710692 -0.0279265267775 0.0687774570471
-0.0473743655147 -0.0220723536364 0.0418838027908
-0.0514463637659 -0.0100432592892 0.00214102000889
-0.0493286837498 -0.0159238910557 0.0142149183444
-0.0490611153498 -0.0161404019239 0.00368008625346
-0.0499143928684 -0.016617287235 0.0640153359028
-0.0494113666421 -0.0165928967801 0.0343274457912
-0.0498527008735 -0.0134825125921 -0.0113636236238
-0.0499043742344 -0.014983751128 0.0260166922618
-0.051147435912 -0.0110423203874 0.00771566234754
-0.048207007217 -0.0185302570514 0.00896353563501
-0.0474509043384 -0.0215943475953 0.0353665918285
-0.0474687626014 -0.0221002508992 0.0479891665154
-0.0454782221389 -0.0277157925177 0.0613531795002
-0.048815728266 -0.0195846403593 0.0683654532447
-0.0513932566967 -0.00930222615595 -0.01790872469
-0.047851137542 -0.0203470196128 0.0299714206418
-0.0430780572699 -0.0172407867292 -0.0857329943815
-0.0400463559914 -0.0201700454098 -0.102496844833
-0.048338917385 -0.011796459027 -0.0579538899024
-0.0451083326867 -0.0127144206159 -0.0838138426329
-0.0459477713333 -0.013259178775 -0.0742518273048
-0.0402273427822 -0.0210566982532 -0.0976437967105
-0.0464596013425 -0.01052270805 -0.0795576540426
-0.0386126859608 -0.0223656856512 -0.107483350485
-0.0465396968568 -0.0137086955775 -0.067271947491
-0.0381652366825 -0.0248347451685 -0.102566223048
-0.0421020367109 -0.0169146426308 -0.0957357982952
-0.0422183363832 -0.0133426974329 -0.10764754062
-0.0364876080453 -0.0278067266133 -0.106939766631
-0.0501789042059 -0.00850741187687 -0.0532639276319
-0.0393574676164 -0.0243100153751 -0.0936975911207
-0.0422179392245 -0.0180014142641 -0.0907446127082
-0.048147481815 -0.0107543213745 -0.0634656076359
-0.0421534923591 -0.0152118250908 -0.101450387172
-0.0388635290512 -0.0353249483338 0.0190720225078
-0.0404014351912 -0.0326189995606 0.0138739190061
-0.0422985922474 -0.0313871401637 0.0337194670565
-0.0388117189981 -0.037323526815 0.0430269445887
-0.0383403740247 -0.0365583188201 0.0247409355763
-0.0378381091087 -0.0334189887298 -0.0237170172955
-0.0357632171152 -0.0319069305771 -0.0810690131023
-0.0367711050724 -0.0328976202105 -0.050015971179
-0.0411128049356 -0.0325852538759 0.0266532022024
-0.0379091623522 -0.0353572658851 0.00176594681684
-0.0392187185917 -0.0376368352422 0.0544851415922
-0.0409815842711 -0.0338643431469 0.0401647232985
-0.036623170209 -0.033969071623 -0.0394032174334
-0.0381685653403 -0.0354431899438 0.0076505768387
-0.0394826157068 -0.0354064995889 0.031576332824
-0.0399235989344 -0.0317328539484 -0.00604027092465
-0.0427927232477 -0.0334434314732 0.0685242349071
-0.0423214392342 -0.0329758859127 0.0539503172926
-0.0394831880537 -0.0319478442347 -0.0115321342271
-0.04069524208 -0.0360054833857 0.0615450470697
-0.0462910759378 -0.0232266865827 0.02234989571
-0.0430346428807 -0.0281798332808 0.0136089739017
-0.0453215041651 -0.0207035142894 -0.0221930783686
-0.0433588783609 -0.0230868373569 -0.0337754087402
-0.0457656337671 -0.0230395910957 0.0105925514427
-0.0439317286568 -0.0205373371419 -0.0498427539977
-0.0447085874133 -0.0263696118821 0.025822239052
-0.0446612551981 -0.0230580351589 -0.00980034702456
-0.0369105562937 -0.0287814109441 -0.0942373881738
-0.0459383062397 -0.0189287507854 -0.0293137130745
-0.0403840816722 -0.027350777614 -0.0444965908335
-0.0483579092316 -0.0152518617641 -0.022783235018
-0.0441889604833 -0.0285108522965 0.0385988327381
-0.0494598146275 -0.0111215017436 -0.0455727222228
-0.0410336296171 -0.0224840251126 -0.0834435029356
-0.0423755793874 -0.0261506760938 -0.0199634161737
-0.0447636443989 -0.0223047381493 -0.0157942452437
-0.0442032086448 -0.0195653480294 -0.0549788837063
-0.0391555274072 -0.0281073813254 -0.059460505883
-0.049222426947 -0.0123764831608 -0.0368323415417
-0.0469999909014 -0.0190471695292 -0.0082808919029
-0.0449634290047 -0.0176062541907 -0.0613598291987
-0.042283059877 -0.0272315005043 -0.0103495955484
-0.0472882487448 -0.0177245231987 -0.0167828598123
-0.0456251459442 -0.0238677328423 0.0166614276634
-0.0440347299505 -0.0256919343054 0.00615185139469
-0.0451247711308 -0.0233390753707 0.00178818134879
-0.0410109747416 -0.0309378185299 0.00481918636331
-0.045276056411 -0.0274550776238 0.0477873960211
-0.0395278040158 -0.029372902286 -0.0392449918828
-0.0429758442015 -0.031249303011 0.0447133691349
-0.0434794833964 -0.0189061230966 -0.0753852631841
-0.0399933538443 -0.0307291751668 -0.0163387619082
-0.0471532156042 -0.0149826151419 -0.0480641113568
-0.0483800006239 -0.0143134354121 -0.0322160501124
-0.0365365294982 -0.0288158413135 -0.100848314849
-0.0361982043867 -0.0305892701744 -0.0885506764349
-0.0493681250961 -0.0129662324498 -0.0279296285496
-0.0381877213441 -0.028680129515 -0.0714926391713
-0.0398563404953 -0.0277670870078 -0.0499667375768
-0.0421386061306 -0.0228613191107 -0.0588879461334
-0.0452807503606 -0.0261576690857 0.0342643577885
-0.0483257466703 -0.0135086683929 -0.0416698350153
-0.0423783232292 -0.0252283112936 -0.0295883885004
-0.0419466841054 -0.0306114861225 0.0188380533114
-0.0390890687947 -0.026234917702 -0.0803425249994
-0.0393786207514 -0.0302381143995 -0.0329493160031
-0.0415141693094 -0.0228467242319 -0.0706809924794
-0.0490652871501 -0.0156750337831 -0.00515790745189
-0.0409659960956 -0.0305048052707 -0.000561796754977
-0.0402371790688 -0.0292589458104 -0.0272172128049
-0.0387618281318 -0.026135457539 -0.0874859116326
-0.0419372997611 -0.0225602504964 -0.0657988144068
-0.0456650908848 -0.0183041188203 -0.0409593743994
-0.0442034405405 -0.020520052341 -0.0449591821093
-0.0382196763723 -0.0292851821891 -0.0645496362844
-0.0407996701763 -0.0235352018545 -0.076777241804
0.0378183528974 0.035712831099 -0.121205451039
0.0406952180544 0.0394291065353 -0.118721288125
0.0440850795148 0.0333352600389 -0.12009151681
0.0367027529457 0.0417688326492 -0.119092436669
0.047745693131 0.0283910257383 -0.12089974093
0.0621107489535 0.0135193943372 -0.116299922967
0.0570364263084 0.0252678397139 -0.115656649715
0.0597573917616 0.0189746139743 -0.11599896149
0.0538028270055 0.0220811370851 -0.119522959478
0.050161893874 0.0314962420602 -0.117756319871
0.0575789793561 0.00401849729888 -0.119306411781
0.0546882864132 -0.0100118387562 -0.121246267847
0.0530789206119 0.00697873229281 -0.121178428139
0.0549122263248 -0.00481554542458 -0.120905805541
0.0541002760426 0.015966392603 -0.120306500132
0.061675730383 0.00755767378583 -0.117313654337
0.0511949458182 0.0125448909612 -0.121761910811
0.0581826745483 0.0123240351339 -0.118652513841
0.0410137123804 0.0163577486284 -0.121886000037
0.0490667419243 0.0177139902088 -0.121886000037
0.0491287852185 0.0225738739274 -0.121886000037
0.0495747917064 0.00139928810515 -0.121886000037
0.0357681084648 0.0309059370791 -0.121886000037
0.0415069514266 0.0289454522627 -0.121886000037
0.0501811121885 -0.00641211527365 -0.121886000037
0.0439268224612 0.0213774401797 -0.121886000037
0.0305556308706 0.0398268862195 -0.121886000037
0.0382164585623 0.0252765181376 -0.121886000037
-0.0122876857869 0.0576292312397 0.0699679205782
-0.0108644055493 0.0581103918602 0.0598994686013
-0.0080884283478 0.0589099850186 0.066012972711
-0.00222463032748 0.0606414509695 0.0710537754551
-0.0158113902262 0.056229275173 0.0626407318372
-0.0135464102344 0.0569114106434 0.0563926776366
-0.0123188713345 0.0528288995214 -0.0357409365737
-0.0111699033487 0.0510346683705 -0.0815730208027
-0.0125054964196 0.051300435955 -0.0645731782579
-0.0106888026789 0.0552908636589 -0.000948058900446
-0.0114680236183 0.052061361243 -0.0584955120119
-0.0133237411366 0.0517336729202 -0.0487680120796
-0.0119687183296 0.0551902079516 0.00825990193411
-0.0103081782892 0.0578562722125 0.0468541964971
-0.013405191246 0.0526741620466 -0.0293072545427
-0.0160585927978 0.0552414557318 0.0451161117699
-0.0150083689665 0.0551727245269 0.0345442149178
-0.0156310016799 0.0557129992148 0.0507690888953
-0.0115704251043 0.0569936738471 0.0407192696079
-0.0106517919906 0.0543928413771 -0.0191729401606
-0.0119361863058 0.0541373800457 -0.0130115343042
-0.0116797604257 0.0498252988888 -0.101212550752
-0.010428362048 0.0562522963099 0.0159345945427
-0.00192172560231 0.0593064998579 0.0311777504863
-0.00626150516261 0.0585022138294 0.0340568402899
0.00635618801063 0.0578293685252 -0.0496985904599
0.00271178342687 0.0596975946645 0.0163971145485
-0.00698856999621 0.0591782000737 0.0548352123115
0.000300854735361 0.0587353840029 0.00509404402308
0.00235583658046 0.059391542843 0.0106229326674
-0.00202122763549 0.0585596350498 0.0130082535851
-0.00555230446582 0.0591819979958 0.047313811842
-0.00432096804037 0.0585391639529 0.0246912392419
-0.000307168336842 0.0609655776512 0.0641494601206
-0.00159691816349 0.0601403010975 0.0503288416577
0.00179760102767 0.0598879556415 0.0260105321573
0.00293233976661 0.0603987189017 0.0327795856171
-0.0015940298218 0.0603470385727 0.0554890295522
0.00543194377115 0.0581500853909 -0.0367684614298
0.00284470258708 0.058956502071 -0.00286040313098
0.00569354371416 0.0584841231223 -0.029793355887
-0.00223461956414 0.0587636131715 0.0192462918988
0.000826871181873 0.0582897654003 -0.00885110697372
0.00152445192656 0.0581544402794 -0.015938113767
0.00511581280485 0.0590741996611 -0.0119575774064
-0.00145043283023 0.0598765658696 0.0429496366663
-0.0285336701629 -0.0476021750876 0.038886498766
-0.0330955836706 -0.0407667381648 -0.0143608191105
-0.0309035285519 -0.0431904723102 -0.00653138645915
-0.0316904821544 -0.0445544394845 0.0367438919865
-0.0325491938982 -0.0446394203313 0.0550159833712
-0.0362924195835 -0.0414260924464 0.0607383088919
-0.0265368325873 -0.0500258171574 0.0504694373889
-0.0300679635102 -0.0467575275807 0.050977911419
-0.0359988552088 -0.0401019142121 0.0277751599885
-0.0293857493237 -0.0477799299939 0.0589447908997
-0.0286565258806 -0.0477938182786 0.0452031938631
-0.0293788468719 -0.0436525370845 -0.0263300163653
-0.0318537169551 -0.0434724144188 0.0175634641531
-0.0291093589607 -0.0462704005071 0.0224884961412
-0.0325593529014 -0.044014501659 0.0423202624327
-0.027684233818 -0.0471366548048 0.0129428715155
-0.0344881282691 -0.042478726 0.0477433829652
-0.031925853845 -0.0431123213342 0.0115229746113
-0.0339959565213 -0.0406749811558 0.00106686702155
-0.0314008945834 -0.0445015434796 0.0300819212328
-0.0288560595471 -0.0456912233426 0.00566819804472
-0.0340921439727 -0.0421479102099 0.0333015803938
-0.0282346841794 -0.0450482402411 -0.0195490098388
-0.0246087907524 -0.05216718935 0.0575529906123
-0.032472337221 -0.0406448822152 -0.0288639369707
-0.0255042973744 -0.0499766970519 0.0295932532167
-0.0326382742211 -0.0422255965816 0.00693600235509
-0.0304705091732 -0.0411425311231 -0.0571073967912
-0.0321719255615 -0.0453476439376 0.0623680696026
-0.024347540948 -0.0493805675465 0.00467564184936
-0.0212591859279 -0.0487038040295 -0.0458814975325
-0.0233952535892 -0.0521575417969 0.0397871353591
-0.0201316530924 -0.0474468836856 -0.0814880176861
-0.027513070124 -0.0462531219239 -0.00839197763652
-0.0243770636241 -0.049649649911 0.00961848053944
-0.0237149949034 -0.0483071784422 -0.021553147018
-0.0279422405047 -0.0434586451001 -0.0504176169274
-0.0266666538873 -0.0432442003622 -0.0701941413013
-0.0239275117741 -0.0484271425986 -0.0168278491195
-0.0275360778551 -0.0444595800431 -0.038557870371
-0.0239582207992 -0.050656071798 0.0214110112587
-0.021382917306 -0.0474663851128 -0.0653295658855
-0.0281914626663 -0.0437013381797 -0.0431439189072
-0.0235129550844 -0.0453471400775 -0.0743744614658
-0.026098683665 -0.0458498814537 -0.0331302094171
-0.025376665934 -0.0468088606465 -0.0259781949583
-0.021371294776 -0.0458845418285 -0.092338551761
-0.0223163051862 -0.0505320710961 -0.00146335308346
-0.0215440942576 -0.0481156216007 -0.0522658638744
-0.0266758085461 -0.0435247594254 -0.065314047617
-0.0268973023032 -0.0471349717171 -0.00120577198471
-0.0234419820244 -0.0447960447943 -0.0846305922751
-0.0237306310177 -0.0470637498963 -0.0424705686916
-0.0199392968206 -0.046616160408 -0.0980280146104
-0.0237622901238 -0.046011882587 -0.0599323298541
-0.0229657927915 -0.0495229177478 -0.0103848331729
-0.0207561763202 -0.0497345340095 -0.0347408093617
-0.024258672998 -0.0422152649785 -0.106791608276
-0.0220183735629 -0.0444637848172 -0.10265051717
-0.029954697708 -0.0392777681622 -0.0859014314323
-0.0296322690745 -0.0404361032056 -0.0758696168933
-0.0259434657483 -0.04216354142 -0.0913755630997
-0.0262772257953 -0.0428338084472 -0.0806290078842
-0.0289696604578 -0.039293824837 -0.0950749744355
-0.0295405930314 -0.0380190266847 -0.104063222971
-0.0261475273761 -0.0411761725974 -0.100598903027
-0.0241206336956 -0.0432332584124 -0.0965950596518
-0.0306536735625 -0.0400009752177 -0.0709510380596
-0.0329697693892 -0.0338634932504 -0.105484271142
-0.0320731600543 -0.0372082002677 -0.0811647563835
-0.0319565931521 -0.0357944809813 -0.0988993701564
-0.0307859160251 -0.040368076405 -0.0647323480213
-0.0328853986593 -0.0397492635292 -0.0343910117529
-0.03304981072 -0.0362272544411 -0.0759495647831
-0.0344883831663 -0.0349064192164 -0.0665028907206
-0.0375037550339 -0.0388751640052 0.0385141301156
-0.0341159728898 -0.0364278180861 -0.0540300970365
-0.0377581339178 -0.0393439695189 0.0490683087654
-0.0339357966856 -0.0341918801301 -0.0855865596358
-0.0344509033224 -0.0398669503728 -0.00444182387192
-0.035161186531 -0.0370978718816 -0.0265532031822
-0.0334249773457 -0.0344406681669 -0.0917264267762
-0.0355257874044 -0.0330637386696 -0.0709498688419
-0.0366986069005 -0.0359054184425 -0.0136856729003
-0.0360033433178 -0.0394076601204 0.0179720524015
-0.0337752654237 -0.0377975394844 -0.0428994179148
-0.0359967825936 -0.0334731992609 -0.0572082517521
-0.0344284241534 -0.0387781740905 -0.0186216957569
-0.0360693815544 -0.0387278214752 0.0105737929897
-0.0365176784973 -0.0345615043634 -0.0339731962278
-0.0333427864243 -0.0378960492455 -0.0495158386526
0.0591342401144 0.0316826289513 0.0756570278527
0.0430783812657 0.0448989816447 0.0748597359274
0.033012860334 0.0465873796145 0.0747707786398
0.056537493324 0.0360269801207 0.07539063537
0.0165647937982 0.0560207508809 0.0742097264584
0.0276795647356 0.0543655466986 0.0742949278707
0.0378288301778 0.0495774068933 0.0745768059933
0.0422094572669 0.0396105670515 0.0751905030019
0.0564928685874 0.0396444799265 0.06928000926
0.0420935472029 0.053644923445 0.0689538926051
0.04932427139 0.0500840578002 0.0615898572688
0.0672895332253 0.0270505706779 0.0740728649005
0.0650001300107 0.030329544394 0.0717363747204
0.0469759919592 0.050103734467 0.0664478349633
0.0506810309419 0.044343718804 0.0712130490714
0.0561826012384 0.0421712448193 0.0644452670048
0.0611775546225 0.0346153604357 0.0704149758115
0.0526234231847 0.0450513680836 0.0656240681162
0.0437094391859 0.0504499788537 0.0725136308996
0.0457315051239 0.0505037390191 0.0301513416778
0.0442072315491 0.0509796351469 0.0251741516274
0.0437686097559 0.0506957721697 0.0138496576849
0.0348489167796 0.0522821115692 -0.043449781084
0.0361099401528 0.0533225144939 -0.00561926093637
0.0397308228698 0.0510423241552 -0.0208232829887
0.0425055946586 0.0503102006147 -0.00860826434858
0.0391292420042 0.0539893927657 0.0420765488464
0.0360267294417 0.0544951726928 0.0210650602432
0.0411683469967 0.0528797639216 0.0376156545584
0.037418254724 0.0525013202227 -0.0110494978483
0.0462681407014 0.0506204750815 0.0385864404984
0.0371200073362 0.0544657181981 0.0319665675497
0.0363099717024 0.0540416372549 0.0134070967452
0.0396631502699 0.0512910689529 -0.0156934614711
0.0489995190414 0.049580650689 0.0431078778588
0.0425781651269 0.0506018580374 -0.000982416106139
0.046441629345 0.0513159593597 0.0567756262965
0.0365503743788 0.0536939603941 0.00778334523531
0.0425900643529 0.0528154023888 0.0511795832644
0.0401206286548 0.0503156513203 -0.0337720592391
0.0351037761601 0.0524965892728 -0.0357051416873
0.0407142750763 0.0527218668742 0.0290885124304
0.0357508792998 0.0537128481906 -0.000251074553635
0.0351122389189 0.0510889065861 -0.0687070805563
0.0441670718924 0.0518211167577 0.0445297468781
0.0377965518928 0.0549645247643 0.0508670445665
0.0392960687683 0.0522353794482 0.00261250725714
0.0382870095458 0.0553194625365 0.0644120642056
0.0419478322814 0.0534877247938 0.0601737806825
0.0326937379173 0.0513422446841 -0.0883991895573
0.0365005307018 0.0513440964058 -0.0479856353016
0.0408943558446 0.0518428606041 0.0103346168426
0.035625513935 0.0512433347142 -0.0596336524167
0.035312706866 0.0531128916097 -0.0190015045558
0.0411716758437 0.0520484053343 0.0181074495449
0.0293605314004 0.0581067801777 0.0497242913698
0.0294702315594 0.0588026616985 0.068066554782
0.027845239077 0.0583891707672 0.0432019418814
0.0296130540071 0.0584770297296 0.0612218109945
0.0282380935353 0.0572063481193 0.0172116238631
0.0309596002787 0.0539123609585 -0.0405961467008
0.0300752630919 0.054005445127 -0.0461918667643
0.0324118680635 0.0527532661696 -0.056509112485
0.0343846618446 0.0558452828572 0.0382903652814
0.0320954069469 0.0556204004259 0.0121834965739
0.0323327285514 0.0519293363364 -0.0777721571877
0.0318445674763 0.0553092500173 0.00217538561287
0.0339047609759 0.053488141844 -0.024809703925
0.0319682218777 0.0522557605855 -0.0728924896588
0.0359095322577 0.0565767126841 0.0701901200442
0.029415883286 0.055455141069 -0.0159302192466
0.0318822042989 0.0539753375172 -0.0307645790235
0.0329503411003 0.0527664899637 -0.0513580226099
0.0305621376262 0.0548151139525 -0.0216339497944
0.0316499126043 0.0581867886063 0.0722181377426
0.0307879196334 0.0567354700831 0.0282944593997
0.028904422553 0.0577887310883 0.0377062084489
0.0362358737351 0.0560375592692 0.059661814619
0.0318309834628 0.0561657319758 0.023420307511
0.0325185677373 0.0544941226166 -0.0121248580124
0.0322297527596 0.0568310072409 0.0435872099557
0.0335254357054 0.0567967948336 0.0543345647076
0.0313645682688 0.0551193926519 -0.00685861619041
0.0298917293544 0.0562233576452 0.0074948508202
-0.0181063394529 -0.0189499018116 -0.121886000037
-0.00502506170268 -0.0303363190878 -0.121886000037
-0.00514023468661 -0.0392258585904 -0.121886000037
0.00411071876134 -0.0389829637001 -0.121886000037
-0.0234936304752 -0.0138718918645 -0.121886000037
-0.00959478650239 -0.0328155592652 -0.121886000037
-0.0119746356717 -0.0281177042585 -0.121886000037
0.00852091860133 -0.0373189540445 -0.121886000037
-0.000248598370965 -0.0330827574179 -0.121886000037
-0.0162259270224 -0.0247405267213 -0.121886000037
-0.0215797358348 0.0472694016306 -0.0613404107588
-0.021896290038 0.0458923986644 -0.0784331060274
-0.0165989255816 0.0476826954886 -0.0954177505884
-0.0153159231923 0.0477081256492 -0.105351005473
-0.0201472557277 0.0459597022219 -0.0915091510007
-0.0188701588832 0.0471048632898 -0.0854301603476
-0.0244754321344 0.0437475691056 -0.0883164831918
-0.0226757471985 0.0442291372794 -0.0958925035334
-0.0239740235258 0.0454223655101 -0.0684613393268
-0.0143593475361 0.0476849423594 -0.113357871442
-0.0192690223743 0.0452491807722 -0.108687238648
-0.0256788870627 0.045994792797 -0.0466186268226
-0.0235412171295 0.0466363366718 -0.0546260125257
-0.0254615142764 0.0303203455216 -0.119572199453
-0.0272954701569 0.0338019737222 -0.115702202421
-0.0187881127492 0.0449941859156 -0.114196260648
-0.0220974985991 0.035037194659 -0.1185877517
-0.0199729817985 0.0409174169989 -0.116068409497
-0.0365453846868 0.0341293876376 -0.0423673018334
-0.0365030677241 0.0334470333481 -0.0536131549601
-0.0371492538206 0.0348602774196 -0.0179335158386
-0.0392130700975 0.0321476201412 -0.0131357326752
-0.0360084159177 0.0396252751567 0.0287412373505
-0.0405915375205 0.0315421244463 0.00829126840084
-0.0367981596449 0.0410553900714 0.0678597128859
-0.0447686301378 0.0296218559069 0.0719292605619
-0.0364238764123 0.0397529030617 0.0398837027751
-0.0398652716895 0.0365022093429 0.0671077876634
-0.0410411491829 0.0320680569673 0.0262077663394
-0.0354544773391 0.0346039552546 -0.0593941821007
-0.0418161412463 0.033386640213 0.0633143210908
-0.0427012729832 0.0292231557657 0.0200543621336
-0.037730875206 0.0357489525306 0.00839025765883
-0.0381639968081 0.0322558727915 -0.0347681342322
-0.0399483849662 0.0355730314324 0.0549154854827
-0.0381582966009 0.0344881673569 -0.00117465488649
-0.0369111961062 0.0344077861063 -0.0300485500094
-0.0417957264581 0.0320476420897 0.0426353132666
-0.0378626799124 0.038318061286 0.0501212303039
-0.0358684873793 0.0336496053235 -0.0646276930351
-0.0371971441304 0.0372514586914 0.0192486202494
-0.0425128383856 0.0301834800314 0.0303812021915
-0.0412257087194 0.0301821175254 0.00181310882288
-0.0357221072852 0.0375916996031 -0.00832701751979
-0.0392993735501 0.033774397828 0.0133516849071
-0.0368688560289 0.040130547879 0.0554575070552
-0.0378081451374 0.0334986515926 -0.023887857237
-0.0410639955091 0.0326834938399 0.0360109558032
-0.0386584178401 0.0332986706513 -0.00805029541155
-0.0413598881176 0.0331554934891 0.0497034049095
-0.0374085845632 0.0397903406399 0.0622892591957
-0.0446162991754 0.0281752997464 0.0466997399737
-0.0393989270244 0.0357477592083 0.0453682942859
-0.0418654795445 0.0337873533447 0.0704615738901
-0.0382544642256 0.0367512722948 0.0351435777315
-0.0378621817997 0.0366289493155 0.02459531694
-0.0387092558026 0.0385703393206 0.0727083936482
-0.0354988019201 0.0383715413885 -0.00149985982103
-0.0378725038322 0.0240053674908 -0.105057332453
-0.0363191084576 0.0286475195296 -0.0962715440013
-0.0393923416248 0.0201845958636 -0.108838094063
-0.0336592185576 0.0324516902686 -0.108903861635
-0.0351954618475 0.0317292778732 -0.091760296116
-0.0350006712553 0.0332071005532 -0.0846773407378
-0.0360092673066 0.0282202877939 -0.103555031844
-0.0381460870331 0.0243511017595 -0.0988365277056
-0.0342348440775 0.0379682905659 -0.0322254257496
-0.032265443755 0.0387571877011 -0.0578389363119
-0.0333547916382 0.0433045404935 0.0338886954185
-0.0350874623456 0.0373177660101 -0.0259451158005
-0.028966019477 0.045219296768 -0.0207516611264
-0.0311658460491 0.0439201041805 0.00135365567064
-0.0307730149586 0.0432332796351 -0.0168931322449
-0.0325012272481 0.0415743343535 -0.0094602732246
-0.0321965307357 0.0423126318573 -0.00383270920705
-0.0350607050382 0.0394002501218 0.0059490306388
-0.0347268980268 0.0349757799453 -0.0693297814566
-0.032698853162 0.0404966113136 -0.0224302097524
-0.0334469452179 0.0382760591379 -0.0425947364786
-0.0312370955557 0.0415413317276 -0.034295499434
-0.0344529284559 0.0387487047538 -0.0158842245403
-0.0343978198753 0.040912530571 0.0167303412869
-0.0331881058058 0.0372780497665 -0.0631064112297
-0.028971386689 0.0448819203333 -0.0258988652438
-0.0351052872751 0.0419845828185 0.0470258233794
