0.000819381403247475 -0.021282000467181206 -0.0016290837193513388
0.0012193637345705097 -0.021282000467181206 -0.0027478173196073697
0.001579000500025861 -0.021282000467181206 -0.0007195301071413406
0.0023450423061128177 -0.021256292237180088 0.003124084835390591
0.002564059423913159 -0.021194993264760608 -0.0018566741085379469
0.0033994851950934213 -0.02109606338389157 -0.0007307867768532423
0.002466391880233081 -0.021199873960342515 -0.002985640646942076
0.0026714866000893405 -0.021193985786270506 3.572325153548719e-05
0.0021416998505509005 -0.0212679440358546 0.0009959272315140624
0.003071300915644293 -0.021107117640318467 -0.003989050752448714
0.0026101165762324246 -0.021147539734837392 -0.0049794243144959055
0.0021047093103080785 -0.021111124631975432 -0.0064777881177925465
0.001237930484013504 -0.021260939579244707 -0.004801630761815981
0.0019241514255783265 -0.021258040911711837 -0.0039127757105971205
0.0007165432049083742 -0.021245103292150718 -0.005822424849759203
0.020550434975101346 -0.005504851788620736 0.00032061878926771623
0.020572926475803322 -0.005400800885959221 -0.002074550188523512
0.02054782166469788 -0.005448060105801554 -0.0059396437577416295
0.02064718878466046 -0.005124292522894772 -0.003618546951955908
0.020514488953421714 -0.005656916566347608 0.002797822155711464
0.0205881389697355 -0.005359833800523522 -0.0009028761841929557
0.020646645589585975 -0.005111949818994132 -0.0049708706834183086
0.020253706492089484 -0.006492279810263758 -0.004655292937949676
0.019839303813414387 -0.006546578608792899 -0.007560380762950372
0.020227761958410473 -0.005610143301740344 -0.0073080172433562345
0.02016091042643752 -0.006777029221758775 -0.0036182840941313714
0.020212611704923632 -0.006622279365059921 0.0026891514213592095
0.02045025389558582 -0.0059092329869991425 0.00589697703832057
0.020354064887947276 -0.006197785241449398 0.003664806305509271
0.019990755696359754 -0.00728824272222822 0.0038787123983033745
0.020293740404078726 -0.0063786515015312835 0.0008194454561661689
0.020237604587361513 -0.006546982712975478 -0.0014813337204615399
0.020027919406334294 -0.007176401458557529 -0.0005111493103767263
0.020138337786682777 -0.006845371669146898 0.005127244502554381
0.020021241130376392 -0.007196602975950853 0.0018093889151973904
0.01997457078018754 -0.007229600420099123 -0.0063851649389265516
0.01996239765264024 -0.007372549211557229 -0.0018734243163358443
0.019839565807388763 -0.007610073116360109 -0.004681851974559712
0.01971144124199447 -0.00806450397637595 0.0006793063184251415
0.017753484653756788 -0.011192355471540816 -0.007600060799410294
0.018510325135717723 -0.010241942516823149 -0.006733844916228735
0.01718225557266174 -0.012047655901342139 -0.007502574056775575
0.01650777691375641 -0.01286896608548667 -0.007631586521117978
0.01896016189513548 -0.008957434110209214 -0.007260968339516193
0.019391148891418845 -0.007690970071552266 -0.007485590098569172
0.011691457130187351 -0.017827992059231395 0.0046986134696912615
0.011800641234693083 -0.017762320027194765 -0.0029131562358421298
0.010895141179867979 -0.018306960008250987 0.006199437041787434
0.011137775382480352 -0.018161020439489813 0.0034270306249919585
0.010995696472271468 -0.018246478032288745 0.002013217493446975
0.009179316770621067 -0.019180069541740303 -0.003804076422938266
0.010150682024724019 -0.018711865498235197 0.0032250484384857793
0.011383257193944165 -0.017992163410564775 -0.005565231449506697
0.011199365990586217 -0.018119335821337096 -0.0014620997536621823
0.010585886835626206 -0.01848959488302368 0.004611852148334203
0.010047751211439557 -0.018757356525060984 0.0018989364184416806
0.010680167740529926 -0.018388647686871165 -0.002532276994564978
0.010333654264653155 -0.0185849578503934 -0.0009098583634101999
0.008847261263955996 -0.019372085862818064 -0.001699841368866947
0.0096230637626444 -0.018953773347989356 -0.002342513356149203
0.010475814743804678 -0.01848279794241382 -0.004624307074016521
0.010775381862075372 -0.01836179331973998 0.0008414288031497147
0.010285346736946569 -0.018592122053688966 -0.003532516411904948
0.009607424438364601 -0.0189940329857632 0.005143412793777516
0.00887386920618595 -0.019360399405595387 -0.0006423028029984587
0.009283269511166278 -0.019155768980558707 0.0032635596533893575
0.00931866684629396 -0.019138653846749926 0.0011546869273304447
0.007316879363067697 -0.019762882138187297 -0.007170710125383694
0.005978977190617053 -0.020093095514415432 -0.00749087325541465
0.004455557665796578 -0.02065929350112017 -0.006892959005428214
0.0048670432444048 -0.02014284246072599 -0.008102374738794937
0.0061113513906006665 -0.019450291282097333 -0.008456970992669791
0.011686753565135882 -0.01654639694839699 -0.008459418098667395
0.007225669088802518 -0.018858762057520722 -0.008495282763237435
0.004770101702621618 -0.019134736126058746 -0.008519999682903292
0.00386714754621229 -0.01980556363367537 -0.00851999968290329
0.008467092307592801 -0.017831746643144436 -0.00851999968290329
0.005849459724684818 -0.0203965791219865 -0.0063394355131366235
0.004073326439898714 -0.020885468506459164 -0.005762535436859558
0.005222427742977927 -0.020636947675793257 -0.005170171296868729
0.0061251560898713964 -0.02038501044699767 -0.004629484208609887
0.006907442735393813 -0.02011906578698015 -0.005701640937775535
0.0053818623678489235 -0.020704667559253005 0.005039447753722809
0.006561094124978087 -0.02026296153381955 -0.0018489715635176915
0.006752182914856353 -0.020192118972261114 -0.0028704279327139803
0.0052738237428131395 -0.020690899262726836 0.0007780379748311187
0.0045713202517277335 -0.020867127862749402 -0.0006417246260912697
0.004561610852567978 -0.020835781523819787 -0.0039403488882524705
0.00517853428631925 -0.020742540814051684 0.0032777501900369066
0.004066257893897235 -0.020985487317568496 -0.002471915456584852
0.004891878420519189 -0.02076675504803513 -0.001931092407350475
0.005138314453272192 -0.020688963386976594 -0.002983266681063653
0.0210145004093647 -0.003303366989536152 -0.0007017877286652432
0.020883238728726227 -0.004086094873175752 -0.0028601062554002095
0.020913999985576495 -0.003766313538105976 -0.005886053427290222
0.020879406373680513 -0.004034657119946386 -0.004485928675248668
0.02087315849135102 -0.004194963790084649 -0.0017790258455940493
0.020823934306521033 -0.004440500137739203 0.004857726640525904
0.020870747422671497 -0.0042524158298353765 0.0002569395983262491
0.020868473746574023 -0.004262220059079042 0.002408338473788106
0.0205741937805148 -0.005435229733390755 0.004420592370311118
0.020655261609959626 -0.005111285883585428 0.0015473871790110238
0.02088819421343468 -0.004184116336837037 0.0037219512448987396
0.020724679378469807 -0.004836217416537856 0.005778029163765271
0.01874845271776071 -0.007059188325771377 -0.00851999968290329
0.020153315055682512 -0.0026334017223415473 -0.00838197642013103
0.019665247513302984 -0.005884639219248949 -0.008333185414383232
0.019948417375702802 -0.004622549280453135 -0.008353696947571865
0.012004492363949713 -0.017626588876511626 0.0019815640816798225
0.01190154557379162 -0.017695262236831974 -0.004393223073691719
0.011865037832494625 -0.017719615684556964 -0.00015749347511920394
0.011928079373563407 -0.017677562168771595 0.00587255591252254
0.013030111621422395 -0.016897154958250216 -0.0023628999159656452
0.012917990274025591 -0.016965995746721106 -0.006075715085564956
0.012699919628791611 -0.0171297770385421 -0.0034569920511170545
0.011943988192067557 -0.017661135172508665 -0.006356742391444084
0.012523445350444657 -0.017263751037036902 -0.0008658442837538175
0.013265503075374418 -0.016722312424557788 -0.004548477272906742
0.012575429583960167 -0.01724408999935865 0.004890584722124468
0.013270164042194825 -0.016707766646882338 0.003462107949371995
0.013566280793903948 -0.016491603699439417 -0.0012997934574404332
0.01298949987406569 -0.0169367040800596 0.0023514767793586253
0.013148126780941623 -0.01681706200330188 0.000699692119808895
0.013867337051330543 -0.016219935519216737 0.005993036719484862
0.013859558874600095 -0.016240638980204638 0.0026051457611445845
0.012966490286494997 -0.01693362140032342 0.006206958530155703
0.019394390257893725 -0.008631170749270316 -0.004143107791272163
0.018921346846394304 -0.009691103216038107 -0.0009415337146789277
0.01952876486288109 -0.008314857957328246 -0.005476359384223167
0.018921030537677533 -0.009569320494370117 -0.004349231768544592
0.019036803647543257 -0.00929938553370745 -0.0054258054798798985
0.01849364204024809 -0.01038390317088139 -0.005438851586764144
0.0190930713719726 -0.009307236908035076 -0.0020784096360587853
0.018447224688568353 -0.010531547721330574 -0.003909909774681497
0.018814059302448685 -0.009956714771355572 0.005889410633962699
0.018566016697825996 -0.010330933368509494 -0.002843503026153861
0.018973765268425417 -0.00963191628787717 0.001556183863483713
0.01890297993933036 -0.00978381850515401 0.004419999631625434
0.018784064803385132 -0.009962665846066449 0.00016702225288931026
0.01931270679955887 -0.008976440850508628 0.0028508595015908
0.02055020145737283 0.005484901559340569 0.004730724103079222
0.02066086080297286 0.005041854795997119 -0.001316962010430217
0.020666205151339663 0.005020457631272791 0.0038157282382155575
0.020596539830959222 0.005299376637566184 0.001804641733080754
0.020292369075001454 0.0065171849320224745 0.001787616468486485
0.020437656958035767 0.005935495911702089 0.0026588228643743992
0.02034370474838344 0.006311652323704388 0.0002753451274012536
-0.0009219999774359167 0.007242749420337537 0.0028976831563539644
-0.0009219999774359167 0.013857150928033999 0.004170935844823877
-0.0009219999774359166 0.003216302927572779 -0.0003819196713926214
-0.0009219999774359167 0.010900771761761966 0.005440242048292004
-0.0009219999774359167 0.007903591105197236 0.0008818486068263901
-0.0009219999774359166 0.0034472669633006164 0.001462266829530229
-0.0009219999774359167 0.005565599639440481 0.0029085338746353624
-0.0009219999774359168 0.004005966578129754 -0.0034304693136341597
-0.0009219999774359167 0.0066050174440510125 -0.0013465119460082983
-0.0009219999774359167 0.002819999215899138 -0.005345224871684544
-0.0009219999774359167 0.014555511785065684 0.003143928784284948
-0.0009219999774359167 0.005015650851483256 0.005082509876618452
-0.0009219999774359168 0.005742764851181568 -0.0032313471936808577
-0.0009219999774359167 0.012285017804374384 0.003865769567776664
-0.0009219999774359168 0.0025665329367193846 -0.001730502341313227
-0.0009219999774359168 0.003299615156532804 0.004922752580168744
-0.0009219999774359167 0.010820273525299493 0.0005083212952204951
-0.0009219999774359167 0.011921723407830065 0.004809197666634372
-0.0009219999774359167 0.0018342124580238016 -0.005712570320777146
-0.0009219999774359167 0.005820307168959466 0.006332379045430813
-0.0009219999774359167 0.01108257478878404 0.003395584287431846
-0.0009219999774359167 0.012955380005466054 0.005050535641565244
-0.0009219999774359167 0.008317685605837476 -0.0007864037829171883
-0.0009219999774359167 0.017985031834507684 0.0058778812676892195
-0.0009219999774359167 0.007335223639188748 -0.0001184485278889094
-0.0009219999774359167 0.009290147007215616 0.005186008018370318
-0.0009219999774359167 0.008973442943859374 0.0017814794881958003
-0.0009219999774359167 0.009745499654987843 8.68680111304693e-06
-0.0009219999774359167 0.00245281525773673 0.00222474277495753
-0.0009219999774359167 0.004504955230202206 0.003382059171444312
-0.0009219999774359167 0.005469825237934767 -0.0014839298441071253
-0.0009219999774359167 0.0151352844296424 0.005076726798437953
-0.0009219999774359167 0.01526938003998654 0.00642324852778647
-0.0009219999774359167 0.01438355042302758 0.005823991097713005
-0.0009219999774359167 0.004781644082671482 -0.0023062387405991926
-0.0009219999774359167 0.010361601173709559 0.001737225504012099
-0.0009219999774359167 0.007569819580094786 -0.0019797399626027413
-0.0009219999774359167 0.003388559943680251 -0.0026304251548612836
0.003551882876581132 0.01752699934844327 0.006916999816894531
0.01387249669368949 0.010273966755915295 0.006916999816894531
0.007490090414970293 0.016440482379883853 0.006916999816894531
0.013966697348773547 0.009142936760750925 0.006916999816894531
0.002181546971293151 0.019550504993503106 0.006916999816894531
0.017591994396560652 0.006193279251051532 0.006916999816894532
0.01135840806544487 0.010886692041476045 0.006916999816894531
0.008502470334168533 0.01809246063631823 0.006916999816894531
0.0027408511703930554 0.018436808602450838 0.006916999816894531
0.00806117585078002 0.015159955191540243 0.006916999816894531
0.006360609617270096 0.016053366482629946 0.006916999816894532
0.00997301747213276 0.012374533340272187 0.006916999816894531
0.008769444583317404 0.01286248309187763 0.006916999816894531
0.011543280767291202 0.01391235170958494 0.00691699981689453
0.00961100339545834 0.013853554112484859 0.006916999816894531
0.017260167590392787 0.005030982576578004 0.006916999816894531
0.0013688066590100208 0.020171300364805227 0.006916999816894531
0.0069789664016801116 0.014918838711949666 0.006916999816894531
0.004531755811619707 0.016550385963315265 0.006916999816894531
0.012236703615941539 0.011606977335601744 0.00691699981689453
0.006520737224597221 0.019103844318200468 0.006916999816894531
0.005962843030429853 0.01722230962177019 0.006916999816894531
0.013628505495975511 0.011563369522493665 0.006916999816894531
0.0142614985591687 0.007842769315143825 0.006916999816894531
0.011487688742783046 0.012758993338105444 0.006916999816894531
0.007651157773329885 0.0189523687168001 0.006916999816894531
0.010152243694937795 0.01517948625323981 0.006916999816894531
0.007922389896258467 0.014087031520047581 0.006916999816894531
0.009737454156315451 0.0179151048836976 0.006916999816894531
0.015239503578879852 0.008432141922871767 0.006916999816894531
-0.0009219999774359167 0.017069093852892448 -0.0030273622680883367
-0.0009219999774359168 0.004584709357667932 -0.004916109570752128
-0.0009219999774359167 0.012127910143562976 -0.0054221414186964925
-0.0009219999774359166 0.014180086925178859 0.0020263783068741378
-0.0009219999774359167 0.01407519978782074 -0.006974330774851572
-0.0009219999774359167 0.020745578540112726 -0.0021212810314458408
-0.0009219999774359167 0.015103863830407276 -0.0047572438158978575
-0.0009219999774359167 0.015327143193592806 0.001339196853367618
-0.0009219999774359168 0.020175170549639757 0.005979416661262813
-0.0009219999774359167 0.02013766149584905 0.004618851101349013
-0.0009219999774359167 0.019024592568896142 -0.0003992243296448753
-0.0009219999774359167 0.011256304843301503 -0.001974290843229358
-0.0009219999774359168 0.018940817029548616 0.0047608854477923426
-0.0009219999774359167 0.01674681470601174 -0.000758213923024004
-0.0009219999774359167 0.01979051726103291 -0.0015555555988567937
-0.0009219999774359167 0.010086759498407913 -0.005862722167294134
-0.0009219999774359167 0.013469196483604302 -0.0041853782796245605
-0.0009219999774359167 0.007127377896746769 -0.004187010066475694
-0.0009219999774359167 0.011114223436188808 -0.006650751301752527
-0.0009219999774359167 0.00702030474425556 -0.0060058726403709834
-0.0009219999774359167 0.012881981202673497 -0.006202807866778461
-0.0009219999774359166 0.019911916751312445 -0.007119708285764088
-0.0009219999774359167 0.00842241786012762 -0.005393842242201139
-0.0009219999774359168 0.014588204097039197 -0.001512596725226311
-0.0009219999774359167 0.012297881992371223 -0.0013527376514795761
-0.0009219999774359167 0.01939992868560408 -0.0039058540005261354
-0.0009219999774359168 0.006842283311650122 -0.003184578804022696
-0.0009219999774359168 0.01208693570776903 -0.0029415787470382514
-0.0009219999774359167 0.0201049946795385 0.0008344084176399613
-0.0009219999774359167 0.015777415224090267 0.003274972464473806
-0.0009219999774359168 0.00989100144508093 -0.007055370833214001
-0.0009219999774359166 0.01936242583342668 0.0036198408555656123
-0.0009219999774359167 0.016148903934543903 -0.006645589357951358
-0.0009219999774359167 0.0040358523294795005 -0.005778553422719761
-0.0009219999774359167 0.020129030895447517 0.002676573180415054
-0.0009219999774359167 0.0191650735186795 0.001533987723142388
-0.0009219999774359168 0.008863238025124889 -0.004225912375544797
-0.0009219999774359167 0.016327440642881635 -0.0021577382096289437
-0.0009219999774359168 0.017942607134686334 -5.6820269904002754e-06
-0.0009219999774359166 0.016410153469464724 -0.0052995333009927224
-0.0009219999774359167 0.012567193207605402 -0.00018016010541996817
-0.0009219999774359168 0.01095098064349459 -0.005169924548579796
-0.0009219999774359167 0.014936584034124553 -0.0026680550285953487
-0.0009219999774359167 0.01762353059773781 -0.00180190572030133
0.017364366877262526 0.010238364802728661 0.00691699981689453
0.01845936761889224 0.0082278765559204 0.006916999816894531
0.012000301264832246 0.015057887033627312 0.006916999816894531
0.019425387188264694 0.005297237804811846 0.006916999816894531
0.02009409402774681 0.003181175588675071 0.006916999816894531
0.014649497497016752 0.01352837983156941 0.006916999816894531
0.01955039054762566 0.006655671902446822 0.006916999816894531
0.018266914906167882 0.009731921768080375 0.006916999816894532
0.011229028219152918 0.015275510627836528 -0.00851999968290329
0.014025090531473943 0.010017468551483201 -0.00851999968290329
0.0116729337010558 0.011647857465159013 -0.00851999968290329
0.009080452334821704 0.012543487127525772 -0.00851999968290329
0.01390534902925935 0.01175480087083961 -0.00851999968290329
0.01533368007375873 0.007308187600082831 -0.00851999968290329
0.010377634865132969 0.016023490835731694 -0.00851999968290329
0.0010663142615167836 0.017927825665512025 -0.00851999968290329
0.014963281312812856 0.008314270086298725 -0.00851999968290329
0.0186642705175524 0.0032749414393258612 -0.00851999968290329
0.007127192553705479 0.0141483314351134 -0.00851999968290329
0.015760558308166975 0.006258782805462714 -0.00851999968290329
0.012903091319086079 0.009855593227967975 -0.00851999968290329
0.006399968821453077 0.017159926467633133 -0.00851999968290329
0.008087526734840759 0.013158041203605766 -0.008519999682903288
0.012134864497422604 0.014769185975566436 -0.00851999968290329
0.00759543089915367 0.01694024348041902 -0.00851999968290329
0.013526843365134872 0.008403779726531573 -0.008519999682903292
0.011313630091146904 0.013234951167418546 -0.00851999968290329
0.016088319808566856 0.008736964840850748 -0.00851999968290329
0.012866112231677773 0.011192315039648423 -0.00851999968290329
0.012791876533939733 0.01356399699800936 -0.00851999968290329
0.00603123793040374 0.01543349465392196 -0.00851999968290329
0.008815384107334895 0.011212685252430887 -0.00851999968290329
0.009566950996517224 0.013672640045574959 -0.00851999968290329
0.005042787814287461 0.015241943826517744 -0.00851999968290329
0.010468494356343162 0.01108564876131143 -0.00851999968290329
0.017909070032565286 0.004610073618232617 -0.00851999968290329
0.00507979142896183 0.016410552538975137 -0.00851999968290329
0.01219865559225548 0.008995456166408736 -0.00851999968290329
0.008779829977352544 0.01694540289233963 -0.00851999968290329
0.003643312239735277 0.016990835206374892 -0.00851999968290329
0.014056683693543464 0.007591847887414474 -0.00851999968290329
0.011611318529160102 0.010187462157208126 -0.00851999968290329
0.009875418027490968 0.01495096516460067 -0.00851999968290329
0.0024415177196034847 0.017315280017823807 -0.00851999968290329
0.007035143530369229 0.015231757348482346 -0.00851999968290329
0.010505067323004158 0.01244889703655779 -0.00851999968290329
0.016880620671761354 0.005879827038540104 -0.00851999968290329
0.0027566772199239687 0.01634670883818679 -0.00851999968290329
0.007968723931807871 0.015720266744161455 -0.00851999968290329
0.009343448077777232 0.015935994664680306 -0.00851999968290329
0.01084659018195169 0.01411632378961794 -0.00851999968290329
0.010896224277860626 0.0017384687610737157 0.003986795996828831
0.002950665382024962 0.001739498219729133 0.001220355696423283
0.002861674301746225 0.0017395097497724 0.0033932136435083134
0.0039062244610196446 0.0017393744136410367 0.003762595358995804
0.006922543306371653 0.0017389836072064543 0.00335712762918134
0.00016703941863317208 0.0017398588775354657 -0.002784025461511435
0.004756034951774391 0.0017392643087665222 0.001737872667085677
0.008414207346961078 0.001738790341197393 0.004843909368354877
0.0029644061431000485 0.001739496439420711 -0.0029310218582905972
1.2854023359327353e-05 0.0017398788544171154 0.0008995910703198842
4.6742563208048674e-05 0.0017398744636812182 0.0036531040177805296
0.005250590132803639 0.0017392002322027002 0.00573794480163161
0.00793845097482065 0.001738851982111719 0.002034412090705878
0.0010625777603895565 0.0017397428479761527 0.005208209700493635
0.009340542975451345 0.0017386703214174034 0.004128262724322294
0.0008118427932954568 0.0017397753342097172 0.0026160177697212147
0.012018074092338241 0.0017383234096872704 0.004935197277508884
0.004612141853348304 0.0017392829521366833 0.002943050314691797
0.00702191570147977 0.0017389707321181697 0.0012955820384289653
-0.00016373177400589559 0.0017399017335852024 0.0050673987613806355
0.0056178246516395795 0.001739152651817363 0.0028612050454107038
0.010624762708729687 0.00666422399330809 0.006916999816894531
0.01313730742901974 0.007669103019444745 0.006916999816894531
0.013366035490890413 0.006705297284442429 0.006916999816894531
0.008304088041984271 0.009531644824531735 0.006916999816894531
0.007676847380720302 0.011355707313775549 0.006916999816894531
0.012140357913997219 0.008189994267052417 0.00691699981689453
0.0058394074877519495 0.013718459393992586 0.00691699981689453
0.016119818498654 0.0057706718413470135 0.006916999816894531
0.016374074081025418 0.003540609167305829 0.006916999816894531
0.010039463572049328 0.010670479387428104 0.006916999816894531
0.012652115723811194 0.005721641725290394 0.006916999816894531
0.016120127605943665 0.004566384195856829 0.00691699981689453
0.016573580352551645 0.002117005127918746 0.006916999816894531
0.012111216936899125 0.006932368684405939 0.006916999816894531
0.007667581688071308 0.012625796136469579 0.00691699981689453
0.012838021783322634 0.008883334825394289 0.006916999816894532
0.01479529152610603 0.0026688504940965787 0.00691699981689453
0.011347468386089122 0.009404312874409852 0.006916999816894531
0.0021644782135472624 0.01748810842134524 0.006916999816894532
0.01452471665137273 0.005920893269493961 0.006916999816894531
0.010627179340198923 0.008074923732090653 0.006916999816894531
0.015227820553045484 0.0038894603346678446 0.006916999816894531
0.01733705502355439 0.003762028423334956 0.00691699981689453
0.013396306604101817 0.004763325277272344 0.006916999816894531
0.01788716956063374 0.0022153643381614715 0.006916999816894531
0.0030837342697093927 0.01663713992057367 0.006916999816894532
0.005089023237337426 0.015044715202880754 0.006916999816894531
0.009942483198108198 0.009099470797911008 0.006916999816894531
-0.0008081625928956147 0.020858660786454448 0.006916999816894532
0.014818723231129066 0.0049069006958451945 0.006916999816894531
0.009014134656887534 0.0114348664676995 0.006916999816894531
0.011657554052752143 0.00602159059221494 0.006916999816894531
0.013790511237802248 0.003748430506718591 0.006916999816894531
0.0032583989090341084 0.012161495858832883 -0.008100922152323865
0.012434607448465876 0.004330341430754349 -0.008137723348609655
0.0138097031325499 0.005430585551552651 -0.008424862277910873
0.005705898648523773 0.0027929182861656868 -0.007209076752358335
0.0035292775436350627 0.0055074743256885 -0.007306491366210009
0.007165684858046964 0.009095107322544607 -0.008149806554368547
0.012078033061973468 0.006644527434681751 -0.008385231580862917
-0.00013946245626145519 0.0030592920105925194 -0.0066007582386898075
0.013212360526294294 0.006568870801254164 -0.008500311177527935
0.0021002750888384635 0.011971029127228378 -0.00795027044985037
0.009830186124045218 0.0035760236467043006 -0.00775855720373052
0.01431227510204444 0.004552803917377855 -0.008371281121354573
0.006450780835683749 0.00402012356250586 -0.007442798277241383
0.010546213407762225 0.00761670162577725 -0.008337582318629952
0.0008593781602009028 0.002522123112279335 -0.0066438114981517814
0.01063479130622873 0.004237607809433538 -0.007928774758866487
0.002714966192228896 0.007854332949279688 -0.007507826744749507
0.01674054532309888 0.002884584388535668 -0.008431072126597265
-7.312679744789208e-05 0.015603863956994845 -0.008161773853081701
-3.1826846207881317e-06 0.005257493167537526 -0.006887973296100813
0.0078119473877298045 0.010352705949756102 -0.008376472682314548
0.0005879019480419434 0.016692306996400303 -0.008369108856760765
0.003890894345102466 0.004221807561704805 -0.007186926043946648
0.0014055290980376012 0.0057184837866258885 -0.0070996240809978505
0.0008828264558690712 0.014098963536936408 -0.008080261134949689
0.0008880863964425931 0.011038075021025186 -0.007701724602767076
0.009592446870809405 0.009636679982284953 -0.008483131148333531
0.0014700344318335397 0.006969411116880128 -0.00726163771570771
0.007006957981299929 0.011212667074500117 -0.008394667577210312
0.006020543875493474 0.0055437487756459765 -0.007584307999306963
0.01033257981643764 0.0017536367432140938 -0.007587960159389596
0.011322210731201881 0.0021509583664434655 -0.0077457465392062365
0.006193267146290712 0.011880087616061519 -0.008388060243017442
0.0005012267483295943 0.006511673161439444 -0.007098652902369325
0.0019138073885142035 0.004694754783325108 -0.007028592322884537
0.006178642051155793 0.007807495736801626 -0.007882035145866126
-0.000270253680495365 0.011026510124939059 -0.007573207485787027
0.00834146055905265 0.0082017911056197 -0.008168160383469535
0.0032216740208879592 0.010924628752974617 -0.007943697850235902
0.00046630592833602397 0.00980961396427738 -0.007503295930631143
0.0031276245177728795 0.006647600344957264 -0.0074036379081638785
0.006926686847749647 0.0025486276903497937 -0.007312755637487041
0.001968720746393537 0.010802476702490077 -0.007791103420981768
0.010115040052622268 0.005422898259099557 -0.00801855836275988
0.007907032612852069 0.003071342314559646 -0.007485054165517336
-0.00010358038584497986 0.014473388685400872 -0.008018415006023839
0.00927688456765941 0.0020244933940842327 -0.007505684483964183
0.0007753338197002864 0.004472121372565825 -0.0068761124238519685
0.015426601961483334 0.0030597895942661674 -0.008308616193858646
0.005824742565587001 0.0066532183803990515 -0.007700242083926334
0.008347342753468462 0.006515289974276683 -0.007959920133359043
0.004718617100040177 0.012685475661009946 -0.00832602552371489
0.009455254137990386 0.007877986675744497 -0.00825025221578787
0.003987561211178128 0.0073359684203734106 -0.007583243422763008
-0.000531193518965839 0.006861683301609231 -0.007028734533413155
0.0016962346808255696 0.008740342254300992 -0.007505797656608661
0.0025688366351951965 0.013408965009330916 -0.008179776606380107
0.01104606476978496 0.00662543800547456 -0.008269647095798726
0.007206070293773306 0.00706760063978441 -0.007903115698801817
0.01617890164571868 0.001828867352468017 -0.00823869429267621
0.008167972135762496 0.004910232670711383 -0.007741442699412281
0.005603101804395984 0.009992968993745466 -0.008089578000214507
0.0038054084800144927 0.003186315803295573 -0.007049293860936813
0.013999854911008771 0.0035005091306974916 -0.008206670161783978
0.013427866750455436 0.001980835860311715 -0.007955693004751817
0.004355260233932539 0.006093331086782171 -0.007469674910224957
0.00035900674322759485 0.00752609225051644 -0.007208692834017018
0.0008814460553315444 0.012463490051841995 -0.007877544235585041
0.0018119132675516918 0.014797910369784574 -0.008268763558936906
0.008903670144498646 0.004130092377262506 -0.007725532050676828
0.014888470143742434 0.0020907935892768266 -0.00812955895082521
0.0038740537748413882 0.01384836121276185 -0.008377398077822054
0.005125783267874444 0.01133514689912728 -0.0082034486841446
0.0015631609404289932 0.009838822451584772 -0.007627252638609234
0.008469103894649636 0.009228620140619962 -0.00830934483792813
0.004903548017694499 0.00495875647755345 -0.00738930365945264
0.011876506470097555 0.003298717187267976 -0.00794871826410551
0.0028694042383406474 0.009700410380483651 -0.007753420876942302
0.002750901747523214 0.0036607924871988502 -0.006992368423614632
0.017792422114139627 0.002128350551476439 -0.008452811324500802
0.0023278626223344426 0.0022138477592768733 -0.006766740846839011
0.0016558964669486924 0.016356204970936983 -0.008444652798613388
0.004782160234326587 0.00870081325578945 -0.007839467194735284
0.009588705200388625 0.006686222413959636 -0.008117284711533132
0.004279335063089972 0.010364804564300147 -0.007990398437817731
0.011262107263379974 0.005252168454158283 -0.008123260159125092
0.00582477585195206 0.008861727270565846 -0.007973785848352821
0.005641658852250289 0.013040216475785451 -0.008471232273720692
0.01638750748479498 0.004833222436534498 -0.00851999968290329
0.01111856385916165 0.008893129646297638 -0.00851999968290329
0.017047869043780382 0.003828253436679836 -0.00851999968290329
0.015002966443414995 0.005564041987923515 -0.00851999968290329
0.0037351443773429075 0.015299033132384999 -0.00851999968290329
0.007461705693795922 0.012211446227219057 -0.00851999968290329
0.01241212272975593 0.007801902871465663 -0.00851999968290329
0.01228753307583301 0.0017383994335507965 0.0012149818029873229
0.01740453172002793 0.0017380590661549937 -0.005401990479454498
0.011922920536843766 0.0017386802909826614 -0.007075074179019841
0.013661701094939005 0.0017384668813180313 -0.005985918719416626
0.012312554042910928 0.0017383193313827777 0.003860822056319028
0.0026043903858303814 0.001739582334849715 -0.0046605486152771335
0.01385013466316984 0.0017380968381079786 0.00597726757266155
0.01716752366144642 0.0017380523473523853 -0.004327813815554473
0.012724964000701638 0.0017383934594463603 -0.000140173947620564
0.013727983220067939 0.0017383596615870027 -0.0025612388986350895
0.005637742343633917 0.001739291829485332 -0.005553269485750806
0.01485216287906966 0.001738255437044764 -0.0030094953400949275
0.011726257702122309 0.0017385906906520411 -0.0033147786070422867
0.008411752260133312 0.0017390413981648 -0.006889911813474624
0.007444104388438856 0.001739130224096277 -0.006473809301400613
0.015084228364030314 0.0017380394451643507 0.003538217737282195
0.01463491437403169 0.0017382052474067859 -0.0005214718413461888
0.005750551624426068 0.001739158254194677 -0.0013945376899889578
0.008978339508585837 0.001738724962031172 0.0018950504597621222
0.01110326700000816 0.00173869443467192 -0.004636504737368359
0.010750647071466148 0.001738574691334182 0.0007088774288105107
0.01464529278755852 0.0017383539519993988 -0.005635859540620321
0.015126706055047404 0.001738260951378003 -0.004176332943777693
0.011213117287871166 0.0017387140393763116 -0.005697431006174325
0.013096771794041753 0.001738261604903474 0.0030366549970711346
0.006915274133266732 0.0017390947658053935 -0.0033782035613218967
0.015004431046440805 0.001738211822372164 -0.00206303823307639
0.006401570987801352 0.001739252455102315 -0.0069313807952152365
0.009909115981878911 0.0017388674195282835 -0.006286613441058134
0.017005573337001197 0.0017380134111907332 -0.002421130505811144
0.014465509413763986 0.0017384072069899943 -0.0068134048186757135
0.009515460420462186 0.0017387158221274508 0.00029266293790838525
0.011782297602654777 0.00173840169122717 0.002938707926814081
0.01260273684165302 0.0017384759462391688 -0.002520962869372467
0.014040235303975843 0.001738155419419998 0.0032994805035465036
0.012467782907071364 0.0017385956286267922 -0.006126402659903356
0.00993940919450512 0.0017387731598241087 -0.0031761676558385472
0.01088434711374061 0.0017386186542640073 -0.0012687481585943587
0.005513043765486846 0.0017392636150902784 -0.004145448603089767
0.00770678597547189 0.0017389893246494898 -0.0025991906279886966
0.009608931863556578 0.0017387532091532988 -0.0013170468807172857
0.01572693291744132 0.001738016013232232 0.0020474876025922493
0.007759717316915516 0.0017390632036586682 -0.005310391941666295
0.011424901002691707 0.001738588158352632 -0.0021541885546597136
0.004764456252835293 0.0017393657579810873 -0.0049648403334210745
0.01793553087695475 0.0017388584719660474 0.004664468728302167
0.01694421344205732 0.0017380788980114058 -0.0008292079301040014
0.019039960886075312 0.0017387991946822912 4.1546861687566296e-05
0.020066597882995932 0.001739572999230399 0.005342527357336066
0.020028709679928834 0.0017393815812160823 0.003261058232800465
0.020277516643091652 0.0017397341907247378 0.006457256745092427
0.019441336279418256 0.0017388396282931667 -0.0009208781706116103
0.017523435543216878 0.00173844539170341 0.0013500618345606186
0.017736047424103597 0.0017382647107149485 -0.0014999368554521136
0.018702949050331368 0.0017385096331855574 -0.0021102017787009587
0.018377492358433528 0.0017380798359753705 -0.005926988055535995
0.020267779973929104 0.0017393129468777505 -0.003753519024695711
0.019870593519269925 0.0017389462822839166 -0.002334097371117666
0.019624162736199102 0.0017387187885163856 -0.006211234270740188
0.0201479595665393 0.0017392023340899948 -0.0072163667725066525
0.01985932515554731 0.0017389358798395253 -0.005069672349323929
0.004506698145537999 0.009086623722732891 0.006837939658627621
0.005526810458074936 0.0024563544598980636 0.0066277512548888065
0.0074107510989737755 0.00661503474943153 0.00684829478729591
0.008600876085013726 0.004148706137047209 0.006798602684702493
0.009649820694209974 0.005559880068097837 0.0068878393409184365
0.0005991312183364414 0.013423082658275295 0.0068615161197643345
-6.960412819306691e-05 0.0070362416931562585 0.006601000251507159
0.0015583718450186512 0.010517428761407455 0.006787405702502697
0.010209724572154919 0.002409049839912047 0.006790594431894617
0.011679085344033032 0.0033174565542526155 0.006875950897515997
-9.112995091456081e-05 0.010437641631565612 0.00672646692556283
0.005621447374756111 0.005426479978035973 0.006741296649965337
0.004156547571460618 0.005026509810317555 0.006674964662727457
0.0020432251524621146 0.008146489300496215 0.006716463992934502
0.00654745888994625 0.008028470006361643 0.006870402610635417
0.004003691339959851 0.011188845491667914 0.006898271392808335
0.002634250787158192 0.005747728160507889 0.006648221668131627
0.006725503631915138 0.005561530482024751 0.006785114474140859
0.004545580404111799 0.0030529807644841035 0.006615402570838338
0.010726906966888461 0.004751533293271086 0.00689570047164169
0.0043795448989679825 0.0018598360183243162 0.006565289964731187
-0.00041981061381049246 0.00869355020568435 0.006650192345660546
0.007838724677124993 0.005267408238051506 0.006813328165661744
0.0015462406743556212 0.012985812104266678 0.006878579073912818
0.00026939833490285475 0.005934905558106699 0.006572046048102687
0.008039067483878263 0.0030233274789293755 0.0067370938921733955
0.0030028442167893588 0.008726905094708783 0.006771732185287678
0.002604327639330208 0.012521900014012665 0.006898554103168294
-0.0007653287342770812 0.0044938492559111025 0.006482200209436993
0.005614923055543754 0.009349602750408543 0.006886651332801532
0.013212668708930286 0.0025394795915120527 0.006900984333871232
0.0016852424992213533 0.006912246056846 0.006658079550036219
0.008684816261108034 0.0069886432434053125 0.006906940912933304
0.0030369875764135064 0.007284435592650377 0.006719403371775824
0.005352925838302848 0.006780312761536735 0.006782098122687671
0.0029540897055151806 0.011079400056353578 0.006857317764967478
0.002598161732757266 0.004578744190251293 0.006603573105772994
5.781419130739527e-05 0.01187202677614912 0.006784931033189314
0.0032409137677229826 0.00974700042010192 0.00681795497055033
0.0009157515362455918 0.007832240248672434 0.006665173160322169
0.005499904297102268 0.008384936776751855 0.006846810569753589
0.0009034272162688447 0.004311019498926734 0.006534070239605146
-0.00017898628587728832 0.0026458327529322407 0.00643423097733406
0.005692094762010773 0.004371313043305949 0.006704623401737297
0.007077407471198435 0.0038417447137795335 0.006733663557975391
0.0011457089956445725 0.0019057075792842484 0.006453326907187367
0.003760840962994277 0.006223908516061192 0.006705490592399714
0.0021101024732165705 0.009598020606206589 0.006772679834295974
0.0015554056561921637 0.005672171149280059 0.006607497740511631
0.0011363071000022123 0.003180343111342175 0.006500297165629265
0.007518258452422933 0.00763711526143016 0.0068900021422085116
0.0035827181099409833 0.0036695940651769133 0.006604441192455482
0.00275372994067682 0.0028562919872089465 0.006545122286739628
0.006982864879390509 0.0022954403981083945 0.00667295836474296
0.0006841881630568712 0.009145995431515844 0.006705786418295926
0.010403096812110092 0.0034651677264198122 0.006836582931144488
0.004287451940725208 0.007908688687165127 0.00678652118293516
-0.0008683814986024101 0.012765541474533753 0.0067855340337694735
0.0015109243733453586 0.011712174952680628 0.0068300740755197365
0.0018076548810527083 0.016093075202412415 0.006916999816894531
0.001166864022831475 0.0148130776648432 0.006916999816894531
0.006101104940284133 0.01185390385802392 0.006916999816894531
0.0012599099689153382 0.017027486877397156 0.006916999816894531
-0.0003632531973155734 0.017425123471060903 0.006916999816894531
0.011920019906054909 0.004641820897780612 0.006916999816894531
0.0001368346657908895 0.015557665507901983 0.006916999816894531
0.004204252996987988 0.014361858086462714 0.006916999816894531
0.005022889003325726 0.010857387034853987 0.006916999816894531
0.007029567916614373 0.010488060468603119 0.006916999816894531
0.0028107289992641547 0.01375185092891777 0.006916999816894531
0.009052462403306986 0.008220734865606087 0.006916999816894531
0.006816433112418616 0.009416814708634397 0.006916999816894531
0.01263525261995704 0.003671275529796886 0.00691699981689453
0.0009631437079890482 0.018042441946083648 0.006916999816894531
0.005435078598083335 0.012733569802109754 0.006916999816894531
0.0034248151600371553 0.015391972598582715 0.006916999816894531
0.004382696194738979 0.01237781046051763 0.006916999816894531
0.014435366442516662 0.015318703295075828 -0.007251541134737639
0.015228227913199686 0.014566914441769403 -0.007242744230600198
0.015981531032979265 0.014051693876629651 -0.00655441682307456
0.02101200073957443 0.00181235635846481 -0.0029494951639212875
0.021012000739574436 0.0018313942143473121 0.0036863654702873143
0.021012000739574432 0.0025072413037282044 0.004762301949831139
0.021012000739574432 0.002388707668650286 0.002643355174340382
0.021012000739574432 0.002296091848420484 0.0057031739695451176
0.021012000739574432 0.0017440359864245463 0.0002500649438325155
0.0029555281344491903 0.020780201314941564 0.006916999816894532
0.00016265454049031963 0.020967340807501348 -0.007355320433121677
2.188251009015934e-05 0.02123500034213066 -0.0015806662741262778
0.0012417955719694436 0.021235000342130658 -0.004777068084164842
-0.00016029501419559608 0.021235000342130658 0.0035268296879822367
0.0010555759770167238 0.02123500034213066 -0.0036701678099493977
-2.9926433564942857e-05 0.02123500034213066 0.0005975798491056417
0.0019333843675158604 0.02123500034213066 -0.00614981282262529
0.019156120369435647 0.004903789900028974 -0.00851999968290329
0.01825309854641514 0.005712878805256418 -0.00851999968290329
0.017410077942416762 0.008195259648936703 -0.00851999968290329
0.019726601470485702 0.0027112694284590257 -0.00851999968290329
0.013776494955251701 0.012957826524780263 -0.008519999682903288
0.014784042313175627 0.011048643762738546 -0.00851999968290329
0.01701522733816368 0.009130224479331431 -0.00851999968290329
0.015511858402477272 0.010266351090653332 -0.00851999968290329
0.018188377995247043 0.00701998323216774 -0.00851999968290329
0.01030803783911976 0.017894788751724084 -0.008288967036678613
0.0093446426349484 0.018145336423373685 -0.008345750637917128
0.007442844891735049 0.019103379383296506 -0.008296185294871044
0.005989143852460672 0.01983755044443179 -0.008257769987528432
0.017068315736907817 0.012813757144870788 0.0033399165011961628
0.016574463692686302 0.013389946436241619 0.00608389090174846
0.01653211105210621 0.013458623348294514 0.005024977780142636
0.016399711445847842 0.013638321447783071 0.00406587276359208
0.016816078777571884 0.013185597400588927 -0.00046892375792320683
0.013977611064799996 0.016083832107664946 -5.6095128205739466e-05
0.014651621312534582 0.01540968328217798 0.004435019458263709
0.014398098464856596 0.015663258254621906 -0.002326524131782465
0.014292525265449229 0.015768853160074158 0.0018130478997105829
0.014155306922030457 0.015906099715837892 0.005458163545731286
0.01397553585660143 0.01608590774253016 -0.0011694603145188981
0.014963932864248197 0.015097307518632239 0.0056789197697705365
0.01559314640504086 0.014467964610372915 0.005232177916510549
0.014731441249261887 0.01532984693432419 0.00024733956237077675
0.014197071039404395 0.015864327011684252 0.0033573781645606727
0.014241864439313282 0.015819394889785975 -0.005976173337712502
0.016286374709027183 0.013774283040213532 0.0010319038535890326
0.01591960451892027 0.014141006315411205 -0.0035533258534686312
0.015203449446338555 0.014857700552794825 0.0010514747081354155
0.016289753589861917 0.01377096452354059 0.0023623350031589706
0.015617823372323716 0.01444309141243321 3.680363192220485e-05
0.016595063295182323 0.013465160615825878 -0.00528269738833286
0.014986051115268581 0.015075085309307946 -0.0013604204077952362
0.014907620183973291 0.015153413788600684 -0.0043274217704728
0.015420912284106608 0.014640190545922282 0.0021583623783739104
0.015740729877776347 0.014319906652963028 -0.004745430621952281
0.015091622465456318 0.014969376497166675 -0.00328549819610989
0.01427700242879058 0.01578435736988344 -0.003473985866891196
0.01585875752706133 0.014201994317058712 -0.0011158274753819797
0.01605092590355034 0.014009681624043462 -0.002343723791826687
0.015686401810021303 0.014374627283966102 0.00316258275867451
0.021012000739574432 0.002630983850409961 -0.006305017224916429
0.021012000739574432 0.002855325643444795 -0.0029360979280463944
0.021012000739574432 0.003226434270447532 0.003904015187289101
0.021012000739574432 0.0025626608735841005 -0.0008220263597509301
0.021012000739574432 0.00314872643482133 0.0004522497935564437
0.019940804600487864 0.007534441458411682 -0.00032779558258634795
0.019259262063090647 0.009239710551541633 -0.0037454024587680497
0.0197743767861647 0.007950795666563535 -0.0013537605063983849
0.020010793009551893 0.007359628791246154 0.0009861694759737047
0.02018394974562819 0.0067130950166619414 -0.005012883272108066
0.019819822451310906 0.00782837697092833 -0.0042981474501712046
0.019899744865726942 0.007523877047615035 -0.006355770909906935
0.02013208018978138 0.006967104553364729 -0.0018823354209110054
0.019895208137074502 0.007645480371748961 -0.0029179970123238003
0.020268448535994896 0.006521828556254846 -0.0030284844723852925
0.0204451602466738 0.005899946771280133 -0.00594229798163481
0.01975310156229146 0.007997056863363196 -0.0053030164401365685
0.020149236108589905 0.006317033493354499 -0.007073097859610541
0.019691326747398298 0.0072956495224623325 -0.007385251428091772
0.019950153332171004 0.00378912159205271 -0.008359275242334858
0.019881168431594737 0.005743820316759527 -0.00807265135188442
0.019283915556447 0.006902274808907915 -0.008266731924730939
0.019062465641465035 0.00787758723203226 -0.008119648201951149
0.017380535150780793 0.012431944943785474 -0.003303144462370207
0.01721404558541928 0.012671379350934675 -0.0022915225592163874
0.01795970609302111 0.011594919427610503 -0.0064072603504104885
0.017775032106953387 0.011857392493445192 -0.004970004145231919
0.017087949687129973 0.012881161066558133 -0.004404338623103689
0.017546254778611867 0.012160009702875509 -0.0009077801158291956
0.017212888503452237 0.012708166675220962 -0.0058401884308592195
0.01746486248724894 0.01225755217281004 0.001561925406239137
0.018885834680682653 0.009842905266690634 -0.005915153614384231
0.0185155953610945 0.01063467225228892 -0.005300518857885567
0.019066865825490813 0.00957212481382942 -0.004836538999341352
0.018429184970452248 0.009760995188365505 -0.007745815385293309
0.018513660640657043 0.010499201899892964 -0.006656777379017752
0.018999814115954028 0.009231505110566583 -0.007012338875351973
0.018407187135280334 0.010827911128417928 -0.0043025808190644025
0.018570317749297488 0.010504634837665824 0.0035097813920691515
0.018523473715727875 0.010607420106813937 -0.0006255404555974432
0.018630755233214294 0.010435881807774706 -0.003292106733067597
0.018418472531039946 0.010797052553579323 -0.002147674154442715
0.018664518860973086 0.01035679577427098 0.0006391551831747995
0.017871107843495215 0.011691496719720841 -0.0027485569975604475
0.017897167903075464 0.01156160070016344 0.006435766923511182
0.01799526577125865 0.011433523951436273 0.004523912666638162
0.017806019889987423 0.011758392443674038 0.00034808940953575404
0.01730530638240511 0.012449187679682163 0.006359742893008425
0.017431382460080008 0.012271520154351269 0.005223160580123274
0.01792268751055953 0.011565218533456198 0.002204320717271756
0.017904016912093253 0.011653699627939454 -0.0039124969996940885
0.006293713388664756 0.02032216497321724 -0.006642625384220666
0.004350419130518554 0.02074383159575123 -0.007041122953212052
0.008176848198096906 0.019731949243380495 -0.003294428723591125
0.008072379075284391 0.019751535045037544 -0.004717126547300223
0.008432328693915515 0.019603044128198795 -0.005690121493972293
0.009494945772736005 0.01892529020434606 -0.007116926761098797
0.00826837379926481 0.019503218818090487 -0.007011565384152939
0.006994350785428343 0.019759945436968206 -0.00759295712606828
0.011988954607532803 0.01763500212188418 0.004035618375923548
0.012057407252509615 0.017531932537273892 0.00604527598906756
-0.0009219999774359167 0.021053276081002558 0.0014661846563238175
-0.0007626403768804125 0.021161935574074035 0.005527773989595739
-0.00024031959114704057 0.021108383092321006 -0.005973811911666768
-0.00018998237559568118 0.02123113763858558 -0.004471971456099495
-0.00010738365747430105 0.02123500034213066 -0.0029633211991890855
-0.0006830664121859425 0.02123500034213066 0.0026671658201379705
-0.00045729431921398187 0.02123500034213066 -0.0005303657211664769
0.012197601030481842 0.01600723855979175 -0.00851920477535661
0.013260541910241046 0.015491900380220724 -0.008302019509017714
0.014882614270455907 0.012351643611629892 -0.00851999968290329
0.013805183898717412 0.014196973691570951 -0.00851999968290329
0.01654957004457074 0.010375943896312134 -0.00851999968290329
0.017720940932004953 0.010383015423730955 -0.008312933444029046
0.000708067986316206 0.021235000342130664 0.0013938556931858775
0.0008222532678308067 0.02123500034213066 0.004477852285725519
0.0005677240758831103 0.02123500034213066 0.0025888213305296547
0.00040698052729839433 0.02123500034213066 0.005445578911703372
0.0009566575470233874 0.02123500034213066 0.0001381403728147285
0.018577584411284303 0.010454803323046968 0.00485070457604629
0.019003440389925887 0.009759695123116275 -0.0010226624023813653
0.019143248883412345 0.009439692604102436 0.00044524446601262586
0.01908019647536381 0.00945843949258992 0.004428810066090431
0.019459710250370257 0.008724344596509566 0.00343535819498885
0.019309529107683417 0.00896934836971754 0.005511492326911477
0.018805047754030427 0.010064150022666916 0.002430290809547042
0.019203883562442996 0.009152972365005618 0.0065548302595539315
0.01839729740993507 0.010762890502768525 0.006826235803591293
0.019879388278035145 0.007688053075661775 0.0019700845401173037
0.019381699977717392 0.00893332410272123 -0.0005825846043688995
0.019483040760062124 0.00867927364508856 0.0018251900131270203
