0.0348458459341 0.000184999997145 0.000449772140581
0.0372740908655 0.000184999997145 0.000926986311394
0.0291715923056 0.000184999997145 0.0009686430911
0.0383475920855 0.000635575409103 -0.00111506396003
0.0325913374185 0.00707798463204 -0.000783911484784
0.0303271861003 0.00501502805143 -0.000575061198903
0.0376744867622 0.00645577864281 0.00036464703218
0.038438734776 0.00744149213455 0.000128270510056
0.0376304179436 0.00516827314723 0.000542415035195
0.0386522926211 0.00324068502829 0.000659230110452
0.0371683093659 0.00822013074469 0.000198813156176
0.0355029238626 0.00754608698312 0.000517321036558
0.0321291475011 0.00144883748502 0.00162869332226
0.0355913286873 0.00332991220186 0.00101139114531
0.0335766526206 0.00531475897947 0.00100729098314
0.0328709624746 0.00253819684364 0.00141545734499
0.0343083898657 0.00395228731973 0.00108447226841
0.0326998895945 0.00385679901385 0.00127942513742
0.03685666155 0.00402882655443 0.000784435183788
0.0347360252857 0.00217186407111 0.0012456911348
0.0353757629367 0.00591822323022 0.000730639993
0.0313755372465 0.00253287589923 0.00158685937086
0.0385658755702 0.00169388568727 0.000864722450633
0.0334654536775 0.00130944631994 0.00149253543945
0.0368515592506 0.00217444507532 0.0010037973166
0.0280310140034 0.00493368262266 0.00132885928346
0.0317461867456 0.00642831924787 0.000897320508908
0.0388919640064 0.010066398237 -0.00078634254568
0.0380770250834 0.00909432676719 -0.000134668678679
0.0365054187834 0.00911560481047 -0.00115196665545
0.0335280519095 0.00777481661299 -0.000415938842609
0.0272304438017 0.00475454087134 0.000131370521253
0.0288781580597 0.00558745806584 7.37308782109e-05
0.0268044783662 0.00430273772594 0.00154203853279
0.0261731896945 0.00336351154042 0.00190288114718
0.0314646973553 0.00417254028295 0.0013551175378
0.0300696570707 0.00333688860483 0.0015922025198
0.0285686744642 0.00378578914787 0.00166282137243
0.0342674300087 0.00684132406408 0.000743332833595
0.0310871207568 0.00544396896045 0.00121434440966
0.0298361552071 0.00468549401006 0.00142819301992
0.0330454057973 0.00658178327672 0.000886357946182
0.0260375395694 0.00136998055495 0.00216720264524
0.0273570378462 0.00134860335157 0.00207460416927
0.0286680424738 0.00123746980142 0.00199266836762
0.0394604067766 0.00459638337229 -0.00137496367395
0.0384736036866 0.00270190959002 -0.00125506616943
0.0380877307262 0.00668063925047 -0.0014627911205
0.0344217124096 0.0037059413665 -0.000933337866393
0.0378170465191 0.00478060058752 -0.00132570533232
0.0374285892573 0.00358359394932 -0.00121818095345
0.0386721924603 0.00912880948885 -0.00166231025014
0.0371188889358 0.00766953000288 -0.00142638085823
0.0366699465382 0.00596557059147 -0.00128342003495
0.0356424753266 0.00321603513141 -0.00102330897776
0.0317193051081 0.00440741369918 -0.000711831672527
0.03486485165 0.00506624386034 -0.00105569470577
0.0330543598543 0.00385815590819 -0.000809439796096
0.0319795078565 0.00561801379223 -0.000807694815466
0.0344629152952 0.00654612186375 -0.00110296496135
0.0354845488349 0.00780052156341 -0.00125564937391
0.0266203717743 0.00322275284689 1.19500833699e-05
0.0278852031796 0.00307334764327 -0.000225607155458
0.0278405758581 0.00165081040659 -0.000130325544032
0.0329720307768 0.000763690503502 -0.000567286519737
0.0266579886083 0.000820206303591 0.000105490378445
0.0317980807687 0.00129854331072 -0.00051064689194
0.0448716557162 -0.0122068310218 -0.000515774440964
0.0467866589087 -0.0126483895215 0.000441410734099
0.0550184510324 -0.00484000006691 -0.000842298313167
0.045576863416 -0.00484000006691 -0.00103374028029
0.046179866908 -0.00484000006691 0.000674004640776
0.048400211328 -0.00528021024841 0.000661839852608
0.0563149779512 -0.00754853134776 0.000676246649083
0.0553084639889 -0.00636100979567 0.000522581820176
0.0539424891995 -0.0072978798018 0.000744426033336
0.0550559787951 -0.00777881735424 0.00077378065294
0.049812206093 -0.00576789714644 0.000678430090135
0.0535241357582 -0.00594778324883 0.000535909474985
0.0518863592773 -0.00634814611728 0.000679809162798
0.0522534399788 -0.00495475664241 0.000427396241013
0.0545421884269 -0.00509469028745 0.000344419482966
0.0535955707157 -0.00484000006691 -0.00123206844496
0.048523442167 -0.00878927212379 -0.00224100006744
0.0466215948436 -0.00659630633077 -0.00224100006744
0.0477259983646 -0.00533062445637 -0.00224100006744
0.0480738692628 -0.00735700645081 -0.00224100006744
0.0429139994085 -0.00912500661262 -4.28509360182e-05
0.0455197984934 -0.00594092195276 0.000885436242331
0.043939199156 -0.00598133252972 0.00094291564603
0.0528070957096 -0.00784269808723 0.000872384015433
0.0561936191477 -0.00884816643325 0.000881001000795
0.047077276854 -0.00679425993082 0.000936568531893
0.0445450900947 -0.00722980428637 0.00107339532164
0.0489057664372 -0.00664746900624 0.00085800303164
0.0506245482529 -0.00697785018562 0.000840665602697
0.0429139994085 -0.00645473411759 -0.000320215950819
0.0429139994085 -0.00764103200066 0.000141063174869
0.0532917975105 -0.00829755031947 -0.00224100006744
0.0534481034663 -0.00973311965644 -0.00224100006744
0.0508334617021 -0.00932091964068 -0.00224100006744
0.0549548938891 -0.00997986970889 -0.00224100006744
0.0494946537105 -0.00654482525839 -0.00224100006744
0.051097776891 -0.0106609258799 -0.00224100006744
0.0497837269453 -0.010284437679 -0.00224100006744
0.0499024061782 -0.00850089979759 -0.00224100006744
0.0521910219837 -0.00785123367664 -0.00224100006744
0.0509411916867 -0.00703631071715 -0.00224100006744
0.0523013664214 -0.00933088750893 -0.00224100006744
0.0577777169564 -0.0103685453996 0.000880230683906
0.0561579934805 -0.0115640236869 0.000930818704608
0.0550497163848 -0.0110690451602 0.000965432973954
0.0590558170526 -0.0120123568966 0.000840312416937
0.0562431130413 -0.0103108595916 0.000928160207543
0.0520139060845 -0.0112872027118 0.00106024893273
0.0502828025524 -0.0100244069943 0.00105654171669
0.0455691650871 -0.00807344240188 0.00108771365738
0.0495177202527 -0.00904312164946 0.00103695831053
0.0516565789513 -0.0100974694438 0.00102908290217
0.0502253862065 -0.0113252847389 0.00110603699044
0.053239955258 -0.0104975001009 0.00100914476342
0.0549244347459 -0.00976055994015 0.000944829398076
0.0474398986376 -0.00843691948204 0.00106010986495
0.0533045476102 -0.00927804486739 0.000962510919781
0.0515195519537 -0.00886344657821 0.000986336434516
0.0486820668267 -0.0080850845572 0.00101978663921
0.045937406736 -0.0106702541984 0.00110899994615
0.0469445633819 -0.0095790645076 0.00110899994615
0.0434598639627 -0.0109651151212 0.00110899994615
0.0484603856828 -0.0109254679934 0.00110899994615
0.0453567765504 -0.00925003814956 0.00110899994615
0.0577974782277 -0.00557951481799 -0.00140233602037
0.0564307102639 -0.00523995758883 -0.00169425617071
0.0546622900571 -0.00761167329807 -0.00213399229058
0.0554897937328 -0.00874444144993 -0.00215772489484
0.0519160974994 -0.00509538536202 -0.0021266739632
0.0525611836738 -0.00648435971862 -0.00217425333259
0.054652699056 -0.00624936091539 -0.00205617060511
0.0593860000372 -0.0115738611344 -0.000949607198935
0.0571637748493 -0.012979735399 -0.00149667619136
0.0593796536007 -0.00638215393995 -0.000639991497588
0.0584263487519 -0.00585193141888 -0.000129872439341
0.0557997671062 -0.00503683199214 0.000206589183713
0.058366522026 -0.00819054332957 0.000688191713722
0.0571613434468 -0.00663682000707 0.000473434800478
0.044564278835 -0.0111501442588 -0.00166444740873
0.0451151814617 -0.0117881738507 0.000931654592748
0.0536016889232 -0.0122619562664 0.000973924453721
0.0512226445688 -0.0122852937223 0.00101232433006
0.0468303206163 -0.0114916897965 0.00110899994615
0.0582456244599 -0.0109225708966 -0.00203853910757
0.0572745825485 -0.00995992162274 -0.00212264593458
0.0562546983823 -0.0106020643476 -0.0021998547144
0.0587199493335 -0.00625949920774 -0.00175018065952
0.0575785747807 -0.00701140369813 -0.00194450241207
0.0578216988823 -0.00859796506831 -0.0020319665674
0.0561861923963 -0.00771870657658 -0.0020636828492
0.0504271383444 -0.0129982144273 9.84188005699e-05
0.0526106866945 -0.0131499564161 6.31209080858e-05
0.0581295435971 -0.0131591536775 -0.000393097349402
0.0549835030722 -0.0132170002908 -0.000474186300318
0.0491155978161 -0.0124686452945 0.00082452140365
0.0548137284116 -0.0126388990826 0.000773160298139
0.0568668081856 -0.01277299346 0.00069083460593
0.050695747698 -0.0126237171657 -0.00170553804687
0.0533886962158 -0.0125736121441 -0.0018530694721
0.0547653493652 -0.0127743128861 -0.00170476335773
0.0485712622339 -0.0120176671199 -0.00182909738403
0.0449748826877 -0.0065430074524 -0.00224100006744
0.0469437677924 -0.00819246895228 -0.00224100006744
0.0437004528066 -0.00573376720808 -0.00193363757391
0.043336912083 -0.00888596455173 -0.00164753794329
0.0455178229007 -0.00776542597594 -0.0022054911373
0.0451643219328 -0.00941505979588 -0.00205523892181
0.0474910378223 -0.0102564211457 -0.00218554342012
0.0436804564868 -0.0100796787984 -0.00164438375083
0.0442173917345 -0.00809136975059 -0.00196868885943
0.0587231561538 -0.0124568738959 -0.00185593341895
0.0558389920413 -0.0118273925916 -0.00221326159524
0.0572582905554 -0.0116380126813 -0.00210872230115
0.054209470237 -0.0115818179585 -0.00224100006744
0.0524210370075 -0.0118020291354 -0.0021680883629
0.0499944472098 -0.0116485026974 -0.0021511550534
0.0463392854992 -0.0124231310934 -0.00103703596616
0.0475989306287 -0.0126627429861 -0.00103748492077
0.0493449257936 -0.0128961558069 -0.000744277557096
0.0514770103945 -0.0131069894163 -0.000565402702284
0.0496568950667 -0.00392200351431 -0.00224100006744
0.0510245986551 -0.00361379228168 -0.00224100006744
0.0483624247533 -0.00419581589582 -0.00224100006744
0.0484365690668 -0.00287419334588 -0.00224100006744
0.0430214551522 0.000184999997145 -0.000643132793104
0.0477744420721 0.000184999997145 8.88719761395e-05
0.0540701382459 0.000184999997145 0.000342904690996
0.0451992570544 0.000184999997145 -0.000155257190866
0.051489199518 0.000184999997145 -0.000254333607027
0.0435824527834 -0.0037220560589 0.000672457859813
0.0441687154549 -0.000835775096225 0.000778981679295
0.0444906668156 -0.00204386549061 0.000837480182265
0.0466497635675 -0.00224020532876 0.000791832425902
0.0458199802828 -0.0011310986103 0.000948602002026
0.0509592901999 -0.00362144980961 0.000523561802448
0.0468243629372 -0.00367221373792 0.000609413033047
0.0507735664797 -0.00238098927974 0.000682349108733
0.0480668412609 -0.00400517309553 0.000540204759649
0.0455469959197 -0.00282870087172 0.000743049272972
0.0497631169193 -0.00383550617899 0.000523541896553
0.0472384032025 -0.00094647305376 0.00093999818765
0.0538658328444 -0.00406085380923 0.000403986202571
0.0480796831281 -0.00255679375285 0.000720486473522
0.0447820761441 -0.00484000006691 0.000192570977972
0.0479155437024 -0.00484000006691 -0.000504327230967
0.0522211149025 0.000184999997145 -0.0013973547861
0.0506609083647 0.000184999997145 -0.0011569808499
0.0568397937393 -0.00480528772992 -0.000566976186906
0.0493955656597 -0.00484000006691 -0.00116965041492
0.0515542861299 -0.00484000006691 -0.000662836146663
0.0429139994085 -0.0047652560428 -0.00050473867705
0.0435135603253 -0.0015465202225 -0.00162251196767
0.0436900047966 -0.00294690697442 -0.00173674969597
0.0440256987489 -0.000442609611677 -0.00166609078511
0.0481824195859 -0.000344536065464 -0.00218760876307
0.0454027635686 -0.000694775705146 -0.00191662625514
0.0467307475865 -0.00109789221972 -0.00217563128028
0.0493576784173 -0.000642643480157 -0.00224100006744
0.0500858202243 -0.00265381500144 -0.00224100006744
0.0448932376386 -0.00339013917177 -0.00197550923658
0.0549368987428 -0.000139350974342 -0.00205084286587
0.058734379813 -0.000158667009384 0.000578132606761
0.0503651293735 1.49346819365e-05 0.000926617097935
0.0571307820947 -0.000337620373309 0.000644904289475
0.0512200638123 -0.00114060823494 0.000805407404583
0.0525459053847 -0.00315265325808 0.000544591728257
0.053960688239 -0.00105770798565 0.0007317120495
0.0486503795515 -0.000659584522834 0.000935813109758
0.0551317514003 -0.00182001143246 0.000612694873077
0.0552653628802 -0.00383136117668 0.000387971442485
0.0573776018617 -0.00267970959473 0.000450523315831
0.0560754342695 -0.000993821860917 0.000674837544481
0.0536959727227 -0.00226023904817 0.00060776598123
0.0527403170617 -0.000631418860638 0.000815350961221
0.0497603288763 -0.00118838134658 0.000844262680121
0.0589309035241 -0.00301109872469 0.000173739799066
0.0577219510826 -0.00420677496821 6.86529853429e-05
0.0573924702632 -0.00336337121283 -0.00196466375974
0.0559452168738 -0.00404428633561 -0.00204202375163
0.0546642397962 -0.00419597566767 -0.00216058636873
0.0587150766111 -0.00334408053818 -0.00182699546494
0.0512327478398 -0.00108522456979 -0.00224100006744
0.0536711524994 -0.00240534993425 -0.00224100006744
0.0522584609523 -0.00267578275738 -0.00224100006744
0.0580872546423 -0.00189570503401 -0.00202903976703
0.0549094038365 -0.00295886427879 -0.00219172311212
0.0559684158813 -0.00200741621902 -0.00214898204765
0.0579107121563 -0.000666758636257 -0.00204867204421
0.0563337761865 -0.000800156684409 -0.0021239340483
0.0538412259095 -0.000998368252421 -0.00223268078755
0.0464137784412 -0.00280662497548 -0.0021635331381
0.0593880005181 -0.00171306083273 -0.00143359241621
0.0683501014674 -0.00111697840014 0.00162674546731
0.0706839197955 -0.000595841239879 0.00185851618456
0.0651058513416 -0.00163924477038 0.00129207764249
0.0712482793269 -0.00206032428027 0.0020127645447
0.0720763750714 -0.00362890522096 0.0022032678863
0.0667776468939 -0.00189622680612 0.00149701896459
0.0627850019055 -0.00046027399911 0.000956804381192
0.0731693362127 -0.00157873429203 0.00220029505653
0.0724770938997 -0.00428211022438 -2.05601720894e-06
0.0739427504974 -0.00424705947021 0.000307505462846
0.0790469425048 -0.00199826281588 0.00222599995323
0.0775656890886 -0.00236172324766 0.00222599995323
0.0632978442028 -0.00280476888158 -0.00173165375319
0.0654425896644 -0.00121242188146 -0.00124741901766
0.0706172650134 -0.00121366451268 -0.000552243162051
0.064780639431 -0.00259126538167 -0.00158053843892
0.0671043548628 -0.00121490592393 -0.00102454348664
0.0640730616945 -0.00133925161963 -0.00145392110593
0.0681845183128 -0.0019355513892 -0.0010069971677
0.0616018342797 -0.00140948656561 -0.00179845274422
0.0697974433227 -0.00416955216765 -0.000635672907426
0.0711884901505 -0.00388311156098 -0.000438644648497
0.0677930275553 -0.00353478529715 -0.00104386291415
0.0649170293295 -0.00394039645525 -0.00147336041701
0.07484251381 -0.0032992292563 0.000146892924474
0.0722155109288 -0.00189231740676 -0.000298871703883
0.0734378015684 -0.00223111817758 -8.78440464733e-05
0.0708910486085 -0.0026332726723 -0.000540249588444
0.0665650151873 -0.00301564645298 -0.00130527701793
0.0696155899457 -0.00279924991156 -0.000766415847345
0.0774592901342 -0.0018978711722 0.000789532152223
0.0805298916779 -0.000790702028319 0.00152190956098
0.0756074428648 -0.00202677307479 0.000380444697561
0.078061450895 -0.00348143831897 0.000942906958892
0.0804531701686 -0.00216008466017 0.00154042987025
0.0793706253818 -0.00343093548265 0.00130028025543
0.0766939731009 -0.00343891642238 0.000565327046322
0.0630351038272 -0.000533222879749 -0.00138149721478
0.0745579856564 -0.000555342771337 0.00053019710696
0.0656936112388 -0.000134351287778 -0.000702814564829
0.0682087428029 -0.000554844114611 -0.000657360721956
0.0760935821069 -0.000795898907682 0.000574301594549
0.0727173183292 -0.000770702315535 -3.1983364703e-05
0.069657449746 -0.000104805054729 0.000176482126128
0.0780357132783 -0.000433608026659 0.00141981257463
0.0636840497173 0.000132517766896 -0.000284442634869
0.0674435642894 1.57128716833e-05 0.000176336933684
0.0676854176334 -0.00471215907786 -0.000728610327962
0.0663343614387 -0.00487823961555 -0.000566578047547
0.0634030612788 -0.00490686570984 -0.00134065269139
0.0618578735196 -0.00489082667154 -0.000760085557725
0.0600795434769 -0.000891244333702 0.000640280863325
0.0613700709898 -5.49545250201e-05 0.000663494972463
0.0603366388214 0.000184999997145 -1.2498858883e-05
0.0597903251084 -0.000190135356357 -0.00153230349339
0.0764389106619 -0.0003673262052 0.0019719373682
0.0650301562987 -1.35606860482e-05 0.000855617657383
0.0735328822325 -0.000211280108643 0.00159668823396
0.0664841297862 -1.45736682621e-05 0.000937125746865
0.0694172754597 -0.000253700189754 0.00142840718199
0.0721666294037 -0.000189793054543 0.00149178698773
0.0673329341332 -0.0043081444108 0.00126589097195
0.0711210161497 -0.00436900682004 0.00150672512996
0.0734377467326 -0.00392787848288 0.0021217456591
0.0774004952388 -0.00413739237324 0.0018616410453
0.074998957202 -0.00434947268027 0.0012725069155
0.0686232792446 -0.00477578926115 0.000377761171041
0.0726701001447 -0.00449666121336 0.00117534487207
0.0698177750664 -0.00452598788989 0.00121201478975
0.0623450029427 -0.00422001956357 -0.00172084908819
0.0601959821007 -0.00259861204629 -0.00181495330601
0.0597623136519 -0.00418860227817 -0.00158252794396
0.0656169912786 -0.00426220923751 0.00109876127547
0.0618861979711 -0.0043472368382 0.000557152749919
0.0632970040848 -0.00458887948859 0.000643737094322
0.062082165941 -0.00269284810303 0.000795970947583
0.0635377228378 -0.00218514395721 0.0010737817818
0.0691054598171 -0.00311601853124 0.00181821322368
0.0677915082038 -0.00313599791627 0.00161598439064
0.064270396256 -0.00372294131755 0.00101496790775
0.0604572701865 -0.00296758532168 0.000492708455705
0.0598007427044 -0.00431899466559 -0.000227842156078
0.0839237099385 -0.00379062060768 0.00257775951407
0.0971236313772 -0.00175041969483 0.00538131550984
0.0954137717208 -0.00142223527454 0.00481881363973
0.0965720831464 -0.000513351559091 0.00505324712744
0.0938011037532 -0.00144222786976 0.00433099687122
0.081493170151 -0.00140802728746 0.00222599995323
0.0921756055685 -0.00189167268675 0.00390033460674
0.0885690742405 -0.0019835782516 0.00310759805496
0.0900920677392 -0.00180479140873 0.00345862657829
0.0862272546965 -0.00142631053617 0.00266454347278
0.0873589559593 -0.00253177499847 0.0027814881943
0.0791408822508 -0.0039864472555 0.0023688062594
0.0755997157469 -0.00399237816884 0.00245556344359
0.0776498725282 -0.00359303317247 0.00314713432062
0.0843784810668 -0.00335553150078 0.00454822746748
0.083068238544 -0.0036140257157 0.00419522587992
0.0800193001213 -0.00377360379047 0.00354267457103
0.0815648398628 -0.0037128587472 0.0038360848626
0.0859440560583 -0.00377736217763 0.00403395441696
0.0954241809319 -0.00274218379846 0.00501542627652
0.0932304782676 -0.00302299782382 0.00438280064321
0.0967565316504 -0.00280551989543 0.00622769099151
0.0959344785857 -0.000895800597471 0.00714750160269
0.0914551681232 -0.000362044123664 0.00600781873693
0.0898097484538 -0.000581169846892 0.0057615977587
0.0818788226211 -0.00106934085073 0.00422349279833
0.0936263572986 -0.00137900621193 0.00680664245173
0.0928988807443 -0.00305176211633 0.00596804248936
0.0955286792666 -0.00211461415152 0.00692581601586
0.0942886924554 -0.00252287345751 0.00661648488427
0.0877488646682 -0.00337226568725 0.0051653408671
0.0915887843692 -0.00296790181982 0.00596176649274
0.0904574111343 -0.000200257595746 0.00432899846656
0.0934860471068 -0.000137565031457 0.00517227414915
0.0951416141836 -0.00010086572971 0.00590047962575
0.0880887175922 -0.000638785679483 0.00329420829786
0.0847192474833 -0.000980710474498 0.00251451209246
0.0867762362401 -0.000341020246011 0.00315648077331
0.0974607945924 -0.00191657248949 0.0067891705933
0.0865410830295 -0.00346606421702 0.0026163834757
0.0851698386899 -0.00356029924909 0.00244504181296
0.0816760437551 -0.00288449730662 0.00222599995323
0.0837025846258 -0.00220848687983 0.00222599995323
0.0791345897777 -0.000486665923526 0.0028796567627
0.0852681674937 -0.000299039263403 0.00394176891527
0.0824315699583 -0.000360549522729 0.00281621782174
0.0836249992106 -0.00032861964811 0.0040998552849
0.0776262957913 -0.000720555588215 0.00290270522642
0.0754874094762 -0.000862360755995 0.00243909444394
0.0939023255028 -0.000140783461802 0.00643559016546
0.0885682868456 -0.000260985058995 0.00524666249003
0.0801239064543 -0.000736246549047 0.00358136276861
0.0764807436348 -0.00194219945916 0.00304711623444
0.0753717037554 -0.00261957677718 0.00275468818115
0.08062418749 -0.00242479489866 0.00400654970128
0.083537708991 -0.00228204680559 0.0046544072279
0.0788558125511 -0.00296152074377 0.00353142776383
0.0853079880546 -0.00113283449865 0.00501268581312
0.0877643462733 -0.00122666461519 0.00556534341074
0.0795163680287 -0.00184726176574 0.00375797737329
0.089067938804 -0.00186588546164 0.00586229529337
0.0863241334995 -0.00192575840586 0.00526578826805
0.0914015052953 -0.00178700860134 0.00636961583971
0.0823134337337 -0.00390225517031 0.00271769027948
0.0883630676724 -0.00373721230583 0.00362950284666
0.0811021152822 -0.00393640126692 0.00260986902097
0.0897056278748 -0.00364778413822 0.004037021853
0.0910671574295 -0.00348831012052 0.00397160632901
0.0443059864825 0.00826674126978 -0.00198775856814
0.0460447858475 0.00835122899711 -0.00214404589924
0.0457023278277 0.00970333878658 -0.002234089916
0.0403078980498 0.00930704510254 -0.00173738142302
0.0627277356055 0.00688700005412 0.00232080460529
0.0605326744809 0.00688700005412 0.00259406981157
0.0538567750764 0.00688700005412 0.00261994743018
0.053167264186 0.00688700005412 0.000642503418181
0.0549582214048 0.00688700005412 0.00320261943635
0.0576758278893 0.00688700005412 0.00384705915312
0.0500920616505 0.00688700005412 -0.000156318806339
0.0518105894796 0.00688700005412 0.000262123137625
0.0573490173332 0.00688700005412 0.00253896026563
0.0446540265229 0.00688700005412 0.00130572807111
0.0525563489527 0.00688700005412 0.00391222715674
0.0441687525673 0.00688700005412 -0.000604632610944
0.042783387581 0.00688700005412 -0.000227963729917
0.0479993753208 0.00688700005412 0.000967173866923
0.0453400286504 0.00688700005412 -0.00188336788093
0.0465963212506 0.00688700005412 0.000593465432649
0.0739009976387 0.0113471821869 0.00385074719603
0.0739009976387 0.0117592088301 0.00132280197938
0.0739009976387 0.0116590345008 0.00263797145617
0.0536866088802 0.00831390993189 0.00527579326588
0.0503920989478 0.00751377520841 0.00509075438599
0.0524641453272 0.00794426628504 0.00520228539044
0.0556369367541 0.00691784027828 0.00526074891732
0.0516258332839 0.00697836806107 0.00510440690434
0.0543161277575 0.00698093407868 0.00521214338816
0.050734952972 0.00688700005412 0.00403085291594
0.0492368186934 0.00688700005412 0.00471759646199
0.070615506737 0.00736120563514 7.64609658879e-06
0.0720092571173 0.00759571261374 -0.000706822818545
0.0542914173797 0.00688700005412 0.000132473646111
0.0482175254983 0.00688700005412 -0.00136925216713
0.0508494245954 0.00688700005412 -0.0014730341112
0.0565479518265 0.00688700005412 -0.000581718923048
0.05463556412 0.00688700005412 -0.00122714108883
0.0700385672562 0.00753289763504 -0.00123819386037
0.0624317274349 0.00728081999331 -0.00164041968799
0.0671196194563 0.00774750935981 -0.00147669925695
0.0603314673336 0.00729012985936 -0.001771426643
0.0640183686926 0.00746929226991 -0.00159306477116
0.0558350890451 0.00762029522149 -0.00213379831648
0.0658226551435 0.0126625583695 -0.00170012097861
0.0570168041253 0.0119735214213 -0.00213690270424
0.0558994729134 0.0124295732174 -0.00216509515209
0.0636324721617 0.0130335123581 -0.00178158587785
0.0584180551503 0.0125254893035 -0.00204523819696
0.0621016208817 0.0126817774489 -0.00186913888808
0.0528663590461 0.0115570775809 -0.0023473634906
0.0664795489718 0.0138253262111 -0.00125537534122
0.0625884442787 0.0138634024596 -0.00145688027991
0.0397442526405 0.00895301322996 0.000213949970284
0.0400652306446 0.0102058711786 0.000180525696566
0.0658055349187 0.0093272718948 0.00487795666642
0.0582331189348 0.00724786586462 0.00522002396559
0.0698029319635 0.0109704827246 0.00471564160174
0.0691684820135 0.00938919062795 0.00469720630029
0.0597115479565 0.00753208756465 0.00514916385587
0.0707592823389 0.0101571962365 0.00463642968532
0.0684626520451 0.0106530806871 0.00477788083328
0.0733045796869 0.0102353960472 0.00448225155345
0.0715089632833 0.0115617698269 0.00449733839638
0.0604589867987 0.00879384098803 0.00509874726891
0.0627213348233 0.00948066735968 0.00500282851121
0.0672097245723 0.0105613034639 0.00482576123466
0.055680664795 0.00924661373087 0.00521203102163
0.0578276421462 0.00915912279992 0.00515569065993
0.056332375243 0.00803368434818 0.00525059253662
0.0651849990501 0.0106335739178 0.00487937388624
0.055432663165 0.0106318034909 0.00493733923132
0.0567146244301 0.0104869894685 0.00497084580972
0.0541592470485 0.0102741755491 0.00504387574181
0.0581110461116 0.0105330134668 0.00495053030467
0.0624054244989 0.0136766316959 0.00316292984143
0.0395650006831 0.0078721876613 -0.000859670309261
0.0672700806559 0.00689620155784 0.000817680282719
0.0673482961883 0.00690662033953 0.00311863208319
0.0684999917349 0.00706003314765 0.000996785999676
0.0684097291712 0.00719301113286 -0.000500504245727
0.0661013137641 0.00712155234454 -0.000672347651611
0.0574593269591 0.00691324708575 -0.00162905564679
0.058466326645 0.00688700005412 -0.000610536247086
0.0653470770291 0.00688700005412 0.00232687105746
0.0632862530614 0.00688700005412 0.00124694753757
0.0691147077064 0.0134888700333 -0.0012656175725
0.0700392184939 0.0138245115581 -0.000519649340385
0.0718733362351 0.0131917267276 -0.00106659623591
0.0468330049081 0.0133038874247 0.0004469840334
0.0439836835464 0.00693831266235 0.00275739803181
0.0421694044041 0.00785524190409 0.00170721045991
0.0411234490623 0.00708652595442 0.000826800360134
0.0408808957616 0.00841814803169 0.000940291112707
0.0715301422134 0.0138519917597 0.00289220464064
0.072750685119 0.0136203218821 0.00288360071013
0.0720359484463 0.0140587884887 0.00165323567324
0.0698786823882 0.0143510858512 0.00156747802137
0.0731415525128 0.0137033159468 0.000923839207585
0.0504137677589 0.0104350436215 -0.00247766223868
0.052930562818 0.00897319145535 -0.00235779297402
0.0735021499868 0.0125081555871 0.004185174007
0.0662755299614 0.0115250153225 0.00461240846094
0.0632592618869 0.0113665581033 0.00468261516833
0.0598760004715 0.0112826180398 0.0047309377594
0.0702230237102 0.0120591169713 0.00441454252828
0.0677926579308 0.0122661315237 0.00436254286264
0.0614587557586 0.0113051183466 0.00471377095255
0.0683861516577 0.0132362922172 0.00369300568283
0.0712697006094 0.0130702794889 0.00385875550539
0.0649998961666 0.0135052709917 0.00342432844436
0.069612804027 0.013217585619 0.00371159538969
0.0669982030761 0.0131058418097 0.00382360310678
0.04116374582 0.0110491043776 -0.00127250867805
0.0541117070904 0.0139846867533 0.00202894169356
0.0581272181186 0.0135512714934 0.00313443578401
0.0604032330262 0.0134478313735 0.00340618834444
0.0516389613313 0.0135090051225 0.00236248658722
0.0481358696443 0.0104641065851 0.00393350139518
0.048968979119 0.0115281467191 0.00354881425504
0.0441769153237 0.0101102739211 0.00241293010831
0.0461241298305 0.0104504449257 0.00310480701464
0.041151746784 0.0101404511985 0.00104160674888
0.0495157855539 0.0128097815334 0.00271733754812
0.0652708153656 0.00814210316223 0.0047658131116
0.0681127682833 0.00859908081977 0.00460968165727
0.0629471437135 0.00799449296127 0.00498158525504
0.0725037485891 0.00930342834656 0.00433334521881
0.0667162372669 0.00804939795241 0.00454291763686
0.0639396107037 0.00716474081216 0.00442549103289
0.0729238695465 0.00795587509688 0.00149688318546
0.0707274348452 0.00748033093999 0.00135553896312
0.0696615136915 0.00732550465576 0.00227488354364
0.0710913843002 0.0076582878908 0.00266873967534
0.0724451723239 0.00798926599559 0.00313801328641
0.0736413914441 0.00865327271522 0.00370997668797
0.0700614883496 0.00761577001071 0.00342191132379
0.0473152945747 0.00789543990321 0.00423207391898
0.0459534455791 0.00774157285876 0.00366692094619
0.0439858600626 0.00829549910435 0.00272233499971
0.0430653252022 0.00914741309836 0.00218780775739
0.0449235952705 0.00938656909974 0.00299392866648
0.0466296037308 0.00924220277607 0.0038001583705
0.0633847439679 0.014669663057 0.000954712782808
0.0533170187806 0.0142186790244 0.000768523815085
0.0553918017475 0.0143367161854 0.000767783418077
0.0597979672881 0.0145844469412 0.0011285736114
0.0600078494084 0.0142110268306 0.00231966280297
0.0584006788854 0.0144197251907 0.00146413235348
0.0569021977783 0.0142453814532 0.00177296086616
0.0620382130034 0.0143408755003 0.00200130171504
0.0641666351677 0.0141918519978 0.0023420013866
0.067750897787 0.0140391726552 0.0026743325281
0.0660695644751 0.0140468992617 0.00267538869744
0.0538308735254 0.00748480699417 -0.00218049214853
0.0489297061923 0.00958007300488 -0.00248003275695
0.0470762815206 0.00779373497286 -0.00216042974665
0.0486965335782 0.00841632788564 -0.00232167294998
0.0517200297904 0.00805397461504 -0.00230116738567
0.049985113184 0.00755808435405 -0.00227922153841
0.0502530535301 0.00881589331285 -0.00239276110093
0.0498245516879 0.0124048101832 -0.00221845945158
0.0462911754043 0.0120454823917 -0.00189268588112
0.0425087705767 0.01089415177 -0.00182337789223
0.044819466707 0.0119336418896 -0.00174320993973
0.048338208188 0.0123534194649 -0.00204506005537
0.0437969882029 0.0111274477089 -0.00190476802453
0.048035867101 0.0110058778392 -0.00237285330499
0.0509731999365 0.0117214804366 -0.00237653685507
0.0539405425314 0.0124363644122 -0.00219992685681
0.051013517235 0.00866373911606 0.00511778253779
0.0495346731305 0.0104808778975 0.00432460299909
0.0517748305302 0.0100074190552 0.00504368235873
0.0486011336139 0.00855768032985 0.00465305075581
0.0496851146212 0.00940781198974 0.00479635947932
0.0705536684814 0.0127762396123 -0.00147778053356
0.0675346686819 0.0124490594604 -0.00163182749443
0.0639047043226 0.0116276498561 -0.00181688048492
0.0569049388132 0.0106680750207 -0.00216594011311
0.0609513520771 0.0100379317069 -0.00197205815422
0.0543954320338 0.00989247621359 -0.00229396075164
0.0623595496362 0.0113536023928 -0.00189434822464
0.0600054977816 0.011040741492 -0.00201167282998
0.057114525492 0.00900876328023 -0.00216674627367
0.0550197597037 0.0110992904186 -0.0022553496474
0.0664350909002 0.0115290988627 -0.0016936674872
0.051851526885 0.0105883326755 -0.00241385204962
0.0597300389938 0.00954137935411 -0.00203515674884
0.0557238067329 0.009371028171 -0.00223241028211
0.0592905021409 0.00841937781129 -0.00203109992999
0.0580557392493 0.00798010133912 -0.00208989343298
0.0639391115003 0.0100528227648 -0.00180877643966
0.0671881860096 0.00905660627245 -0.00155046105941
0.0685026336068 0.00925984931783 -0.00147514503756
0.0653315157671 0.00789531511307 -0.00161475808639
0.0710323833104 0.00910884017009 -0.00130409207314
0.0677894083192 0.0104403505056 -0.00157815483075
0.0701232475514 0.0111889743554 -0.00146309727498
0.0654428798111 0.00983830126229 -0.00170109056423
0.0642662890304 0.00878800850894 -0.0017267012805
0.0685676346309 0.0113492670753 -0.0015715289378
0.0626609320255 0.00898013792167 -0.001839886245
0.0607579324859 0.00870959832095 -0.00195006680625
0.0697643039963 0.00935768884142 -0.00139817144218
0.0730295097648 0.0130549422794 -0.000255189489861
0.0724821024389 0.0104889234438 -0.00127277543621
0.0731139157201 0.0116963504839 -0.000558417635442
0.064697365192 0.0146273919369 0.000434021834224
0.0571283673274 0.0143479901965 -0.000636623108207
0.060981505556 0.0144158201398 -0.000926943811166
0.0680636985419 0.0144144160025 0.00078067175839
0.066226023192 0.0145204595858 0.00045698305638
0.0692910047596 0.014275175781 0.000506026251338
0.0654558298689 0.0143260851241 -0.00068797348899
0.0634514005169 0.0145467096632 -0.000565732917156
0.0672024999001 0.0142644125719 -0.000402752206464
0.060794784142 0.0146226234075 0.00025988023424
0.0589910083411 0.0145136782002 -0.000331470759034
0.0440811058195 0.0121060289867 0.000824713472235
0.0423407969188 0.011660565677 8.03608115446e-05
0.0446383418876 0.0126663329217 -0.000176497339789
0.0433037532442 0.0121894142254 -0.000359855223825
0.0432133932548 0.0113072221923 0.001226600919
0.0465660771986 0.0115762374868 0.00259386684328
0.0479092508788 0.0127941780188 0.00204295624287
0.0454530086084 0.0117787959566 0.00187144022766
0.0492758242266 0.0137559013607 0.000569247986505
0.0507419589675 0.0139708258335 0.000895847054032
0.0483389271052 0.0137041604756 -0.000432101638739
0.0516158597034 0.0141112725356 -0.000255963377525
0.0474045796875 0.0133135340897 -0.00112665117858
0.064966116731 0.0124730202677 0.00425088917089
0.0597034180106 0.0125225552507 0.00413028372549
0.0609690946302 0.0125623794267 0.0041243290981
0.0637205764611 0.0131227979824 0.00379119617818
0.0563187575667 0.0120601592382 0.00438669698439
0.0584710625879 0.0126379055866 0.00403193479845
0.0623586835284 0.0127875500769 0.00399518287514
0.0576604152132 0.0118437696479 0.00451680265555
0.0541299503586 0.0122653510329 0.00408670108011
0.0522652034831 0.0127689938166 0.00345554345469
0.054483934731 0.0133744627425 0.00307488696775
0.0566626492847 0.0134420038725 0.00317208800182
0.0512496214803 0.0120035081199 0.00391586011945
0.053042182469 0.0110061620539 0.00472604250333
0.0738607146888 0.00872502170723 0.000413742033248
0.0731923964013 0.00904623881651 -0.000614021309197
0.0738203147122 0.0100947370929 0.000172001774894
0.059297494196 0.0139806973578 -0.00144165425201
0.0575190983323 0.0134267158154 -0.00185640026173
0.0543236145378 0.0140561027561 -0.00103200595815
0.0558176907626 0.0142019925963 -0.000870603624329
0.0528614956434 0.0141423420549 -0.000683399636721
0.050736015146 0.0137199246351 -0.00134187713555
0.049086240082 0.0133032969645 -0.00173531418848
0.0521377963619 0.0135089190093 -0.00174410810368
0.040795474535 0.00801365234133 -0.00155003985833
0.042436282572 0.00763449978153 -0.00170037190053
0.0473291683296 0.00992179386418 -0.00238814000501
0.0441230733885 0.00977611473054 -0.0020965502307
0.0883869217427 0.00300088087868 0.00451929090663
0.0751618820282 0.00369474972819 0.000356348183446
0.076687830403 0.00360070848259 0.000494373509626
0.0754274730381 0.00252284886157 0.000401079502735
0.0775085894166 0.0023854388516 0.000589485035543
0.078459539527 0.00365500682345 0.000651698643418
0.0774332984962 0.00378517127896 0.00267891496315
0.0760219292064 0.00371684696734 0.00232175685957
0.074898378523 0.00422739033302 0.0019955730848
0.0816355071328 0.00421629268166 0.00372544537787
0.0803214519152 0.00359262455276 0.00343441223152
0.0784243706549 0.00213999999687 0.00137062751323
0.0826479011234 0.00236939784655 0.00134998108006
0.0800565873099 0.00223084787249 0.00110633774661
0.0893835629132 0.00308354710091 0.00326586941774
0.0884883488628 0.00400071578759 0.00295489433576
0.0871405521498 0.00294331370002 0.00245816997634
0.0894819989759 0.00481454041258 0.00332150055687
0.0840589482937 0.00244584446905 0.00168377060612
0.0855606961545 0.00265137271765 0.0020492058586
0.076338236957 0.00508912342948 0.000683145884982
0.0741900903235 0.00547361908428 0.000848046536659
0.0770141799337 0.00538999792139 0.0018347848053
0.0790862120177 0.00533553558838 0.00246733739033
0.0828487327164 0.00523408242455 0.00362363601972
0.0752910452568 0.00534594755328 0.00157677036378
0.0804254689694 0.00491193395642 0.00329278039663
0.0841501446233 0.00512227396024 0.00403164295226
0.0863045778772 0.00398811945117 0.00220308732148
0.0810942621721 0.00359097049097 0.000910981303093
0.083299506582 0.00410706141996 0.00138016456219
0.08451227778 0.00412445244158 0.00168456043053
0.0875511549029 0.00475719960076 0.00276533772807
0.080409089651 0.00494232623799 0.00120246828702
0.078973474727 0.00511808439435 0.00105215125568
0.077564863877 0.00468867166698 0.00065329306691
0.0825084492431 0.00523948033587 0.00203962976276
0.0854839861893 0.00506744505055 0.00243871600079
0.0901514549237 0.00503256746363 0.00496939646298
0.0857718658919 0.00527075039978 0.00397752803996
0.081238276487 0.00536310867056 0.00237280117849
0.0886356521438 0.00521437596026 0.00489904481099
0.0894781472964 0.00404384840089 0.00508766037241
0.0877824690483 0.0042637488738 0.00494393750556
0.0793080650991 0.00276439287148 0.00298191813126
0.0849014885437 0.0042026119716 0.00454259758129
0.0745881782355 0.00247363863982 0.00203925994756
0.0827234918936 0.00380302706523 0.00399996095405
0.0776996855136 0.00257655212698 0.00259995604346
0.0854028283266 0.00277628954961 0.00385559163409
0.0823211665908 0.00235640686031 0.00290096376954
0.0757854371453 0.00237030292924 0.0020664943083
0.0812535850243 0.00218756156399 0.00188843545352
0.0873811404975 0.0026725483367 0.00392706396492
0.09386426459 0.00528570731437 0.00552064408572
0.0932307838762 0.00338941073296 0.00368531944697
0.0954090601141 0.00299376963707 0.00532316058625
0.0972379401499 0.00314997977642 0.0048873158968
0.0943447333106 0.00308311063665 0.00431441739299
0.0959322867321 0.00319399288501 0.00410918074318
0.0961374980914 0.00434988690267 0.00392692004865
0.0974077394051 0.00476218853608 0.00468063269996
0.0909211201429 0.00454408594327 0.0037753809203
0.0920089677779 0.00398956049715 0.00355353020709
0.0904343423621 0.00305603381375 0.0038344814848
0.0915142190977 0.00323164879361 0.00537090452711
0.0935602289292 0.0031282022937 0.00556114539512
0.0969928726574 0.00314165493397 0.00621039016825
0.097599575908 0.00468237381472 0.00621614051684
0.0942523313042 0.00430504463538 0.00615411573913
0.0954190513236 0.00506512065021 0.00612302462068
0.0925489522152 0.00435060119561 0.00577533509273
0.0957618808827 0.00389710704034 0.0065161151781
0.0944740869005 0.0044558679966 0.00356469932808
0.0933379516495 0.00515732770092 0.0038283729971
0.0952780320302 0.00548994608482 0.00485007252328
0.0771174216654 0.0104620845363 -0.000282642191108
0.0796722631864 0.0121556842148 0.000277113620378
0.075997353749 0.0119802349723 0.000258948856144
0.0779471331275 0.01190534858 0.000210110037398
0.081983993503 0.0118356093577 0.0044648599135
0.0803248676264 0.0129120677392 0.00373243601443
0.084228023863 0.0117316840021 0.00449249199006
0.0763618988761 0.0126313420991 0.00401431212445
0.0748940290653 0.00824871961416 -0.000437349926256
0.0744979612807 0.00818349064248 0.00131854680586
0.0739059969783 0.00936260039222 0.00160020000336
0.084799114483 0.00873459700702 0.00230296980603
0.0836138006392 0.00852937705324 0.0020218822547
0.0845021826069 0.00900832486586 0.00389637062604
0.0764459551805 0.00836826301763 0.00291128967266
0.081387733412 0.0085449607676 0.00265714804812
0.0799659005419 0.00851624293986 0.00281821111286
0.0810324660262 0.0115687152556 0.000185274609962
0.0833711589253 0.0108987622176 0.000554699686626
0.0820406145169 0.0108239073883 0.000298827166875
0.0799837095283 0.0106791691957 -9.96373352651e-05
0.085350997746 0.00989030278712 0.00214221480292
0.08257845484 0.0121314457802 0.000612675954299
0.0849007467006 0.0103089555725 0.000794268864458
0.0848069146984 0.00897411031526 0.000721170350016
0.077972439132 0.0089645668078 -0.00064588826143
0.0834716063955 0.0096158791926 0.00045407674545
0.080183948509 0.00897772981534 -0.000203533481053
0.0790101833893 0.0088369103818 0.00375141858231
0.0813690995922 0.00904101483924 0.00401448095341
0.0828559230216 0.00927304486616 0.00428913849432
0.0777929808326 0.00885772272463 0.00374660948669
0.0759372545501 0.00935664838586 0.00419333576321
0.0804055325496 0.0117926085129 0.00451905701178
0.0785678944856 0.0117110448719 0.00456022608541
0.0844008036234 0.010298395504 0.00473734333336
0.0820581071559 0.0104563120194 0.00467938476197
0.0758877593343 0.0134593806731 0.00315519339968
0.0750828026468 0.0126760638317 0.00397389521116
0.0785417862585 0.0131043880559 0.00354529020509
0.0850965878023 0.0118986451314 0.00359116428194
0.0848774891116 0.0118471391406 0.00235339373184
0.0844594917187 0.0115770506031 0.00120608483147
0.0769297490138 0.0128782240466 0.000639315989783
0.0749399825921 0.0133366836833 0.000970875159275
0.0807636323784 0.0128126084547 0.00120196950909
0.0787612863916 0.0130969700465 0.00119894787537
0.0747250645122 0.0135869998485 0.00259143204547
0.0762340866551 0.0135869998485 0.00183737915567
0.081171737128 0.0131510890149 0.00255066784194
0.0774591669391 0.0135381265412 0.00249037183065
0.0826882190584 0.0127318692079 0.00354057570041
0.0832601427428 0.0127477424758 0.00235926739919
0.0820372864601 0.0128528119588 0.001642836714
0.0773234633798 0.00801487761529 -7.80849103671e-05
0.0760845413149 0.00804535288044 0.000137132484251
0.0828379891629 0.0083380403048 0.00081066408051
0.0768044878078 0.00817448820777 0.00166582845055
0.0784274451305 0.00814519196778 0.00112566484281
0.0803624405169 0.00815078249128 0.000794226165258
0.0750827503015 0.00823447266989 0.00246185204401
0.0816498664152 0.0082257170966 0.00112308262428
0.0772661936406 0.00985410504529 0.00448747704181
0.0743905431807 0.00962880647337 0.00427891002014
0.0792793004397 0.0104955796049 0.00460918414135
0.0752028033131 0.0107944466804 0.00449600444455
0.0805307730377 0.0103411651654 0.00464392997454
0.076394190931 0.00904649701891 -0.000725975356153
0.0747180841183 0.0111876218795 3.83159857794e-05
0.0755557357666 0.0103402346524 -0.000283144282871
0.0651117275119 0.00634725728625 -0.00034727377456
0.0468282218545 0.00688700005412 -0.000945157513433
0.0406906670529 0.00688700005412 -0.00058189483045
0.0434490768547 0.00688700005412 0.000834524818457
0.0461535172302 0.00688700005412 0.00189015190122
0.0587883251296 0.00688700005412 0.00115150494415
0.0562975859067 0.00688700005412 0.00160505483767
0.050062054191 0.00688700005412 0.00265109945849
0.0522340239921 0.00688700005412 0.00162779144588
0.0605525383643 0.00688700005412 0.00121240056736
0.0533755455224 0.00688700005412 -0.000913322727706
0.0486337659267 0.00688700005412 0.00277632006339
0.0647542195045 0.00688700005412 0.000835097466611
0.0618867478799 0.00688700005412 5.47404370448e-05
0.0499139911992 0.00688700005412 0.00114257574305
0.0470632130697 0.00688700005412 0.00277530988281
0.0560963790052 0.000446345782529 2.70661970806e-06
0.0604754553968 0.00133859402661 0.000672043716455
0.0617384472622 0.00146349888469 0.00060779873774
0.0607921835704 0.0019103958028 0.00170597867901
0.0403042699624 0.000184999997145 -0.000934344910196
0.0464580410535 0.000184999997145 -0.000438004320309
0.0418321093137 0.000184999997145 -0.000200788443881
0.0494341712514 0.000184999997145 -0.000461564939827
0.0585612335154 0.00688700005412 0.00242005637392
0.0640796032966 0.00688700005412 0.00290713815954
0.0666449964046 0.00588549908426 -0.000229619485151
0.0461416861655 0.00102963328791 0.00181300290125
0.044453021618 0.000915607745484 0.00164845284882
0.0496292717105 0.00258002353319 0.0032723418179
0.0432744814678 0.000612601374138 0.00134338697546
0.0412680703578 0.000608801991317 0.00125998767324
0.0479392634837 0.00129292878193 0.00210899223931
0.0520449920672 0.00320427794128 0.00390034735214
0.0483516844049 0.00226006675301 0.00294888709425
0.0548941433087 0.000860461467787 0.00092532865158
0.0592893476326 0.00194447663651 0.0020820782966
0.0523859784205 0.000920291791778 0.00143310950563
0.0572040438466 0.0011263233956 0.00101020857419
0.056198826168 0.00144617970887 0.00172305504873
0.0530912891436 0.000184999997145 -0.000476631069678
0.0642189432019 0.00180241779313 0.000651080640208
0.065964888706 0.00221665419935 0.000579599223729
0.0627107854121 0.00210559929612 0.00148250525975
0.0660108617067 0.00652565591303 0.00342865285887
0.0648687864388 0.00569793331733 0.00352037683782
0.0666449964046 0.00441905513289 0.00144829727876
0.0422674603835 0.0059350331043 0.00173453211773
0.0403391999209 0.00605713244926 0.000562860801078
0.0407404812905 0.00308382319354 0.00117528932017
0.0404265297776 0.00440048292913 0.000822376699249
0.0433326286353 0.0056315082279 0.0024112801123
0.0417450751689 0.00410608562155 0.00164993716597
0.0429533692429 0.00428383620886 0.00235234230255
0.0395620018244 0.00574913505851 -0.000686972869371
0.0592617129239 0.00688700005412 0.00378200666369
0.061483939291 0.00688700005412 0.00430611178116
0.04741596838 0.00111540786022 -0.00217451582422
0.046613628179 0.00211245108555 -0.00217164546886
0.0455411847886 0.00292732670323 -0.00213462657225
0.0452965380637 0.00155500326658 -0.00202632973305
0.0525257681635 0.0028631470011 -0.00224100006744
0.0511416994538 0.00381761818452 -0.00224100006744
0.0488137457619 0.00219654480474 -0.00224100006744
0.05292967922 0.00431081232684 -0.00224100006744
0.0496895367877 0.00338420143903 -0.00224100006744
0.0482617915465 0.00363163519828 -0.00224100006744
0.0543895413229 0.00414057832788 -0.00224100006744
0.0508019498118 0.00223636986784 -0.00224100006744
0.0561563164312 0.00448579259886 -0.00224100006744
0.0471877689403 0.00447282667651 -0.00224100006744
0.0489791901009 0.00487255636892 -0.00224100006744
0.0480615922735 0.00571609572924 -0.00224100006744
0.0503538497287 0.00488596394196 -0.00224100006744
0.0523878150559 0.0053544539903 -0.00224100006744
0.0500761006957 0.00607193468466 -0.00224100006744
0.0573760773755 0.00491479329874 -0.00222719678989
0.0547564806907 0.00600236942195 -0.00212320032699
0.0528320224886 0.00675570078804 -0.00205603005772
0.0626600374273 0.00449754876376 0.00355327308252
0.0645428432842 0.00452597137988 0.00308889984621
0.0656253680541 0.00409938732768 0.002615905402
0.0651766658388 0.00342148583541 -0.00152982873769
0.0638670272732 0.00473873776165 -0.0015810391397
0.0650436750216 0.00474602284311 -0.00132390687983
0.0626292908355 0.00519786964026 -0.00171931661674
0.0586908798391 0.00531070352985 -0.00202424324161
0.0563668940685 0.00584596419047 -0.00207578774086
0.0624932956389 0.00381125499593 -0.0019105852374
0.0613947538288 0.00436178547808 -0.00195511853685
0.0596016986768 0.00426789140834 -0.00215126399217
0.0638763751026 0.00321409785922 -0.00184257936071
0.0530672472524 0.00407573669754 0.00465224968917
0.0469279053155 0.00219041807835 0.00283007064556
0.0455056353923 0.00211068375619 0.00266837868526
0.0508382045923 0.00364633189659 0.00417675637935
0.0495222334789 0.00391304120576 0.00421680982106
0.0469743939765 0.00360719107415 0.00360232325784
0.0482304135223 0.00455455578884 0.00421465309933
0.0431719666706 0.00182355170587 0.00216976267895
0.0457226992773 0.0031907796413 0.00319706293102
0.0496944758661 0.00550093729763 0.0048122183696
0.0512185424304 0.00525419026866 0.00492693857616
0.0454932095285 0.00528665641218 0.00344223865365
0.0468421642843 0.00650206513774 0.00403765385099
0.0416203734411 0.0018099413173 0.00173316073163
0.042397009046 0.00308726915867 0.00209201577859
0.0454729259965 0.00657347063007 0.00346956523501
0.0466269755364 0.005040522201 0.00386046567256
0.0436852214668 0.00315982756773 0.00261797117511
0.04789766216 0.00574966303876 0.0043833074293
0.0572454251264 0.000918943685723 -0.00211373263591
0.0593896624865 0.00108245554941 -0.00205879625
0.0608134912024 0.00243728010766 -0.00210779214885
0.0578699505125 0.00268157443172 -0.00220936587486
0.0567091655229 0.00207638072439 -0.00223356905892
0.0624646894861 0.00177915756437 -0.00203903884069
0.0595714389744 0.00291809590042 -0.0021591876511
0.0561155062904 0.00329535890212 -0.00224100006744
0.0519565947683 0.00127604126828 -0.00224100006744
0.053485880196 0.0012624927238 -0.00224100006744
0.050694867952 0.00097886104887 -0.00224100006744
0.0552264409446 0.00202040403534 -0.00224100006744
0.0539226295315 0.00265101326867 -0.00224100006744
0.0622875677818 0.00550445545203 0.00407445176043
0.0634956104376 0.00605029709318 0.00403205658283
0.0548049997044 0.00295049582145 0.00361369325089
0.0530145324968 0.00241965065071 0.00313755494993
0.0472928867135 0.000502469785883 0.0014017687635
0.0515851490884 0.00167886766658 0.00244988184715
0.0491659424755 0.00142249249752 0.00225370560214
0.0541616271771 0.00209763401168 0.00277114476085
0.0505729540681 0.00101486174784 0.00176226504259
0.0537249026314 0.00127927558952 0.00179316560736
0.0577249685365 0.00229883958951 0.00268436085346
