0.007121583018617475 0.005002980221467712 0.014528723802233242
0.007486808250850313 0.004442711897764911 0.0029789921646552345
0.006918114047985901 0.005410546860505076 0.009054026131535714
0.007590273774422532 0.004202813382694138 0.01129333166836015
0.007361147625327779 0.0046997050709939 -0.0020459956490920016
0.007639381459061401 0.004141837455917419 0.0074330761170016925
0.007808062868851535 0.0038059450678972055 0.012837511139203284
0.0076626397008362716 0.004092590357524548 0.008611240112233359
0.0070425769582120185 0.005210966690010243 0.0059180944807657575
0.006934744139238355 0.005434970405465516 0.001093692250826428
0.007200091262432501 0.0050363835138675156 -0.009563373384693964
0.007284830854752501 0.004858345961387368 -0.00547606021796403
0.006620728157708119 0.005948645186438176 0.007508760060101186
0.007253794216267153 0.004881365015264554 -0.0007456932798225674
0.0072808363168343935 0.004795482745786102 0.00484914483942598
-0.007615101516936534 0.0034965674187262133 0.004293946636483416
-0.007607219325691812 0.0034212436253301783 0.007392881903799323
-0.007667634708032593 0.0037937322979942683 -0.00989562124614464
-0.007683612337672571 0.0031305063866828723 0.009569036258178117
-0.007526143305589797 0.003811921707003678 0.0024920572113610743
-0.007857237248028486 0.002736322929151561 0.0061023162551354405
-0.007670859311636401 0.0034674906904257623 0.00010364947481392682
-0.007850006460886414 0.002558503971942146 0.012375848884380819
-0.007647653424865383 0.003767114600008412 -0.007225258184089375
-0.007437435973178849 0.003772776340841089 0.011853546084630663
-0.007104568528129772 0.004644165337265186 -0.005141125558219391
-0.007422048942470028 0.0042453250764952054 -0.011406204172103236
-0.006870077884180299 0.005041747383990012 -0.00640653444328327
-0.006451449773475059 0.005805976928972097 -0.011780244890645981
-0.007464378921107835 0.004008865995047833 -0.0017556381906980033
-0.007083556670246831 0.004593687460454061 -0.0003283435013340767
-0.00690769705796144 0.004905685017766665 -0.0020683235337325455
-0.007089901028721572 0.004512859379827194 0.003714804847388646
-0.007541779656979733 0.003909928229816567 -0.0031856841427361105
-0.007079424466267378 0.00456969642744496 0.0014227723149094103
-0.007012569629907963 0.004884768334507539 -0.010478735535119427
-0.007313256105754512 0.004077327159516393 0.008171519730270109
-0.007136848928048664 0.004645133536200311 -0.008153639890687608
-0.007565852117564768 0.003598422453888085 -0.012793069078057082
-0.006357821657583537 0.005581038949291531 0.008025885541042528
-0.006420511768063599 0.005726759289428547 -0.004877347019292639
-0.006359630061515555 0.005518709768687555 0.011171633286808374
-0.007133294757659145 0.00431256767485368 0.01079609795118494
-0.006851612480344576 0.00472025351608691 0.012596104778714036
-0.006749968943098549 0.00485629367355617 0.013831018964153906
-0.006437708297150852 0.005425478093599786 0.009627191018311486
-0.0071303695078983615 0.004393469454724396 0.006760918550400081
-0.0064969049797780586 0.005534929332432505 -0.0010686182787262013
-0.006464527457569971 0.005555587830046237 0.0005237453394917697
-0.006384550035778122 0.005854148444019742 -0.008631242274715956
-0.006909242460539665 0.0047646970294905255 0.00546753188629715
-0.006556885746977295 0.005360450219766284 0.0031835681171386654
-0.006378546550435036 0.00561348922806839 0.004591577793984318
0.002510979167104101 -0.00831132012579253 -0.011692945730940634
0.0021879807442641654 -0.008291684845141124 0.0074867767050291415
0.0023233304370761662 -0.008291394004551096 0.0009079492106275821
0.0019716394443597875 -0.008445908681674254 -0.008318434822600505
0.0014663073296275625 -0.008568612421566243 -0.004574948366887639
0.0015684211776068927 -0.00852507540178793 -0.002123127026426353
0.00205547050443724 -0.008392328723116967 -0.003252064544219992
0.0014079641837018687 -0.00860029393181624 -0.007140948532377794
0.001502579212822736 -0.008564575562684907 -0.005660290501335851
0.0010859883976811484 -0.008718916065788682 -0.011678456059016585
0.0017394021737388563 -0.008525619326453517 -0.010589858091277993
0.0021705711810656248 -0.008328344424573343 0.002063941154123314
0.002076205657399895 -0.008368793915306065 -0.00023881786921832546
0.0029211543423893664 -0.008118895613907062 -0.0015180109713948762
0.00249002227537473 -0.008210374896328 0.00610159558272667
0.0027542014855188746 -0.008213153194861749 -0.007246156863716526
0.0029503279608015303 -0.008140230307857549 -0.006093966197683137
0.0031698009872862254 -0.007941302195507692 0.012502626398460821
0.00314600454174387 -0.007978210266021982 0.008223505563017638
0.002772378189522616 -0.008135817625849242 0.0032718843970044606
0.003071938170389433 -0.008027968270756448 0.004510733666859546
0.0033792128635803786 -0.007889682211177028 0.009861660910037585
0.0035830891878658607 -0.007796989185764954 0.013550720552286788
0.002919756330277177 -0.008141912371524975 -0.004844882715903693
0.0035072183316809612 -0.007839881663558 0.010939095935013491
0.003409459866127058 -0.007948499902200201 -0.0032287369894962482
0.004464755961766444 -0.007517944454601388 -0.01072731552978501
0.003922746498113933 -0.007725211000636055 -0.0020683439479326966
0.003087840571761805 -0.008104640242484452 -0.009581317776705985
0.004298277361778613 -0.007561108974070965 -0.0009631103392840064
0.0039187467552586125 -0.007740191034659571 -0.00666648939982863
0.003970656502873896 -0.007732394697534157 -0.011673838038545988
0.0037219230201781628 -0.007789480415120285 0.00548164256919444
0.003905672502637573 -0.007749428875422121 -0.007926607688281316
0.003179682733740311 -0.008068330377988795 -0.010636422026469288
0.004127438384529998 -0.007645769802271154 -0.004934217431483889
0.0037895178295592616 -0.007769383390105365 0.00240826037690066
0.004068457929871247 -0.007646472786321524 0.003581875957769239
-0.004552811318642097 -0.0067128541968873336 -0.012906000018119812
-0.006191027489334762 -0.005927641914102848 -0.010702667549406329
-0.006658771555438826 -0.0052193141238333785 -0.011953390494609036
-0.005775210900433823 -0.006545177848410763 -0.009741139257036256
-0.0059659679115606976 -0.006070785790786328 -0.01254577380624856
-0.007486592594776623 -0.0038530072175803273 -0.012838799643490361
-0.004697305060947422 0.007237075605348604 0.005134417822498686
-0.004756751255557512 0.007255131841346423 -0.011034408909328166
-0.00506105536843807 0.00707255706406893 -0.008334705070422423
-0.005248747307342526 0.006976982586559134 -0.011964095417341263
-0.003974909783650254 0.007690013033782798 -0.007340571709282383
-0.0048179251040029744 0.0071831881544094055 0.00046071558207498673
-0.004617499395005609 0.007303150060795837 -0.001227759560584735
-0.005256238776195476 0.006966272703010296 -0.00996603492347725
-0.004272231863963541 0.0074905572255858505 0.0018454859263986496
-0.00420576420889472 0.007550737933046197 -0.005053722584770104
-0.004532712581337336 0.007204681992886829 0.013423338157044544
-0.004708195971569344 0.007022453748794281 0.014944274257358177
-0.002785078604879804 0.00797554553824475 0.012483549526399754
-0.004023635709794858 0.007510767334267331 0.012224932379338915
-0.003422183980222476 0.007718534566782322 0.013686433458280682
-0.003516808848088815 0.007842310486243762 -0.0020384791153941115
-0.003343962400045716 0.0077903042811530545 0.010045993044066736
-0.0042605568381819045 0.007451875333384494 0.009298722706678888
-0.003419689748742032 0.007849435018809331 0.0010036827071976157
-0.003431610587010434 0.007826768722568744 0.002877378318019618
-0.003724491891030346 0.00768747484933318 0.005851208340220296
-0.003957784332614463 0.007587884383083778 0.007048268343466357
-0.0032260128228265832 0.007855397788710226 0.007920636944512463
-0.004064274817834109 0.007578119526060405 0.0039139290724470675
-0.0027739015921660164 0.007994024784796877 0.011207796051012521
-0.0037339656964024866 0.007773174656967139 -0.003354319086767563
-0.0026765182267480883 0.008052321059031597 0.008983559687688575
-0.0037104976164696072 0.00785018645535499 -0.010382902768700072
-0.0032836699744063116 0.007912596780479689 -0.0002197536338482645
0.008728000335395336 -0.0009047145089725984 -0.011319886797183886
0.008728000335395336 -0.0005374691719117734 -0.008675045424190089
0.008728000335395336 -0.00046812795429214274 -0.006024088315068416
0.008728000335395336 -0.0005345951898287485 -0.009848397006698588
0.008728000335395336 -6.4144744077935904e-06 -0.012233286063285468
0.008728000335395336 -0.00016442919529189616 -0.003227908402875287
0.008728000335395336 0.0004987744338871066 -0.011025630633201064
0.008728000335395336 7.950787020025423e-05 -0.0005091264197698497
0.008631761455988738 -0.0013918893439446081 -0.00402396380238248
0.008424813960251836 -0.0019346360241991635 0.00825470574849697
0.008473579724764356 -0.0019456494520707231 0.0010630821465270794
0.00825692854766317 -0.002608296363705754 0.010994887613377542
0.00870255630281987 -0.0008354963345162396 0.0032469636143375663
0.00847383142029016 -0.0016673080128322335 0.009640460809423717
0.00844899843503467 -0.0019518067957375288 0.004325845399999079
0.00865936006547817 -0.0011317922402926408 0.00014706143961433406
0.008698445149030008 -0.0008187145684422897 0.004343796348307844
0.008492951143091492 -0.0017103424298208633 0.005622819112356177
0.008706913454060921 -0.0008751398165315156 0.0014081604268489922
0.008667282480662905 -0.0011494420607098515 -0.0015120547345625962
0.008585398016292661 -0.001247282693752781 0.006963954499518578
0.008524967677890988 -0.0018394940975728813 -0.0028713567691487562
0.008665000856383383 -0.0007639234081517213 0.010737607873279875
0.008316208007735203 -0.002295963399575123 0.012331581962601167
0.008580967492270714 -0.0017166636914087742 -0.007524890840605994
0.00846604506944518 -0.002130887649796706 -0.005388675064546936
0.00844278180052019 -0.0021263896249977495 -0.0007256426689316187
0.008623498453075832 -0.0016038341524139354 -0.01025332449718868
0.008368497758685109 -0.002445725344571952 -0.001815158692600624
0.008383208395377994 -0.0022986637971343917 0.002414529416969074
0.008498156310417074 -0.0021410946936831813 -0.012016708421008732
0.004199390227631695 -0.006518391100992299 0.01585325476596383
0.0015946983441031824 -0.006818731579719139 0.015813480926039687
-0.0010966518312237564 -0.006967229497636312 0.015836691184802514
0.00441808863367703 -0.007272287701661176 0.014843997006499016
0.000900850465640114 -0.008729214948055253 -0.008884725087384127
0.0006955511670286489 -0.00862394633815624 0.001245923223973878
0.00048476139933892884 -0.008662993216559136 -0.002511798979592709
0.0011546942026800767 -0.008567637323002062 0.0023851967396802507
0.0013606335704474744 -0.008482429387970804 0.006680190165503275
0.0012213943665409517 -0.00852357848606344 0.005360459484827739
0.0012754238949395792 -0.008526347143330826 0.00406948822192958
0.001263513374711951 -0.008483264285556813 0.008441468972773076
0.001803767091670044 -0.008359894927762882 0.010069589435297514
0.002025768461593223 -0.008294800020754058 0.012124408843260806
0.00017309974593899288 -0.008691597314685471 -0.005295830116647886
0.0005110522068165567 -0.008530212493305 0.01021153768339431
0.0002890973001842479 -0.00870549694987652 -0.006607133316864999
8.877130376536819e-05 -0.008554859033497349 0.007781181930908385
-0.0005069772682867876 -0.008513933383552696 0.011599563412841664
0.00018018051657757835 -0.008636401422234348 -1.0264655124489225e-05
-0.0002193302943028043 -0.008589732034748599 0.0043908831143486
0.00012926660553700607 -0.00864760988535372 -0.001091875414467962
0.00032263267849129467 -0.008676638534817885 -0.003838651031371431
-0.0004030226322639446 -0.008541629282103693 0.008965407653272408
0.0005541410277698775 -0.008511073265042267 0.012051118425247422
-0.0005391150779818821 -0.00842582735067234 0.01312624095771572
-0.0029575105559008085 -0.007357035046048997 0.015440719948748939
-0.0004330150345864257 -0.0078019451369589245 0.014527473460100561
-0.0015112636172030455 -0.007745879652656445 0.014665777497038486
0.0007704934828491699 -0.008417727784780777 0.01333345859581817
0.0009242090005360422 -0.007793171192473162 0.014502500650493034
0.0033043932893482846 -0.00753416653309206 0.014916539520907712
0.0019779309942531105 -0.00827541739147198 0.01342468503947445
0.006595748202831247 -0.005623544733264809 0.015518603004371011
0.0066875837886888655 -0.005568054200989469 0.014174717787134677
0.006776444289092534 -0.005610746418798976 0.009963887109514031
0.007007695712049596 -0.005380895275231523 -0.007178045686001342
0.006789884655450559 -0.005598261583934095 0.0008828203447861387
0.006895407674683397 -0.005340912490599771 0.012589037481588043
0.007383875322206574 -0.004385578390939875 0.01304194701672708
0.0073503159792602454 -0.00452192377873856 0.011591600590402838
0.007075915446017532 -0.005288607670877014 -0.0053978459705278006
0.007267386723455765 -0.004982459744357363 -0.002200205895400334
0.007240717450407171 -0.005015466715717216 -0.0010035237009611607
0.0072141955250376675 -0.005101796826988872 -0.008932113395579373
0.00698688409549439 -0.005375703444427461 0.0025327200140682583
0.007059638620669566 -0.0052565760692684215 0.004224672911281489
0.007689973814079846 -0.0042795593931412995 -0.007655179468578011
0.007609162066550992 -0.00438065827827683 -0.005015775722300692
0.007396181158651502 -0.004652016455365128 0.0017142742309743959
0.007512658896984209 -0.004306359426292057 0.007118680884844346
0.007660056980550873 -0.003959848030323577 0.009770911105922677
0.007072441920013603 -0.0051509774496132504 0.007960865019626662
0.007703167022042875 -0.003997776207389557 0.00413200015491304
0.007909749492158471 -0.00368898337138234 -0.00029623763054170303
0.00767877226125134 -0.0040091992945322195 0.005808268153595986
0.007362761358431794 -0.00482874204718168 -0.003408115317843967
0.007716225023864303 -0.003883782537751475 0.008203391242457869
0.007002326563979651 -0.005322487630666119 0.006391604829134357
0.007579174595168364 -0.004465392716595941 -0.006211141405502327
-0.006227612171186527 0.00013629210208528333 0.015863999724388123
-0.00679582714348218 -0.0012744234989374697 0.015718398430345327
-0.007639439261770953 0.0003829341840570444 0.01424015139951072
-0.0070347771225635364 0.0008372231314037763 0.015427503058334322
-0.0069733967683007145 -0.002519106692750682 0.015444103774966885
-0.007273293092293524 0.0027352633523417165 0.015022588867463991
-0.006918115983625178 0.004347124530138356 0.01552143046209318
-0.007217823789079711 0.003852706176594175 0.014391515137027614
-0.007413806284931242 0.0036193592185788026 0.013201007041465327
-0.0078112611468069285 0.002544227433454003 0.013808511258429428
-0.005268866823763984 -0.006616575620131344 0.015276849005665605
-0.005556442976341354 -0.00656295648514699 0.006254872269396679
-0.004969868086927546 -0.006892409868420012 0.010272792278085299
-0.004856992645668122 -0.0069317084223764975 0.012621010056047566
-0.005249227990930451 -0.006686665069647262 0.011551367864667612
-0.005181994871408316 -0.0067821471402693435 0.008239412800449413
-0.004903380407761566 -0.006879163937945529 0.014034636202016703
-0.004875467747994591 -0.0070025003050647825 0.007189427653294015
-0.0049198264373671655 -0.007004681061099886 0.005114692781612523
-0.005480568062794721 -0.006748398267823436 -0.00292291814907416
-0.005454290433268116 -0.006728869227046872 -0.00031641582450320574
-0.005322099196865727 -0.006840159601642369 -0.0017478972961628672
-0.005759451946721956 -0.006469404988143397 0.0031652762454962256
-0.005734221305787126 -0.0066410407940903134 -0.007546823497384471
-0.004837333598197078 -0.007218306860424335 -0.007147122761659325
-0.00337165102872822 -0.007845232995926594 -0.0034017644484127833
-0.0036642605936897483 -0.007720073164191126 -0.0070429501556064
-0.003884272329169285 -0.007625966084007102 -0.004479276608362602
-0.0034319028127862707 -0.007819461100344646 -0.011780001976954594
-0.003169714529755293 -0.007931608635205587 -0.008697793218232117
-0.0043060875807189765 -0.007445540246203907 -0.008836138369044882
-0.004263443979647087 -0.007402756566729736 -0.010957001905375309
-0.005320116424178099 -0.006815713617759735 -0.010976707014785632
-0.005314047064066957 -0.006902468258599637 -0.008824829720003462
0.005843365145997616 -0.006544824877215993 -0.010978596536379757
0.005891303698842785 -0.006496900653835991 -0.009651483657956098
0.005911105895092771 -0.006476985952877235 0.0011249017059659075
0.006231846382244641 -0.006156380042823477 0.006661361807208604
0.00664666824810725 -0.0057420232004908815 -0.011309210455892931
0.006076063346239004 -0.0063122290600546895 -0.007371871855390415
0.006035799977420741 -0.006352354509998976 0.002385976896200245
0.006392523414214412 -0.005995949767602038 -0.006054543761994333
0.0060016838787643025 -0.006386346931298661 0.011242677654151306
0.00643107868346766 -0.005957373406501269 -0.0021701265661727624
0.006891597776881612 -0.005497229147774821 -0.009906321404283226
0.005737997217571788 -0.0066500977267615596 -0.00840393970476621
0.006128094439431895 -0.006260148868914711 -0.0003476223935932835
0.0065471914070964815 -0.005841349161910331 -0.003599906880517068
0.006023003060879113 -0.006365060358968477 0.009566780357041556
0.006096882203288043 -0.006291391590149353 -0.004650471404102463
0.005075087576267965 -0.007164296150628625 -0.01174874758172844
0.005301478018312767 -0.006959361072524378 -0.003081108842989689
0.005206489951055609 -0.007035899902990816 -0.0051937896701415385
0.005753657336242654 -0.006605711297523851 0.0052491998666898
0.005006099747160594 -0.007185529312513803 -0.007740740881712244
0.005086343273256316 -0.00712431394883403 -0.006511398981802092
-0.0056233721080126 0.006411915724872201 0.011298787284069144
-0.005714351606654363 0.0061577174839008274 0.014556641887235527
-0.005909595528039951 0.0060139938326436645 0.013531613653410221
-0.005558726421591015 0.006578746150770505 0.0052052579916979265
-0.005809829112570464 0.006456938150693543 -0.005881100717480903
-0.005811988888259506 0.006393239025193629 -0.0005914596845957758
-0.005898890398300669 0.0063892131383397124 -0.007705505874405062
-0.005647020758495638 0.006598453309615266 -0.004068251067340468
-0.005522782122963342 0.00659260715705811 0.007099526783560578
-0.005702486301923078 0.006368531146351507 0.008770369738579975
-0.00589393030284698 0.006267456183259988 0.0018938517146636748
-0.006117357962898759 0.005802377186303161 0.012222601809241859
-0.006294939715525948 0.005874047507885283 -0.002903037155728472
-0.006051661412249037 0.005997161145229731 0.006117040112665642
-0.0056569117467950795 0.006398820201824187 0.01007809029294278
-0.006271095465076362 0.0060325071608730175 -0.009759589381333578
-0.005845674059664484 0.006296599617540451 0.003433334696768446
-0.0051526634627154545 0.006924038691348316 0.00282821955294129
-0.004883732797590563 0.007070159168339524 0.007852646928878238
-0.005160199955343314 0.006985198245634926 -0.0029213125289198577
-0.004682943902589755 0.007193110676788779 0.01041311325900431
-0.005312526042876335 0.006915155424361799 -0.0068606837049687225
-0.002493599225336968 -0.00794422307812645 0.01386986680457171
-0.002421040817477043 -0.00809551595475901 0.0070436496878902525
-0.0016664460844970403 -0.008272447369283412 0.00932393808459121
-0.0029119615834388413 -0.007965859549071894 0.008473333043540174
-0.0026227910533294313 -0.008025156164343603 0.011050287270933237
-0.0030551367545789193 -0.007966151953090285 0.0012602891584674095
-0.0029471118209063057 -0.00798005472603611 0.00387456703563255
-0.0016996854020864774 -0.008271450938082788 0.007862477280707597
-0.0015778910640721015 -0.008282833553424913 0.01166942664371509
-0.0035151785346815034 -0.0076714353603396295 0.009843654495452492
-0.003825526078789841 -0.007505793189421967 0.011289845317302288
-0.0030456933742249903 -0.007871443702467062 0.012224560885146356
-0.004601948540238476 -0.007250886047233758 0.0004988541516949422
-0.004384404623664188 -0.0073402389633461795 0.001902416680072265
-0.003668477196168516 -0.007545633888908339 0.014531378125001916
-0.004602123376292583 -0.007217951355993468 0.0034666373621212976
-0.0038149506694136765 -0.0075542747979203025 0.007370551301295261
-0.004240082554685704 -0.007364348343805437 0.006010791707856372
-0.004205644889448968 -0.007350676764170656 0.008745973062196065
-0.004720387496524836 -0.007238313942681346 -0.0035243926069908464
-0.00376067468949728 -0.007513643884191607 0.01340543358275896
0.005623670858949934 -0.0061122985545166994 -0.03222279552239008
0.0055498477364325505 -0.004256115420481206 -0.02921207202748041
0.005267071883648619 -0.006433755833891916 -0.030813225530966156
0.006634975777776208 -0.0006582074991960897 -0.02979687009715846
0.005617058758528145 -0.0012522749911019389 -0.025315721450891313
0.0065653778637457675 -0.0022437698993818555 -0.031675170804237
0.005511622887403861 -0.0005153843198281631 -0.023722520571444018
0.006054160830157359 -0.0012990297656421243 -0.027666810351205183
0.005883333585013769 -0.004420174724375596 -0.031187380936775144
0.0054523641555693355 -0.003823307535439977 -0.028090442470651546
0.005244024074139786 -0.0026431513794486407 -0.025332487433068415
0.005863480867365122 -0.002912131418448163 -0.028951091421152538
0.005755391712062668 -0.0024809888471131426 -0.027776375583825896
0.0062257492146795095 -0.0030548423070634336 -0.031046673743258587
0.005292947694351904 -0.0033211273838622047 -0.02654695700745561
0.005496773287306645 -0.005285024680174056 -0.03038959255347857
0.005289157013957388 -0.007425252259729145 -0.03233074150562646
0.006839055943545162 -0.0008896649609967287 -0.031191011211257145
0.005696696488371169 -0.0018236209643133462 -0.02653996618327202
0.0061685670082564535 -0.0018611053828419778 -0.029059699812492068
0.00523399980738759 -0.005172342141047605 -0.020101936042761052
0.00523399980738759 -0.012089661437867653 -0.02643698289528287
0.00523399980738759 -0.013528099384290511 -0.022385048424499572
0.00523399980738759 -0.006550299852180209 -0.019442309589580684
0.00523399980738759 -0.012452945433368053 -0.023164114609639325
0.005233999807387591 -0.0027961613100601253 -0.014082722401440102
0.00523399980738759 -0.0037603185918942987 -0.017547705586266487
0.00523399980738759 -0.007475593497128315 -0.018167119719306228
0.00523399980738759 -0.006557134464000957 -0.0174054976396975
0.00523399980738759 -0.009768583663955388 -0.018649845038669847
0.00523399980738759 -0.012649430439559073 -0.020282633556346366
0.00523399980738759 -0.0045429103151812915 -0.018486584475907248
0.00523399980738759 -0.001397780827318211 -0.014357473563395036
0.00523399980738759 -0.0070898728567577885 -0.01626883472379234
0.0052339998073875895 -0.013110787460947466 -0.02575891375079626
0.00523399980738759 -0.009578358063009834 -0.016401677814490277
0.00523399980738759 -0.010200090411161425 -0.024081403899066628
0.00523399980738759 -0.010799531001042905 -0.02529208112498527
0.00523399980738759 -0.011005576280129424 -0.01897406484602579
0.00523399980738759 -0.009008455194188407 -0.022459807238972725
0.00523399980738759 -0.013134372081562672 -0.029529008938611448
0.00523399980738759 -0.006208156245080041 -0.020689286693459555
0.00523399980738759 -0.011021509128027848 -0.021025405030975282
0.00523399980738759 -0.0142232244306984 -0.025397331445654654
0.00523399980738759 -0.008850195092897913 -0.015241478064128927
0.00523399980738759 -0.008504679337893721 -0.02077118640372698
0.00523399980738759 -0.005139014731645635 -0.016490905824233876
0.00523399980738759 -0.007170587924418747 -0.014187280812035494
0.00523399980738759 -0.008468956437116152 -0.01411355579630404
0.00523399980738759 -0.010903578531292498 -0.015880193090475447
0.007577911422016859 -0.00016799999866634607 -0.03186479252790501
0.008356279158643334 -0.0001679999986663461 -0.01926376262792977
0.011219635532976703 -0.00016799999866634607 -0.02886325567963204
0.008784648644842751 -0.00016799999866634607 -0.030164320849199643
0.007059922409678057 -0.00016799999866634607 -0.02158688908795099
0.00934260399988418 -0.00016799999866634607 -0.02509660526976299
0.009416564802348367 -0.00016799999866634607 -0.027757204453988913
0.01167124013900254 -0.00016799999866634605 -0.02758741407684963
0.012796394038477626 -0.00016799999866634607 -0.03173646969036611
0.008889118462474904 -0.00016799999866634607 -0.0231365773482415
0.00647070958747323 -0.00016799999866634605 -0.017520102478557554
0.007517505816963375 -0.00016799999866634607 -0.03051304474581645
0.008202735350960865 -0.00016799999866634607 -0.02148291843444992
0.010043771464746016 -0.00016799999866634607 -0.0312704777210905
0.010474835100804365 -0.00016799999866634607 -0.029748282971607358
0.00823710120979602 -0.00016799999866634607 -0.025719466138921714
0.009474805062000144 -0.00016799999866634607 -0.029024190728467226
0.009941394863896245 -0.00016799999866634605 -0.022563656564578684
0.014062282738858034 -0.00016799999866634607 -0.031793971231528204
0.008779930614648025 -0.00016799999866634607 -0.02041423783342976
0.009939802651497947 -0.00016799999866634607 -0.023938032803988315
0.011906974755882238 -0.00016799999866634607 -0.029818824278538342
0.007494966341596319 -0.00016799999866634607 -0.020403084576371255
0.00891890654654018 -0.0001679999986663461 -0.032292636206993824
0.014407623863675062 -0.00016799999866634607 -0.0301979936904109
0.01103828194095312 -0.00016799999866634607 -0.023171135981451277
0.01074791160726508 -0.00016799999866634607 -0.016902808230738836
0.01203460515384509 -0.00016799999866634607 -0.025070562393049542
0.01248180390120729 -0.00016799999866634607 -0.022890737773603512
0.012824904080063248 -0.00016799999866634607 -0.0201845000081588
0.013471076518090652 -0.00016799999866634607 -0.025245331836326296
0.013487950232562834 -0.00016799999866634607 -0.018872009594236287
0.014419559161039453 -0.00016799999866634607 -0.02442264809178857
0.007831458475760975 -0.00016799999866634607 -0.013984564261623738
0.00855642935003773 -0.00016799999866634607 -0.01817213252421794
0.013389216943656832 -0.00016799999866634607 -0.016494066363729014
0.011073960858312496 -0.00016799999866634607 -0.015696131085740975
0.013006181864868564 -0.00016799999866634607 -0.027604385439790626
0.009845502735705962 -0.00016799999866634607 -0.018817584287329325
0.010611312425487868 -0.00016799999866634607 -0.01462352279591973
0.007773892393218066 -0.00016799999866634607 -0.01738074274305577
0.01436721685866737 -0.00016799999866634607 -0.01762126357313184
0.01379958077083787 -0.00016799999866634607 -0.028626044559558982
0.014901185931202111 -0.00016799999866634607 -0.028891645497001888
0.013695610712100638 -0.00016799999866634607 -0.023182921908529712
0.011861906355752122 -0.00016799999866634607 -0.01444971855976256
0.00895418927620274 -0.00016799999866634607 -0.014348711754729952
0.011312707233398576 -0.00016799999866634607 -0.01864643853413942
0.00523399980738759 -0.008890223283864582 -0.02637253531406586
0.00523399980738759 -0.008836663063030391 -0.028719873318528183
0.00523399980738759 -0.010373007741176131 -0.03056049156530283
0.005233999807387591 -0.007541003652988584 -0.024607072088519734
0.00523399980738759 -0.008037391399571093 -0.0273136981029353
0.00523399980738759 -0.0046937011117828015 -0.021134476238605312
0.00523399980738759 -0.009163760223841246 -0.0275346943654253
0.00523399980738759 -0.002296073059622682 -0.016904557218289092
0.00523399980738759 -0.00594868090131986 -0.022968482227245745
0.00523399980738759 -0.009266052132562565 -0.02982857129877949
0.00523399980738759 -0.006434471350945242 -0.025111506883750342
0.00523399980738759 -0.007900509268354587 -0.02969087516135386
0.006470218664546668 -0.00016799999866634607 -0.026512660301782842
0.005842552301596398 -0.00016799999866634607 -0.02232904380068426
0.00541186361097579 -0.00016799999866634607 -0.01966717027223916
0.0063660493358316025 -0.00016799999866634607 -0.024373486390252955
0.00523399980738759 -0.003536025086814636 -0.024529663538381534
0.00523399980738759 -0.0013348582279536394 -0.02145828907489817
0.00523399980738759 -0.006762552481754286 -0.0292732660973894
0.0052339998073875895 -0.0058694976921106244 -0.02654657976238361
0.00523399980738759 -0.0023251741386324824 -0.023868325462342688
0.00523399980738759 -0.004850056532863933 -0.027244330356689023
0.00523399980738759 -0.004697982206365238 -0.02433695640458619
0.00523399980738759 -0.001392056150138881 -0.019836758625292113
0.0052339998073875895 -0.0019834240797229094 -0.018562675074611696
0.0052339998073875895 -0.0050732316991742386 -0.0254706197029063
0.00523399980738759 -0.001217077448108858 -0.01646560842021751
0.00523399980738759 -0.001479092980627938 -0.022964269916842507
0.015449999831616879 -0.001724525551152165 -0.01881873881080511
0.015449999831616879 -0.0010688273381333432 -0.02192605762853049
0.015449999831616879 -0.0012303915485052507 -0.016542599536660044
0.015449999831616879 -0.0009046654660594419 -0.020500453838879794
0.015449999831616879 -0.0020894390953393556 -0.02000387830772884
0.006978867484343925 -0.0020383072641895522 -0.03295362140411614
0.005905868976153741 -0.00665922440848195 -0.03329031056769533
0.011220685734800282 -0.0008801357553774306 -0.03333599865436554
0.008159678784809362 -0.0010216442104961426 -0.03333599865436554
0.009489689152239038 -0.003408798417917648 -0.03333599865436554
0.007301669889734915 -0.003588508391069961 -0.03333599865436554
0.009620274082322754 -0.00212394484691101 -0.03333599865436554
0.007940194720087352 -0.0024748401611206505 -0.03333599865436554
0.008443492673476372 -0.003953276935548521 -0.03333599865436554
0.006998133501246529 -0.0047252125556739655 -0.03333599865436554
0.006593531774459312 -0.00581450628982241 -0.03333599865436554
0.005731597894993796 -0.011727102066964572 -0.013463661621414023
0.0072478588297790894 -0.011119398465174356 -0.01349707825210354
0.008293274910382288 -0.010463026298565364 -0.01348888319463087
0.010814609663174674 -0.011308811726101703 -0.0323504870698696
0.007845524946117162 -0.013490804356964278 -0.029820686052614176
0.008222340236287236 -0.01326923611751525 -0.03090189688010759
0.009669755038631215 -0.011973228188710733 -0.03290504444331331
0.007675779053716634 -0.013432924906287991 -0.03255341028746703
0.01523800533847874 -0.0031700891925302253 -0.024467192531221177
0.015339334205565752 -0.002683884129447003 -0.02338334636661395
0.015400589211537745 -0.0025167116566819307 -0.030201015469434336
0.015107690553538947 -0.003839362204971987 -0.028454408595552066
0.01537009308036103 -0.0025963398298279932 -0.02659457725183774
0.0153425449008113 -0.0027517067840988996 -0.028256082562999236
0.015185993504603952 -0.003497019516522798 -0.029584757393024606
0.015418409970302364 -0.0022952444885882906 -0.02199443247776525
0.015449072586075927 -0.0020763683996823357 -0.01743625424487716
0.015097704643103779 -0.0038500784731232383 -0.026368000565812958
0.01379073264179742 -0.007320043334091279 -0.022982845039813276
0.013753827396827054 -0.0074145374482704075 -0.02434662743963195
0.01361083590373965 -0.0075805925292896075 -0.019910428839498878
0.013985253585452037 -0.0069313785211408425 -0.021109610499708192
0.014060583301688696 -0.006707164768746326 -0.016803470373257967
0.01297869216689476 -0.008649907610483853 -0.016584808875003937
0.013683427386413465 -0.007582223785269643 -0.026337475100680956
0.012983616726114137 -0.008668020434988499 -0.017895446757796335
0.013361705733468211 -0.00813510081164168 -0.025065807282926362
0.013813198091861172 -0.007446660176581185 -0.031098998278675634
0.013602109583479079 -0.00755152448590188 -0.0177350873893517
0.013408075975638655 -0.00796898889729791 -0.02105015965794229
0.011645351217468888 -0.010351554002473637 -0.03241238008159909
0.01341666927399807 -0.007758345306284595 -0.03268380084617068
0.00657707292147027 -0.011762117540207239 -0.033195216385690576
0.005443340673576631 -0.011534558632219409 -0.033193454618099576
0.006844917798880497 -0.010492287297570554 -0.03326509001585943
0.005998617281488377 -0.00978107233928677 -0.03329218296380748
0.008248590567599905 -0.009846554128286625 -0.03331594181432259
0.009749447004110427 -0.010929196281123916 -0.033149955563848116
0.007822932253311068 -0.011919381543897312 -0.03314207378491858
0.006418175801955827 -0.013177824114454641 -0.03308201279378943
0.009191105171177705 -0.006915147925688062 -0.03333599865436554
0.011488928261439288 -0.0028493333500362048 -0.03333599865436554
0.006460290647800944 -0.008433429792735155 -0.03333599865436554
0.00857459447889312 -0.005704096354564377 -0.03333599865436554
0.00902336877851045 -0.0087004494596521 -0.03333599865436554
0.010137849159188465 -0.004706083232653228 -0.033335998654365546
0.007183290935543155 -0.007362370326487132 -0.033335998654365546
0.007484034892417741 -0.008971294043197917 -0.03333599865436554
0.012166132519541427 -0.001913889175785196 -0.03333599865436554
0.010050745949262516 -0.009616342120121463 -0.03322173860843342
0.011390892399844043 -0.00924248432366476 -0.033135056003077076
0.007568582096953129 -0.00665475125685423 -0.013032731145684984
0.007229505622254511 -0.007861796218618676 -0.013105292246189032
0.006835552276252039 -0.009881629163315473 -0.013240315958421388
0.008464566938291838 -0.00904414542707783 -0.01329927238229527
0.00953605948980434 -0.008537401202557594 -0.013341675068263644
0.007210166478607878 -0.00511269028998776 -0.012906000018119812
0.007114861627828711 -0.0020502842492626547 -0.012906000018119812
0.006232319028146195 -0.0009813359271368099 -0.012906000018119812
0.010505197794937053 -0.0076608377307994064 -0.01337258823225937
0.00862157263879184 -0.00620074036295299 -0.01309490444040319
0.009460264088225397 -0.007250007732595064 -0.013244418185081534
0.009795843632344012 -0.005801656010755309 -0.013183142218434177
0.011491276392666816 -0.0068148511503785935 -0.013413569681543525
0.008396880788854961 -0.003381415203585161 -0.012957694707101149
0.009406914951990801 -0.0028107368629544244 -0.013037642583582537
0.011739449950193001 -0.00521990954354972 -0.013351152138700704
0.010665803359857066 -0.0032948582405057597 -0.013178624835193236
0.008477197425517025 -0.0048525548945694795 -0.013016492748047198
0.009759699443203812 -0.004277264727809227 -0.013123171394255083
0.00999831694863908 -0.01193196848116573 -0.016470459045504537
0.010098835313044462 -0.011631503877261262 -0.01522549481811574
0.009869159661437955 -0.012154853514331057 -0.023074643028700242
0.009314208212615369 -0.012559991190475048 -0.024969140424699107
0.00859212939650549 -0.012909889869985244 -0.017288959597191976
0.00972163860939476 -0.012158424792911928 -0.017618422814054128
0.008724435806878907 -0.012893307807475052 -0.021416668705280764
0.00998069051656811 -0.012022049603067967 -0.019752955242402167
0.009745997824693422 -0.01231975607040981 -0.027787264585103392
0.00875483044946352 -0.012851454133172437 -0.020187378238488707
0.009278893245857178 -0.012474363060795083 -0.01871293835543391
0.009583375208908998 -0.012309131806795923 -0.020939060101138433
0.008254139214232613 -0.01323375173577071 -0.02318852819237529
0.009038952628981687 -0.01282860697949115 -0.03003848713954566
0.008567485727171401 -0.01307177014380863 -0.02590950107113704
0.008425621666104728 -0.013141143332221175 -0.024429062357792526
0.008713054267947015 -0.01302415317036066 -0.02890703187282843
0.01544999983161688 -0.0013029316264914752 -0.0307576879003396
0.015449999831616877 -0.0018245468480630096 -0.029254219045960143
0.015449999831616879 -0.0005218025011810058 -0.018786853060886618
0.015449999831616879 -0.00051126369836093 -0.032252519798115796
0.015449999831616879 -0.0012367714137961722 -0.024833080601502976
0.015449999831616879 -0.0013333357926010895 -0.026236952869525522
0.015449999831616879 -0.0008221559698409533 -0.02746886470256356
0.015449999831616879 -0.0011469444865004092 -0.023303248721943514
0.01167432274310094 -0.0005270197371559127 -0.013230339302934414
0.012858676729938475 -0.0023842135313945747 -0.013412140418304614
0.011742201203792664 -0.0017538968377068425 -0.01326597303904339
0.01174803224030731 -0.0031698477743186126 -0.013298526821968333
0.010472608901960086 -0.0015800229536141646 -0.013111976911279407
0.0052339998073875895 -0.005645108302183133 -0.029235605052418373
0.012665565970068324 -0.009286140927001798 -0.030159414624056722
0.01321270420927552 -0.008363417489839623 -0.023474277487514246
0.01325285278653842 -0.00833552717771804 -0.028732708360361157
0.012658076883284446 -0.0092567167945377 -0.024179145110762024
0.013158281049970317 -0.008501124157635173 -0.03076981961358905
0.013639001408893603 -0.00772476993583345 -0.029856882374787185
0.012689570097318893 -0.009195349927154138 -0.022602490997311347
0.012827305930303273 -0.008964274743285814 -0.02109427679079413
0.012818657241234883 -0.008969669774637763 -0.01987301346603835
0.013082888513506488 -0.008595821149211829 -0.02700600118351384
0.012739620105027626 -0.009136732328564837 -0.025714438948136804
0.012635419731862954 -0.008985548235840829 -0.032589779327409016
0.011689961422481635 -0.01057022267226553 -0.030939318898208223
0.011819453132046782 -0.010321940143760462 -0.020621129916628334
0.012043487984828185 -0.010063047610552777 -0.023118226681427125
0.011847903274688229 -0.010298483970453083 -0.022061473752302954
0.01209862400074382 -0.010016699423466299 -0.02580342739184709
0.012054681886517126 -0.010092820306649496 -0.028335222967289186
0.011702010728507966 -0.01050095011581897 -0.02447426067199349
0.012114191447139296 -0.009909767064083912 -0.016785883770865026
0.012219337575680089 -0.00978453438024808 -0.01815637998484889
0.011808060629009775 -0.007992337931181282 -0.013830736245087048
0.011051366601259115 -0.008840423681640315 -0.013735141609389798
0.013116007777162944 -0.006266501544754928 -0.014074340115662325
0.011777708169852661 -0.010198795862017922 -0.01562938708190054
0.015201017575432777 -0.002439462587058433 -0.015605686286443966
0.015441455743178263 -0.0006236056628130332 -0.015486556893713248
0.014009455315763045 -0.005486367945611124 -0.014556175779657947
0.014644006386423544 -0.004069615281004508 -0.015093972500224968
0.006516453875857164 -0.01389754389340119 -0.01545320962381004
0.005291433271484909 -0.01411603602257299 -0.014778178198156886
0.006365562600524533 -0.013371790099925604 -0.014389832212886939
0.008631403486777312 -0.012681188089300813 -0.01544066869677315
0.007561905063553202 -0.013502284006019522 -0.016050225770651988
0.015092641287366955 -0.0034595501046400692 -0.016098190838647233
0.01500976495742845 -0.004230226614670951 -0.025165524096513632
0.014965853627021658 -0.0042979369598926355 -0.019632953380452043
0.015070109700767918 -0.003904621759981544 -0.02277827208895565
0.015025247748475846 -0.00397866255495759 -0.01733490794750301
0.015183074322691793 -0.003356612913646589 -0.020952187051291503
0.015294102151628694 -0.002808721761023983 -0.01875883631465917
0.01457317526782636 -0.00543724799001762 -0.019350769287915237
0.014904536878185456 -0.004730392807717586 -0.02700200730971022
0.01481737055953118 -0.004757977189558497 -0.018186418134263388
0.014246113333521698 -0.006274369245592243 -0.017788948035682064
0.014633838446213663 -0.00530960304460814 -0.020827140668251174
0.014651842484193245 -0.005341447175992871 -0.02426073919426857
0.014509456815129222 -0.005676163485927894 -0.022303950568530833
0.014743216748050252 -0.004876414881180666 -0.016381844631271573
0.014433284145657125 -0.0004274480383613965 -0.03315864054609043
0.01302674384935069 -0.0009823926055308962 -0.03332850485970451
0.012836462523968606 -0.002861963960716942 -0.033334257722751205
0.010919294762393762 -0.0058972821089932044 -0.03333599865436554
0.01040951283350764 -0.0070837369354959465 -0.03333599865436554
0.011390702707539953 -0.0044644470156786275 -0.03333599865436554
0.011820082178138529 -0.007339397330091418 -0.03321193959504475
0.01278506514521459 -0.006641164776043833 -0.03317322754322395
0.010917049269130107 -0.008306969453239069 -0.03323119117942294
0.012815784499230555 -0.004899506659736066 -0.03326490096869158
0.01434949474267343 -0.0028288603452745866 -0.033144759616649
0.014853666438397747 -0.0017782658090066193 -0.033092309637441475
0.013819243709389615 -0.005753850372158977 -0.033090805559655
0.013817947533669526 -0.004443686645524015 -0.03315778631194559
0.013480202882146602 -0.00436859536742163 -0.013797523722157165
0.013979888222873278 -0.0014278595476251348 -0.013653075691212152
0.0141705383874376 -0.003070170412351482 -0.014010031328730868
0.015018933959266326 -0.001510557118754828 -0.014498792937131648
0.005813492935929721 -0.014417000114917755 -0.022542481021131718
0.005764643204623313 -0.014397134006387716 -0.030477546025072914
0.006510569901379838 -0.014176194618453333 -0.03216631639518
0.010382393440257352 -0.011818353566381553 -0.025441106353286037
0.010349018963618265 -0.011790253666533461 -0.021656369280403383
0.010472181960952032 -0.011775584662976093 -0.027125917593025434
0.009937052355082753 -0.012202613534449704 -0.029441662657461502
0.010873310777929798 -0.011462343041432689 -0.031183256662405213
0.011472808663227325 -0.010793450688813135 -0.027637432737449088
0.011216733795800668 -0.011037838586248901 -0.026564512272147428
0.010915070052762217 -0.011385969002988168 -0.029071735412890126
0.011097429297796413 -0.01097492105844645 -0.016526830960905285
0.011414066840704642 -0.010702808324706914 -0.018748773254500105
0.011243748112888433 -0.010947534716322361 -0.022811707445281753
0.01115928126151209 -0.010976639539741725 -0.01989433066514329
0.011374717164557476 -0.010720737093105007 -0.01762330331497481
0.014127923879864838 -0.006726719481198457 -0.03215797541264522
0.015418588221190759 -0.002458799859032932 -0.03179578452672531
0.014770096433473448 -0.005138969225485703 -0.030690963789114817
0.015105293738178604 -0.0037873203006461137 -0.03077335788526927
0.014249125229905048 -0.006363312722433331 -0.02353007486443987
0.01411499633156837 -0.006624810984586035 -0.01897344634997237
0.014380282962697884 -0.006079934124300439 -0.02554686288050015
0.013983615710442177 -0.007041657343385412 -0.028673729019517178
0.014057265997819918 -0.006851340935452309 -0.027057533580894178
0.014369744450354445 -0.006154261847802201 -0.02992880999337033
0.014375233496663245 -0.006120176916578861 -0.028054424547132948
0.01463166766102497 -0.00556694034693016 -0.03206926329207796
0.01483259582459608 -0.004962545422911456 -0.0288053844391939
0.015115977575888506 -0.00330117239881402 -0.03239810735394879
0.013558432879245063 -0.007483917768006299 -0.015912083429043943
0.01314870916235578 -0.007295599814363164 -0.014547109900206353
0.01274222878904327 -0.008312430429619905 -0.01477201860070402
0.011818667453400603 -0.009484150808219566 -0.014522452504272584
0.005575586102433976 -0.00945739256084769 -0.013107799725089523
0.0057051309495593045 -0.007614675326212987 -0.012972962952020863
0.00940417264717423 -0.01027578977767416 -0.013581500680182245
0.010788038131719418 -0.010548554222729049 -0.014396263719901865
0.007864501101198382 -0.012401773431469438 -0.014199867883740443
0.009086138384215809 -0.01195856942835094 -0.014543625869866832
0.006800639243731388 -0.014036265692846337 -0.030994636773235166
0.007508925187525254 -0.013680804766014264 -0.02845380732614564
0.0075477852326910075 -0.013661302433951361 -0.025567092232572627
0.006721369337777126 -0.014076048148628905 -0.029654815970115173
0.007939355200667395 -0.013464788829585664 -0.027119492758444705
0.006658342235993367 -0.01410767897825626 -0.02608631630022379
0.0065596660268113696 -0.014046810031004381 -0.017180293981047354
0.007494441955507282 -0.013680112525490852 -0.024235925689634855
0.0069405763940636345 -0.013949550859145093 -0.021747744156903347
0.007821096712501602 -0.013420661479291088 -0.018134840930753546
0.007762103316155092 -0.013472651767686042 -0.019623140485152943
0.00703677688698091 -0.013914036970770146 -0.02302938028401918
0.005984535681897924 -0.014354716535491573 -0.018669130073994747
0.006046555100639384 -0.014342155147309497 -0.020051024558935048
0.006281926772423999 -0.01428505432282162 -0.02419341755296156
0.006198797597889855 -0.014337601124063064 -0.028046694035078246
0.006368180271931768 -0.0034291959222139965 -0.032319111391343074
0.007172423191726023 -0.0009124586084834063 -0.03277436345437994
-0.013635620065124457 3.4477433839173396e-05 -0.013550771931619562
-0.010754606790044882 -0.00016700000560376793 -0.029763432569285167
-0.005394558752719745 -0.00016700000560376793 -0.021124074735035008
-0.012085792258060129 -0.00016700000560376793 -0.01928017207282332
-0.012269759143623674 -0.00016700000560376793 -0.016856859950221834
-0.009126810620630392 -0.00016700000560376793 -0.024899416129047773
-0.007952195160903647 -0.00016700000560376793 -0.01961547616270207
-0.010288246754101484 -0.00016700000560376793 -0.022109530917645948
-0.00709139765372469 -0.00016700000560376793 -0.023780691935244132
-0.013265343505347176 -0.00016700000560376793 -0.021006346673450912
-0.009799391581665741 -0.00016700000560376793 -0.020950770437541615
-0.011770250161924165 -0.00016700000560376793 -0.02311565697898412
-0.011797952997612684 -0.0001670000056037679 -0.032021405605771824
-0.007864951282324421 -0.00016700000560376793 -0.025204870263185058
-0.01209503550845019 -0.0001670000056037679 -0.02082699093946852
-0.004984000232070684 0.007889079118645606 -0.022736739630815295
-0.004984000232070684 0.005604666706549614 -0.026205643590312567
-0.004984000232070684 0.002360311464159023 -0.022706189867833057
-0.004984000232070684 0.006382451279766668 -0.02273788451764882
-0.004984000232070684 0.008379412697132056 -0.026082491164588655
-0.004984000232070684 0.011441519833635446 -0.024056540787028912
-0.004984000232070684 0.010526620743215543 -0.021566828633124376
-0.004984000232070684 0.004146621579417451 -0.023486593103935836
-0.004984000232070684 0.008089340145242806 -0.017794078021438342
-0.004984000232070684 0.005249495290638137 -0.0239658633989581
-0.004984000232070684 0.0038027014302258965 -0.02057836789172139
-0.004984000232070684 0.006787872654090393 -0.02043408707057138
-0.004984000232070684 0.006898764649929178 -0.027179527045790956
-0.004984000232070684 0.007999025771238562 -0.020483759595805163
-0.004984000232070684 0.009796825557451337 -0.026035010720001844
-0.004984000232070684 0.00610938635861441 -0.028749827689727787
-0.004984000232070684 0.0034033276895787633 -0.02229531831136094
-0.004984000232070685 0.009523168699545304 -0.017512000864042716
-0.004984000232070684 0.010724494105971651 -0.018621610804945243
-0.004984000232070684 0.008610280518471977 -0.0316193367149489
-0.004984000232070684 0.005814509771227266 -0.021473564137676992
-0.004984000232070684 0.004379288913657498 -0.019513270361601415
-0.004984000232070684 0.0075900808265966175 -0.031081335080758457
-0.004984000232070684 0.0070350220677103505 -0.025739559483121496
-0.004984000232070684 0.007314718723933767 -0.024182966115773964
-0.004984000232070684 0.007403447795959893 -0.02943149011301878
-0.004984000232070684 0.00261705717303668 -0.020401839231842685
-0.004984000232070684 0.004675971420425457 -0.022483972774648864
-0.004984000232070684 0.012560330685210445 -0.01953996295608635
-0.004984000232070684 0.009559817135358686 -0.022358335339861438
-0.004984000232070684 0.011772284128096083 -0.020835613031148913
-0.004984000232070684 0.009278679978906088 -0.023937977000138708
-0.004984000232070684 0.01252701250406115 -0.016597306929996124
-0.004984000232070684 0.004206753258626798 -0.025390415148240475
-0.0049840002320706836 0.0025613840689337674 -0.02398649281326593
-0.009074469553728417 -0.00016700000560376793 -0.014697326911359762
-0.013080690623411394 -0.00016700000560376796 -0.015928850800438606
-0.0067094874378119986 -0.00016700000560376793 -0.017286734366585368
-0.010804178006251074 -0.00016700000560376793 -0.017239478993959667
-0.007353795607587091 -0.00016700000560376793 -0.0182280010636585
-0.011004947802429619 -0.00016700000560376793 -0.014583216119812361
