-0.01393911121458338 0.020395936766338614 -0.006331566648138672
-0.012849175879212974 0.02037589827308805 -6.957459054258855e-05
-0.013697183297276488 0.020391488914451666 0.0008363732208681134
-0.010448454029268845 0.02033176093115093 -0.004925682905079603
-0.007736965782905506 0.020281910139860394 0.0010701442872579083
-0.012117474994281851 0.020362445930762488 0.00068907307514592
-0.010068387872405462 0.02032477340366015 -0.007254955344082576
-0.0069701467238877535 0.020267812148869663 -0.007100451835965882
-0.009248383219042212 0.020309697593950522 -0.0018108153379181621
-0.01284008542469848 0.020375731144813992 -0.0013706615459085627
-0.013329389206794223 0.020384727009262835 -0.004613302734126824
-0.007695600860079406 0.020281149644535614 0.0025774718643794088
-0.009163102391183679 0.020308129703417943 -0.003268385972605423
-0.010469600636010126 0.02033214971213886 -0.0033588338591616744
-0.006535179301373023 0.020259815259992476 0.0004417536174155224
-0.01018582753635894 0.02032693253534174 -0.0010545895807376159
-0.011922058896712403 0.020358853200051666 -0.0037836864472271473
-0.010989924076124636 0.02034171587391423 -0.00231596906874871
-0.014839051261837958 0.020412482190619852 -0.004197674187042939
-0.01848760141237582 0.02047956089262473 -0.004113219791113006
-0.017635500945367255 0.020463895000435675 -0.005323642313674338
-0.006365963286660527 0.02025670421857684 0.0016388532129181983
-0.015711369114367674 0.020428519780037322 -0.005652329076261408
-0.01004892687504504 0.020324415612650356 0.0017790002872554813
-0.011592123432493514 0.020352787326822018 -0.0007327186873190773
-0.009060781502636684 0.02030624853086761 -0.004942202779033668
-0.016895179548638596 0.020450284169746757 -0.0023361736434320554
-0.015476692103408799 0.0204242052362772 -0.003090788662380218
-0.020930581469833273 0.020524475152951912 -0.005214557839132504
-0.022198510778390003 0.020547786070643254 -0.0049011079568347824
-0.007586917182521819 0.020279151491921873 -0.0052148781914293455
-0.009516565270029868 0.02031462812885864 0.002890325883242583
-0.015531501592063672 0.02042521291034082 -0.0010122516985355064
-0.01229581673880503 0.020365724748989542 -0.006333110949160087
-0.008066420898873546 0.020287967181873298 -0.00048113497355185787
-0.006796766770210724 0.020264624553313494 0.003713357722252136
-0.019872359490909 0.020505019710693892 -0.004809054257304848
-0.02067989944342343 0.02051986635651121 -0.003957625579197827
-0.00957804802723868 0.02031575849116122 0.00022943981341975702
-0.013357172179739014 0.02038523780003892 -0.002549098910388109
-0.008858342646054557 0.020302526686525442 -0.006394094125539224
-0.008315527446457317 0.02029254701308937 -0.00739322099384479
-0.01870374727344153 0.020483534740648138 -0.005367558153337944
-0.0073896238869672025 0.020275524248870788 -0.0016961529753986055
-0.010968050119725058 0.020341313720581407 -0.006631888150262911
-0.01626423513802114 0.02043868423816977 -0.004268852967692316
-0.010791932356917226 0.02033807579032371 0.0007497289137955482
-0.014708939350720337 0.020410090079300825 -0.0018784859780433985
-0.00878283596085504 0.020301138493893603 0.0020214759216616363
-0.00753934253567979 0.02027827683063812 -0.0033146594513667697
-0.015863493731184466 0.020424125867368324 0.001234129920778306
-0.017681768493999245 0.020457422547616913 0.00023887230234991008
-0.02407322047112207 0.020564700514831214 -0.001103445796349622
-0.014947425202742861 0.02039894511727275 0.0035917236460878557
-0.015204952736320174 0.020407655074163977 0.0025687618608127185
-0.018134442650165648 0.020470212556717507 -0.001002751081816208
-0.009221608320861045 0.020306379383035908 0.004012554631325699
-0.011123230234084947 0.020341605251213743 0.002882700658285369
-0.023429983991738988 0.020564166359931912 -0.0032345662500723425
-0.02171127196777721 0.020528849111965907 -0.001444988369489049
-0.024840087214691633 0.020567617016800925 0.0009338577834042707
-0.013350618636915525 0.02037517188742137 0.003258295379311697
-0.01937567383585347 0.02048193916234486 0.0007476459524309344
-0.022900330090958446 0.020544751470776123 -0.0007991400092577449
-0.023203837215412745 0.02055519963239443 -0.0020451793221158746
-0.02129475975089408 0.020527209801029084 -0.0025393171742039565
-0.015087997844680255 0.02041644939652295 0.00021779153399668297
-0.016524884939381614 0.02042755033292743 0.0027904653072697815
-0.02077444654191802 0.02049477977861208 0.002802881748271219
-0.017081461977658294 0.020452348921907854 -0.0007396987510929821
-0.010870942154874066 0.020332482069227813 0.004015234098329762
-0.012419362349098672 0.020366635868036644 0.0018871534204005112
-0.020030753153313333 0.020486715738507875 0.001983327188151969
-0.01905416894853522 0.020468152774253654 0.002667931761463596
-0.019336431494733155 0.020487687056655712 -0.0006588640770463063
-0.022855681315503282 0.02053158283428282 0.001952756332346935
-0.0182282421460734 0.020461206497279272 0.0013140139678709957
-0.006358117508082963 0.020256071145478543 0.0051098505574939225
-0.01217883940582653 0.02035328844475052 0.003993656732328515
-0.020470167907550078 0.020505432484610647 -0.0006134504195219408
-0.02410492485910503 0.020551718700896494 0.0018741637167791804
-0.023187638563062246 0.020541751870875737 0.0008678316814677649
-0.02200456141997808 0.020543616167770156 -0.0036804889046890416
-0.01900623504793125 0.02048875934039172 -0.0020501871970473764
-0.024764105142468552 0.02057153387221363 -0.0001967671030465294
-0.02073531618223032 0.0205036255296164 0.0007126680755804749
-0.021619616736927527 0.020521754513165506 -0.00019877106054735536
-0.017268985798798608 0.020443686235003214 0.0018289470544531484
-0.025718601014039538 0.020578106159388276 0.0016892802144982436
-0.02666364025941449 -0.019813238172241527 -0.0050843288671396335
-0.026843249797821045 -0.019448398088684517 -0.0010993095103522196
-0.026843249797821045 -0.01794398126589093 -0.003988163155567407
-0.026843249797821045 -0.017865086398423637 -0.005361731256523657
-0.026843249797821045 -0.01947712128821975 0.0004061775484650793
-0.026843249797821045 -0.01833170773438749 -0.0029109785026057164
-0.026843249797821045 -0.017071542781878772 -0.007674447157113545
-0.026843249797821045 -0.01920750888313246 -0.00605442945303881
-0.026843249797821045 -0.019174835666112056 -0.0073256848650387965
-0.02579182845497066 -0.01891296728046464 0.007339078348457201
-0.02242696582814236 -0.019349021706604293 0.007315159986566588
-0.02392676410469642 -0.01890735699603219 0.007393615061141459
-0.020309553003947392 -0.019573391270519273 0.007283711589500022
-0.023016768541845076 -0.02039075426414327 0.004553419065368684
-0.01904789621029235 -0.020475443149036737 0.0026203573784170913
-0.02516344360814566 -0.020348809980538566 -0.002429117071429391
-0.025064737686517718 -0.020352135353650824 -0.005011467438947291
-0.024206166583241713 -0.020365542965534746 0.0047826624149415065
-0.011793482963601656 -0.020626794428698914 0.006248985515597506
-0.02129413561437889 -0.02042653643077305 0.005742900539883659
-0.01995884427968997 -0.02045831832064711 -0.0017444906791755262
-0.025195778685245224 -0.020347097156399572 -0.0002871634537241174
-0.02131708242852782 -0.020426711999451654 0.004371291473587334
-0.022449875355382985 -0.020404654323055688 0.0005282851826897553
-0.020529496158071557 -0.020446814787623814 -0.0028659228574062904
-0.02108853975504435 -0.02043442599467683 -0.001637915302403796
-0.02484036962873852 -0.020353928831403825 0.0011032131883747162
-0.020682320632101146 -0.020442393110091793 -0.00037880165174640143
-0.025490829436522144 -0.020344437371852316 -0.007701822856780006
-0.023535460128311238 -0.020380861184564447 0.0023637699951667944
-0.023391728122835624 -0.020386160781658776 -0.0023471663557564793
-0.024467024497740304 -0.020362921002808575 -0.0012106128782258716
-0.01754021353465255 -0.020505764965535377 0.005730662455449579
-0.019572448319407708 -0.020464989029855035 0.0013398503788270147
-0.023902105187466695 -0.02037667421373367 -0.005017084682243034
-0.01267340070721254 -0.020608631775710907 0.005402739636847254
-0.014764381688254067 -0.020564995214559057 0.0043811956500120494
-0.02225915224307779 -0.020407225154805825 0.0035511051198156467
-0.02389424124814272 -0.020372664763683376 0.0036623717589883654
-0.02188741522643375 -0.020417105341688047 -0.0006791916185782416
-0.023468141746167372 -0.02038073461794564 0.005580053204122024
-0.021105690704528154 -0.020432900741104865 0.0007802460625984024
-0.02527325384523413 -0.020348392020861795 -0.006377563445598152
-0.025161194303983343 -0.02034585003737634 0.0038224133568358996
-0.01898476336145347 -0.02047822876214836 -0.0004005440241844397
-0.020021739079710377 -0.020453967314010876 0.004540848789993138
-0.018932444133437087 -0.020476574444435784 0.00533348921771469
-0.022085065584306403 -0.020413950655269103 -0.002792239676778862
-0.01763459109313641 -0.020504401948498795 0.004423729562345185
-0.02381617427650761 -0.020377939344651264 -0.0038772209351341617
-0.013351097085379644 -0.02059474172167825 0.004546254154534045
-0.02270330335020479 -0.020401929562042655 -0.004925359609994592
-0.014333633085270043 -0.020574669854746482 0.003166947994289479
-0.02539142180712047 -0.02034173988415023 0.002266375341683724
-0.01724830165168706 -0.020513255021814586 0.0029669013197220198
-0.023079999249043984 -0.02039201367478066 -0.0008383932934954599
-0.01798464784267402 -0.020498792973157057 0.0007265182852533945
-0.014908856155494834 -0.020561413219506927 0.0054891688843496916
-0.015955313494082225 -0.020541541559178776 0.0008895283383661685
-0.010558836291754976 -0.02065302439266304 0.005887245864993482
-0.023667202166777066 -0.020378996130286375 0.0004612842957201699
-0.016029142381831264 -0.020538407445457166 0.0041656363045563995
-0.01740593554653511 -0.02051050768791625 0.0017625676688227615
-0.0217358371700707 -0.0204187668366686 0.002516620019365339
-0.008484228174689546 -0.02054225825891913 0.006698880234279197
-0.00966832013884382 -0.020662548199933448 0.0065794125754845036
-0.008861180075249567 -0.02066824957728386 0.0050782677934754035
-0.014396889534209367 -0.020573761949447343 0.0005307059427898182
-0.009928473213588803 -0.0206660454909224 0.004258754170910076
-0.017024838159109167 -0.020519488491354123 -0.0008740617730254737
-0.023124333635693085 -0.02039351924332486 -0.006175185229301129
-0.017591534796759643 -0.02050778484314591 -0.0021530078868262576
-0.02072820132072039 -0.02044300513720813 -0.004149427162626136
-0.011279378345897966 -0.020638146051644324 0.004777169714807912
-0.013839562896521843 -0.02058527208462585 0.001896921555696704
-0.018756669356067387 -0.02048372201289177 -0.0023888345713671266
-0.012035140283731746 -0.02062253775037358 0.0035617457686498892
-0.0102244481489399 -0.020659932896825918 0.0030378289093844152
-0.012939223804861478 -0.020603866251763643 0.0008672020152261475
-0.011863964792603236 -0.020626072935862494 0.001815500325021693
-0.01313133482375931 -0.02059989869728613 0.0034406738244809384
-0.0195229768949835 -0.020236503949633496 0.00663351119880423
-0.024973441376051054 -0.020173233100481865 0.006300515049689317
-0.023689143299999986 -0.019972057126885896 0.0068207608700732525
-0.016832139782187113 -0.0202919119325382 0.006748488959837312
-0.021469384500703834 -0.01991912742509537 0.007093882270927263
-0.014110551536198376 -0.020341849581487347 0.006833486440054464
-0.018259932565805968 0.02024551716743335 0.0056714752473864295
-0.0227525740362098 0.020060354323479444 0.006560881768486808
-0.014068697878927398 0.020128554133913342 0.0065973517806434375
-0.02566908488501866 0.02022510442659154 0.005411435532818603
-0.02126063031749045 0.02019410715883675 0.005827606855428137
-0.024516184046617914 0.020164568981745006 0.005837994633630437
-0.008715842141268334 0.020238533157829624 0.0062081149527181715
-0.015455042784014866 0.020189610000867525 0.006155548152065811
-0.025398131337696923 0.02004304674538141 0.006528745171310073
-0.015002244989843247 0.020336260421083333 0.004952479781564449
-0.022395709498389357 0.02035901568219787 0.004344558491866055
-0.018372740915051852 0.020375249918301697 0.004392404148488857
-0.023205369795453668 0.020249612379398943 0.0053843465573467164
-0.02419937965178737 0.020328008043217 0.00455772848559389
-0.021387317787725315 0.020407534280556708 0.003917059477830482
-0.016236280436426866 0.02041083172282634 0.004151243378119224
-0.019576230251254618 0.020265166791604117 0.005418516400118176
-0.022038338960189217 0.020509232521813223 0.0028778020733048635
-0.01665546891450056 0.020270155486995248 0.005520465555605751
-0.025073726432901525 0.020473091299830933 0.003077936013623394
-0.023505233627589446 0.020421197595772884 0.003672270695526734
-0.019402282503720527 0.020442636923787956 0.0036727936505151484
-0.026395060522221507 -0.014791733433570143 0.0070531768660805514
-0.025777233926195315 -0.013535263324707981 0.007467832587707632
-0.025929484444574217 -0.015933376069628476 0.007333661705310343
-0.025661381642478075 -0.010565251838445734 0.007587467775717711
-0.026182488300096347 -0.0018965503033389775 0.007386729080331282
-0.026171179096299783 -0.01176857916949466 0.007242765062174868
-0.025965348527797444 -0.005507431550141908 0.0074703943890286634
-0.025739634780812835 0.000944569059337385 0.007713672168137391
-0.02545592471481909 -0.009357696330174763 0.007716743223093182
-0.025626470842608114 -0.00047138428975098973 0.007755117112286674
-0.025657806232977292 0.014786221985938607 0.007954132068028131
-0.025526869022167307 0.002113201999349946 0.007842240794172997
-0.025562774861543153 0.01127605339719955 0.007953058321276352
-0.02606323112801942 0.013426430490015167 0.007640898790686296
-0.026332418166066685 -0.006642247957305638 0.007197597861211223
-0.0260788659170115 0.010052838234533125 0.007597449790948025
-0.026399527322051447 -0.008117229793977427 0.007115367315472784
-0.02614547633792412 0.01619392576295918 0.007576800825802012
-0.02605271005581652 0.008141444529389344 0.007609566703234416
-0.026275764713182277 -0.004017393832916331 0.007278077694602062
-0.020020521499326233 0.014321366332635834 0.00843414570002169
-0.01144170275134376 0.018012286390807358 0.007668770107792728
-0.021230110760602737 0.015299052730741971 0.0083736745247608
-0.017696579329689332 0.015581509137497375 0.00819755308401136
-0.022101233390723854 0.014291997925819686 0.008522460526981496
-0.012643752394975338 0.017861614828303715 0.007734819079439865
-0.019282157119650457 0.01526110781032939 0.008298350002650879
-0.015111603794061939 0.0162313431750018 0.00801889427756337
-0.018900926340287758 0.013941778647938646 0.008431067155946973
-0.01624354796113238 0.015868005720442495 0.008105982667891025
-0.009280102129906907 0.01871910248613698 0.007501004746177598
-0.013742028151587055 0.016770927654326067 0.007902286446986803
-0.022795808671154646 0.012784960012671088 0.008538750000298023
-0.021289368500580434 0.013313590421969735 0.008538750000298023
-0.023925034733788462 0.013468951005603752 0.0084966737184223
-0.024301274650137407 0.014636656948899459 0.008408496916748907
-0.014190054280300214 0.017907350381607803 0.0077851925837733385
-0.01211809394763223 0.01890177625895775 0.007582238361981519
-0.019151721275201466 0.017424527087907295 0.008025223225872628
-0.017767470148196313 0.017265877493490497 0.007996265288431809
-0.022783232154711088 0.01519281954627078 0.008444268761137824
-0.020870743149909433 0.016319955792390463 0.008229824122080964
-0.015943035306185172 0.017224646947876787 0.007936349080294898
-0.022393843935862696 0.01676639782856838 0.00822646089946957
-0.020909957272868786 0.01771366460688545 0.008050651632165994
-0.016386587260921803 0.018349736824983233 0.00780644282246596
-0.0187745183925053 0.01618129396800869 0.008172809890412755
-0.023950423317566485 0.017249952654212586 0.008213762747672148
-0.02401534503890032 0.015796248142402894 0.008381063248882189
-0.026796533560073943 -0.002807500674552995 -0.008202146120065732
-0.026783409915914127 -0.016110268612631252 -0.008215179804842562
-0.0266984069951704 0.0068499623964267745 -0.008222860183219683
-0.026463633999512057 0.017249551101315347 -0.008259257863223039
-0.02640081408728369 0.019327030053542516 -0.008281773386954574
-0.026624078598214543 0.00953605859727049 -0.008245369350076547
-0.026442178674676013 -0.0048455296551719144 -0.008448530888527244
-0.026430391720641634 0.008321276405432428 -0.00838731351780145
-0.026581537027378456 -0.010133893377510944 -0.008388393527214873
-0.026734954178625866 -0.00027280677770022323 -0.008240437874849457
-0.02676035790875908 0.011244752406090928 -0.007990358462796065
-0.007355427498072737 -0.019007399112676567 -0.008527195157171043
-0.009003090841270463 -0.01998014594590266 -0.008472108900635225
-0.010241213653880882 -0.019590023692233817 -0.008587204790821954
-0.00889788766536254 -0.018335366976334963 -0.008741828825278911
-0.013986529156079761 -0.019048838989260984 -0.008806341436309824
-0.011900518981444674 -0.01970414062747764 -0.008627322355016809
-0.015000698072669849 -0.02020578319249183 -0.008496627235286758
-0.02116403166983955 0.01975483886049013 0.007310739078787165
-0.02429126347534138 0.01912615415078945 0.007567413192578316
0.02320669233357708 0.009572121286374913 0.009163287332320844
0.022027955860130795 0.009693898591575614 0.009125166787023922
-0.005892499815672636 -0.011022080424912815 0.0022064283807840864
-0.005892499815672636 -0.011945444596846967 0.00045215252938854856
-0.005892499815672637 -0.01392312107776231 -0.0028135602001453947
-0.005892499815672636 0.011814651146536764 0.004200561568406358
-0.005892499815672636 -0.01427300980988369 -0.0038947024614155285
-0.005892499815672636 -0.004823582014955366 0.0034833648120108944
-0.005892499815672636 0.009585500354830466 0.006342279787949206
-0.005892499815672637 -0.012054523610281007 0.002826943574404127
-0.005892499815672636 -0.0009549280726470509 -0.0006054743972757746
-0.005892499815672636 -0.01610437166407796 -0.0008746533686354746
-0.005892499815672636 -0.020094266686117662 -0.005310931067602145
-0.005892499815672636 -0.008142522719328716 0.004617057265404944
-0.005892499815672636 0.010886382546948166 0.004774314545183954
-0.005892499815672636 -0.015047732011785657 0.002234725126690192
-0.005892499815672636 -0.019276580610414918 0.0011624875747021524
-0.005892499815672636 -0.013620478427980975 0.0020297624432759976
-0.005892499815672636 -0.006184273268858075 -0.001945664197801767
-0.005892499815672636 0.00022964385960987446 0.006159012554543108
-0.005892499815672636 -0.010079863318533852 0.005682489301119536
-0.005892499815672636 -0.00663382131525841 0.0033582100864130472
-0.005892499815672636 -0.010903762810890774 0.0039057194451334793
-0.005892499815672637 0.0013742243937140469 0.0030880711647902704
-0.005892499815672636 -0.007391010306839592 0.005573405943110775
-0.005892499815672636 -0.0038259278118469714 0.0013492789330560135
-0.005892499815672636 -0.011220057100077877 0.00557937209424663
-0.005892499815672636 -0.0037253593140104957 0.003385317332329117
-0.005892499815672636 0.004636345493074749 0.0053269289795460795
-0.005892499815672636 0.002481612419238155 0.0015565391961331319
-0.005892499815672635 0.015865548857769238 0.005887861589451645
-0.005892499815672636 -0.011873929540729538 -0.003077820424546662
-0.005892499815672636 -0.005087153516584112 -0.0022391043331619243
-0.005892499815672636 -0.013780424878590058 -0.0015390215389779333
-0.005892499815672636 -0.01935982306533144 0.0034132859597997695
-0.005892499815672636 0.007634365097200516 0.003793802200238942
-0.005892499815672636 -0.005552578461167657 0.002498922433433601
-0.005892499815672636 0.016807301061241755 0.007173490919445856
-0.005892499815672636 0.011987866213955721 0.006470200826073351
-0.005892499815672636 0.003299842589419123 0.0025997880811904103
-0.005892499815672635 0.013369940064717721 0.005988044485658345
-0.005892499815672636 -0.009679567652702434 -0.0005370052536047235
-0.005892499815672636 -0.016255967856333098 0.0021909794180050663
-0.005892499815672636 0.0058027962423214735 0.003922905541328769
-0.005892499815672637 -0.017459078256498645 -0.0029747462883560004
-0.005892499815672636 0.0017082072332595798 0.004555805488161566
-0.005892499815672636 0.004608710334731533 0.0025711821994508282
-0.005892499815672636 -0.014103785529110034 -0.005194786784043143
-0.005892499815672636 0.013388922362309092 0.004754177035736115
-0.005892499815672636 -0.007178871945742916 0.000446679940667701
-0.005892499815672636 -0.018169672119375344 -0.0019818928075070502
-0.005892499815672636 -0.01932069481271935 -0.002052714650540397
-0.005892499815672636 -0.0036959703630684484 0.00650778022094059
-0.005892499815672636 0.007055033697394042 0.0027794002088478483
-0.005892499815672637 -0.0032720385486429988 -0.0015959999529275833
-0.005892499815672636 -0.014913348169610641 -0.006171214946570886
-0.005892499815672636 -0.017298621371706575 0.0054746949910466115
-0.005892499815672636 0.009363377535841648 0.005043031994838231
-0.005892499815672636 -0.00910270580037275 -0.003901159134743309
-0.005892499815672637 -0.016407275676821174 -0.0039881880710952175
-0.005892499815672636 0.0014823428079394473 0.005637003138194967
-0.005892499815672636 -0.008799141315658131 0.005648506041949391
-0.005892499815672636 -0.01850743649245021 0.006015983869349197
-0.005892499815672636 -0.012097908832526396 -0.0010392421172273228
-0.005892499815672636 -0.00997587033769832 0.0011510859430464292
-0.005892499815672636 0.0023640489073062845 0.006904966112800202
-0.005892499815672636 -0.01331347678876759 0.0038602151679329845
-0.005892499815672636 -0.018575965739369954 0.002103554148356246
-0.005892499815672636 -0.0028425370244771196 -5.347232061871511e-05
-0.005892499815672637 -0.017120500565994453 -0.0016894466680150394
-0.005892499815672636 -0.018769219575949986 -0.005426587487314253
-0.005892499815672636 -0.008085723427882587 0.0016906123249368905
-0.005892499815672636 -0.0085143769724054 0.0006365733163365315
-0.005892499815672636 -0.015779704451491447 -0.005304551751617199
-0.005892499815672636 -0.003425402499177929 -0.006701308167361316
-0.005892499815672636 -0.006652420929065637 -0.0030931463787319795
-0.005892499815672636 0.007085005626013714 -0.0021817074059687007
-0.005892499815672636 0.019059103084238492 0.0014056906053437845
-0.005892499815672636 0.01437104146518421 -0.0010700869743988477
-0.005892499815672635 0.009763467440720066 0.001643309583549947
-0.005892499815672636 0.017057537493863444 0.004358797491871082
-0.005892499815672636 0.001997073294216142 -0.003510019016200807
-0.005892499815672636 -0.00025627818975197236 -0.004860491105050743
-0.005892499815672637 0.010102956379084599 0.0027606145587175737
-0.005892499815672636 0.0019951688884724886 -0.006509875658116867
-0.005892499815672636 0.015998789303456724 2.7817533308450645e-06
-0.005892499815672636 0.018025754891766492 0.0018849509529155345
-0.005892499815672636 -0.0056183306768838055 -0.00420241222673762
-0.005892499815672635 -0.0016232984326637885 -0.002668018721870804
-0.005892499815672637 -0.0031221806823054686 -0.002709126749734241
-0.005892499815672636 0.01461378301533604 -0.0043291415512552575
-0.005892499815672636 0.01195583066778954 -0.0035608365077095154
-0.005892499815672636 -0.007518241003068293 -0.007338341627483796
-0.005892499815672636 -0.008306942745680963 -0.0046984534319911885
-0.005892499815672636 0.0172822293350854 -0.002921950247870468
-0.005892499815672636 -0.003237084966690067 -0.004720438447264157
-0.005892499815672637 -0.004580709014437765 -0.0033357632147661704
-0.005892499815672636 -0.001282739068331166 -0.004230550359848971
-0.005892499815672635 0.00301133585704973 -0.002953538599141794
-0.005892499815672636 0.015528880414886157 -0.0013603210677015486
-0.005892499815672636 0.01609409482223954 0.0036250323475772277
-0.005892499815672636 0.00504761234526965 -0.00464607149010351
-0.005892499815672636 0.008454499034562711 -0.002633579187039146
-0.005892499815672636 0.0031692945028791064 -0.0010285151646092438
-0.005892499815672636 0.012786074145097371 -0.0003705277162842093
-0.005892499815672636 0.01443924760190839 0.0006077860685087849
-0.005892499815672637 0.005886068872202244 -0.0021909486220486767
-0.005892499815672636 0.00875960919424509 -0.005513894513823101
-0.005892499815672636 0.020173866873021674 -0.002941278084156937
-0.005892499815672636 0.00806652672156397 -0.003911661174789562
-0.005892499815672635 0.01946691520539101 -0.006313640630401742
-0.005892499815672636 0.012053257849575356 0.0009680948520304601
-0.005892499815672636 0.01333320165924307 -0.005943182023527399
-0.005892499815672636 0.007423477346468845 0.0016138702917492928
-0.005892499815672636 0.008148600853659177 -0.00013650370852929302
-0.005892499815672636 0.013180039419561682 -0.003292889329978718
-0.005892499815672636 -0.016841868830291876 -0.007505465145970665
-0.005892499815672637 0.005715740750123006 -0.0010983665195401667
-0.005892499815672636 -0.005637678930810971 -0.007426164675509688
-0.005892499815672636 0.01909820745331755 0.005279003029428372
-0.005892499815672636 0.011151735693323657 0.0032570974133297134
-0.005892499815672636 0.0012694868685876725 -0.00549442278308989
-0.005892499815672635 -0.005946230338974843 -0.0062871848824587635
-0.005892499815672636 0.016155574559880228 0.0017352284804841177
-0.005892499815672636 0.004178006298654707 -0.005651621870464607
-0.005892499815672636 0.002929826838879366 -0.005682178696822594
-0.005892499815672636 0.00972353031249892 -0.001968284057438218
-0.005892499815672636 0.017159089251243417 0.00024031629073106506
-0.005892499815672636 0.002027554432783742 -0.0007983451224978656
-0.005892499815672636 0.00924305740471288 0.0006809525034105585
-0.005892499815672636 -0.0015321724239448099 -0.005474681633135971
-0.005892499815672636 0.0077076474705261 -0.006236231854141061
-0.005892499815672636 0.02039274747716083 -0.005259312468192247
-0.005892499815672636 -0.014039491915478652 -0.007194436965121858
-0.005892499815672636 -0.009329616721519857 -0.006169006644046118
-0.005892499815672636 0.018368967947764644 -0.003677973537680604
-0.005892499815672636 0.01849598740819202 0.006417955534618435
-0.005892499815672636 0.018946684955688117 0.003815511822048521
-0.005892499815672636 -0.011281948520493643 -0.004980134931115209
-0.005892499815672636 0.013239594996363641 0.0007669944743607668
-0.005892499815672636 0.010711956296086088 -0.0040893137384052005
-0.005892499815672636 -0.011800453429398575 -0.00610886792658213
-0.005892499815672635 0.005870654538040035 -0.007075490192564374
-0.005892499815672636 0.01615358273652121 -0.003618979637301967
-0.005892499815672636 0.018580231356266463 0.0004007645386542142
-0.005892499815672636 0.0075613091652860604 -0.0050316094548038415
-0.005892499815672636 0.018189477551403127 -0.005570728074802453
-0.005892499815672636 0.016071487518875868 -0.0023197342013382216
-0.005892499815672636 0.019223963713805053 -0.0005979027573307463
-0.005892499815672637 0.0082560983311189 0.002489844266229803
0.020103753220889472 0.010942797494545535 -0.009138749912381172
0.012948134824053388 -0.0037423283237673576 -0.009138749912381172
0.015108596252924976 0.004807615529084373 -0.009138749912381172
0.018702372543315842 0.007978271042411497 -0.009138749912381172
-0.00372981199091121 -0.004794250488250985 -0.009138749912381172
0.0064295976919459185 0.0013403703137789165 -0.009138749912381172
0.015539421324017049 0.006881413805171334 -0.009138749912381172
0.0028445104044784596 -0.004851447094619494 -0.009138749912381172
0.012096328846710474 0.003304422412166948 -0.009138749912381172
0.0054276617107640234 -2.0353337393226503e-05 -0.009138749912381172
0.016437398165146812 -0.0013107563924544467 -0.009138749912381172
0.019824241354726747 0.0011244902560216706 -0.009138749912381172
-0.0012076380960669383 -0.004018404440239959 -0.009138749912381172
0.005484046912640242 -0.0013409815873149373 -0.009138749912381172
0.00672406391695749 -0.003052147173540033 -0.00913874991238117
0.01823152924967861 0.00610981698278183 -0.009138749912381172
0.0018032252848325355 -0.0016786563756353576 -0.009138749912381172
0.009763959364528334 0.0005855475426076368 -0.009138749912381172
0.011867789344506344 0.004720437291117309 -0.009138749912381172
0.0005698459865534455 -0.0038797097313261536 -0.009138749912381172
0.019520461959656007 0.006673526837750325 -0.009138749912381172
0.017997452156031525 -3.334035174880866e-05 -0.009138749912381172
0.010526024039328223 0.0035494378113934593 -0.009138749912381172
0.014589853238751132 -0.0020711484497922157 -0.009138749912381172
-0.0021311960850428774 -0.004959174824002121 -0.009138749912381172
0.016321474333066133 0.0011050126820765145 -0.009138749912381172
0.01559850400166653 -0.0029837271974847432 -0.009138749912381172
0.016266606742585375 0.005866664064926469 -0.009138749912381172
0.01991049987420612 0.008155315713546144 -0.009138749912381172
0.002631872559608569 -0.003143534269212715 -0.009138749912381172
0.003746294080877351 -0.002127489014590124 -0.009138749912381172
0.014127119525718773 -0.003633215757402358 -0.009138749912381172
0.014029412593442722 0.005506895863697789 -0.009138749912381172
0.001399243334155329 -0.004746859603374236 -0.009138749912381172
0.013348170214704181 0.0065996562579501905 -0.009138749912381172
0.01658261972234642 -0.002521268033054946 -0.009138749912381172
0.018720981723735642 -0.0022928291318119296 -0.009138749912381172
0.006043778092024284 -0.004097730272521248 -0.00913874991238117
0.020072499217323667 0.004308045072339264 -0.009138749912381172
0.0067472402880303355 -0.00012100039486965045 -0.009138749912381172
0.013625604110785616 0.0011788277414123399 -0.009138749912381172
0.003521225737064906 -0.003929648555457537 -0.009138749912381172
0.01936390526308361 -0.003382585214798337 -0.009138749912381172
0.013524053246531014 -0.004827441993561207 -0.009138749912381172
0.013741504495118951 -5.486753866945724e-06 -0.009138749912381172
0.020198666954046016 0.00945231971998988 -0.009138749912381172
0.008391712354144626 -0.004420282232639561 -0.009138749912381172
-0.001625712931064889 -0.0028583450999580774 -0.009138749912381172
0.014450746468910888 0.007438028673047799 -0.009138749912381172
0.014838702029239065 -0.0008374581808137968 -0.009138749912381172
0.010201776117156303 -0.0013993508449026007 -0.009138749912381172
-0.0005678659327075079 -0.0023919989274332402 -0.009138749912381172
0.018167843782624295 0.00476746711864787 -0.009138749912381172
0.017799340920656895 -0.005281520499726467 -0.009138749912381174
0.004027400296774317 -0.005059793920215105 -0.009138749912381172
0.010908021822521189 -0.0034182893033287472 -0.009138749912381172
0.011941125211579945 0.0016854565035229543 -0.009138749912381172
0.019599351521873098 -0.001418745325058955 -0.009138749912381172
0.017296857260859333 0.006612954807768677 -0.009138749912381172
0.018981462790463383 0.010374801300367468 -0.009138749912381172
0.007966919973530467 0.0022786590237001943 -0.009138749912381172
0.010747546609347236 0.0015849820108694125 -0.009138749912381172
-0.004838010165266518 -0.004933953767321102 -0.009138749912381172
0.014310977689845069 0.003309313398416338 -0.009138749912381172
0.019121574305412344 -0.004522915816550978 -0.009138749912381174
0.0072343425797490825 -0.004221742727380999 -0.009138749912381174
-0.0003390788183656045 -0.004922853491336427 -0.009138749912381172
0.010811730221807177 0.0050709056323262015 -0.009138749912381172
0.015146994253430383 -0.004374861772612005 -0.009138749912381172
0.016917954672404797 0.0031593644514987234 -0.009138749912381172
0.017223810249905804 -0.0036643942588322357 -0.009138749912381172
0.011504563433752099 -0.0022591199634103935 -0.009138749912381172
0.018899735184149925 -0.005713105770744949 -0.009138749912381172
0.017557417056743758 0.0019530658446842465 -0.009138749912381172
0.010769880460601912 -0.00453864121728475 -0.009138749912381172
0.0034189050157686874 -0.000427834282174913 -0.009138749912381172
0.008879342178106667 -0.0006856962164316742 -0.009138749912381172
0.00928284551854194 0.002265116049699176 -0.009138749912381172
0.00465817075495324 -0.002758882171911341 -0.009138749912381172
0.007832063240484109 -0.000829468301652233 -0.009138749912381172
0.012758830898960218 -0.001490681068299634 -0.009138749912381172
0.016297199566215746 -0.004846759302653443 -0.009138749912381172
0.014717630213704438 0.0020945845606475935 -0.009138749912381172
0.009233236112360156 -0.00292324685172602 -0.009138749912381172
0.016035233349801597 0.002307392019524018 -0.009138749912381172
0.017639760903312283 -0.001883096102269657 -0.009138749912381172
0.0193350250814762 7.931452808047131e-05 -0.00913874991238117
0.013621498605787733 0.004136074340724336 -0.009138749912381172
0.009529392375093941 -0.004424052119128949 -0.009138749912381172
0.016289887608737025 -0.00016619584242709602 -0.009138749912381172
0.008135483307088513 0.000770373190433906 -0.009138749912381172
0.018981821742853858 0.0022959311762490646 -0.009138749912381172
0.018195173339893997 0.003635174582887371 -0.009138749912381172
0.015923612562936798 0.004019788001365256 -0.009138749912381172
0.014875145085966933 -0.005824311637469226 -0.009138749912381174
0.01685452784119164 -0.005999439914971306 -0.009138749912381172
0.011519730015954457 0.00013648368110947065 -0.009138749912381172
0.0005585967784632732 -0.0024798494151104587 -0.009138749912381172
0.008150775193694395 -0.00247587251855072 -0.009138749912381172
0.016481680773977755 0.007841175084399882 -0.009138749912381172
0.005483127404595056 -0.005193934577054173 -0.009138749912381172
0.011915311388203531 -0.004974309307348957 -0.00913874991238117
0.016830049391238062 0.004732403111131383 -0.009138749912381172
0.006948363277053705 -0.00171947351949742 -0.009138749912381172
0.01773090801805044 0.008937291177864595 -0.009138749912381172
0.026306519444861003 0.020306209916015103 -0.004693661397428275
0.02668941071811636 0.01953443490446534 0.0002099573748463576
0.026611765523210762 0.01971155637746648 -0.0015065532552224507
-0.005766514621960905 0.0071224057041580765 -0.008705728422488714
-0.005742543210000064 -0.0026282835081478835 -0.008688423842700235
-0.005892499815672636 0.016380774416769245 -0.0077179175973764716
-0.005892499815672636 0.009703213949676682 -0.007695212120769655
-0.005892499815672636 -0.0034152630002518506 -0.007852902334338972
-0.005892499815672636 0.018260999232079064 -0.00679913037210633
-0.005892499815672636 0.01206946837379516 -0.007814729333568256
-0.005892499815672636 0.010751396199019344 -0.007024216750608144
-0.005892499815672636 0.018869666786372346 -0.008323695114873247
-0.005892499815672636 0.014050514076981054 -0.007134696146155816
-0.005119477271783801 0.020427482719745378 -0.00715121939496339
0.00957631774880252 0.015318736921471638 -0.008843190812396063
0.00724717312114968 0.015910781128141146 -0.008794844823832526
0.011817123897846041 0.014307837329587708 -0.008916267915334222
0.001852847562595563 0.017788860393270725 -0.008652362124081256
0.005215736611310383 0.01695485438244082 -0.008720913141714293
0.0030157979746232933 0.01712420093637795 -0.008698716471668977
-0.002477910704074865 0.020031390202608298 -0.008493744048592239
-0.004416730823668588 0.019534817404039482 -0.008513057189968438
0.020634415531961603 8.122018030939156e-05 0.009193499572575092
0.019858881604187924 -0.0007282125126931917 0.009193499572575092
0.01893339299565246 0.0005530335593389557 0.009193499572575092
0.021950752749415683 0.007068208672405092 0.009193499572575092
0.020748336030917264 -0.0014372032813374646 0.009193499572575092
0.021997232858896282 0.005135007232551418 0.009193499572575092
0.018479036745722398 0.0022467440250654286 0.009193499572575092
0.020934252801215116 0.0014828588726477146 0.009193499572575092
0.022027658595410414 0.002176569312150964 0.00919349957257509
0.021190623864249254 0.0043906053380099 0.009193499572575092
0.020348032836451833 -0.005088948713495087 0.009193499572575092
0.021055146298832508 0.00304712025883145 0.009193499572575092
0.020857766510123714 -0.0026673235496360546 0.009193499572575092
0.019852060691887694 0.0026349085095322376 0.009193499572575092
0.015984298732259372 -0.0020462963789678133 0.008931251798356885
0.01247751705872642 -0.006931676758898069 0.008567792191263296
0.0053952777808068605 -0.012625211001655671 0.007911923627800698
0.011476670807369072 -0.009885033698660343 0.008434854832687397
0.009043201740441412 -0.00874735797010158 0.008267455132290645
0.013751380408303985 -0.009203917969087864 0.00862401340033535
0.015000801479720233 -0.008695608174199069 0.008730425621543298
0.009816603257657774 -0.010664982129390401 0.008291509268716708
0.016916539390322824 -0.0012858056428712125 0.009017791212769034
0.017774444143721015 0.0008574149608562278 0.009124467897415707
0.01812262943299007 -0.0011180071197336614 0.009114464588744972
0.01609462905373133 -0.007770373617703821 0.008832581860645696
0.01069126240651484 -0.011507660587429552 0.00834355209249518
0.016395492530036297 -0.003370493252733373 0.008938333713773729
0.015178154714647698 -0.00501366224328318 0.008813150824891904
0.00564208519028131 -0.015495639495639991 0.00787729300618886
0.003671304559589135 -0.016387263102013976 0.007707760257484
0.00022156717045108336 -0.018540596322603124 0.007399902203433543
0.00903851737727144 -0.012914094186214179 0.008189038789545645
0.0039041129061944957 -0.014955276707564613 0.007752638703424751
0.012174853940573261 -0.00833921061846449 0.00851795468937414
0.013429777631371804 -0.005959388265657853 0.008659851599725044
0.00285017443073452 -0.015426884327678685 0.007662073324934409
0.008235487354585624 -0.009430392901865736 0.008192023440319541
0.007049673653030788 -0.011980259371085357 0.008052300545832876
0.01492119466892301 -0.002719860091050727 0.008836192517498223
0.014362459310108868 -0.010339776189450822 0.008650124084164088
0.019827045218563086 -0.003961177790947105 0.009193379466884114
0.01737284772203933 -0.0047485433590342945 0.008988311620136366
0.011810594750562826 -0.010918303445544019 0.008441394381511643
0.014378061400497227 -0.00729468582912099 0.00870837592865244
0.006783346198240795 -0.013274914210012706 0.008007395306880962
0.014087781094208822 -0.0041220688707081085 0.008745296028825737
0.018526966543786785 -0.004453343038816968 0.009083341266647418
0.001855590357340293 -0.017585914810210122 0.007544501248713446
0.020289812976989105 -0.006976186883822331 0.009172787834529194
0.01456062982032947 -0.0059386696226711826 0.008747935253148929
0.009668192339275983 -0.007421438728209091 0.008340759707817818
0.015968868658006133 -0.005938314358479679 0.008857148284247964
0.018350013878888585 -0.002975998406845722 0.009097293156724476
0.017501561291024287 -0.008462470236490332 0.008928722263421104
0.010276329775619205 -0.008869407111190037 0.008360795705715945
0.017339227265240866 -0.0025902563435917696 0.009026134366820102
0.008565111777487807 -0.011648747200881807 0.008176030060151072
0.007546772614695265 -0.010740426242637874 0.008114074754320938
0.018988244199386477 -0.0018069864108711834 0.00916868519532132
0.018226704303583408 -0.006549425833094645 0.009020791756367802
0.010822631339909898 -0.00639974340299185 0.008449423197720986
0.013146026800498218 -0.010378570251275195 0.008555065235129911
0.026815896966979023 -0.00895877316235333 -0.00119217892726512
0.026655169978870834 0.003148699311308822 -0.00457196814927485
0.026770235033875014 0.0057262614003592924 -0.0016728424356252285
0.026650932718530355 0.005746641831179381 -0.00456389973880376
0.026642331829394756 0.01628902649024793 -0.00432284173370369
0.026609568575182582 0.014069357077744178 -0.005211684227758184
0.026681085560174338 0.0019317598428272229 -0.003995658648196082
0.026782659280530932 -0.0035611644267172383 -0.0017677073187889068
0.02660208599389253 0.012897616128894708 -0.005443029545917467
0.02677743853217567 0.017058221123900968 -0.0010150121074077021
0.026833654657577755 0.006143449555664162 -0.00011774077433859798
0.026690055398473106 0.0042346624391836705 -0.003680026968687365
0.02683494891804383 0.008020930851321755 -6.308293884356989e-06
0.026807251491508154 0.01819354753326456 -0.00024392405009411523
0.026802198773303 -0.006169609943862037 -0.001405292577364662
0.026730264816424664 0.01666719541134556 -0.002175192139177263
0.026716380111060978 0.011856926340985365 -0.00271688040469637
0.026818427618155706 -0.016218853634149398 -0.0014404180698514074
0.026799128212834467 -0.004656705652412385 -0.0014152109769779155
0.026583869187875225 0.007825222111364388 -0.006100906800733226
0.026736384845793965 0.0013272274508292214 -0.0026809645933804625
0.026789711466726818 0.009838354731393866 -0.0010253803775566973
0.026828782875314854 -0.013147647937747824 -0.0010584415618944724
0.026565052510110727 0.014902646901535942 -0.006255234930489725
0.0267741903623856 -0.007083301790870749 -0.0021231869048567832
0.026716632773729404 -0.001004639922201761 -0.0032591961855546617
0.02676762888945075 0.01429144928561532 -0.0013707811372881918
0.026743097179405276 0.0071959759711739115 -0.0022680014432966077
0.026731212777375564 0.004877014882740866 -0.002654967844883533
0.02676442317177332 -0.0099257353376539 -0.002481153233765753
0.026832260810171333 -0.0033284275767836036 -0.0005554260230686762
0.026789494446786653 -0.0010475914559679301 -0.0014948374086923965
0.02673714229663425 5.0503346260295096e-05 -0.0027170455629773795
0.026640790319788565 0.007632159980635529 -0.004729352837157048
0.026819886551367182 -0.011860933381115431 -0.001219223474099134
0.026756504695260044 -0.002638099219108663 -0.0023623416816658175
0.026677484788927272 0.014969284256674372 -0.003526998919178584
0.02681943811665072 -0.007586013472226956 -0.0010478033727685334
0.02656081070041371 0.011099644733760326 -0.006520224635221823
0.026665618996770703 0.011552718359491454 -0.003960318062067283
0.026681914244150756 0.00971731632050714 -0.0036435808992459425
0.02662524324802228 0.009757054290364806 -0.005015609510247298
0.026762282144282598 0.0023156530167708646 -0.0020110575270994788
0.026810164578262134 0.0035274465663169864 -0.0007986989159874013
0.026772694153001146 -0.008676418725886464 -0.0022273888821077808
0.0267315578738897 -0.006526436864113976 -0.003132866364331558
0.026731144512787228 -0.003687920553173769 -0.0030218469099652454
0.026812777677063165 0.015387869845728977 -0.00022960670283265312
0.026627993949967437 0.015066247193309042 -0.004722538043205899
0.026829407322961844 -0.0002601398195842706 -0.0004937581383379806
0.02675676209403035 0.015334446777808475 -0.0015897204451666312
0.026719253700403955 -0.005357290227252755 -0.003381268949937639
0.026781281156301448 0.01102577937371554 -0.0011790998738165164
0.026813486902258894 0.012897938522588005 -0.0003185900235579227
0.02667476043158059 0.013646784252953337 -0.0036494320021626314
0.02668920023373209 0.0003212961478608013 -0.003867629439704845
0.026785040301279296 0.008662224212245365 -0.0011887632538082398
0.026681318002102453 0.006943917908175993 -0.0037762967128185674
0.02666414177053235 0.008627242328088026 -0.004120874078999478
0.02655266145377608 0.012889876933510404 -0.006641426252663688
0.02682041504368011 -0.010364794898595556 -0.0011426146051181254
0.02672233865365011 0.012985398119985198 -0.0025243233486349596
0.02672680413045122 0.009982036203667926 -0.0025441475339376854
0.02671493926128304 0.003251443545816684 -0.003118760387301628
0.02679001810535435 0.00462645261183112 -0.0012401922745617167
0.02663433065884776 0.004329885803002625 -0.005026752021399743
0.026791015153680386 0.0004436927644046384 -0.001394383934759425
0.013465433874651923 -0.01987685530492339 -0.008101845274349246
-0.0012297426797667267 -0.019871693395319197 -0.008257823506253885
-0.003957858822025234 -0.019775559254651694 -0.008390199436657454
0.0030529280089500095 -0.01991667828463483 -0.008165119796503294
0.007061476732866436 -0.019858871796570234 -0.008186915199269422
-0.005184295643419456 -0.016811890914163227 -0.00843913651533298
-0.0050026421329051746 -0.01013258711366464 -0.008879596540165674
-0.005210244411643733 -0.008398267702109673 -0.008964030608290336
-0.0037625900582343927 -0.01802543990559297 -0.00853002985665313
-0.00559048976814493 -0.011056310125053613 -0.008752565685886554
-0.00463084100685402 -0.012394209070699607 -0.008781367358330208
-0.0057639633058002284 -0.019390638474864216 -0.00820921631668914
-0.00498474475594986 -0.01538321494219073 -0.008552229928964023
-0.005115787917801259 -0.018202471693817435 -0.008359928788767469
-0.005090985830547292 -0.013661069003602587 -0.008647809458142528
0.015159361248588186 -0.020028929258049378 -0.00782538524855457
0.00035624281355658006 -0.020121550812577858 -0.0074168464571270016
-0.002134100546666219 -0.020218693802458325 -0.006854978774885959
-0.000991515650257212 -0.02018957801102227 -0.007019328401477327
-0.0028012714703661884 -0.020016344228657872 -0.008085260632190634
0.017277064427733472 -0.020032675450589524 -0.007781065331628838
0.0059312446936727005 -0.02003448123317565 -0.007886243889178845
0.011309903127092624 -0.0201204474807157 -0.007311433504856689
0.012525984422176756 -0.02009055131765993 -0.007479749392864396
0.023497017248098526 -0.020029371585767154 -0.00773739527693594
0.001988105982536452 -0.020044469408310044 -0.007866201336760342
-0.004881771060087244 -0.020170147635326888 -0.00717661646793161
0.0022742616821102837 -0.020249462714699726 -0.00662383358635088
0.019262829521103458 -0.02004746828312121 -0.007671304792858422
-0.00587516684918714 -0.02009230460704429 -0.006406387758048183
-0.005002957942639974 0.02032807727269833 0.001942970470352378
-0.005497078895653859 0.02028943263977787 0.0009156685016016867
-0.005634395915613912 0.020108557509240968 0.004184736995335738
0.0025256873844867506 0.02015185910033564 0.006073029031150052
0.006108532408630859 0.02010720079000862 0.006470109276195832
0.013251006975638855 0.020174573474192967 0.006300411959335823
0.011339234453250246 0.02015887668806118 0.006331473572578047
0.0012567215302614707 0.020181750508583826 0.005845885964865519
-0.002373362941771552 0.020116892405814303 0.006120312803984227
0.009139403240018787 0.0201098567190512 0.006557493678904055
0.007145854283228477 0.02024514150040599 0.005657775290242267
-0.004184213269279449 0.020132404786318593 0.005963006025877231
0.01708677552511772 0.02021050715732923 0.00621080199159491
-0.00025103474807482476 0.02006568171090385 0.006507691005465284
0.020748042456514355 0.020214981899207746 0.006308577912605622
-0.004986776688005473 0.019984875234844636 0.006842308978707742
0.0049372767976552275 0.020141081064024274 0.006221792736750025
0.015394878850598396 0.020225963654428185 0.006057908979210128
0.010216609029212143 0.020093358166195643 0.006695758363389032
0.02684349939227104 -0.005760926758330569 0.00011027974771218938
0.026843499392271042 0.017538961524617192 0.0006733507834706159
0.026843499392271042 -0.0045338007510184325 -0.00017556502393130394
0.02684349939227104 0.009216561901682576 0.0003800040876382906
0.026843499392271042 0.012496082711793833 0.0011514684842751826
0.026843499392271042 -0.001307272047046425 -0.00015482631888433484
0.026843499392271042 0.013767873948426275 0.0010079036863396918
0.026843499392271042 0.0007528239070534789 0.0003522656232313198
0.026843499392271042 0.0040309346142542776 0.0005597294476921049
0.026843499392271042 0.01027938406918112 0.0011213837961757062
0.026843499392271042 0.002193341621431225 -3.142683918514625e-05
0.026843499392271042 0.01134947636563589 0.0005884307080563612
0.026843499392271042 0.007087207388156096 0.0007276537396230343
0.026843499392271042 0.016310123096964134 0.0007819618073433617
0.006734938608464709 -0.015578799865112037 -0.008756580836688144
0.005390018898263211 -0.014504942593410257 -0.008828083934384518
0.012175003615332202 -0.014515203917193256 -0.008827200234615352
0.005502172607818862 -0.010933950610049613 -0.009065723774284341
0.005161162196786453 -0.015582854581471517 -0.008756357584317384
