0.0106614188183 -0.020944982814 -0.0198792153961
0.0178736494098 -0.0196592524633 -0.0164028204071
0.0214527044677 -0.0133318702821 -0.0160199555191
0.0152603217264 -0.0211531910619 -0.0174199301521
0.0119257624956 -0.0236600004137 -0.0219514566167
0.0155810282511 -0.0179214969193 -0.0220240000635
0.0135484714342 -0.020421316069 -0.0220240000635
0.0169297138245 -0.0212657195732 -0.0220240000635
0.0217192400138 -0.022189738682 -0.0157290007919
0.0189812096306 -0.0225990169664 -0.0200646284885
0.0217850565604 -0.0204388256624 -0.0190634875222
0.0210717895392 -0.0179580119744 -0.0203662527684
0.00872069847938 -0.0216425050722 -0.0219877460922
0.0248525084605 -0.0134981881216 -0.0181514574371
0.0218073913821 -0.014844262939 -0.0207700767526
0.0243192101091 -0.0167032324606 -0.0179287076173
0.0232407411144 -0.00100741448716 -0.0214169403705
0.0232081313627 -0.00469828593632 -0.0213036086148
0.0226025350014 0.00151800003368 -0.0196014180361
0.0247022777464 -0.0087540969065 -0.0157290007919
0.0204693149796 -0.000614315460301 -0.0183607477691
0.0239979985123 0.00133791261156 -0.0161586441448
0.0177951714064 -0.00105253489215 -0.020148857542
0.0207327658506 -0.00443941959763 -0.0177882634377
0.0219823472804 -0.00740723176255 -0.0167562896767
0.0201098887082 -0.0106920042473 -0.0177059746175
0.0184909566636 -0.00784464594002 -0.018965985085
0.0154628047523 -0.0102274015253 -0.0207278913545
0.0236143336595 -0.00231464829615 -0.0161006379013
0.0198909907085 -0.011595999822 -0.0207779884965
0.0243175756494 -0.00967205273598 -0.0198273198413
0.026478116285 -0.00504144799194 -0.0184609799185
0.0267794193913 -0.00973003790698 -0.017440023626
0.0261870204033 -0.00146479214811 -0.0188109018504
0.0201115585264 -0.00264718689977 -0.0220240000635
0.0222225095393 -0.00918848818861 -0.0218098963668
0.0209598622333 -0.039139729221 9.1006330612e-05
0.0140711690545 -0.0347834364611 -0.00621192951484
0.0163811899435 -0.0360003844237 -0.000711601249786
0.00975635143494 -0.039048467314 -0.00620652836358
0.0104282553822 -0.0364562654446 -0.00923866474162
0.0128032908236 -0.0337551919642 -0.00979732262393
0.0212594706585 -0.0323531792996 0.00112930133243
0.0192291559142 -0.0341932803037 0.000869619339788
0.0130211148592 -0.0408577614369 0.00170762884928
0.013653505494 -0.0371262753523 -0.00317705526525
0.0111359136771 -0.0337794317708 -0.0123483399867
0.0157937737405 -0.0345811053952 -0.00385515039691
0.0107306620084 -0.0400449262802 -0.00312696480285
0.0177207671912 -0.0366263061904 0.00235259242016
0.00992851354253 -0.0426233505267 -0.000318735276778
0.0151259230349 -0.0381532903685 0.00072401644584
0.0185610233603 -0.0324398939224 -0.00292455332456
0.011003077583 -0.0454799699375 0.00241820287921
0.00891700014472 -0.0357729245692 -0.0132921296796
0.0173258437218 -0.0317520686099 -0.00594706128358
0.0207585293633 -0.0309871790468 -0.00179748960674
0.0136355079016 -0.0311273652898 -0.0128927298888
0.0167398266616 -0.0304614979157 -0.00909570842053
0.0126000209888 -0.0327238626761 -0.0157290007919
0.00987170385239 -0.0336608188162 -0.0153702476362
0.0132613036886 -0.0368530808498 -0.0144771378353
0.0154109132404 -0.0338476066487 -0.0152495220168
0.0200811533874 -0.0322088040905 -0.0123025364715
0.0176522475617 -0.0348253006938 -0.0123078927684
0.0240334675736 -0.0339483188475 -0.0030961998731
0.0270539878976 -0.0310592865959 -0.000735991237328
0.0281578096384 -0.031127852704 0.00242696519446
0.0226631380001 -0.0327611076964 -0.007527897166
0.00891700014472 -0.0451266565586 -0.00600077345318
0.00891700014472 -0.0448232140367 -0.00291395222678
0.0154226462173 -0.0437910972076 -0.000642953695436
0.0118581640962 -0.0447091536869 -0.00447571471183
0.0125102390636 -0.0432790182735 -0.00693806801354
0.00995522376883 -0.0486283270751 0.00208286096961
0.0138475208511 -0.04559437493 0.00116900683167
0.0209901601073 -0.0359482162202 -0.0058352549032
0.0205763638686 -0.0347640951703 -0.00834953609146
0.0210961259072 -0.0375940484386 -0.00313765791504
0.0153536451779 -0.0426108846904 -0.00342948109823
0.0165724402002 -0.0402103635234 -0.00638325587135
0.0191509154265 -0.0394340009479 -0.00319428216855
0.0175855139441 -0.0419188021023 -0.000921789251583
0.0146093508728 -0.0389635985737 -0.0111229700681
0.0179179094645 -0.0373812120782 -0.00870956124612
0.01259694148 -0.0412235031533 -0.0101712872754
0.0104080565859 -0.0401410647894 -0.0136695011594
0.00927750532656 -0.0423153089898 -0.011844191774
0.0236959864637 -0.0358691561597 -8.28076800646e-05
0.0260951971583 -0.0333955359563 0.00142363415699
0.0188431335724 -0.0417376874163 0.00240714816772
0.0242057286967 -0.0299549996853 -0.00635653891196
0.0181727556551 -0.0299549996853 -0.0130070030681
0.0254831656976 -0.0299549996853 -0.00320307842424
0.025499939253 -0.0163160003722 -0.0123414520825
0.0281804806739 -0.0163160003722 -0.00800872050557
0.0286939905328 -0.0277926504221 0.00105600000825
0.0208316581256 -0.0292298732269 -0.0141918382244
0.019378842672 -0.0273394449296 -0.0157290007919
0.0266031731347 -0.0225569991049 -0.000623585940544
0.0246639891424 -0.0266251019195 -0.000562365549293
0.0152745658556 -0.0286433784882 -0.0129755749129
0.0231796464592 -0.025438852956 -0.00360689856566
0.0242509616052 -0.0225556390751 -0.00409777108235
0.0182748928874 -0.0273170953819 -0.00949884521183
0.0278935283857 -0.0187094538461 -0.00148428900418
0.0205751380589 -0.0258862371466 -0.00713101527659
0.0212716641125 -0.0277609675846 -0.00475479943529
0.0327642986425 -0.0176102219087 -0.00214626254112
0.0317920550965 -0.0218636617868 -0.000761537051308
0.0302645128117 -0.0236115473852 -0.00317320233019
0.0306712422255 -0.0208673412721 -0.00506135284218
0.028687414477 -0.0236457154395 -0.00668592750031
0.0265260491445 -0.0257060490356 -0.00917792271133
0.0260315803626 -0.028067388098 -0.00726995482903
0.0234117214965 -0.0282612206022 -0.0114845778438
0.029788506178 -0.0260594619299 -0.00162409668557
0.0280155036455 -0.0283203981253 -0.00295719560904
0.030957897446 -0.0173670082533 -0.0068912001112
0.0287161867263 -0.0209462059008 -0.00910490514352
0.0244432282728 -0.0217936313482 -0.0148547537042
0.025944807629 -0.018554120061 -0.0147957721949
0.0278362793673 -0.0193656932192 -0.0118427016389
0.0257217674614 -0.0234056408025 -0.0121667923095
0.0233221263633 -0.0258129867879 -0.0139010322909
0.0138327961603 -0.0299549996853 -0.0154637331285
0.0192641923894 -0.0296942510096 -0.00687746361283
0.0233557906323 -0.0295864087241 -0.00069518678791
0.0261609819488 -0.0193755878266 -0.00361636622561
0.0177781321671 -0.0226594431432 -0.014789622757
0.0248980947569 -0.0178428075615 -0.00753767931801
0.0203372171039 -0.0233904257208 -0.00946521153455
0.0221350662711 -0.0216996768258 -0.00815782134139
0.0203124310477 -0.018474043319 -0.0149359015955
0.0242586606407 -0.0203765066236 -0.00586964678669
0.0209671286397 -0.020669416454 -0.0113568160171
0.0182645319303 -0.024911859042 -0.0114446645594
0.0232800905541 -0.0185225088353 -0.00964363383955
0.0311017192672 -0.00421235679344 -0.0118961180291
0.0320258653398 -0.00130080778166 -0.0106032940404
0.035547264119 0.00151600001846 -0.000597189407824
0.0293213313097 -0.0163150001317 -0.00445372085969
0.0332693550208 -0.00545115297104 0.000910051608567
0.0289272959575 0.00151600001846 -0.0154950732027
0.0274479253796 -0.0144810758644 -0.0147929559485
0.0293052323527 -0.0154284150894 -0.0114045132884
0.02953781164 -0.0126124692144 -0.0125228129063
0.0312623910483 -0.014404210781 -0.00847680941312
0.0311556102961 -0.0118285274265 -0.00965234042457
0.0342591039148 -0.00858117050091 0.00105600000825
0.0314974902407 -0.015722187543 0.000988415420811
0.0355336786042 -0.00309187868705 -0.00172033604735
0.0356691323845 -0.00665493042688 -0.000677103295682
0.0339896108678 -0.00354600366575 -0.00621867788304
0.033525457889 -0.00040489518185 -0.00725935344008
0.0346545487082 -0.00127935378605 -0.00447018976075
0.0265344897119 -0.000465625626483 -0.0157290007919
0.0263352288119 -0.00337856541839 -0.0157290007919
0.0283362149282 -0.00459220246885 -0.00655035404006
0.0309064208872 0.000179846869488 -0.00316246703663
0.0247718978182 -0.00902464957844 -0.0119732122345
0.0283479649801 -0.00172376167733 -0.00747872022327
0.0258717569972 -0.00068277180162 -0.0126122653985
0.0244815912113 -0.00646418560179 -0.0133835668292
0.0232200404903 -0.0122858226487 -0.0138928211698
0.0265963673634 -0.00694013384123 -0.00913629364792
0.0268479027287 -0.00263247230651 -0.0100781752307
0.02742031924 0.000379488279987 -0.00996993553264
0.0298139965131 -0.00236588533916 -0.00443086276243
0.0309959467899 -0.00870390811698 -0.000687562883454
0.0229790088894 -0.0150281559591 -0.0135590905293
0.0263180545885 -0.0100377379242 -0.00876568208806
0.0299591452938 -0.00664133420035 -0.00304599429638
0.0296585458277 -0.0120474859085 -0.00228358310552
0.028143445553 -0.00766944130122 -0.00605854002683
0.0311839717215 -0.0041307310374 -0.00145147291121
0.0313145459049 -0.0125500351785 0.000810895348614
0.0266385693831 -0.0130965143214 -0.00745342937562
0.0251653063335 -0.012742666198 -0.0101839773492
0.0283140408726 -0.0107163521451 -0.00501833331335
0.0294814281745 -0.0152758458091 -0.00182400789969
0.0326555595313 -0.0152714616267 -0.00462772450028
0.0328092964906 -0.010270362312 -0.00688854246928
0.0332332412767 -0.0124905374949 -0.00502733071027
0.0345730735044 -0.0126474445442 -0.00131389432455
0.0339972066178 -0.00748926427117 -0.00545637626184
0.0345038311733 -0.0100104063668 -0.0032494961724
0.0299376293993 -0.00619966321486 -0.0136863734555
0.0319697112455 -0.00671799061869 -0.00990625105612
0.0293690145962 -0.00916001530659 -0.0140528653123
0.0298263827376 -0.00240197775611 -0.0142649963668
0.0298180097176 -0.0192703192973 0.00105600000825
0.0345349412611 -0.026198880475 0.025701660223
0.0364309648594 -0.0221805863412 0.0255424775492
0.0387210837549 -0.0165521773706 0.0255026762973
0.037248554692 -0.0191807376354 0.0257089994848
0.0313626489879 -0.0290069484779 0.0257089994848
0.0324045520379 -0.0208764583254 0.0243913722061
0.0324719340151 -0.019294889339 0.0216784208711
0.0264400018535 -0.0276243141578 0.00776715869313
0.0272341673614 -0.027586203976 0.0120788039562
0.0276222437375 -0.0252936677758 0.00885812789089
0.028228123797 -0.0289709236412 0.0208311867925
0.0274896892399 -0.0282251477724 0.0149917953051
0.0298196925979 -0.026178317103 0.0231081386132
0.029524932442 -0.0254922186993 0.0198672255036
0.0284042502538 -0.0247843047632 0.0119982844213
0.0286435720339 -0.0260244070355 0.0162299690432
0.0307467363318 -0.023335239783 0.0215843201988
0.0298237893113 -0.0225127438491 0.0145426883599
0.0310379038875 -0.0216840308959 0.0193291957426
0.0253331027235 -0.0283570693994 0.00326967657692
0.0272759671363 -0.0239408568194 0.00247032614635
0.0291687851966 -0.0219116981431 0.00869289956667
0.0316419136706 -0.0176152559796 0.0117563940512
0.0303914332555 -0.0202155580756 0.0115252774868
0.0281386802544 -0.0234273956831 0.00657348189825
0.0312509637938 -0.0200465965229 0.0166684579521
0.0323791894195 -0.0171381570286 0.0151450165976
0.0265242873862 -0.0262143453673 0.00451934220364
0.0295976783866 -0.0199781312575 0.00556389972181
0.0340431155678 -0.0160597218007 0.0227874461793
0.0313782709753 -0.0170389159054 0.00824419936422
0.0328037924918 -0.0173149767646 0.0184873498266
0.0305386709829 -0.0174325170583 0.00392419217723
0.0329482538171 -0.0264683588609 0.0106032910875
0.0334866959345 -0.0211070272748 0.00346526199891
0.0321429095355 -0.0264944190103 0.00739264248517
0.0334102505278 -0.0234404164113 0.00681289386931
0.0313993092677 -0.0263168239709 0.00420107633439
0.036104099485 -0.0177586308748 0.00966310644103
0.0381589172928 -0.016855041908 0.017171741453
0.034967186294 -0.0170675685873 0.00430569068304
0.0366861604778 -0.019788002075 0.0154517391121
0.0358941540998 -0.0197523645659 0.0115065260955
0.0342775870549 -0.0231443062912 0.0103142314693
0.0345778159805 -0.0202617303909 0.00607532262408
0.0328792575284 -0.0190815883896 0.00105600000825
0.0297959711349 -0.024942188918 0.00105600000825
0.0309766991196 -0.029568212894 0.0111285047966
0.0316556242045 -0.0297386123706 0.0146953450508
0.0298590259102 -0.029121839576 0.00464916313965
0.0282702292332 -0.0299549996853 0.00923315663918
0.0346006690907 -0.0183731032342 0.0257089994848
0.0377226957543 -0.0193041158722 0.0196607378579
0.0363375283515 -0.0218405460498 0.0180856146273
0.0364231608796 -0.0232982661876 0.0220931575554
0.0350255997615 -0.0252818714211 0.0191101083861
0.0354830942487 -0.0225498408817 0.0150426063141
0.0389573373154 -0.0174846439512 0.0221335237508
0.0341433335155 -0.0279762411543 0.0231797775667
0.0334944716946 -0.0269936033785 0.0152381046533
0.0332458453894 -0.0294020826201 0.0210174925258
0.0334475586051 -0.0152669996023 0.0064286523269
0.0341773125338 -0.0152669996023 0.0135013208892
-0.00807919678017 0.0373590210984 -0.0189622193681
-0.00873621891852 0.0404256514256 -0.01679990533
-0.00618175650156 0.0350451273825 -0.0200398347922
-0.00322570345051 0.0347502481053 -0.0191045185421
-0.00044534329181 0.0316878087192 -0.0204243982586
-0.00891599990427 0.0429461244129 -0.0179880046951
-0.00692340792993 0.0388583682581 -0.0217675880668
-0.00526305286152 0.0455115100107 -0.0136310001835
0.00118227744579 0.0440731120506 -0.0136310001835
-0.00234508458688 0.0465244267701 -0.0136695928702
-0.00557728332359 0.0402172957027 -0.0157628930536
-0.00164976900132 0.0402141483813 -0.0147152353922
-0.00352430927404 0.0378898965049 -0.0168470022286
7.0746742376e-06 0.0348324414511 -0.0180481201587
-0.00559082716488 0.0426022638715 -0.0140932326975
0.00160184946199 0.0297664007536 -0.0216993833384
0.00198366679345 0.037182680894 -0.0173894271324
-0.00107001014756 0.0439358249798 -0.017235429947
0.00127399510144 0.042155264054 -0.0176539124547
-0.00599562516512 0.0464440208332 -0.0163191754277
-0.00399234654696 0.0445926783819 -0.0178326562136
-0.00636536059243 0.0432361735465 -0.0199831761913
-0.00219327396057 0.0418376435224 -0.0199422461844
0.00626392930351 0.0410087752911 -0.0162509027081
0.00903412707615 0.0349862432298 -0.0136310001835
0.00382302785225 0.0423884203548 -0.0136310001835
0.0106795535588 0.0238826226935 -0.0220219995826
0.00974264292593 0.0266174219528 -0.0220219995826
0.0129705647777 0.0230240002275 -0.0201432301237
0.0162796549851 0.0230240002275 -0.0177131164209
0.0190262033645 0.0230240002275 -0.0156366270849
0.0180585577194 0.0271664961042 -0.0136310001835
0.0169732886098 0.0323369640856 -0.0157114927034
0.0146783721888 0.0343232983112 -0.0162643901793
0.0121640032509 0.0343259524939 -0.0184979888216
0.00210199994035 0.0347331222387 -0.0201449118699
0.0111397808524 0.0365746875712 -0.0171263513089
0.0130509623968 0.0369404399088 -0.0150445048668
0.0106451855537 0.0299334954072 -0.0218014041442
0.00748272507338 0.0328647266347 -0.0218752862057
0.0171947062895 0.0251984864078 -0.0202356163997
0.019078018736 0.0262252388801 -0.0182207029163
0.010093465183 0.0330263727661 -0.0205287479068
0.0156518890289 0.0277281293682 -0.020234902739
0.0148305628013 0.0312311979341 -0.0184361859857
0.0192895363633 0.0288079011677 -0.0161709884745
0.0209928350348 0.02747342084 -0.0136310001835
0.0218247817646 0.025074749394 -0.0160878502812
0.00420488874369 0.0290095558381 -0.0199171642615
0.0040612201734 0.0338141389055 -0.0167384354756
0.00873575666895 0.0278981688093 -0.0176581419282
0.00728271652519 0.032951930731 -0.0152100837456
0.0120097993488 0.0256902327117 -0.0170061923355
0.0113039572249 0.0294651809551 -0.0149300482515
0.00544122742305 0.0356436582757 -0.0146025457261
0.00949301520281 0.025242466846 -0.0189486814136
0.0139067482241 0.0288009060598 -0.0136786853399
0.00274705643899 0.0388808415571 -0.0141846705043
0.0154937000914 0.0248763361388 -0.0152806469631
0.00654652935666 0.0360925675198 -0.0205421961387
0.004278034585 0.0376040910014 -0.0207027603875
0.00404583773891 0.040238242838 -0.018448313409
0.00828092564866 0.0378084397928 -0.0182298772994
0.00873655131188 0.0397609174429 -0.0158576240721
0.0348286879516 0.0151506898562 0.000826782539763
0.0341668868463 0.0128708433213 -0.00278439871338
0.0324785160885 0.0156336242133 -0.00522239896778
0.0339436366659 0.017631621421 0.00263000000268
0.0256488231076 0.013157327346 -0.0136310001835
0.0276559687566 0.00904939608928 -0.0136310001835
0.0359244756377 0.00708089649057 0.00263000000268
0.0282222899249 0.0116497861275 -0.00482434404041
0.0245002304769 0.0157613676392 -0.0106700155478
0.0320673078931 0.00730898809425 0.00118197449867
0.0304021193547 0.0139525482154 0.000236766524945
0.0295221116824 0.012115397057 -0.00212190742676
0.0275482004958 0.0161586529331 -0.00457447458071
0.0258159927281 0.0152302801148 -0.00828290431203
0.0302786927499 0.00818447456671 -0.00200963162012
0.0262947256203 0.0114748211923 -0.00873452244115
0.0293488897431 0.00165778223068 -0.00692032350204
0.0250965550036 0.00979440848768 -0.0121317734639
0.0284753103237 0.00841502735345 -0.00552194100856
0.0267533769663 0.00775031198699 -0.00955453370269
0.0300945094324 0.0033494056276 -0.00449264615701
0.0271708739479 0.00480693145465 -0.0100839900909
0.0267412581365 0.00207571586521 -0.0123355405069
0.0310756403268 0.00467418839982 -0.00173565578516
0.0285452749002 0.00573071964189 -0.00667437792499
0.0320387827136 0.00198129441647 -0.000967918918714
0.0258414005723 0.0056785404136 -0.0125251787593
0.0336676035456 0.0101451209412 -0.00520423396131
0.0341216261911 0.00679753256737 -0.00521504906707
0.0327927537238 0.00560564052803 -0.00858280934572
0.0308826226724 0.00183223414476 -0.0127081949393
0.0338536187455 0.00294222646808 -0.00676903633751
0.0347874018203 0.00165233627026 -0.00356692657795
0.0322961952161 0.00219724598285 -0.0098610695972
0.0357537074243 0.00449896200718 -0.0012197425594
0.0349134326375 0.00865823407433 -0.00236608286785
0.0315867411677 0.00840364474631 -0.010276115957
0.0318229799705 0.01177471518 -0.00851060052814
0.0300400855844 0.00777318258523 -0.0128680782454
0.0312852185242 0.00527084492957 -0.011846058277
0.0291630825685 0.0163132602185 -0.0112653727723
0.0302602003088 0.0135330710306 -0.011043966503
0.0311245106888 0.01531780685 -0.0082870325765
0.0355968116496 0.0121066186862 0.00254572541242
0.0358336016811 0.00963411142679 0.000949838822916
0.0334468439987 0.017193048694 -0.000711115477242
0.019096871312 0.0304756616198 -0.0130339939193
0.0271714198954 0.0188809543055 -0.00307272871081
0.0239052019448 0.018576958632 -0.00993002369185
0.0192654303242 0.0249111628957 -0.0110163354451
0.0213135171042 0.0235798151778 -0.0086632676832
0.0218880334684 0.0209476126307 -0.0108924436218
0.0238329357553 0.0212887729337 -0.00660435328761
0.0261039847377 0.0245202507483 0.000665611181575
0.0216572388218 0.0265905719016 -0.00486561834216
0.0187728136187 0.0279981479804 -0.00840110754922
0.0164974187226 0.0291867492164 -0.0111266894506
0.0250133075172 0.0270020896434 0.000909034592687
0.0230855701889 0.0280279708631 -0.00138479695722
0.0264892342431 0.0214471123623 -0.00120078971531
0.0304219836344 0.0181661637806 0.00110511453614
0.0263187211509 0.0179096932173 -0.00698515788667
0.0298376302662 0.0178828875081 -0.0027548736628
0.0246276533212 0.0305456891457 0.00263000000268
0.0291358354024 0.0240487333949 0.00263000000268
0.0225450221217 0.0308899991214 -0.00718157462844
0.0254193755271 0.0211418993062 -0.0136310001835
0.0247255660232 0.0241286147897 -0.0130271633625
0.0265550937734 0.023286283628 -0.0106769880541
0.0249176517974 0.0263092793297 -0.010889206363
0.023674556119 0.0294711775174 -0.00981891609235
0.0218692864347 0.030057253843 -0.0120526122383
0.0274450036185 0.0274294270571 -0.00516495217748
0.0256561619603 0.0304869353122 -0.00487210284251
0.0275607305263 0.0290659273221 -0.00224971295491
0.0305127414218 0.0208441172033 0.00263000000268
0.0291612814686 0.0280317244906 0.000567976665055
0.0324641470483 0.0205183923946 -0.000885376277512
0.0318288904382 0.0231297492808 0.000752069960243
0.0310569644195 0.0223934107468 -0.00263578785536
0.0233775267749 0.0186523461007 -0.0136310001835
0.0281720285362 0.0236849243459 -0.0076079190365
0.0297718507911 0.021113813696 -0.00648137910655
0.0279039539173 0.0208537231975 -0.0103729477154
0.0294329314281 0.0178318418884 -0.00806791600933
0.0194987607648 0.0308533822107 -0.00530925998628
0.0218629534653 0.0308899991214 -0.00385419277479
0.0397190816342 0.0108107368791 0.0257089994848
0.0396624377958 0.00762669859947 0.0257089994848
0.0366926551823 0.00151800003368 0.00344747013146
0.0403563610138 0.00151800003368 0.0133945332726
0.0415463948336 0.00467197360855 0.016545395329
0.0390029342344 0.00420824962364 0.00863545766905
0.0381927302888 0.00298210020635 0.00611579500814
0.0348902469762 0.00534584268223 0.0140841964824
0.0340026669893 0.00352570045903 0.00456054170461
0.0338734162722 0.00652304997593 0.00752335187683
0.0357563488714 0.00331843816124 0.0183063014122
0.0333832932607 0.00744343707974 0.00483154817402
0.0344773337104 0.00496138612199 0.0102700389953
0.0345839071862 0.00281764697292 0.00826399839206
0.0330165732832 0.0106619375555 0.00619045449141
0.0324568640094 0.0118753181218 0.00333289182749
0.0363365998107 0.00687452076368 0.0245145334542
0.0419436845033 0.00333175747566 0.0203612123159
0.035858822722 0.0111331504155 0.0245273434367
0.0399882931441 0.0100503415804 0.012653080402
0.0389066158788 0.00952839608185 0.00935916300753
0.037041020663 0.011625298415 0.0052059470518
0.0399596388948 0.00605200450866 0.0116114711804
0.0378614255131 0.00601764158427 0.00557901414777
0.0415131621886 0.00873521216671 0.0164563637846
0.0388407281074 0.0122765020614 0.0111187733602
0.0414347123997 0.0111428199772 0.0186040887014
0.0407898903054 0.0133588662028 0.0236821733476
0.0372555003479 0.0137592298595 0.00779697099504
0.03944372641 0.0133581970492 0.0159984715151
0.040022063798 0.0134858112918 0.0195540387518
0.0364911681196 0.0146310003474 0.0204309028546
0.0371973407539 0.0138404606037 0.0254383132397
0.0336631700721 0.00992957612126 0.0102964854892
0.0342470891843 0.00864988334295 0.0131245875054
0.0348346787455 0.0117687078651 0.0196614791508
0.0355668789396 0.00935214054003 0.0225101462534
0.0338531672185 0.0125971655764 0.0138166968769
0.0341332398022 0.0138649403978 0.016748602742
0.0349204255924 0.00751796034253 0.0166605878447
0.0354719388211 0.00677979832066 0.0197156472596
0.0363847199538 0.00337096462396 0.022933846581
0.0361842201786 0.0146310003474 0.0123508785957
0.0341842016191 0.0146310003474 0.00982376586092
0.0407751298651 0.00421739491534 0.0255659534568
0.0377563860152 0.0031755199149 0.0255037834571
0.03477420927 0.014632999897 0.0041769663391
0.0274587396024 0.0308909993619 0.0125753475804
0.028179770728 0.0308909993619 0.0155936601892
0.0283789189315 0.0308909993619 0.00811923014604
0.0305561187534 0.0278291106532 0.0251804131158
0.0350240001817 0.0156790135948 0.0247174669419
0.0333143078451 0.0184000315955 0.0234195020236
0.0312673248328 0.0234476867796 0.0238992349564
0.0253770795769 0.0295665036382 0.00652538356366
0.0301637106637 0.0245924155324 0.0211338170027
0.0280024499529 0.0293327089127 0.0205821434342
0.0279640518531 0.0271717370752 0.0151318699248
0.0301927204244 0.0223455247233 0.0158508084705
0.0261440927946 0.0289568187486 0.00932027005403
0.0290001045182 0.0262465205763 0.0186607172168
0.0319692640692 0.0193187373287 0.0184117241403
0.031565476874 0.0155928511089 0.00265883691138
0.0288371371404 0.0217321496285 0.00478431884222
0.0294885012658 0.0215990684085 0.00895332663105
0.0334090756463 0.0168165891903 0.0202402893884
0.0270898586084 0.0251737207719 0.00429729787143
0.030876760874 0.0184251504576 0.00781624658862
0.0312489308169 0.018934433926 0.0122279953225
0.0283351912014 0.0243977276338 0.0104593693208
0.0278214306821 0.024521680892 0.00723692050969
0.0296401662735 0.0224211354513 0.0128821550737
0.0317955270827 0.0159961145658 0.005924583585
0.0300812899244 0.0294097684922 0.0055290938
0.0307677411959 0.0269299974371 0.00305956996916
0.0335547643738 0.0213239049968 0.0251850001514
0.037212309018 0.0189630166721 0.0249954922206
0.0363152216267 0.0234850317159 0.0244677391646
0.0316919571628 0.0306215494135 0.0243319731417
0.0343140209262 0.0270637947394 0.0203682014517
0.0339424403942 0.0267871546538 0.0169960377924
0.0328276037707 0.0297554777974 0.0193160935848
0.034984893446 0.0264365852253 0.0234619436468
0.0299549670892 0.0308909993619 0.0185947802479
0.0318747857845 0.0299714495506 0.0146013486747
0.0375054416229 0.0208490264305 0.0229290972428
0.0370540409436 0.0206401662527 0.0196573685841
0.0379516181102 0.0180683339667 0.0191580985207
0.0386918273652 0.0174839635002 0.0222599284609
0.035387619182 0.022093090703 0.0129883154443
0.0352705437521 0.0238468338086 0.0166995898982
0.035767014953 0.0240012909056 0.0201049477721
0.0336544159692 0.0263932568154 0.0140767534837
0.0334144073374 0.0254860287338 0.0106697513869
0.0323856671123 0.0281220815778 0.0120334741328
0.0329003482502 0.0237987718603 0.00488250350984
0.0325260873738 0.025977900659 0.00788478917789
0.0313627121115 0.028816064841 0.00900789276333
0.0346545999947 0.0227247752058 0.0101540569496
0.0364690154377 0.0198098685492 0.0144135975954
0.0348484932209 0.0189305385073 0.00501377630005
0.0335251246712 0.0210469016469 0.00342411740699
0.0364804128135 0.0176410008793 0.0109604814155
0.0356056444856 0.0184900368855 0.00791508750399
0.0374285737176 0.0167505691036 0.0143020228764
-0.00605750826889 0.0475695556265 -0.00509050609169
-0.0030815030342 0.0461533460929 -0.00517854139801
0.000200332836999 0.0430313233882 -0.00850246588268
-0.00135591615081 0.0427215606835 -0.0106286706332
-0.0027283915549 0.0447421726507 -0.00775994560645
0.00189721851167 0.0408819208874 -0.0113278672773
-0.00621267339069 0.0454778500304 -0.00956452953788
-0.00780763458311 0.0469656066596 -0.00801019730129
0.006819000002 0.0400063787898 -0.0102407496832
-0.00282086972921 0.0507819056866 0.00157900003251
-0.00864045029535 0.0527504898037 0.000331765240174
-0.00866461261255 0.0493517689191 -0.00484139051919
-0.000843871161071 0.0530153661548 0.00125474775215
0.00407853921302 0.0450317073026 -0.012504601443
0.000114425340285 0.0475543370825 -0.0114744469805
-0.00373970621608 0.0489682819616 -0.0116150166159
-0.00139964775181 0.0491757282593 -0.00963790426423
-0.00589675642815 0.0485719756689 -0.0132991426257
-0.00891700014472 0.0468536135143 -0.0136296047216
-0.00891700014472 0.0500696999843 -0.00816183278556
0.00614691010508 0.0385276628992 -0.0129802944133
-0.00629640721035 0.0546938522006 0.000619165479906
-0.00403933011187 0.053879823287 -0.000760476661016
-0.000603375523143 0.0523440308096 -0.00219915103838
-0.00725852836649 0.0539485337158 -0.00253377421182
-0.00656531535329 0.0528897624681 -0.00545651295696
-0.00166149984861 0.0515127499067 -0.00503283549947
0.000391434047321 0.0498727541052 -0.00698352762168
-0.00394493291946 0.0510803059934 -0.00749511310106
-7.77303233054e-05 0.0448075506649 -0.00538901855094
-0.00324499927368 0.0478717871265 -0.0020797406368
0.00365718195361 0.0421758902919 -0.00756814502027
0.00220307078928 0.0465523466196 -0.000836293853687
-0.00580229721447 0.0495485229273 -0.000807388611248
0.0055372650531 0.0456964148903 -0.000160335640675
0.0044481418715 0.0441209146012 -0.00363733309091
-0.000540267533655 0.0470098212966 -0.00182562499646
0.00615080912214 0.0491869226422 -0.0025112972818
0.00408580643638 0.0510365684474 -0.000361518076182
0.00532963641923 0.048299677399 -0.00579501584534
0.00362755052056 0.04984866703 -0.00388326889429
0.00674932528082 0.0460312108537 -0.00857626003808
0.00406157520858 0.0475004122557 -0.00880943956281
0.00548433237368 0.05448646791 0.0150893997379
0.00657286725083 0.0530220091803 0.0104519935877
0.0034632861666 0.0548884078995 0.0127903847442
0.00252578261103 0.0534186201942 0.0246600005776
-0.00144365862588 0.0551731033687 0.0246600005776
0.006819000002 0.0518604819924 0.024588286116
-0.00534611230195 0.0556944613368 0.0245458107582
-0.00364574319981 0.0586126962656 0.0229563042739
0.0059244647616 0.0550273329082 0.024073549178
0.00086779476622 0.0571836990456 0.022895829481
-0.00202981285815 0.0580942716133 0.0198103940169
0.00154026894538 0.0564729007119 0.0174106782196
0.00310501881292 0.056483505667 0.0203773030497
0.000837774159318 0.0561627101909 0.0143771124752
-0.00866702859904 0.0573963697077 0.00916548336459
-0.00831510728047 0.0581853485478 0.0121767727916
-0.00645450484249 0.0586032983828 0.01625606479
-0.00694318585436 0.0590416708072 0.0194881213884
-0.00708962358337 0.0569407537171 0.00654653486682
-0.0073549211084 0.056217837327 0.00323816899483
-0.000425934274464 0.0554396120426 0.0083717352251
-0.000170709297854 0.0559950075371 0.0115692162409
-0.00279458048246 0.0563818811627 0.00968577445827
-0.00411821170363 0.0574597564475 0.013222378277
-0.00556719937475 0.057277418014 0.0101695515548
-0.00306108230983 0.0576553176249 0.0157674611912
-0.006462344457 0.0537581250336 0.0157256463322
-0.00043612990801 0.0504778663745 0.0100442275792
0.00233956200302 0.0489469717795 0.00731299388625
-0.0023563300276 0.0504165231301 0.00552678506762
-0.00352948111491 0.0514281325832 0.00876591800366
-0.00388535842542 0.0528407590458 0.0160716265183
0.00363977392762 0.04772409331 0.00314145560759
-0.00029964370388 0.0493168866073 0.00370147092705
-0.00583627892369 0.0512424140394 0.00269836907114
-0.00837650036071 0.0528913833099 0.00661574760273
-0.00306147985372 0.0519681972456 0.0128697309563
-0.0071117940089 0.053275573847 0.0115569908721
-0.00560987473034 0.0541689593175 0.0198795089284
-0.00091456601136 0.0516283066242 0.0154294280765
0.00224479728078 0.0495920673827 0.0106632452863
0.00426063221514 0.0505581243512 0.0199079676306
0.00497033256581 0.0478147565339 0.00643938444246
0.00535797880673 0.0488065380134 0.0125885480363
0.00269210513357 0.0503266517447 0.0155360389025
0.00169553286389 0.0512942335962 0.0188036279252
-0.00143095465128 0.052629469582 0.0198332298541
0.00298627965529 0.0514715179703 0.0223297394892
-0.00334576425063 0.0537064458805 0.0218696598978
-0.00132211502558 0.0544757467021 0.00380111608648
-0.00412355549494 0.0552141333696 0.00324887914905
0.000787052543928 0.0543989002739 0.00591094702602
0.00425285999611 0.052468104272 0.00437806898734
0.00177015232657 0.0495232358651 0.00158299994655
0.006819000002 0.0507078653785 0.00460753288932
0.00604819540068 0.0550265495137 0.0212330281932
0.002743706662 0.0543088618025 0.00866080077931
0.0166833454359 0.0402660054236 0.00573439595482
0.0131031980294 0.0424913559183 0.00552820986777
0.0106883763438 0.0481074107796 0.00577499996871
0.0266672479728 0.0331498730364 0.00577499996871
0.0190405859836 0.0308940000832 -0.00939062324453
0.0222450955882 0.0308940000832 1.56965387003e-05
0.00894242738788 0.0401558873202 -0.00452223682118
0.0112474004365 0.036333799881 -0.00779271987109
0.00908148541645 0.0365504267201 -0.0112833120241
0.0108230340304 0.0381920649806 -0.00494505289974
0.00783803158245 0.0426188280383 -0.00172675757432
0.00878407463931 0.0386510576555 -0.007734972284
0.00684807281993 0.047678877854 0.00371256298672
0.00697084231727 0.0493055422419 0.000601593673519
0.00682100001723 0.0456285832853 -0.00263137088565
0.00682100001723 0.0445403383401 -0.00577857774268
0.00682100001723 0.0415049599633 -0.00623666286745
0.00957190219067 0.0444571947383 -0.00798592401312
0.0100190525828 0.0456829997636 -0.00498735784288
0.00967888241038 0.0484510297962 0.00112650560142
0.0117680344934 0.0459747382046 -0.00224945149488
0.0143576366916 0.0439312193774 -0.00268082099288
0.0159137473303 0.0435958326507 -0.000179201067312
0.0176766137739 0.0400371854929 -0.00502774931992
0.0182156218119 0.0426215662225 0.00236569229827
0.0184689355265 0.0408722398797 -0.00132304633737
0.0173512855965 0.0339626514027 -0.0132708609087
0.0241258237045 0.0331707625366 -0.00428237835602
0.0202165113315 0.0326426457255 -0.0114765502408
0.0252444494253 0.0358964625179 0.00459523528551
0.0237597104508 0.0350896274982 -0.00163812230197
0.0251502705043 0.0349028356646 0.00148350886157
0.0264382879475 0.0317463620141 -0.00122368969428
0.0269243470634 0.0324758877372 0.00190855438171
0.0208436104252 0.0381536294005 -0.00205496588407
0.0222130780366 0.0353437574146 -0.00483548626941
0.0233788403925 0.0379010376781 0.00303102777719
0.0216927631009 0.0384787323882 0.000509473144809
0.02093827692 0.0409437936067 0.00538605501387
0.013792842647 0.046891076718 0.00468051129808
0.0134606417515 0.0456672767751 0.000113740796749
0.0161971248154 0.0447182335556 0.00385956973332
0.0122392713965 0.0340828265441 -0.013259492696
0.00682100001723 0.0418222880604 -0.0130670046753
0.00682100001723 0.042798688861 -0.00895996915621
0.0184794493536 0.0365655417105 0.00529767596562
0.0201900378524 0.0326308945142 0.000774687082324
0.0148538419009 0.0342243444819 -0.00550485878757
0.0125760711974 0.0396030018406 0.000833572313978
0.0134280652166 0.0372805238165 -0.00213351665222
0.011601009333 0.0416012597197 0.00296294633158
0.0087841396232 0.04519101811 0.00492412807571
0.0135348144887 0.0337919483518 -0.00864312105207
0.0145219226583 0.031662188557 -0.0110038357364
0.016787025651 0.0365285617443 0.00230117266144
0.0186812524295 0.0326421909371 -0.00184396754721
0.0092864512218 0.0429912090616 0.00158056958521
0.0160476854398 0.0346059176218 -0.00268322138498
0.0102637192657 0.0408398770714 -0.00083877348467
0.0220970876927 0.0321985117648 0.00328200855439
0.016131842911 0.0315285497628 -0.00844303699736
0.0153335848018 0.038698135747 0.00392224073446
0.0177020539505 0.0346846635795 0.000363038903809
0.0128346061639 0.0437207009781 -0.00532742347472
0.0135243876835 0.0419239782763 -0.00765766102415
0.00980609482898 0.0424478684342 -0.0113499806243
0.0110417600306 0.0402608644538 -0.0133087902969
0.0196510219759 0.0374389543414 -0.005937308373
0.0155542958295 0.0396930195041 -0.00883020504128
0.0159037096891 0.0419506847835 -0.0041740335916
0.0137903012468 0.0388623337524 -0.0121321695198
0.0168219792148 0.0366407372482 -0.011247044848
0.0198409836895 0.0350842078999 -0.00899811515447
-0.0483054139774 -0.0535481366785 0.0211913848449
-0.058228240359 -0.0393990017474 0.0087627647084
-0.0566094400245 -0.0393990017474 0.00444456751973
-0.061795901087 -0.0393990017474 0.0192475155411
-0.0482610017061 -0.049141047402 0.0139404772919
-0.0489175937751 -0.0465170666255 0.0026608810728
-0.0583128095249 -0.0411691830527 0.0224786273172
-0.0541903090942 -0.0420986544077 0.00946468696184
-0.0535102777602 -0.0438027403804 0.0161928021562
-0.0558873539101 -0.0428482564264 0.0213015111157
-0.0536534969593 -0.0446373850862 0.0216062881897
-0.0565057037557 -0.0405652341579 0.0109859063812
-0.0493961655525 -0.0480463927454 0.0221828394239
-0.0575316242149 -0.0410872362802 0.0185356413673
-0.0575245041328 -0.0404124767997 0.0146424072026
-0.0605219955049 -0.0396194820492 0.0234343525789
-0.0541987436038 -0.0427388060211 0.0131657097078
-0.05112455568 -0.0450523798007 0.0126408959496
-0.0510295405575 -0.0437072247872 0.00431858741108
-0.049916371409 -0.0470563538262 0.0188016964584
-0.0537165264947 -0.0416681745022 0.00478622050517
-0.0518725315075 -0.0437863219822 0.00867785247735
-0.0487246938515 -0.0466676884571 0.0110168345903
-0.0510879569674 -0.0456388617594 0.0159088106122
-0.0498185734455 -0.0450931116749 0.00684425842323
-0.06364671104 -0.042606307862 0.0219497810407
-0.0631750104171 -0.0406713547253 0.0123852960388
-0.0641563294912 -0.0401488586809 0.0161795602907
-0.0652991101319 -0.0400155973368 0.0222807358053
-0.0617800716551 -0.0427089582609 0.0149374276642
-0.0607612563907 -0.0416493723516 0.00706579761549
-0.0624994382069 -0.0405858716262 0.00934118665749
-0.0605767509217 -0.0429810861698 0.0115591832334
-0.0627475287433 -0.0425168218086 0.017757036569
-0.053576600298 -0.0503808331047 0.0248970677832
-0.0550855269371 -0.0458648470179 0.0254456899003
-0.0498495056796 -0.0507400168583 0.0256477104856
-0.0523379934938 -0.0473002381937 0.025428245325
-0.0563926377735 -0.0433189590862 0.0247710021903
-0.0596580915786 -0.0427008366941 0.0252594738961
-0.056668588705 -0.0437387402978 0.00275738564252
-0.059584565629 -0.0411606289294 0.00314578747742
-0.0542646587889 -0.0457106765915 0.00256565629071
-0.0518407623169 -0.0477838857468 0.00419141451262
-0.0612275878609 -0.0443271979973 0.0193505069458
-0.0591942900067 -0.0457076942864 0.0174044355487
-0.0596914559999 -0.0444769355662 0.0142694806376
-0.0584750891207 -0.044139154776 0.0084013495714
-0.05953468684 -0.0463615508525 0.0239692727394
-0.0535223387579 -0.0485529702841 0.0108323871646
-0.0516812530406 -0.0505849551268 0.0148462060378
-0.0502983960573 -0.0500233009663 0.00811772454176
-0.0542231342226 -0.0492299124964 0.0160729457777
-0.0541273132989 -0.05042787295 0.02137868462
-0.0548159174664 -0.0462972744645 0.00534057938639
-0.0532017419782 -0.0479697998063 0.00736311521687
-0.0573616654538 -0.0458346949098 0.0115175366769
-0.0574187164777 -0.0467178056687 0.015321287094
-0.0581985484339 -0.0475082703292 0.0213285428309
-0.056122980146 -0.0484559939369 0.0187423360185
-0.048395085524 -0.0526046784476 0.0165014237816
-0.0513295960594 -0.0519609619038 0.0214052559589
-0.0508932007592 -0.0515292274344 0.0176511388341
-0.0396034941712 -0.057753513191 0.0234628807822
-0.0482559986413 -0.0516280251329 0.0125506851012
-0.0465775975063 -0.0512458167962 0.0057090298465
-0.0448428385303 -0.0515437928613 0.00320852467385
-0.0359710109241 -0.051788573629 0.00664950415269
-0.0424202333839 -0.0488084233432 0.00617878797561
-0.0387221060563 -0.0514956015422 0.0133045427678
-0.0378882099863 -0.0505390787153 0.0039617064475
-0.0395863116062 -0.0503431366063 0.00796363579918
-0.0341779873883 -0.054790849076 0.0220137610256
-0.0437271168191 -0.0485706399605 0.00864915413445
-0.0352559840321 -0.0533725992888 0.0154869699404
-0.0449315008182 -0.0474999479977 0.00495809124945
-0.0370284688913 -0.0518848317425 0.0106712984805
-0.0342424805967 -0.0558546732751 0.0253075651456
-0.0418365047494 -0.0510956090905 0.0192119050657
-0.0427136324533 -0.0495910911687 0.0122928278285
-0.0378621211192 -0.0532707805197 0.0223675163709
-0.0448780537273 -0.0495228828343 0.0173551976892
-0.0387950447086 -0.0521792586149 0.0180981706328
-0.0451648149022 -0.0502430276133 0.0224549751708
-0.0410546889809 -0.0519890769165 0.0226606148506
-0.0461643236703 -0.0480756466403 0.0118193104692
-0.0417071860008 -0.0505528807624 0.0155881395272
-0.0342380041447 -0.0583786376794 0.0240563762226
-0.0366584347451 -0.0574257998845 0.0155102886102
-0.0369302624586 -0.0582668012462 0.0216087625273
-0.0432584070396 -0.0489222349475 0.00210499996319
-0.0354427784668 -0.0516490103244 0.00210499996319
-0.0482559986413 -0.0496029435335 0.00996962813546
-0.0453528701887 -0.0526139444414 0.00842822305096
-0.0427439881404 -0.0536610880923 0.00758310700567
-0.0456317706634 -0.0531936221964 0.0118455757019
-0.0372564980821 -0.0555088489819 0.00701563596555
-0.0369903376101 -0.0547817679863 0.0039779768214
-0.0412806549353 -0.0536520500225 0.00505445188253
-0.0398438722568 -0.0561408873209 0.0140009817233
-0.0358664170004 -0.0572142687464 0.0127305244911
-0.0400824330507 -0.0567171556043 0.0174729367551
-0.037230957375 -0.0562004020908 0.00974425190935
-0.0409489423617 -0.0551207743234 0.0107123033477
-0.0420540032791 -0.0567128745017 0.0213306724942
-0.045969261595 -0.0542501885075 0.0176934466763
-0.0451028539826 -0.0551932944998 0.0205254103011
-0.043970550371 -0.0544577210969 0.0142060283219
-0.0427694844767 -0.0554769873582 0.0166649122493
-0.0419666238194 -0.0535789992897 0.0257089994848
-0.0386850871303 -0.0544710280501 0.0256973811603
-0.0447718666061 -0.0516222271366 0.0249903361652
-0.0482559986413 -0.0503423192544 0.0196709303953
-0.0482490807273 -0.0491773046436 0.0169886932742
-0.0370780878024 -0.0571745595817 0.0257085833396
-0.0454465958713 -0.0552684773793 0.0252774395953
-0.0479059443553 -0.0534370979552 0.0252567878639
-0.0241289995611 -0.0539075106162 0.00277418448574
-0.0336628712355 -0.0455594468733 -0.0106017470044
-0.0291361799501 -0.055062028362 0.00311359076002
-0.03264392546 -0.055249357201 0.00156075553419
-0.0322696764806 -0.0544100630009 -0.00144423246548
-0.0263630828753 -0.051991814795 -0.00977105112761
-0.0272045580616 -0.0498329756484 -0.0132991053971
-0.02501629978 -0.0544890089492 -0.0036213420415
-0.0264619540186 -0.0561782685283 0.000938719675876
-0.0288212594372 -0.0532618931537 -0.0063011042669
-0.0286783818939 -0.0546587825485 -0.00239856186151
-0.0331338815499 -0.0508754001966 -0.00931352055066
-0.0319328825471 -0.0532999900622 -0.00474899705822
-0.0310553701598 -0.0521589167831 -0.00760589511289
-0.0301397126232 -0.0505682211826 -0.0112025246099
-0.0334166461993 -0.0494331689344 -0.01215878088
-0.0241289995611 -0.0500712161802 -0.0133131978417
-0.0251506570274 -0.0464451338153 -0.0143453622172
-0.0283158161201 -0.0508636246801 -0.00134322478747
-0.0302865033654 -0.0495092235402 -0.00344779326199
-0.0304532000656 -0.04798526589 -0.00630227348514
-0.0315110479791 -0.0507187775153 -0.000860357498572
-0.0264435160095 -0.0520514907108 0.000385207823239
-0.0300767580435 -0.0442290713724 -0.0141002285818
-0.0273544101239 -0.0456682327115 -0.0125111175155
-0.0301396486692 -0.0458682647427 -0.0106330312526
-0.0274728268216 -0.0478447674802 -0.00788905665714
-0.0272759390272 -0.0491484925982 -0.00526077526152
-0.02461921327 -0.0507024481957 -0.00348075146138
-0.0241289995611 -0.050267176006 -0.00840678299061
-0.0241289995611 -0.0475773526568 -0.0103352253647
-0.019970332852 -0.0463691767649 -0.0144344877672
-0.0215747001272 -0.0489932183528 -0.0146779995412
-0.0182192369185 -0.0492599543459 -0.0146779995412
-0.0231673486688 -0.0523697902699 -0.000204892139883
-0.0162947443326 -0.0472537543838 -0.00949755712253
-0.0164287824872 -0.0489771983571 -0.00596818977268
-0.021150341903 -0.0511696064819 -0.00231085266612
-0.0190800610953 -0.0468698549309 -0.0107986331277
-0.0125357358546 -0.0454600732945 -0.0125087400285
-0.0218990333498 -0.0495802026645 -0.005725272366
-0.0198647968033 -0.0483734708876 -0.00784158400011
-0.0182756646236 -0.0526733508537 0.00119157937631
-0.0131595840572 -0.0471049722761 -0.0092348186681
-0.0101869031797 -0.0462972661966 -0.0104148934468
-0.0110807482917 -0.0511050143144 -0.000887830138482
-0.0141867126354 -0.0517914913847 2.88030858655e-05
-0.0113422557649 -0.0525509779129 0.0019785911242
-0.0110358948819 -0.0496847273707 -0.0037349349942
-0.0182338368981 -0.0503042825017 -0.00356236557063
-0.0142010488304 -0.0530799577749 0.00261558677079
-0.0119542056748 -0.0485161828569 -0.00621969923052
-0.0223456839463 -0.0513919825127 -0.0109776020455
-0.0195006914239 -0.052256655082 -0.00955483879108
-0.0223387819431 -0.0532564375941 -0.00745658538739
-0.0156329970181 -0.0502800279569 -0.0131494228464
-0.0156691845112 -0.0518714522209 -0.0104967120685
-0.0200675537721 -0.0504984811711 -0.0127852878958
-0.00922703675876 -0.0509960565155 -0.0101972802145
-0.0122722909086 -0.051506486151 -0.0104007087485
-0.0239124514799 -0.0554374482539 -0.00120895744261
-0.0198636902809 -0.055109681051 -0.00324710438789
-0.0152502021289 -0.0556383713534 -0.00158583931053
-0.0120386074072 -0.055846853898 0.00017767328587
-0.00918449765168 -0.053719797765 -0.00487311221517
-0.0179769888055 -0.0560559652729 -0.000164948550181
-0.0228391191503 -0.0565956193423 0.00257808576024
-0.0197818936098 -0.0539553921819 -0.00606033243983
-0.0173694499942 -0.0545033771795 -0.00478182869999
-0.0142020916917 -0.0532647349632 -0.00740341028897
-0.0128657019124 -0.054386898886 -0.00422297908961
-0.0089685284709 -0.0553315184786 0.000398420275931
-0.0258774498236 -0.0605475386931 0.0220284085196
-0.0259243002759 -0.059749115571 0.0169601788649
-0.0188849996775 -0.0601115268175 0.0209601936567
-0.0339367123308 -0.0585389982263 0.0182999796002
-0.0334445097839 -0.0578566741923 0.0141662708857
-0.0314528028314 -0.0577032776013 0.0108517933236
-0.034053034133 -0.0559961481973 0.00536807785178
-0.0304194073483 -0.0571475995044 0.0066832723416
-0.0287726045611 -0.0579168688221 0.0257089994848
-0.0198511711318 -0.0592764979202 0.0254653665497
-0.0245562662715 -0.0570188022879 0.0254510016213
-0.0193372937381 -0.0545196787613 0.00366150901514
-0.0307753219024 -0.0562009449156 0.0251272619452
-0.0216603236664 -0.0561841147462 0.0199466330159
-0.0211893300788 -0.0545426909997 0.00835517789673
-0.0233393666751 -0.054562073813 0.0103583537253
-0.025697525941 -0.0545502632282 0.0123301621154
-0.020009552842 -0.0559091168574 0.0166366813395
-0.0262745631917 -0.0554184152116 0.018746293375
-0.0296172182707 -0.0550843709207 0.0193797994603
-0.0279846419688 -0.0558348618856 0.0230714242707
-0.0250473266746 -0.0551410888437 0.0157890740966
-0.0199992764837 -0.0568583521444 0.0230940325054
-0.0301913229849 -0.052990517619 0.00489328000759
-0.0269937862474 -0.0535339845298 0.00611196200052
-0.0320057906517 -0.0543136349689 0.0159483619438
-0.0338417898608 -0.0544841668028 0.0187231493802
-0.0289262748171 -0.0544125910974 0.0140660779641
-0.0233556976009 -0.0540006934047 0.0064067957901
-0.025877989735 -0.0540906536788 0.0091797403883
-0.0321044227304 -0.0534476308102 0.00979637241955
-0.0340950004756 -0.0553456058961 0.0081793037807
-0.0340950004756 -0.0542573467034 0.0127574931869
-0.0273256873092 -0.0585481209818 0.0107761819805
-0.0289433219917 -0.0588446739139 0.014198811555
-0.0313673109318 -0.0587692180156 0.0164641984477
-0.0260096992364 -0.0579698462855 0.00795877702303
-0.0241336401337 -0.0574368818026 0.00531347475309
-0.0229232273527 -0.0605274987162 0.0203448907515
-0.0228655472525 -0.0600478209617 0.0176724103029
-0.0206432850462 -0.0595693745029 0.0145736236585
-0.0249916102822 -0.0591827180126 0.0132988136457
-0.0195277697245 -0.0599881593323 0.0182014871085
-0.0206846019782 -0.0587486200779 0.0100961400807
-0.0197605222694 -0.0575710124726 0.00480877011297
-0.0217573210474 -0.0581163963288 0.00757142857529
-0.0221053546456 -0.0608187511589 0.0240670929447
-0.0245876563364 -0.0602685960762 0.0250575211784
-0.0302775741947 -0.0601441445092 0.023597579207
-0.0286260315535 -0.0596703753139 0.0186574819536
-0.0316843964921 -0.0594795437914 0.0208429989275
-0.0163500785459 -0.0563960508051 0.0208306387311
-0.0133456824728 -0.0555624064486 0.0174022070702
-0.0173086514147 -0.0555804054644 0.0142708956476
-0.0161841449354 -0.0558875516532 0.0173689298503
-0.0121405443848 -0.0559000691574 0.0207824787588
-0.0169110623733 -0.0546036810384 0.00768649865231
-0.0188829991966 -0.0569002489243 0.00788475541294
-0.0188829991966 -0.0571973730154 0.0192546787134
-0.00921919952893 -0.0548126605148 0.0133440111666
-0.0132258063797 -0.0592464054372 0.0254903592961
-0.0103018767699 -0.0600816636055 0.0250258725575
-0.0170975795233 -0.0598200452713 0.0165523921651
-0.0181772981328 -0.0591156930209 0.0125360522867
-0.00908106226431 -0.0598793700569 0.0221129293265
-0.0136833206549 -0.0606471437169 0.0227678135022
-0.0136523732459 -0.0565374044337 0.00315600004978
-0.0106954996092 -0.0564691467735 0.00328224440099
-0.0119971905238 -0.0575019990046 0.0065181167866
-0.0132158167691 -0.0584964194772 0.0102628491044
-0.0171097420943 -0.058646623359 0.00987128685538
-0.0155439316056 -0.0604515100251 0.0200390005269
-0.0149851897406 -0.0590291733737 0.0125777278008
-0.0121834045756 -0.0594790423202 0.016549032061
-0.011638651374 -0.0599890817417 0.0200625076589
-0.0154413512572 -0.0580457818401 0.0072979536612
-0.0165788212567 -0.0575246518802 0.00445977558866
-0.0179000905962 -0.055194156367 0.0109709375637
-0.0124285559232 -0.054833266179 0.0126956200916
-0.0119237875758 -0.0543881501177 0.0097206746261
-0.0111018799536 -0.0539587065241 0.00708461027263
-0.013954257522 -0.0540054261267 0.00543983128699
-0.0158191227483 -0.056877630651 0.0245392283582
-0.0109482261176 -0.0562697777852 0.024238339649
-0.00945427370591 -0.0556623593958 0.0193693513972
-0.0541196323832 -0.0309707478598 -0.014677000232
-0.0638116648501 -0.031667150346 0.00105399999302
-0.0566910286831 -0.029973288638 -0.00927557376116
