0.0057069691896 0.00173914110189 0.00183380494433
0.00303835073412 0.00173948685886 0.0018025298309
0.00184276470781 0.00173964176381 0.00105617251441
0.00674083882849 0.00173900714957 0.00388408630395
0.00253606066197 0.00173955193759 0.00543764121042
1.93878827229e-05 0.00173987800786 0.00233938416032
0.00393898592832 0.00173937016893 0.00531779532424
-0.00022164060433 0.00173990923649 0.000771454023972
0.000100616605473 0.00173986748354 0.00390262505741
0.0153602325065 0.00633796442063 0.00691699981689
0.0146731323756 0.0071340300768 0.00691699981689
0.0112647842109 0.00651143369488 0.00691699981689
0.0115064093435 0.00933227407912 0.00691699981689
0.0091260397133 0.00848099443491 0.00691699981689
0.0141000352812 0.00267071111744 0.00691699981689
0.0129917545682 0.00565363619787 0.00691699981689
0.0134471750973 0.00672947863348 0.00691699981689
0.0172927147546 0.00253390797709 0.00691699981689
0.014753361709 0.00519638232484 0.00691699981689
0.0151813152189 0.0022930708508 0.00691699981689
0.00852477073949 0.0109890601222 0.00691699981689
0.00455469500886 0.0142996185135 0.00691699981689
0.00748353603993 0.0133131247329 0.00691699981689
0.00240844351975 0.0175243356382 0.00691699981689
0.0132734224585 0.00442429577333 0.00691699981689
0.00648347106696 0.0140388785165 0.00691699981689
0.00870030990729 0.00952584596897 0.00691699981689
0.0101351218703 0.00920841132112 0.00691699981689
0.00366299019545 0.0157281279397 0.00691699981689
0.0085482287921 0.0120640058156 0.00691699981689
0.0126450882358 0.00832825585337 0.00691699981689
0.00703512831789 0.0113612882337 0.00691699981689
0.00638365248709 0.0128680890232 0.00691699981689
0.0116252073508 0.00822765265727 0.00691699981689
0.0153666682116 0.00409068600831 0.00691699981689
0.0122209876425 0.00706995411541 0.00691699981689
0.0103487480647 0.0105264712705 0.00691699981689
0.00493697484421 0.0154335349601 0.00691699981689
0.0167702826704 0.00353855927821 0.00691699981689
0.0159710413641 0.00537266564323 0.00691699981689
-0.000669194102688 0.00292905765788 -0.00652650941787
0.00019139897456 0.00716420730231 -0.0071454819989
0.0162674573339 0.00400358607367 -0.008517764935
0.0122386822564 0.00724709434547 -0.00847748920735
0.000544862829976 0.015792316311 -0.00825291643184
0.00325658431784 0.0100062322242 -0.00783377777353
0.000751897250533 0.0146622374578 -0.00813566215571
0.00407541237292 0.0105879808508 -0.00799566753981
0.0122175353218 0.0050953027872 -0.00820865386553
0.0104330114824 0.00484674268357 -0.007982082778
0.00231251532165 0.0131830639358 -0.0081236753666
0.00432537907583 0.0137432102239 -0.0084138905095
0.00365994452847 0.00289286968208 -0.00699698913915
0.00361762040036 0.0129155983235 -0.00823373449496
0.0119264578 0.00614067729994 -0.00830619628149
0.000945620607229 0.00253520783407 -0.00665489403675
0.0125505608586 0.00399458325558 -0.00810885879451
0.00666881540863 0.00814140588433 -0.00797717066569
0.000356171069477 0.00912020135734 -0.00740582389283
0.00159518164381 0.0153814830169 -0.00831726510409
0.00513353442335 0.00594460087949 -0.00753664020842
0.00711149742927 0.0102646474365 -0.00828871766826
0.0114906806482 0.00266155336005 -0.00782747079879
0.000244272391765 0.00372423355179 -0.00672521677215
-0.000493769118458 0.00801532865693 -0.00717572795344
0.00923518972262 0.00265384809144 -0.00757906024665
0.00609989569904 0.0108145403803 -0.00824584031829
0.00256497670474 0.0044968680351 -0.00707552419098
0.00691296433348 0.00372718980448 -0.00745722371122
0.00661089072857 0.0120167507762 -0.00845080563077
0.00214766183994 0.0083376833952 -0.00750545271975
0.00863627088133 0.00703077352674 -0.00805546568316
0.00511674637576 0.00993224366025 -0.0080286973098
0.00573318401331 0.00730620224834 -0.0077710738073
0.00047035176383 0.010926178977 -0.00764203462135
0.00198985489029 0.00337188677451 -0.00687308874807
0.0091052984561 0.00614734407703 -0.00799750475393
0.00471288669995 0.00803571854514 -0.00774949011755
0.00123079297993 0.00672209236901 -0.00720475761826
0.0115029208283 0.00366784073265 -0.00795344981494
-0.000776634989401 0.00462866157007 -0.00672523025674
0.0056473803934 0.00381688063088 -0.00732948183895
0.00386691724948 0.00394874731053 -0.00715047492417
0.0107906222775 0.00666704911209 -0.0082467756302
0.015227324681 0.00440616376599 -0.0084535112977
0.00772238918734 0.00283376022739 -0.00743537012699
-3.81975046803e-05 0.0119371264318 -0.00771145356067
0.000985078273567 0.0134883121318 -0.00801584578723
0.00248183520556 0.0147438530973 -0.00833556717068
0.00416664768976 0.00681011376241 -0.00753776052237
9.94236037494e-06 0.00588748163787 -0.00696744199922
0.0131590944538 0.00601558629378 -0.00842593884181
0.0025227458122 0.00222889261697 -0.00678998544151
0.00228958245331 0.00960391375441 -0.00767785519361
0.00839597431929 0.00515843488187 -0.00779719912884
0.0136348342169 0.0044244887339 -0.0082810644114
0.00166670039749 0.0123077203686 -0.00794440345479
0.0154416516911 0.00174428306356 -0.00814733215674
0.00063428084405 0.0080264813175 -0.00730087079911
0.00397213756532 0.00924390607186 -0.00781786339962
0.0168001583142 0.00211969298879 -0.00834287499358
0.00196268356167 0.0108043897204 -0.00779067800599
0.00164211138526 0.0168862674152 -0.00850879254149
0.0145765176283 0.00286433439791 -0.00819114250418
0.015853535367 0.00282110770107 -0.00832589373547
0.00745582485762 0.00888828563467 -0.00815602223141
0.00147003262071 0.0051081121392 -0.00703110191265
0.000291883432468 0.00471160972302 -0.00685273413229
0.0104352681474 0.00817142708846 -0.00839411704412
0.00910820297562 0.00859472721469 -0.00830094986646
0.00389227966372 0.00568281348845 -0.00736803438919
0.00242925799656 0.00584737713902 -0.00722790462484
0.00221004601185 0.00714061890352 -0.00736403179625
0.00610480595999 0.00496588552546 -0.00752198000259
0.0078797006958 0.00776554710918 -0.00806346738548
0.0061583536353 0.00925231291697 -0.00805876050963
0.00273306131873 0.0117577689954 -0.00799328135135
0.0102650050355 0.0031183491983 -0.00774957604328
0.00563428818583 0.00235414100386 -0.00714687436671
0.0134956994497 0.0024682807529 -0.00802350876387
0.00767261509222 0.00432018192891 -0.00761401356145
-0.000239659680283 0.0149908343932 -0.008067574834
0.00469186102511 0.0121840088815 -0.00826097968147
0.00920096926953 0.00402992163247 -0.00774574268112
-6.17721996639e-05 0.0172004402246 -0.0083607673422
0.00696366462782 0.00207159672259 -0.00725772876966
0.00715214791433 0.00579611983166 -0.00773971744971
0.0081605209686 0.00992604670701 -0.00836187076813
0.0116597480757 0.00839703940615 -0.0085199996829
0.0184631557828 0.00300319546052 -0.0085199996829
0.0148742867292 0.00548452598914 -0.0085199996829
0.00589174854684 0.0132230000025 -0.0085199996829
0.00895866402475 0.0105391605081 -0.0085199996829
0.00792269961857 0.0114963563042 -0.0085199996829
0.0100987080405 0.00958546636143 -0.0085199996829
0.0173915030641 0.00390481082884 -0.0085199996829
0.00702744119391 0.00173911469396 -0.00445843158899
0.0103112941122 0.00173886232735 -0.0075462300136
0.00891672638477 0.00173883890471 -0.00177582074568
0.00565903963269 0.00173915385629 -0.000918198287151
0.00824679736081 0.00173904581533 -0.0064527828314
0.0127672074113 0.00173828501148 0.00341212426401
0.0144613607951 0.00173827967828 -0.00244425497091
0.0133102754704 0.00173852293816 -0.00664734567293
0.0088142737617 0.00173895853309 -0.00549526084632
2.03931828916e-05 0.00173990461014 -0.00645422246727
0.0151783275514 0.00173815670218 -0.000800824453619
0.00815579369311 0.00173889310713 -0.000914322480017
0.016221044594 0.00173817388121 -0.00510394839292
0.0129333340416 0.00173852852737 -0.00549465093279
0.00557265702841 0.0017392623715 -0.00431546690971
0.016509437908 0.00173809598832 -0.00347228127632
0.00689712606795 0.00173903786984 -0.00137085247803
0.00776266916607 0.00173900168686 -0.00322047293969
0.0143311154233 0.00173840544409 -0.00627419116182
0.00668666289786 0.00173909442573 -0.00255175197145
0.000993074539459 0.00173978760533 -0.00592612113297
0.0099950892015 0.00173867220192 7.24965508575e-05
0.00583651230006 0.00173929380393 -0.00632916169715
0.0141338250885 0.0017383935821 -0.00516597059294
0.00966979048637 0.00173864158343 0.00227740305319
0.0140402786136 0.00173847322713 -0.00755195661751
0.0130932976294 0.00173832968005 0.000724668013899
0.00492806036358 0.0017393691347 -0.00566327051165
0.00196259668853 0.00173964880521 -0.00464257667599
0.0109845931766 0.00173862241228 -0.00175436976433
0.0100423825512 0.00173873330132 -0.00218226023525
0.00611342960867 0.00173923197252 -0.00520499650888
0.00971859425052 0.0017388384669 -0.00461897232837
0.00999902688628 0.00173870315383 -0.00099836613221
0.0171082326932 0.00173806090804 -0.00440878032472
0.00431548887497 0.00173939821523 -0.00447281028777
0.0127397258436 0.00173832311835 0.00220894903067
0.00385979036869 0.00173950074698 -0.00634942453659
0.0053894338764 0.00173923075619 -0.00258292519684
0.00766558265963 0.00173907583953 -0.00540630874015
0.003071992625 0.00173948342328 -0.0029499708417
0.0138274905326 0.00173813243869 0.00484242564452
0.0115421652676 0.00173841444233 0.00335923656908
0.0138701233066 0.00173816204409 0.00367961729627
0.0183770247302 0.00173804724335 -0.00846457083824
0.0106919425044 0.00173856879937 0.00111929471577
0.0156837527379 0.00173826195318 -0.00619602222293
0.00854741685063 0.00173895029871 -0.00426294583871
0.0134873762481 0.00173839516201 -0.00291577544068
0.0106639734633 0.00173872778478 -0.00420944103385
0.0168632209146 0.00173805947417 -0.000765443212531
0.0160515458123 0.00173839177385 0.00597545876268
0.0185875547216 0.00173820703835 -0.005202781268
0.0170155194768 0.00173848836104 0.00365798988603
0.0170664234042 0.00173821747257 0.000339814997565
0.0203847811849 0.00173966286575 0.00524902983559
0.0187498569891 0.00173843336908 -0.00316049181262
0.0202916008853 0.0017395316498 0.00406174497455
0.0193314270968 0.00173936436156 0.00554699104525
0.018272020899 0.00173895489525 0.00458164415808
0.0176674748292 0.00173857191348 0.00230171394901
0.0165258637127 0.00173846218898 0.00510021384378
0.0199339219981 0.00173900474428 -0.00629461893048
0.0196423946599 0.0017387356194 -0.00726930632748
0.00985845374563 0.00339622862471 0.00681488112796
-0.000456118682515 0.0140999615981 0.0068495438423
0.00832655865815 0.00354099271784 0.00676640900025
0.0048218730441 0.00507187159701 0.00670003336694
-0.000782955630132 0.0063083510536 0.0065489153824
0.00582239675383 0.00449828177289 0.00671391506472
-0.00051668883315 0.009336368439 0.0066706416763
0.000734952836749 0.0120027529262 0.00681358276022
0.000853280659154 0.00276860026529 0.00647506968419
-0.000822966514153 0.00828396105011 0.0066208223847
0.00447892522699 0.00843985337363 0.00681296233541
0.00335815947971 0.00533700676997 0.00665842461129
0.00371350574684 0.00705743728915 0.0067347584164
0.00286830719419 0.0117708710014 0.00687996255988
0.00314023972337 0.0106136928372 0.00684657867777
0.000512815797022 0.00900850437257 0.0066946607073
0.00693325682505 0.0043415409113 0.00674714388613
0.0047404568363 0.0019630434523 0.00658180551783
0.0054055832433 0.00753195223202 0.00681184171542
0.00790706140474 0.00462212164464 0.00679178403813
0.00658066883345 0.00192479240969 0.0066450672176
0.00535172405403 0.0102787188624 0.00691187898394
-0.000192466772811 0.0105481497633 0.00672700593211
0.0130326984188 0.00311619579055 0.00691606008687
0.0112989071225 0.00371159089188 0.00687721412095
0.00582932169757 0.00863932014659 0.00686782914924
0.00808526837837 0.00769634812382 0.0069121299218
0.00626550977499 0.00335139143783 0.00668692973753
0.00148289110881 0.00985830916005 0.0067602932377
0.000532936785004 0.00555211289957 0.00656710396239
-0.00056158057822 0.0119948515056 0.00676771800565
0.0106881725228 0.00265375924292 0.00681649225679
0.00757313713742 0.0025120341157 0.00670174332414
0.00150317926647 0.00816974385787 0.00669834500921
0.00167073359027 0.00715677148281 0.0066666437264
-0.000685811617202 0.00321725120332 0.00643762158634
0.0076110225197 0.00659003229913 0.00685440625768
0.00200269097896 0.00583877405512 0.00662940176699
0.0101616586577 0.00497993933605 0.00688430866453
0.00250433744008 0.00894690121619 0.00676237417457
0.00874771193994 0.00540329566332 0.00685032061448
-2.11853384435e-05 0.0150306877359 0.006899369725
-0.00064724033801 0.00432257979414 0.00647999519469
0.00261739196248 0.00345895910178 0.0065626946794
0.00353320122663 0.00273588553811 0.00656805154548
0.00238908570802 0.00241645638991 0.00651598354137
0.000816166023426 0.00661709226653 0.0066165796661
0.00895142563945 0.00652919550762 0.00689926215683
0.00419765607936 0.0112184664628 0.00690618822344
0.00200671587598 0.00454077076066 0.00658137535442
0.00506271555497 0.00318057570603 0.0066383141771
0.00423678979861 0.00598769477537 0.0067134538964
0.00659134044074 0.00639466691777 0.00681131584334
0.000707991847654 0.0134525529256 0.00686643605414
0.00328829442456 0.00818466936153 0.00676164346338
0.013015048699 0.00198042883577 0.00687329230157
0.000177888684565 0.00795784061161 0.00664389912842
0.000333519299787 0.00401871293659 0.00650319141732
0.00552430218747 0.00634697360171 0.00677204091265
0.00168324797166 0.012073403507 0.00684953594387
0.00882932408566 0.00268395387732 0.00675227654234
0.0035334125727 0.00415256882905 0.00662063097819
0.00922206239086 0.00414581077148 0.00682032916701
0.0119331056164 0.00226991292033 0.00684600587313
0.0102053165595 0.00618554455422 0.00691699981689
0.0021211335064 0.0145882745715 0.00691699981689
0.007218349924 0.00885875679031 0.00691699981689
0.00260642875882 0.0159779950946 0.00691699981689
0.0064881879192 0.00967622456348 0.00691699981689
0.00372392565985 0.0128032860871 0.00691699981689
0.00953245530562 0.00739633678493 0.00691699981689
0.00340035926611 0.0145032970405 0.00691699981689
-0.00042398041865 0.0182883023897 0.00691699981689
0.00157756093648 0.0157431826496 0.00691699981689
0.00571748405651 0.0116463277856 0.00691699981689
0.00114974962587 0.0169303164929 0.00691699981689
-0.000424056065524 0.0194592593301 0.00691699981689
0.0025329511248 0.0131142420196 0.00691699981689
0.00750493765268 0.0103658250424 0.00691699981689
0.00512897822222 0.0131538676131 0.00691699981689
0.00027063886638 0.0165102778916 0.00691699981689
0.0144945698036 0.015434727171 -0.00666279908281
0.0153025843868 0.0146529554306 -0.00670717273031
0.0210120007396 0.00191885246626 -0.00196648852083
0.0210120007396 0.00289290692471 0.00416186087168
0.0210120007396 0.00189914554072 -0.00454402850196
0.0210120007396 0.00191531684631 0.000203777037982
0.0210120007396 0.00200776303129 0.00318405328112
0.0210120007396 0.00235880782869 0.0013326129941
0.00428704302761 0.0205813387846 0.00691699981689
0.000377412665775 0.0210948859677 -0.00690395143277
0.000729558749647 0.0212350003421 -0.00372986888062
0.0013749577946 0.0212350003421 -0.00457510193053
-0.000107547336181 0.0212350003421 0.00369825284115
0.00123061802759 0.0212350003421 -0.00265397604029
0.000582158224869 0.0212350003421 -0.00163279924148
5.94700906131e-05 0.0212350003421 0.00163734039404
0.00193047080231 0.0212350003421 -0.00566305574175
0.017423536335 0.00742628245019 -0.0085199996829
0.0147305418417 0.0113738136359 -0.0085199996829
0.0185915864494 0.0049086238028 -0.0085199996829
0.0157068005771 0.0108882678176 -0.0085199996829
0.018670725043 0.00712914029896 -0.0085199996829
0.0187678279808 0.00596205753693 -0.0085199996829
0.0197285890037 0.00368451165529 -0.0085199996829
0.0165135364425 0.01005122238 -0.0085199996829
0.0135926106882 0.0131360401274 -0.0085199996829
0.0130054240808 0.0143149453807 -0.0085199996829
0.0117668617673 0.0168092741796 -0.00827045142633
0.0154541818642 0.0143998445099 0.00691699981689
0.0169953445582 0.0130074509766 -0.00354827899787
0.0169172839629 0.012989903754 0.00418351488139
0.0170175800235 0.0129002596661 0.00178706721592
0.0168944503011 0.0130333622545 0.00318043191234
0.0168042858409 0.0132316665341 -0.00257422841291
0.0168901054055 0.0130837171111 0.000161950348193
0.0164638325482 0.013529214507 0.00601381226072
0.016280423912 0.013777733813 0.00471276476276
0.0170165266411 0.0129412210535 -0.000876598671296
0.0150376445339 0.0150235806938 0.0056653973798
0.014658723052 0.0154025800826 0.00471334964256
0.014011417303 0.0160500189188 0.00166579661999
0.014661903984 0.0153993984966 -0.00032402941318
0.0148538482118 0.0152074148047 0.00135769252752
0.0155439952213 0.0145171258997 0.00470533101873
0.0149110278261 0.0151502234342 0.00345874462918
0.0142618832826 0.015799501443 0.0056069095743
0.0138085957087 0.0162528822136 -0.0043333788456
0.0138030515919 0.0162584274703 0.0043533707752
0.0144604102429 0.0156009336652 -0.00144956280951
0.0138623689724 0.0161990978941 0.00286840418959
0.015776365392 0.014284461686 -0.000302242934144
0.0165231355124 0.013537123979 -0.00521938157037
0.0142058307088 0.0158554624468 -0.00560050947674
0.016233052259 0.013827689704 0.00232199919842
0.0153160442709 0.0147447556071 -0.00537604599591
0.0151810730557 0.0148799786482 -0.00127952208795
0.0153168203238 0.0147443404279 0.00238821072625
0.0145582160084 0.0155029700052 -0.00446689408676
0.0148010112864 0.0152601395888 -0.00285436793138
0.0162261661625 0.0138342873127 -0.00394597272771
0.0156495888172 0.0144114631409 0.0032950186927
0.0159769082435 0.0140837727418 -0.00148664738899
0.0161483722774 0.0139123488887 0.00104916667149
0.0156868003018 0.0143739342868 -0.0031636909807
0.0159267883565 0.0141337006633 -0.00610157385635
0.0210120007396 0.00291997991296 0.00271453479298
0.0210120007396 0.00303548395583 -0.0018745695917
0.0210120007396 0.00301058526406 -0.00537758043221
0.0210120007396 0.00256125753166 -0.000750181670468
0.0210120007396 0.00245274469415 -0.00635520394041
0.0197019279838 0.00813105910997 -0.00491850417557
0.0194222193321 0.00883164434957 -0.00399220598356
0.0200750744891 0.00719863801253 0.000820289999305
0.0200698656851 0.0071880557397 -0.000792594618532
0.0198752986088 0.00760163623445 -0.00621600646264
0.0201144672987 0.00696296340584 -0.00369697392499
0.0199293232472 0.00755950623502 -0.00239548307721
0.0202952744729 0.00644852671579 -0.00279898562987
0.0200435277103 0.00714051467373 -0.0048224947369
0.0202405871953 0.00642013533167 -0.00669587598962
0.0194382061737 0.00809276031265 -0.00719763393826
0.0198309037861 0.00484290659091 -0.00826916820046
0.0197207293122 0.00635924161879 -0.00806434626095
0.0175414064529 0.0121852285089 -0.00272547623442
0.0177959254572 0.0118370301966 -0.00607743003332
0.0177407103976 0.0119054163307 -0.00462627000831
0.017253433201 0.0126440860708 -0.00550223174764
0.0174823424502 0.0122440513481 0.000277572829494
0.0190705703938 0.00958368947929 -0.00461172077896
0.0194309269291 0.00876621580045 -0.00576513241206
0.0188514642301 0.00987540410645 -0.00634408417978
0.0181513293213 0.0105531111111 -0.00746145974027
0.0188998117101 0.0092179453352 -0.00726857411801
0.0182188829342 0.0111251398682 0.00111173226751
0.0183960082057 0.0108527444551 -0.00534731381635
0.0186529530901 0.0104024090189 -0.0042278891028
0.0185624641869 0.0105519611505 -0.00290326982774
0.0185071631097 0.0106323849956 -8.20128539632e-06
0.0184862666437 0.0106765488461 -0.00153223345942
0.0180556544824 0.011353056145 0.00351118083839
0.0180911844734 0.0113707626547 -0.00366093473741
0.0176759193174 0.0119296769952 0.00273958993691
0.0179312369306 0.0115289062311 0.00458026508307
0.0178722914362 0.0115989004685 0.00643320877494
0.0176220080349 0.012022102181 0.00156228733027
0.0173702653693 0.012362190917 0.00531475502554
0.0181978930116 0.0111517295122 0.00231814401715
0.0179092008306 0.0116166777487 -0.000955012851987
0.00465508609436 0.0206543673439 -0.0070641465626
0.0061418889744 0.0203548660107 -0.00667464723031
0.00832112313098 0.0195484304015 -0.00684580810998
0.00852085839406 0.0196068025936 -0.00300822038681
0.00718175481836 0.0200667459401 -0.00609537640642
0.00850921055398 0.0195720637866 -0.00584457273329
0.00761015487998 0.0199227368862 -0.00488046224903
0.0083412981673 0.0196570493896 -0.00425089170615
0.0101501283438 0.0186219740067 -0.00692892527624
0.00638341069644 0.0197467183406 -0.00816728595081
0.00728944302194 0.0195700042826 -0.00774112342068
0.00908310789112 0.0188091982725 -0.00778828476936
0.0127336471129 0.0170543047805 0.00613536313875
0.0113248893464 0.018036972745 0.00639870300924
0.0120016018377 0.0175874466028 0.00544929552535
-0.000775336590625 0.0211768062236 0.00481156443679
-0.000298935717782 0.021200636111 -0.00431555776117
-0.000252198764905 0.0212350003421 -0.00262167392439
-0.000814468200795 0.0212350003421 9.88712252273e-05
-0.000592817100692 0.0212350003421 -0.000907327998646
3.65198830106e-05 0.0212350003421 -0.00558161579388
0.0152745663989 0.013440105062 -0.00837202190641
0.0135761276642 0.0154114224926 -0.00820506225808
0.0175060551401 0.00948709150147 -0.0085199996829
0.0142949073833 0.0139755828509 -0.0085199996829
0.0180241569654 0.00816447609415 -0.0085199996829
0.000742813750315 0.0212350003421 0.00456145946191
0.00036216157274 0.0212350003421 0.00559948541337
0.00123841579013 0.0212350003421 0.00197429902064
0.00045364474498 0.0212350003421 0.00293034660203
0.00126059749067 0.0212350003421 -0.000116371693162
0.0186540191525 0.0103178011144 0.00424937605441
0.0184860416404 0.0106162591533 0.00566804602752
0.0187940511146 0.0101164534192 0.00131101168786
0.0192103915542 0.00926516842804 0.0019213293043
0.0193826357153 0.00888193872391 0.00332233713001
0.0191421520336 0.00944116552846 0.000472115268691
0.0186365882375 0.0103847485077 0.0030656181103
0.0194862399742 0.00860199694592 0.00599374289847
0.0191097856303 0.009601325434 -0.00305219821149
0.0189988760229 0.00976771889611 -0.000980929232925
0.0191462814122 0.00932102870748 0.00461032722619
0.020044085887 0.00727605540337 0.00244897482168
0.0197808595427 0.00793456842777 0.0015208704568
0.0194796126618 0.00868866750358 -0.00137271687056
0.0196888284287 0.00816518645072 -0.000299148342195
0.0200578938808 0.00721735008693 0.00370302061648
0.00692352162827 0.0201559927493 0.00417191445631
0.00597013976072 0.0204738855738 0.00406059701689
0.00680580796706 0.0201952428437 0.00150489213021
0.0064480193277 0.0203145428272 0.00280960723567
0.00620840840845 0.0203944379821 -0.000985366017958
0.00544764039352 0.0205398875122 0.00636321099283
0.00848253279263 0.019523015224 0.00492767014172
0.00760976753135 0.0199254029406 0.00322746071619
0.00792695031736 0.0198067359689 0.00230271777529
0.00783516593271 0.0197791638422 0.00603447736054
0.00774725380404 0.019880996273 0.0010865021679
0.00698837872103 0.0201343441088 0.00528191947656
0.00802182868277 0.0197893303943 -6.81418216261e-05
0.00751311735413 0.0199591619213 -0.00132682594047
0.00735976384973 0.0200103584612 -0.00359470743675
0.00738289076173 0.0200026376212 -0.00249647910834
-0.0003409005782 0.0138256912895 -0.00791143191478
-0.000426019035718 0.0161327144486 -0.00815893632623
-0.00087799003779 0.0125852823855 -0.00762890265622
-0.000723731027956 0.0108703071319 -0.00746824496095
-0.000855614915641 0.0185342026858 -0.00827018307075
0.0204635140111 0.00564547454487 0.00691588958656
0.0204275443032 0.00584752638216 0.00581231359729
0.0200255005861 0.00722419851453 0.00531739836617
0.0200383269287 0.00707130761244 0.00679649463639
0.0205721499203 0.00230310478704 -0.00777547520203
0.0206926056455 0.00437938671951 -0.00687713829183
0.0208266592953 0.00320277748822 -0.0071998062242
0.0202219797963 0.00544310959678 -0.00760006939536
0.0112808515315 0.018130319516 0.00102704454229
0.0114053276623 0.0180618854957 0.0022299981367
0.0113278677786 0.0180905314514 -0.000602085439087
0.0111064802737 0.0182154628985 -0.00226064385321
0.00885335226998 0.0194261989967 0.000694050978175
0.00973105736036 0.0189830688766 0.00142921841961
0.00928328870492 0.0192300311559 -0.000267068594246
0.00872864688497 0.0194510558319 0.00299888824363
0.00860409014566 0.0195815678626 -0.00138146997714
0.00953563597816 0.0191126132755 -0.00481413201878
0.0105738742951 0.0185329635491 -0.00364335329357
0.00926510932217 0.0192472215206 -0.00643929545998
0.00998602320257 0.0188831712271 -0.00253752540411
0.0101913881032 0.0187784074966 -0.00151103210933
0.0105012969146 0.0186010195131 0.000429150105526
0.011167165602 0.0181838826594 0.00414232632625
0.0105877343289 0.0185388273433 0.00172565647125
0.010199795735 0.0186953729844 0.00450270506363
0.00907851061205 0.0192190470934 0.00667315308378
0.00942628860351 0.0190634284903 0.00561004503251
0.0101747492757 0.0186706865786 0.00663618501773
0.00951311120672 0.0190559562574 0.0035465135253
0.00981104516987 0.0189241213834 0.00255094485225
0.00133872446699 0.0207271992088 -0.00814549860769
0.000277862156206 0.0207409599026 -0.00810425459487
0.00178879287231 0.021086540749 -0.00706846809653
-1.81036142004e-05 0.0195539632965 -0.00839103692899
0.0030017641132 0.0205750858083 -0.00814060218348
0.0170737886012 0.0123260988961 -0.007525371835
0.0155186956309 0.0140543784506 -0.00759265746345
0.0147441178377 0.0148165862912 -0.00776463435394
0.0164687454011 0.0132575526701 -0.00718792120373
0.0176935174467 0.0116560745313 -0.00714584880682
0.0161663997717 0.0127116112863 -0.00816140679418
0.0173900119271 0.010871732219 -0.00833773956786
0.0019891238055 0.018506002007 -0.0085199996829
0.00649215889715 0.0176325603154 -0.0085199996829
0.00401839606279 0.0182995293158 -0.0085199996829
0.00822333591336 0.017396474938 -0.0085199996829
0.00757518118501 0.0182991217091 -0.00842847309638
0.00945082466144 0.0172037539169 -0.00851528085676
0.00530372347204 0.0200023870354 -0.00826960578528
0.00568302083657 0.0190299963509 -0.00839426998956
0.000830059274686 0.0190108574314 -0.00845923837217
0.00209172602872 0.0198337076666 -0.00835590755368
0.00327483095643 0.019518138495 -0.00839450417009
0.0042923761761 0.0199644741302 -0.00830179996789
0.00408373398563 0.0208802203682 0.00588958992836
0.00509258036141 0.0207327949325 0.00519018401291
0.00391667141209 0.0209617894542 0.00379831598442
0.00384909666607 0.0209834437546 -0.00562679329142
0.00260347245164 0.0211895786615 -0.00451679849665
0.00309683842836 0.0211079328903 -0.00209547383286
0.00374431966868 0.0210007830102 0.0012528009905
0.00308673982017 0.021109604081 -0.00631947396544
0.00495734591929 0.0207650609742 0.00320146138597
0.00469429933235 0.0208177675233 0.00098343674205
0.00418532815098 0.0209197498941 -0.0037269095541
0.00413102090016 0.0209306314183 -0.00122964306249
0.00423718897635 0.0209093585594 -4.93464978155e-05
0.00421118481396 0.020914569004 -0.00230773423692
0.00271079123108 0.0211665813788 -0.00337855946722
0.00311329486004 0.0210638304744 0.0022481443727
0.00169981614097 0.0211710287721 0.00550979111209
0.00261627387334 0.0211310640346 0.000713890375072
0.00272015473369 0.0210785402977 0.00452641667461
0.00224287753103 0.0211936477401 -0.00153457207867
0.00255792524264 0.0211065322793 0.0034768026688
0.00170396253231 0.0211988748125 0.00294423874473
0.00262685965797 0.0210569423137 0.00640741667076
0.0136109396025 0.0163623125399 -0.00634463087318
0.013660863165 0.0163907826778 0.00031614413405
0.012783838897 0.0170497664423 -0.0063602989349
0.0128885662305 0.0169710757891 -0.00353457191863
0.0133193488126 0.016647391784 -0.00132056876079
0.0113652671773 0.0180108975993 -0.00634321363473
0.0120613855649 0.0175910092486 -0.00182076483198
0.0119311251202 0.0176681287652 -0.00281802574931
0.0116110094756 0.0178712337467 -0.00385585018203
0.0124639040662 0.0172895726578 -0.00530582889623
0.0130978108129 0.016813657672 0.00161491776719
0.0131578297624 0.0167683416649 0.00500193181036
0.0128869842287 0.016971996355 -7.95723383286e-05
0.0127107994722 0.0171039687766 0.00273596697386
0.0119320285048 0.0176885478509 0.000201691000363
0.0124803799975 0.0172767300712 0.00442967971441
0.0119868209358 0.0176471714006 0.00337395046789
0.0122880972434 0.0170630496427 -0.00730648898929
0.012930267102 0.0163265865733 -0.00787842099889
0.011296281226 0.0176335938833 -0.00755409241702
0.0102343911641 0.0180950098087 -0.00811730962386
0.00558125574106 0.0206035539089 5.21593466126e-05
0.00635260598382 0.0203463571699 -0.00254400670219
0.0055463966156 0.0206151772324 -0.00175461102399
0.00631714321412 0.0203581817707 -0.00384903430779
0.00523770762887 0.0207088850003 -0.00342542986769
0.00635865048002 0.0203428775046 -0.00561538174255
0.00575099456853 0.0205404082673 -0.00465512403179
0.00502209445461 0.0206994296947 -0.00586823372395
0.0207740726782 0.00449842499755 -0.00529627576709
0.0210051566833 0.00326834096589 0.000118703089544
0.0208858486197 0.00395739483322 -0.000632450752163
0.0208517547762 0.00413021185223 -0.0020023603249
0.0210094356661 0.00316405609252 -0.00367043469421
0.0209752469767 0.00346781759638 0.00121256795861
0.0204450996996 0.00590479842604 -0.00575064593089
0.0203516113602 0.00627976269637 -0.00112441010305
0.0209760082128 0.00354429474513 0.00516331738999
0.020844619056 0.00420245287316 0.00359489302827
0.020894818089 0.00395099451543 0.00217706361077
0.0207574813676 0.00463894534578 -0.00307957380478
0.0207446534352 0.00470320337248 -0.00425027520377
0.0207615167981 0.00461873095793 0.00564841289121
-0.0174760418042 -0.0128535731806 0.00805760386914
-0.0173540024806 -0.0091508567658 0.00782366735392
-0.0162734845013 -0.0101943025408 0.00768867509343
-0.0184361776992 -0.010681551823 0.00818137949638
-0.016401683974 -0.0125445395862 0.00827100034803
-0.0160108631587 -0.0136372098511 0.00827100034803
-0.0183581720027 -0.00916421204974 0.00827100034803
-0.017286249691 -0.0107337767566 0.00827100034803
-0.0141883836789 -0.0137087392216 0.00795368802448
-0.0164474971068 -0.011426276118 0.00821136560354
-0.0148454415761 -0.0123917098781 0.00779819244612
-0.0139051380017 -0.0127583574536 0.00748512684236
-0.0154656076627 -0.0112635487876 0.00769197135645
-0.0144213905828 -0.0146851567003 0.00691699981689
-0.0161931077824 -0.0108820475961 0.00691699981689
-0.0150549610667 -0.0138346596602 0.00691699981689
-0.0179640314512 -0.0103063399899 0.00691699981689
-0.0170971667708 -0.0127866568606 0.00706440512567
-0.0181040261859 -0.0118159220804 0.00815546814982
-0.0192789853439 -0.00991025718864 0.00799574985559
-0.0159329674195 -0.00931554169074 0.00710918826992
-0.0186076060002 -0.00928296922392 0.00691699981689
-0.0141700261509 -0.0117303660796 0.00691699981689
-0.0147448160098 -0.0155661529337 0.00807889925838
-0.0134362729504 -0.0166047343404 0.0080100302217
-0.0155775899774 -0.0148304105987 0.0073407335921
-0.0164219372873 -0.0139948365052 0.00743412858676
-0.0144573138127 -0.0158787108274 0.00698375679418
-0.0179298095722 -0.00515541598986 0.00733633554083
-0.0187885292857 -0.0061628804144 0.00802573053622
-0.0202390961564 -0.00579251971865 0.00691699981689
-0.0209838935805 -0.00486730121961 0.0073200526266
-0.0206464277624 -0.00595001152719 0.00835491965176
-0.0211039031098 -0.00312611685315 0.00735731216726
-0.0208517993938 -0.00457322191199 0.00839470780223
-0.0207858149505 -0.00280654527198 0.00828420132603
-0.0197814927087 -0.0083419331806 0.00698491955885
-0.0200106070739 -0.00745259603872 0.00842726158115
-0.0191576799132 -0.00515872660463 0.00691699981689
-0.0189968003552 -0.00787381419892 0.00840305292605
-0.0192241054406 -0.00440569985946 0.00793687367815
-0.0190057498683 -0.00294532063054 0.00752961901866
-0.0197617192829 -0.0053156499901 0.00842018349821
-0.0200548655663 -0.00376594067335 0.00828805543419
-0.0180202889146 -0.00808666397542 0.00793041297273
-0.0115735445047 -0.0182581132541 0.00727585337806
-0.0133800003678 -0.015691473236 0.00744434879367
-0.00875880128198 -0.0182064868293 0.00822689348191
-0.010002857109 -0.0163076781673 0.00771408663474
-0.0105872120832 -0.015152779813 0.00732641166256
-0.00845471644343 -0.0173712297152 0.00771620379571
-0.0124063325485 -0.0160413224451 0.00691699981689
-0.0127457558813 -0.0145564888031 0.00691699981689
-0.0113634694035 -0.0166966193156 0.00691699981689
-0.0119420180112 -0.0150277107262 0.0076873166242
-0.0124619993776 -0.0165505204658 0.00829232348173
-0.00977417686826 -0.0177625490576 0.00835520491768
-0.0105123198639 -0.0171143425204 0.00822718174657
-0.0114229605131 -0.0164391055174 0.00811294833941
-0.0100815659044 -0.0189928032852 0.00841240890593
-0.00903365957402 -0.0194180807438 0.00839584728941
-0.0111642394883 -0.0180731955513 0.00846621269531
-0.00927686998151 -0.0186182844961 0.00691699981689
-0.00936889326551 -0.0158701334996 0.00691699981689
-0.0127348322144 -0.0134554705479 0.00710380698969
-0.00843022754246 -0.0163592919436 0.00716467627506
-0.0125112085187 -0.0176434688956 0.0074144040186
-0.00184981144646 -0.0212814994156 0.00797012427658
-0.0048982029254 -0.0175367126991 0.00705589809444
-0.00399228607106 -0.0179509368859 0.00691699981689
-0.00651045433856 -0.018279371893 0.00691699981689
-0.00533467207846 -0.0195975436814 0.00691699981689
-0.00725725730992 -0.0190623550301 0.00691699981689
-0.00426175038378 -0.0200703011029 0.00691699981689
-0.00322860597497 -0.0198629710087 0.00691699981689
-0.00573375877983 -0.0184878241385 0.00773938734281
-0.00610109894358 -0.0194091493604 0.00820228020234
-0.003477510727 -0.0201501489544 0.00825575422237
-0.00735779068108 -0.0202438096515 0.0072707197794
-0.00484052589644 -0.0198904165659 0.00827100034803
-0.0076642045583 -0.0201292363553 0.00827100034803
-0.0024539440802 -0.019751521261 0.00794759090484
-0.00606209616707 -0.0174721881036 0.00730320528456
-0.00316541037076 -0.0189934062195 0.00767185326995
-0.00598465918535 -0.0206711213924 0.00737234143434
-0.0026094310943 -0.0212814994156 0.00708276808552
-0.00796400010586 -0.0188177460727 0.00784666129792
-0.00666235209834 -0.0203079267589 0.00827100034803
-0.00482266301166 -0.0210635545564 0.00782835252805
-0.00366899474019 -0.021197017451 0.00773311297225
-0.0208055193782 0.00200541830984 0.00691699981689
-0.020374765692 -0.00180947345527 0.00691699981689
-0.0204038850712 0.00444599986076 0.00728517640323
-0.0201076526692 0.00330144923589 0.00691699981689
-0.0184811976548 0.00331921293692 0.00691699981689
-0.0213389498762 -0.00210019781047 0.00710970633938
-0.0214888651224 -0.000880854001101 0.0073514458572
-0.0195054984294 -0.00189094330291 0.00772163681737
-0.0205809271304 0.00387980156779 0.00832522114756
-0.0203914471441 0.00268818760291 0.00825609021603
-0.0193914581436 0.00378356067891 0.00775614080009
-0.0200357395057 0.00156343311599 0.00807834937813
-0.0209367827841 -0.000301742932988 0.00852888661135
-0.0184373647007 0.00224188816603 0.00724032090957
-0.0196793347957 -0.000304190417423 0.00785486435589
-0.0191182413933 0.000862271478479 0.00757756347238
-0.021403600147 0.00294894571577 0.00744662748554
-0.0214110300193 0.00172466410954 0.0078416085995
-0.0215050000697 0.000307089387281 0.00768891086755
-0.0211955818212 0.00080502923346 0.00850890575905
-0.0149845004887 0.0115918772653 0.00691699981689
-0.017629879367 0.00940440334285 0.00691699981689
-0.0165048919702 0.00986127506488 0.00691699981689
-0.0205014608243 0.00608306262251 0.00703768482212
-0.0190359671741 0.00800953502863 0.00691699981689
-0.0192003950793 0.00680196098387 0.00691699981689
-0.0158575252642 0.00901103485904 0.00698005221034
-0.0196344883102 0.00571605923137 0.0081173159715
-0.0184055170937 0.00723982460544 0.00802938694198
-0.017444020861 0.00719899494824 0.00753847662054
-0.0173560133753 0.00937377338511 0.00803812140278
-0.0167542134418 0.00856884920953 0.00753603665565
-0.0182899123782 0.00622052113135 0.00771678753664
-0.0177840360811 0.00826074905919 0.00797388262672
-0.0152098068536 0.0102653869248 0.00713084466199
-0.0208130176602 0.00509782391599 0.00804663732961
-0.0194920852564 0.00773118185894 0.00844926091729
-0.0204191489265 0.00669610760816 0.00827708829165
-0.018693075953 0.00883363147713 0.00848781087047
-0.0180435765772 0.0100903628396 0.00840918357326
-0.0176142937891 0.0109873018458 0.00835306665605
-0.0162355419734 0.0105634340083 0.00775985026921
-0.0185287307218 0.0112054414118 0.00758263508956
-0.019242321862 0.00968093560149 0.00807694451613
-0.0201174982373 0.0076637034832 0.007336793227
-0.0197819872303 0.00856058283588 0.00775851842057
-0.016341055282 0.0122990002856 0.00754508908579
-0.0107618839231 0.01855530689 0.00713073734678
-0.0127236873165 0.0149420821328 0.00790563120516
-0.0150907092036 0.0125620169465 0.007760239117
-0.0141594529024 0.0130496021272 0.00760616269407
-0.0132717467877 0.0139084731397 0.00764481203585
-0.0162353639378 0.0136123743915 0.00700465718335
-0.0146883519733 0.015354288905 0.00691699981689
-0.0114807164915 0.0152477623802 0.00691699981689
-0.015428932254 0.0129230919905 0.00691699981689
-0.0104010002688 0.017558649998 0.00782459918589
-0.0118975757821 0.0162847051166 0.00816797843409
-0.011047621278 0.0183525426546 0.00819197609446
-0.0115035436951 0.0172556091595 0.0084540603426
-0.0145277364427 0.014408391364 0.00839558809369
-0.0131938973425 0.0157814976236 0.00847965441277
-0.0148803060305 0.0156068418772 0.00812701205791
-0.016977088679 0.013126723211 0.00823210007184
-0.0160089337206 0.0136859311803 0.00840757455944
-0.0134697193196 0.0167812981018 0.00834654740422
-0.0141068630817 0.0164403976941 0.0075946812881
-0.0154641518348 0.0149762941505 0.0075458112532
-0.0132156444692 0.0171085804606 0.00734252799725
-0.0126809098292 0.017539409857 0.00823410045417
-0.0116731145755 0.0167715500956 0.00691699981689
-0.00609200635486 0.0195612133533 0.00827100034803
-0.00746556000717 0.0193404662234 0.00827100034803
-0.00575439142699 0.0179005705828 0.00691699981689
-0.00428839892371 0.0190694505374 0.00691699981689
-0.00318529953264 0.019224142934 0.00691699981689
-0.00807880085787 0.0175438951459 0.00691699981689
-0.0077728384006 0.0186301887889 0.00691699981689
-0.00467496571684 0.0206415920639 0.00818837970967
-0.00203064758006 0.0210026033325 0.00827100034803
-0.00960534523451 0.0164854636545 0.00694975226213
-0.00250236634851 0.0201896910642 0.00691699981689
-0.00171843993058 0.0198458835306 0.00795409004255
-0.00710407597036 0.0172120628356 0.00742528818039
-0.00167603983572 0.0187408529101 0.00737312698433
-0.00271905259214 0.0183506026521 0.00733299903794
-0.00479947002505 0.0194415762079 0.0082071302629
-0.00884408244163 0.0183093904937 0.00822791554976
-0.0053450679632 0.0185266912233 0.00782903058793
-0.00868099580727 0.0174116560511 0.00775560198419
-0.00318118072494 0.0194988128459 0.00800102418853
-0.00650779277567 0.0186516565086 0.00806012204773
-0.00883842270221 0.0195387553393 0.00698621015758
-0.0100361885428 0.0188855366355 0.00815867132091
-0.00990372823599 0.0191292682911 0.00717445084703
-0.00881027603237 0.0195205165194 0.00810926578057
-0.00767475387683 0.0202491475683 0.00776750458202
-0.00662947574041 0.0205974182197 0.00793356101491
-0.00147128038543 0.0214429163217 0.00736386299137
-0.00382411192718 0.0211660225014 0.00754700099372
-0.00535881135159 0.0209787288753 0.00751483956153
-0.00253209435412 0.0212647818638 0.00703755680827
0.000856722560917 -0.0203541547062 0.00822631187655
0.00299625810054 -0.0197057521855 0.00808040671636
0.0062200133373 -0.0192533430273 0.00812272978399
0.0062356047448 -0.0202270820826 0.00824064366277
0.00381720405114 -0.0207694484926 0.00827100034803
0.00505240334956 -0.019915044952 0.00827100034803
0.00273575836695 -0.0200072417016 0.00691699981689
-0.000836217838809 -0.0199448387574 0.00691699981689
0.00720149977133 -0.0172690114 0.00714000817675
0.00705945266264 -0.0184467363715 0.00691699981689
0.00107561836221 -0.018733369509 0.00691699981689
0.00218879036916 -0.0188907612747 0.00691699981689
-8.15696558291e-05 -0.0186659138819 0.00691699981689
0.00419154666351 -0.0181708008615 0.00691699981689
0.00699722932762 -0.019865798615 0.00716744999081
0.00263064061017 -0.0208970739211 0.0082701665414
-0.000490282888536 -0.0214760457806 0.00751510283759
-0.000902091917219 -0.0190711829485 0.00743829285527
0.00317585172922 -0.0185600763557 0.00752269339308
-0.000664999381196 -0.0202687885739 0.0080568606583
0.00520565888793 -0.0179494412787 0.00738658876823
0.00213263565704 -0.0215254283774 0.00737860223682
0.00508270905586 -0.0210021282078 0.00800193389398
0.000990132463059 -0.0214522979551 0.00796144414387
0.0127655388463 -0.0139046223971 0.00691699981689
0.0139119682391 -0.0138269291651 0.00691699981689
0.0114894586159 -0.0175876202957 0.00827100034803
0.0121871936435 -0.0167688565589 0.00827100034803
0.0146281930061 -0.0155035946488 0.00827100034803
0.00984339423378 -0.0183391253086 0.00691699981689
0.00958407889427 -0.0172164997039 0.00691699981689
0.0105398592208 -0.0171092509088 0.00827100034803
0.00951588799814 -0.0175610898683 0.00817181963419
0.0119645519516 -0.0154626710569 0.00798645969512
0.00794769419049 -0.0187177781834 0.00820031749238
0.0109381444429 -0.0159815886281 0.0078903448475
0.0130090698776 -0.0150591148429 0.00814427596913
0.0147216096216 -0.0137005001307 0.00771019348028
0.0117643477187 -0.0180964603671 0.0072346115997
0.00789637308868 -0.0190812031563 0.00691699981689
0.00842349841898 -0.0170432772681 0.00691699981689
0.00845305289201 -0.0197832842077 0.00805912438429
0.0102095092666 -0.0187510871377 0.0082081359314
0.00931699634357 -0.0191448148741 0.00827100034803
0.0134470574795 -0.0169135549871 0.00827100034803
0.00727666554926 -0.0194645095795 0.00827100034803
0.015979817874 -0.0145713792186 0.00799509077058
0.0141293622573 -0.0163934322691 0.00759511080477
0.0131688791442 -0.0172373396211 0.00725756336865
0.00991567062973 -0.0156186737244 0.00733576100906
0.00895597600452 -0.0161545700725 0.00728544690705
0.0189781608323 -0.00817679026564 0.00691699981689
0.0183668725665 -0.00718641731164 0.00691699981689
0.0179702844971 -0.00949249028461 0.00691699981689
0.0151341579986 -0.0111486425767 0.00691699981689
0.0153973177813 -0.00982014250519 0.00691699981689
0.0167818355384 -0.00798326176242 0.00691699981689
0.0202386890235 -0.00717391825106 0.00736159892903
0.0165852482778 -0.0136841050077 0.00816255236471
0.01753236303 -0.00769778594871 0.00767263791548
0.0164094129681 -0.00955336161979 0.00774469296213
0.0185718195904 -0.00739767036647 0.00810758846397
0.0175888508853 -0.00971547207811 0.00829356555665
0.0163218005472 -0.0120051723677 0.00826463213788
0.0153069288662 -0.0123622917009 0.00794944933249
0.0140373856715 -0.0126605491712 0.00752581755365
0.0195579907511 -0.00712601847923 0.00834958405748
0.0159017931681 -0.0107868652874 0.00786111815163
0.0178840960424 -0.00858554563846 0.00813313228242
0.0189331162089 -0.00857770189747 0.00852190725207
0.0186349161862 -0.00955646047814 0.00852865974279
0.0185079918448 -0.0110374480576 0.00754887494139
0.0199891577702 -0.00826548883805 0.00798152268034
0.0194507061066 -0.00943822842041 0.00782920768054
0.018010061391 -0.0116234403869 0.0084608319046
0.0173150730249 -0.0127723032292 0.008269286656
0.0168628311612 -0.0132526804678 0.00727136775134
0.0207276351496 -0.00537924657849 0.00827927494349
0.0178291431908 -0.0038712197591 0.00692002910875
0.0183654515912 -0.0020879615967 0.00691699981689
0.0194778656705 -0.00265563819994 0.00691699981689
0.0193375596467 -0.00437182333928 0.00805249602234
0.0188154380766 -0.00560345628255 0.00783374787702
0.0203638876089 -0.00193577220454 0.0084818943062
0.0190754338182 -0.00321346635299 0.00787273657816
0.0212380895972 -0.00154204808268 0.00724893818366
0.0211746359468 -0.000264071321995 0.00691699981689
0.0200160301254 0.000888606364683 0.00691699981689
0.0211200518037 -0.00388735686013 0.00771212682335
0.0201318730116 0.00147187148155 0.00816573317547
0.0183419239714 -0.000828437847844 0.00725369548368
0.0192443026201 -0.0018085385134 0.00788904850643
0.0193091057338 0.00111197618747 0.00768928153055
0.0197862646924 0.000142591410197 0.00806225657732
0.0214349403733 -2.19606821018e-05 0.00801418148286
0.0199067891612 -0.0061326119395 0.00818105783329
0.0206439221734 -0.00437464035283 0.00691699981689
0.0194894213322 -0.00535316734811 0.00691699981689
0.0194687831484 -0.00638699997216 0.00696174792095
0.0206327241635 -0.00621567350366 0.00729149634014
0.0209934814719 -0.00274650271504 0.00854200031608
0.0206882313846 -0.0006041335826 0.00854200031608
0.020404111353 -0.00391659455837 0.00854200031608
0.0209660338193 0.000807818734537 0.00847573870572
0.0214278287493 -0.00142464097549 0.00836424242672
0.0192793466338 0.00481512428688 0.00691699981689
0.0202189297985 0.0044757264393 0.00691699981689
0.0189316857648 0.00661585927066 0.00691699981689
0.0184540844384 0.00690388531016 0.00785704494981
0.0190799551514 0.00813990372075 0.00824545991175
0.0198443468273 0.00533659322892 0.00839466339075
0.0173435816594 0.00605619414633 0.0071519473943
0.0182522278245 0.0052460744532 0.00757664595415
0.0191778627152 0.00331452128286 0.00779106857044
0.0190641028506 0.00463408121109 0.00794225026608
0.0181397227005 0.00412398908508 0.00732798797489
0.0183667515989 0.00269199566107 0.00722337588375
0.020103244901 0.00257024275046 0.00810327495967
0.0192428004582 0.00217937176949 0.00761568942825
0.0207483931 0.00593961963983 0.00802193227297
0.0211046151506 0.00323144492354 0.00829692551254
0.0200762204998 0.0071877066752 0.00838771579801
0.0210679349978 0.00475981296431 0.00769987001994
0.0212124651007 0.00260721567242 0.00733063035924
0.0212568407902 0.00182230406529 0.00807505117688
0.0210778285838 0.00387928292141 0.00713376182687
0.0162887894029 0.0127264216282 0.00842192349749
0.0154851868068 0.0136791789142 0.00832372060767
0.0175435068067 0.0121070924323 0.00853570429684
0.0163081935563 0.0140259944159 0.00777921374413
0.0158683249088 0.0127195626086 0.00691699981689
0.0188965579841 0.0094294655343 0.00691699981689
0.0167365049065 0.0120896086245 0.00691699981689
0.0137145316468 0.0131347821428 0.00691699981689
0.0170918505965 0.0082374997437 0.00727161523284
0.0178916773663 0.0120640641523 0.0073820383715
0.0196619871448 0.00882339532014 0.0076697701065
0.0170920243465 0.0130040514135 0.00711413873332
0.0183638828954 0.00834273052835 0.00704928454554
0.0176514555334 0.00907933841371 0.00691699981689
0.0155060706916 0.0114405084811 0.00691699981689
0.0157467751677 0.0100489634364 0.00741118586754
0.0170331170647 0.00923573357142 0.00774458196345
0.0160440106044 0.0117176626401 0.00810837278381
0.017947764436 0.00978056813497 0.00834537869973
0.0166139409641 0.0105265262313 0.00799820650226
0.0174988697521 0.0109176097586 0.00849107735334
0.0149492500362 0.0121782264757 0.00777847411522
0.0184801209616 0.0108093323879 0.00840070052948
0.0190853978292 0.00987959352145 0.00794180810774
0.0135462880939 0.01400939359 0.00765983140317
0.0144317314269 0.0131709141998 0.00782537082118
0.00632260224534 0.0204843226163 0.00712491610448
0.00182415232737 0.0183763075513 0.00691699981689
0.00537315281824 0.0186943028747 0.00691699981689
0.0026204848799 0.0199012504824 0.00691699981689
0.00109661930836 0.0214469553802 0.00819790216534
0.00229252272296 0.0213164042324 0.00827100034803
-0.000922499981243 0.0214388724767 0.00824767172549
0.00316261970775 0.0213879116897 0.0076940505449
0.000564831748295 0.0212768867873 0.00713146767325
0.000814189482981 0.0186658294408 0.00734699610909
0.00460679968083 0.017987532753 0.00733721126114
0.00161636714862 0.0193194822725 0.00777142678555
0.0035411263395 0.0179173284273 0.00720042095683
-9.15820802454e-05 0.0206100269106 0.00827100034803
0.00614708486805 0.0197554029968 0.00807135022852
0.0026945999681 0.0194942751866 0.00792033603412
0.00139096737223 0.0202976680431 0.0082094206807
0.00408923499982 0.0190042381277 0.00777324541572
0.0044414337384 0.0199911044641 0.00819837739592
0.00528853195519 0.0192890248147 0.00791152666898
0.00543885773893 0.0207986710767 0.00814931969744
0.00423081243749 0.0212340066987 0.00824706718718
0.0144038029736 0.0162025244792 0.00752155164586
0.0111887960125 0.0162274132465 0.00691699981689
0.0133757662538 0.0163245284462 0.00691699981689
0.0142446337918 0.0147691306547 0.00691699981689
0.00934857478992 0.0159550890716 0.00691699981689
0.0128711979144 0.014605280813 0.00691699981689
0.00801664171263 0.0176363574511 0.00691699981689
