0.014126102156171202 -0.033258406025441126 0.013988923483204279
-0.016403040131499826 -0.03193799522701621 0.013911591566517566
-0.022234118579624956 -0.035771051258628124 0.013667073394920449
-0.017847175718541244 -0.03651815236756381 0.0136468406567128
0.009555228301330649 -0.033683149729590973 0.013942340384641191
0.018661060072203327 -0.03321241548697917 0.014014027815360366
-0.024390595903447825 -0.03397397130895364 0.013757430309385078
-0.009116057847548334 -0.03038769896473454 0.01403496039142402
-0.02582382683091295 -0.030377067696602447 0.01395259743481151
0.016100277901439322 -0.03328683870716482 0.013997127060156921
-0.02694255100081498 -0.03330982177593057 0.01378210945061864
-0.014339663308882592 -0.029354197260646243 0.014067145439767488
-0.012674029676442863 -0.03235434492748919 0.013906692820025605
-0.004413487928201306 -0.032561342537815424 0.013936068564942495
-0.02045793248244803 -0.036303697395528356 0.013645937772083916
-0.010859701454876669 -0.0326588950218903 0.013898574318981538
-0.018417971061494516 -0.031303156368730774 0.013937288868140666
-0.003823289059160387 -0.03427741752978329 0.013842490023545245
0.0003115938746323949 -0.03413565044338997 0.013870994130341097
-0.01632123741113784 -0.028998680058902486 0.014077299800075303
-0.01581057898530986 -0.03429254573631407 0.013782117488876882
-0.006789512592586043 -0.03346997387364076 0.0138731707702004
-0.025349897865093445 -0.03707752480137531 0.013578128454626751
-0.01603099072475979 -0.0362808637433894 0.013669203456640733
-0.008772635110091204 -0.03591189051107274 0.013725994554976724
-0.02405985057190129 -0.029079585955609978 0.014034324441968287
-0.018859021616673168 -0.03304590788750779 0.013837089513447642
0.004352810378963422 -0.034185542125063514 0.013888254584574091
-0.018046468169536582 -0.028699446125333296 0.014085561734336812
0.01204271450872078 -0.032566174070943046 0.014017508558909838
-0.02093474118395186 -0.03233465505366348 0.013866782365948476
-0.020815941770380684 -0.03440535277284251 0.013750919760603756
0.0060290497357645126 -0.033049216745389166 0.013960482784776684
-0.008748183760643923 -0.0335070392120705 0.013861360683300891
-0.02005275629298932 -0.02886352278949799 0.014066372310580366
0.002751372480233042 -0.03076256864834292 0.014072804961371527
-0.002215815770225768 -0.03347401972183475 0.013895653496046996
-0.012707024282977519 -0.0342880948221771 0.01379777820693635
-0.012194964557193879 -0.030289049265081296 0.014025220262537502
-0.006815414512158939 -0.03059777153844329 0.01403456989583548
-0.022006648084621886 -0.029452620158653346 0.01402354061946115
0.0017603685461748224 -0.03260267539194376 0.013964399774307879
-0.0023814628930533344 -0.03162272324758861 0.013998944733364618
0.0047165438711269745 -0.031486507705139506 0.014041849740947581
0.0074532977083952845 -0.03434045045211011 0.01389493798114785
0.034375131025259284 0.021915594443286574 -0.01523599959909916
0.032153487170201785 0.009676032118496627 -0.01523599959909916
0.03211096304361907 0.004867582011471769 -0.01523599959909916
0.03408273689070078 0.03151860501612847 -0.01523599959909916
0.03397951336355785 0.011524822904532727 -0.01523599959909916
0.03234166908901298 -0.0013931686623081135 -0.01523599959909916
0.03204753125912639 0.0012602021826242798 -0.01523599959909916
0.03397540773282543 0.027427293203850175 -0.015235999599099158
0.03103840288002839 -0.0030391499447363917 -0.015235999599099158
0.03108431618993545 -0.005042812424626084 -0.01523599959909916
0.02955190015939606 -0.01584260944840968 -0.01523599959909916
0.03353911775499682 0.018525984378320755 -0.01523599959909916
0.02895435296511986 -0.01815300405552781 -0.01523599959909916
0.03184261393526434 0.012995838842531146 -0.015235999599099158
0.03174068727838805 -0.006880161505839193 -0.01523599959909916
0.033742033128497384 0.006784478413891374 -0.01523599959909916
0.030474476703764374 -0.011676229669839491 -0.01523599959909916
0.029732264933073016 -0.007668643881296912 -0.01523599959909916
0.033836146552545736 0.008828239066482287 -0.01523599959909916
0.03458324138212729 0.01498465675476985 -0.01523599959909916
0.03408396909131274 0.002006354030106527 -0.01523599959909916
0.035005566363669555 -0.019850562127266335 -0.014804041371303166
0.03554075027825887 -0.03565937309983329 -0.01433906492042489
0.03497478829873362 -0.0331857712545106 -0.014637336295005972
0.03584974354262365 -0.038815627723941225 -0.01415169715501608
0.0352576192595812 -0.02790774091316047 -0.014576745428978573
0.03485578414162886 -0.03110518615332172 -0.01472124534105241
0.03298530532431014 -0.03164748042513471 -0.014852797166476282
0.030925448359123225 -0.029737573244122347 -0.014997497733831609
0.03393463472576011 -0.017399942474516168 -0.014991551320884193
0.032761195306981725 -0.019484366515390823 -0.01503089960400291
0.03316883153706987 -0.0033985492240248528 -0.01522585036035674
0.03003434586102681 -0.024810935294561135 -0.015115781324002944
0.03174963058068847 -0.024372540119073957 -0.015022838525121767
0.030804850877845357 -0.018417137848956582 -0.015158188059893316
0.03314718665204599 -0.026561309404342436 -0.014912536479359449
0.03338344484486335 -0.03458233378972068 -0.014789985268891035
0.029843539022285655 -0.020560756962352336 -0.015184502021537469
0.0320751182070849 -0.009229910130727102 -0.015209716685762185
0.031991646350925336 -0.021813105444323366 -0.015043643268018641
0.028492318011354573 -0.023386200430264015 -0.015224037063364141
0.033708111357331004 -0.012295529300638836 -0.015073932225282008
0.03458981349862515 -0.025150205483129337 -0.014848523907770583
0.03350814668750962 -0.015208666022780901 -0.015045899534668328
0.034741419100993036 -0.02326908186188334 -0.014865329535148405
0.033850180966665915 -0.0066498734846131115 -0.015142411884855315
0.031634724381713074 -0.013239478162466222 -0.015180656089948714
0.034177627959622106 -0.009078961939486265 -0.01509054437411003
0.031435995821673536 -0.027767554091990446 -0.014994815461615456
0.034834366037062706 0.03733920445876006 -0.015043299294710284
0.03536838818908816 0.02892751325078118 -0.014915470650456557
0.03568863508562991 0.041682605799406434 -0.01474476295399054
0.034858512397757876 0.03376826424361471 -0.01505437812075026
0.03455459703669042 0.025462485370927736 -0.015196307643309915
0.0350253897167809 0.02009715446512926 -0.015072780162219496
0.03574301714988748 0.02359238938947338 -0.014661040512186661
0.03555771976213302 0.01699080655806815 -0.014752025360073508
0.03563366777641931 -0.014862146854242274 -0.014478025992345328
0.0355121244993743 0.0028611782024497547 -0.014688760183402724
0.035435460949937644 -0.010483970616581205 -0.01465370481177311
0.03568309252820993 -0.0010024442801504514 -0.014536627489243548
0.035755172545407235 -0.004258721268292248 -0.014461341858795095
0.035609868660490276 0.010386558984309945 -0.01466845834164052
-0.03584707602994015 0.014001177680074424 -0.014195734234185964
-0.035585369639928074 0.03228981851707745 -0.014063025612674787
-0.035961952638404876 0.03533679425262471 -0.013831009922309958
-0.03538974628423412 0.02992195029624542 -0.014194859329605378
-0.03613953829116105 0.03735942091042938 -0.01371316021488528
-0.03595358973083526 0.0029375064201581143 -0.014298147862195024
-0.03580222580139166 -0.016650785948636303 -0.014600606531674165
-0.03614502290157447 0.018169165316407422 -0.013915621970268273
-0.03559251460016048 0.0003969468238763617 -0.014512054652157196
-0.032879337647469566 0.016345976057922148 -0.014582597553698756
-0.03500566342186587 0.04087107438233312 -0.014140934455928802
-0.03264812683744263 0.012754994266204515 -0.014640267423781335
-0.034796429646413676 0.021873808775968624 -0.014357461257103452
-0.03473183505805334 0.01935779080015804 -0.014389359893468841
-0.035441678037835836 0.009534509043139877 -0.01442987197453154
-0.035154556648825934 0.007362328035834248 -0.014477619086965942
-0.035500270624352334 -0.00509147333743928 -0.014577387656601739
-0.035009652592772396 0.012249759389602325 -0.014439271645079719
-0.034353138031356784 0.002150320134339481 -0.014602010623223916
-0.0328120897761778 0.02290600976435983 -0.014520012302021455
-0.031806302519054155 0.020777698125556743 -0.014630073726241564
-0.03552952703961078 -0.0019969895347732042 -0.014542538905735182
-0.034325475885630896 0.028003746393472976 -0.014334626224474236
-0.03503818355894466 -0.008555932780849314 -0.014653903135451197
-0.03536498866991473 0.02385460341579269 -0.014287129140842177
-0.03279629498374351 0.01868522459417319 -0.014565439071202675
-0.03273052394260243 0.009980524378333314 -0.014662024165240463
-0.033946231493650086 0.03151459729547452 -0.014331113006424645
-0.03307025301127621 0.008203539802439892 -0.014650894622939182
-0.03401909733973385 0.005975157840650525 -0.014591272376213545
-0.03472583164033076 0.01545084646659189 -0.014430656258997277
-0.034375294565177336 0.017300971512772267 -0.014441966552875243
-0.034101416437215704 0.02626456298278082 -0.014372346503742502
-0.03362572094351902 0.03335806869351308 -0.014339870058907772
0.03703799843788147 -0.03840227362231072 0.004250356885892623
0.03703799843788147 -0.04029164019445733 -0.0015391005372148176
0.03703799843788147 -0.03921160395287579 0.00888752279451369
0.03703799843788147 -0.03960406093771183 -0.0046776362204200665
0.03703799843788147 -0.03943982543826545 0.002181406669549982
0.03703799843788147 -0.03847772008942857 0.010814399425071263
0.03703799843788147 -0.04007359657227066 0.0071647913254341035
0.03703799843788147 -0.04018840945496202 0.004849726785782049
0.01444084162575557 -0.04451609343098441 0.005799674952123385
0.03343635391195848 -0.04462341039398804 0.0033111131127010938
0.030092600015642783 -0.04443181570975747 0.007509372181080086
-0.0025117514152971634 -0.0443816572077085 0.00886234486017038
0.014942927121030338 -0.04433970408004041 0.009636101517050891
-0.009048663463209337 -0.044498148375335514 0.006378343574346402
0.01134720157870439 -0.04460676369178526 0.0038503078887603924
-0.012811400039854183 -0.04433600515807673 0.00993872203566463
0.023738610467293326 -0.04440998356634231 0.008035556979973019
0.025501188640722327 -0.04438717256830915 0.008518106480816212
0.01309640200484859 -0.04458362236076283 0.004340156624322154
0.0244739765110924 -0.04460591189500737 0.0037638153590493395
0.030742131772061213 -0.04481197648916209 -0.000772890981730166
0.002686409461342007 -0.04459104935155464 0.004261751231459256
0.006012345804748469 -0.04433930508865761 0.009716249625877941
0.02301685272142643 -0.044545225920618006 0.005096762820836268
0.016236268790267662 -0.044404110147745694 0.008223468733105718
0.007270494120726761 -0.04443221223319354 0.007683357622574866
0.031081147188535097 -0.044342782003739235 0.00943995189958655
0.027314755513560784 -0.044530405336557013 0.00538505346161914
-0.018295414750023664 -0.0443756981455497 0.009118387074478101
0.015886926809840995 -0.044570086961800884 0.004612527313783224
-0.010224087035588879 -0.04440223417753372 0.00847604481479936
0.009895911059712947 -0.04450321961843423 0.006116338340844408
0.02709756446108842 -0.04442607567729379 0.007658313051911423
0.020811780253946126 -0.044717411749528965 0.0013654846304483764
0.02310192139654932 -0.044799666075565 -0.00044372629568280265
0.015774173388933464 -0.04466616438359208 0.0025215800544184696
0.0009299188612330051 -0.0445211123462234 0.005798512617324819
-0.01238570893598469 -0.044513437585957334 0.006072161119765442
0.019178537199578703 -0.04459491027449965 0.004045721820334882
0.009807399189235315 -0.04468839250829632 0.0020853624762766925
0.0048440294541221285 -0.04460454717861698 0.003950604331195003
-0.017214539951293246 -0.044456924101798016 0.007341242722294447
0.03243587509277368 -0.044891216472011164 -0.0025116997227669436
0.018389234974742416 -0.04470960697730933 0.0015547991562009846
0.025544440383092136 -0.044839749460863554 -0.001335988037070419
0.021164459611227718 -0.044595184480767935 0.004023860626658971
-0.005798605084648143 -0.04443396436965839 0.007749785958833556
0.024044635106558722 -0.04469375116494023 0.0018547668745770107
0.028608340146791332 -0.044668133546863664 0.0023760094624593014
0.01662866540036139 -0.04449303659264998 0.006284174274876005
-0.020001144395595943 -0.0444198996796291 0.00816965638270087
0.01879229860715024 -0.04445871064791232 0.007014224234744158
0.021456330747114512 -0.0444218387339404 0.007795702300668303
0.0027179707164675443 -0.04442661822889305 0.007841581852792105
0.006264603672926947 -0.04453630263411028 0.005425094192561421
0.027769233718900548 -0.04477818931440553 -1.346972855566014e-05
0.0010470628850946225 -0.044357824736545634 0.009352761237320985
0.003918855786648447 -0.04435166885465255 0.009463810803353874
-0.006015588765730991 -0.04453350560315088 0.005584256754716275
-0.012421701520772746 -0.04442465889447499 0.008005386723930894
0.0075549758896396105 -0.04466646080998681 0.00258089477486548
0.011285920784956301 -0.04433675860375928 0.009729494784131406
0.03501784761476158 -0.044370272205281266 0.008809919557436569
0.028631486705135236 -0.04437246381091363 0.008813305353394751
0.01210725769446973 -0.04468956596264227 0.0020414103026573684
-0.02243250271649215 -0.044408707893566685 0.008432785322809716
-0.0014050964949222314 -0.04448807654701745 0.00653647028323277
0.02604410089036573 -0.04469641550666677 0.0017807579895580202
-0.0033566409006567837 -0.04446508427182453 0.00705268645050493
0.011902246023692147 -0.04445172878264228 0.007221370249915542
0.004110552670991276 -0.04447688539484413 0.006735994766052258
-0.008044994295136587 -0.04443091854542439 0.007834076527874894
0.03268685722036488 -0.04478920217345848 -0.0002925976611118156
-0.015606846596760959 -0.044398932095367556 0.008591011493157085
0.021610023370953045 -0.0443370470439338 0.00964060292629682
-0.0007142386184343617 -0.04458955879602142 0.0043214158416943205
0.029696024276415538 -0.0445965349321259 0.003926189683685324
0.03098058611324616 -0.0447158644595003 0.0013178039406428453
0.0255306555282474 -0.044489407022264935 0.006291966969663129
0.017806808466959922 -0.04434457007125856 0.009507240218616849
-0.02672558110333582 -0.04435767999311323 0.009578144830520732
0.03262434125109026 -0.04449348511652136 0.006146413985454647
0.014270271649025744 -0.04443057236573676 0.00766305062561457
0.0007705482063632366 -0.04490049679093582 -0.003889543656387001
0.01631251021519699 -0.044902652015397865 -0.0038909545518389013
-0.00680261326907915 -0.04489944833040602 -0.003801933414225677
0.017707819168934803 -0.04490281263411923 -0.00555243505729538
0.018310228978070997 -0.044902947169448204 -0.0029749196775115784
0.022209412247993877 -0.04490345310984751 -0.00473234890771958
0.015663026736752038 -0.044902528967945554 -0.00555791511866819
-0.008553522614490989 -0.044899205944547944 -0.0037807963918161432
0.024806322927340647 -0.04490378514793275 -0.006151757363721789
0.0029953006349018214 -0.044900817229777235 -0.003286803574907374
0.006189399491328261 -0.04490125102036001 -0.0037490158563131806
0.02196903040083139 -0.04490345765590648 -0.002817781609755702
-0.004719102380195323 -0.044899742198662815 -0.0035521892151197327
0.02591449960906642 -0.04490397818753619 -0.004162148804512159
0.029982924027628154 -0.04490451924590023 -0.005330823608820625
0.028810689592721556 -0.044904392694899146 -0.0035109801728607035
0.027161861761528523 -0.044904109014480255 -0.006292435248829617
0.020184730011059814 -0.04490317344388678 -0.004676598625541434
-0.0023260051461259403 -0.04490005618064562 -0.004455695918902753
0.012927626526742807 -0.04490218508873209 -0.0037663316436262854
0.010999496356306383 -0.04490190245156668 -0.004537471213038904
-0.015112678488360369 -0.04468397554079699 0.002134597256259191
-0.017585094271233056 -0.04463343117306046 0.003294333114667577
-0.032256210017070026 -0.04442678471702109 0.008021199580979266
-0.018782401900791945 -0.044494433044671385 0.0065015784209743206
-0.03276325928113431 -0.044607529420371037 0.003844081024915464
-0.029382751771628603 -0.04440232290857721 0.0085955121452908
-0.024529661545082918 -0.044793835090030314 -0.00043350352393918675
-0.031100691368929127 -0.044890947465264376 -0.0026980068053986794
0.009883274617139469 -0.044813581063260555 -0.0007794230103270554
0.008464366782291816 -0.04487850606375486 -0.002283840819651029
-0.00020882899534449204 -0.044868918697716406 -0.0020901424136736293
-0.019428873106701827 -0.04473156510958487 0.0010213742121857367
0.006708525336410889 -0.044847213157430114 -0.001566549174241301
-0.024325365643530692 -0.04444995241545152 0.007511395415056511
-0.010481528724348784 -0.04489192732089407 -0.002654588062912278
-0.030906243741406166 -0.04465712170533473 0.0027043683347971826
0.000652712010505558 -0.04478999316374821 -0.00026407526357459434
-0.027488645023182955 -0.04477752394342167 -6.616904646050711e-05
-0.01565661193840566 -0.04488825651393667 -0.002586365256897439
0.014538145478190908 -0.04487816813242275 -0.0022565762687457615
-0.011881983075051476 -0.04482835389163915 -0.0011904257612214172
-0.022649449423485103 -0.04468186365019267 0.0021592407415213497
0.00424307653819735 -0.04477474944832705 9.958114466259186e-05
-0.0071206831353578595 -0.04471128755428712 0.00152924862932993
0.01658535761220732 -0.04486438423775545 -0.0019315876755908708
-0.021079781458839424 -0.04457734542457095 0.004578808885825743
-0.034028588827701774 -0.044364115346993874 0.009463285169198149
0.012659720967728078 -0.044861254651757984 -0.001871865253724547
-0.022738033297634436 -0.04476128368823098 0.00032422597419382677
-0.028291436236224626 -0.04451878563066016 0.005908531520661988
-0.004357385747772512 -0.04470007608541749 0.0017971040684815543
0.027129762495955983 -0.04489303667615931 -0.0025597254504441257
0.008517105407187486 -0.044755401475204126 0.0005602426944079034
-0.021779115890624878 -0.04448175048186739 0.006784965887254679
-0.009876250790534532 -0.04472220728109402 0.0012681576651649078
-0.008026059461279378 -0.04485142545508898 -0.001711063359221823
-0.019040701292156053 -0.04481962157556092 -0.0010116286494357344
-0.0014654566312426072 -0.04480892470449008 -0.0007082100984919016
0.011685770092307157 -0.0447781524212158 4.481019239054029e-05
-0.015661504417518585 -0.04452079530430254 0.005902565723625713
0.0009879771329534617 -0.044657229622322075 0.0028040507358987983
0.006000242228812262 -0.04472991177849999 0.0011410328485592126
-0.014303952478396878 -0.044811490681233884 -0.0008086173558991242
-0.013137408387408137 -0.044745626627539586 0.0007166856314097875
-0.01651292056897978 -0.04477633762091403 -3.6015509926216405e-06
-0.031174905365332302 -0.04450740813307026 0.006162132663591411
-0.011203168390944823 -0.044618645434894647 0.0036563524795344003
-0.019669283915785107 -0.044625587975644906 0.003468846772771804
-0.027922690110325183 -0.044601809852151536 0.003991719391991037
-0.029947117148203556 -0.04458258070146071 0.004429458390046244
-0.025096569459067512 -0.044689257875115886 0.001980582691865639
-0.027397680989939648 -0.044860950984824795 -0.0019931768599858574
-0.028157239434400842 -0.044693093667742344 0.0018821646161010443
-0.006410882597362558 -0.044801973274826226 -0.0005634638926389217
-0.0049983834677567816 -0.044618283378687285 0.0036845940419538135
-0.0235622481856518 -0.04454141867621047 0.0054008219596379916
0.01882390136527632 -0.04479746374656446 -0.00037844504915561365
-0.0330231661731601 -0.04451829550580684 0.00590469575414957
0.014056355554719263 -0.044786184338196186 -0.00013314570221985354
-0.004470083690884025 -0.0448264413253508 -0.0011224978359534361
-0.002765403059598706 -0.04461120752451833 0.0038552112017770906
-0.00895120885105533 -0.04459547058160049 0.004198943287709965
-0.030843092977788186 -0.044797914119475486 -0.0005479612205938027
-0.01948176760179938 -0.0448942836854212 -0.002737856804491491
-0.025297308662583933 -0.04451935152623 0.005905050325785466
-0.013676098200348805 -0.044889685720669086 -0.0026130375178270455
0.01606555283882223 -0.04478138402384986 -1.5814088245887873e-05
-0.014902731252537415 -0.04460828872785913 0.003883757298471657
-0.02211731709489983 -0.04489306010665092 -0.0027180333358728104
-0.017359060856662858 -0.0445573870145687 0.005051799948814195
-0.03315761899848477 -0.03116707233904375 0.01367357158557191
-0.02906146972714596 -0.023080002865307103 0.014106885830415342
-0.030650447885987545 -0.028716445205140752 0.013892605398757609
-0.029022256350695864 -0.027349659492307964 0.014030696616057943
-0.03151564672443949 -0.025365522831597414 0.013894575764706256
-0.03554287536352934 0.0014768660199353679 0.013093228199528854
-0.03538594921807324 0.00993656026549111 0.01321658420547437
-0.035749040657608366 0.020206049365922442 0.013113187738246653
-0.035622568287935266 -0.0004366184756744089 0.013045115856896815
-0.03499036523811293 -0.022523585533619654 0.013199492653738596
-0.03488127695130421 -0.007857554797993226 0.013338827527090386
-0.03583534762379006 0.012261224227897011 0.013025264397588304
-0.034681987576951026 -0.01969656186251515 0.013357748610028159
-0.035179556934721294 -0.029855279361027783 0.013068262370291926
-0.035032629437740236 -0.03351879897964331 0.013113103916410821
-0.035375579321368214 -0.011923381294012015 0.013087997172659521
-0.0351085501214644 -0.014862067611243009 0.013192179106671954
-0.03389950359910421 -0.004079373220693544 0.013486567044874683
-0.03453177381504584 -0.005783929742115623 0.013393719978232362
-0.033874930321628555 0.012549122487359586 0.013444613680659323
-0.03200751663825709 -0.00854965917271213 0.01379072908743683
-0.03545179431855831 0.03334610636563818 0.013144149713644205
-0.03256247089944497 -0.027105816145856016 0.01375616692348214
-0.03404360271905271 0.007326172453495254 0.013432961750248263
-0.034384619376645165 -0.017693490585381423 0.013449183116384319
-0.03423292896351902 0.004876548489352759 0.013410494409948636
-0.032074334229782904 -0.004721652574098573 0.013769890925935795
-0.03512939904539836 0.02227822977291303 0.013224330685814124
-0.03207497980118843 -0.0026431539767529824 0.013764073496669877
-0.030832812611112176 -0.015296905487405095 0.013990504357572972
-0.03291999605465156 -0.014791039714584049 0.013667136536582756
-0.03314937267932226 -0.007046496198713905 0.01361044726198829
-0.032295090806031 -0.01076158486449037 0.013752451783666188
-0.03357878939076214 -0.024810080576244255 0.013593070633241295
-0.0348479122322739 0.014313839537140452 0.01328966344700597
-0.034931609612553496 0.01810110900803079 0.013266333416025854
-0.03387554592232556 0.0009498075575395514 0.013476427825953098
-0.034961598138076894 0.025126440889425318 0.01324238095994188
-0.03594049093561634 0.03601890458760285 0.013061408937567317
-0.031713600582079886 -0.023057457051526446 0.01387597980001807
-0.034049217998317324 -0.013325632730319519 0.013488907555900053
-0.03407251619979065 -0.0022027850053688517 0.013454715120342263
-0.0313526013716689 -0.0182525548533894 0.01391845076437153
-0.034008667392630934 -0.010366713289301097 0.013487023201060263
-0.031565214726162694 -0.02009502194117082 0.013890720816233968
-0.03160444125517778 -0.013340302342128005 0.013866087713719243
-0.035371601403591336 0.03036052040912667 0.013164733744052035
-0.03278741180554652 -0.01677128995199592 0.013693037011155653
-0.032667774567238496 -0.029064209623848924 0.01374530985000591
-0.03323853808548719 0.003050721877473573 0.013568915374930324
-0.030832700479823234 -0.03748146766058087 0.013436128365982253
-0.032357403955293365 -0.03635849572433744 0.013474907739926503
-0.028493665824991007 -0.03691316575584543 0.013542076294566044
-0.03382053711436016 -0.0406490492901662 0.013124478502376092
-0.03230934226815693 -0.03878773178304989 0.01330082341112505
-0.03063688476527556 -0.031080693862561386 0.01383381331714685
-0.02952291183173266 -0.03243117511115426 0.013780158572064322
-0.028014579272573066 -0.029145990492061572 0.01400497567652604
-0.030605476235640153 -0.03538340543880295 0.013584227304959926
-0.028595470445614356 -0.03485193109856831 0.013660076230143028
-0.033200454198920766 -0.034634180413995096 0.013569799591202372
0.03663898301777577 0.02018135478045147 -0.0012490490731076227
0.03657300855712359 0.02939615998674254 -0.009869355043044349
0.03670324159730433 0.011938209636694607 -0.0037890073566446657
0.03662802165619013 0.021924744592873177 -0.005854398025520305
0.03675712842748247 0.005162878559273727 -0.007970519787879831
0.03672488758748184 0.009575751211498165 -0.010834366870471093
0.03674175571175632 0.007075882233809786 -0.0064811011883800975
0.03668302065575578 0.014871754449244585 -0.008063135146262496
0.036617823696467953 0.022891717099961156 -0.0003533191199333943
0.036792059255570886 0.0008065958085160009 -0.011213858413854378
0.036816219384129246 -0.0025359172113800822 -0.008534964938763944
0.036848717506150486 -0.006569209267224445 -0.011845306798621702
0.036608058217736925 0.02475737295046592 -0.009124521092234952
0.03677617632328109 0.0025336340255944882 -0.005948110247296594
0.036554027121519186 0.031487819586975066 -0.003990244512480746
0.0366541076584174 0.01871593417548611 -0.008940113321371127
0.036486632633287275 0.03983168671075601 0.003178899851785955
0.03679208340276181 0.0005162858464025262 -0.006923860434718151
0.03676408441402458 0.004533752000409317 -0.012177578086826409
0.03659242927477528 0.026952490997727844 -0.011348699800532755
0.03649956752019207 0.03903327852278497 -0.010194077488294056
0.036851793044499453 -0.007280462385792469 -0.007235070465360167
0.036602507934014185 0.025005011359802563 -0.001967644981337893
0.03656159986764736 0.030642282529419435 -0.006170538208816002
0.03652069102270657 0.036225964406361714 -0.00957128446279679
0.03672488733717394 0.00926835216315586 -0.006241335379198216
0.03678015386636402 0.002294119981538941 -0.010150015945415272
0.03675537555355584 0.005553027163423905 -0.01037064315539584
0.03659343944401777 0.02655782010614165 -0.0074282511053277165
0.03659921126715978 0.025671165064317342 -0.005471559173478595
0.03666292874806132 0.017099596150266502 -0.002046454005556626
0.03682257070398502 -0.003501753498445833 -0.006528825710535132
0.03703544288547716 -0.031016195316925278 -0.011850212186157045
0.03653366638192419 0.03442714678325764 -0.008077310116633006
0.03657019372920116 0.029638293192851946 -0.007980900561297691
0.0365176649511916 0.03611659089339692 -0.0020181179225912875
0.03662720065736464 0.02229326148187956 -0.009754131397641799
0.03664630918481076 0.019517317049352317 -0.0056586234364816405
0.03655530827629739 0.031716706767160145 -0.009915812984042685
0.03654542865409578 0.0327721403970526 -0.0063590251824729915
0.036579244820205234 0.028338406823825053 -0.0062649216549412745
0.036834961934212276 -0.004841985102886189 -0.01074354516163992
0.03653139262595329 0.03434171124774003 -0.0023533385749121755
0.036690767966755536 0.013973928657027034 -0.009803691538099624
0.036547828433906956 0.032823780131827074 -0.011824595510204837
0.03652909886272747 0.03487056203614556 -0.005767669852114231
0.03669815218771341 0.012897099017348883 -0.008159710632039118
0.036494913933306124 0.03978008028888469 -0.0122486797187077
0.03648047265818028 0.04147811098459019 -0.009369502681577251
0.03676150671819493 0.0044635109971231 -0.006086093406379297
0.036670907126010316 0.016281712753617117 -0.005433326717417582
0.03669114081117249 0.013580382801456767 -0.00465341607169233
0.036537454436113774 0.033267624710485444 0.001836352858728515
0.03701283285293259 -0.028085893572546004 -0.01140272364504393
0.03680766663440358 -0.001322197253449231 -0.009938394641573142
0.0368342224986108 -0.00491502182800858 -0.008206008580013812
0.036568929331724793 0.0292965226625215 -0.00040163280744880277
0.03650390879644061 0.03790264975422806 -0.0017942066626652946
0.03680830751007047 -0.0012865172481515107 -0.011725034340135828
0.03650732027820611 0.03788211723714852 -0.008160456123898837
0.03658925647475554 0.026704868587362922 -0.001443087414742776
0.03650851106938516 0.03757380990259857 -0.005883583285448494
0.03650743164439424 0.03758116968179699 -0.0038821366137032623
0.03661381639301739 0.023885395619002846 -0.007360418352757938
0.036655444740142304 0.018711543513631787 -0.011489906276651654
0.036572795811022005 0.029046136547642622 -0.0042238642154447175
0.036482248337806264 0.040898340937421895 -0.004181043826366193
0.036907884669774474 -0.014488225348007155 -0.009268724577220923
0.03665875140106617 0.01777769618781427 -0.004006198128969234
0.036591749443215776 0.02624295659605421 0.0005815241942267301
0.03653366119999479 0.033873845147217634 0.0001991525757698584
0.03654877337304621 0.03189025477531638 0.0002739319508187727
0.03670416774714216 0.01198363896479083 -0.006279310506565352
0.0366845997319327 0.014897703785551403 -0.011539559254882752
0.0365650818156889 0.030551473708176076 -0.01162469473493941
0.03672852767981606 0.008591170599298195 -0.003244909608616087
0.03680813118129873 -0.0015825143776226382 -0.006957930460995088
0.03649038487551751 0.0397408145382711 -0.002803017281981622
0.036569616414484495 0.02933135894918633 -0.002266050413127221
0.03655493223801858 0.031224912268489946 -0.0018328559502125534
0.03674395512534051 0.006619347083695921 -0.003962613607002444
0.03664149298530176 0.020524568542746105 -0.011286267379262095
0.036863147688090604 -0.008596373333277962 -0.009785532430849616
0.036738838975166915 0.007653021046021613 -0.009398292824426654
0.036686024442469205 0.014075328087999899 -0.002040061251178479
0.03650662249915903 0.037307966034436126 0.0017822488948280677
0.03688091616980281 -0.011061011846037173 -0.007719747834242244
0.03651888018735227 0.03576109099784001 0.0009159963551243309
0.03671546242211943 0.010689178088245542 -0.009032935346877359
0.03661929198107576 0.022892280420668376 -0.0032337630663609607
0.03699499649083323 -0.025788065583895542 -0.010843581998345397
0.036883265601990664 -0.011221868351261505 -0.009912142150229154
0.036516206790711304 0.03698655470301856 -0.012163152804659664
0.03648563054270883 0.04022718903913069 -0.0007697727241453771
0.03697597264891915 -0.02332275676910185 -0.010463842281776109
0.036540765039596926 0.03362385246746345 -0.009961372949295557
0.03662359643097378 0.022900469291384472 -0.011775794199388116
0.036894137145321616 -0.012572282674216007 -0.011002158758370628
0.03693229066986792 -0.017557140525794736 -0.011158318261492125
0.03648402270302138 0.040310358892788126 0.001132673317815474
0.0366287447852874 0.021964694593018363 -0.007865722701075845
0.03649466148910068 0.039400057811642984 -0.0060773520508863865
0.036701519982883395 0.012683073283367659 -0.011549718509802898
0.03667286209158703 0.016299930228692777 -0.009529492673148222
0.036593055389382234 0.026729989385637445 -0.009249232785647305
0.036925339261994934 -0.019313209615172532 0.003536441402818429
0.0368470555008336 -0.007985530014919816 -0.0002602790088600867
0.03676571731437033 0.0019585706185630243 0.004720239368127108
0.036802829766688895 -0.0038661209028780343 0.008742334464267127
0.03666765370778602 0.015861365363337272 0.0013675506932883464
0.0368949645618593 -0.016418904369702135 0.009401485088398423
0.03661223469859806 0.022843054231504997 0.0037520135569322254
0.03697807741036106 -0.02502052535195057 -0.003312020750806062
0.03682640916469505 -0.006653019177107215 0.0068299890153568745
0.036804545257520624 -0.0019106806216124556 -0.0019485060606124018
0.036689053537196877 0.012968789818695987 0.001408121360100083
0.03675015775679615 0.004984866162707909 0.00017739498572995772
0.036836953567139966 -0.006142378177473255 -0.0026149294314537132
0.036946162686788485 -0.01950248669176398 -0.009259939718263943
0.036966677273895375 -0.02285659770526369 -0.006379523645823998
0.037025050821847 -0.030086790716327187 -0.00949593700861257
0.03672485181533651 0.00789448828601209 0.002627448734773954
0.036643619807994646 0.018694613301013185 0.003352784596876393
0.036913464899526384 -0.01750148383657383 0.0025033948246878726
0.03691998738655002 -0.018008183616616533 0.0006826651488208027
0.03692729136089212 -0.02039505656102583 0.007539379232195427
0.036635940506606575 0.020300921746523603 0.000559677246127213
0.03698432986226112 -0.025333592358623782 -0.005901504255135767
0.036698155095236495 0.01056229196266852 0.00717625039068191
0.036667054510832714 0.014836728117462651 0.006771981987099838
0.03683960526500384 -0.0074439708249367225 0.0020013668134933327
0.037030229582605656 -0.03191422528659855 -0.003973961653728811
0.03691002752681507 -0.01875620094327986 0.010902957784330616
0.03699644527943047 -0.027411795781162145 -0.0037244588685706606
0.036964303974127574 -0.025025747208038938 0.00578963819656932
0.036998760148146674 -0.029476680377205584 0.00484562782461629
0.036980494443319946 -0.02685417864631293 0.004060223914773085
0.036788485735839586 -0.0017160810988666269 0.0076826364954869246
0.036871710004479204 -0.01282037247063043 0.007131591272746412
0.03673784068247811 0.006435707575797426 0.0012004880543190779
0.0370093424332234 -0.028015980451159248 -0.009269215709426057
0.03688227397067306 -0.01374553292144829 0.004693601654499363
0.036909850674599586 -0.018277937851504125 0.008681205502175052
0.03696327238238052 -0.024507793444412465 0.003937071278941799
0.03699848328452693 -0.027205954566608233 -0.006073805039912708
0.03686640310705563 -0.011424842969839397 0.003805692925490433
0.036853616551794866 -0.00951425071904339 0.0028903728451952397
0.036774452691856765 0.002455486717315108 -0.003465503122479426
0.03701834790892583 -0.03121981129598366 0.00046049259703999975
0.03702369088213284 -0.03438108858186511 0.012395589679138683
0.03679421339683729 -0.0019907769431138853 0.005251367018258282
0.03662660937476762 0.0211864165699551 0.0023792100992090586
0.03676439158400975 0.002983307511403535 0.0005837689037117336
0.03703175619209989 -0.03375502816418784 0.004019990737796743
0.03701791368556409 -0.030518453947522364 -0.0026823995883823474
0.036829815749766216 -0.005537746680293912 -0.0008675232714511066
0.03654278084978153 0.032106307021164224 0.004229995577562119
0.03682303036046001 -0.004156535998938173 -0.003149149634652222
0.03662938715659585 0.020388043110141887 0.004452117957995274
0.03660554168082041 0.024321656176393147 0.0009333595630990205
0.0365094196248241 0.03663097513774252 0.004091979728867269
0.03689556833979037 -0.015986795210901336 0.006890982208242483
0.036974075000041025 -0.025669016939490072 0.002495963157469747
0.03695249013513574 -0.021882233046645147 -0.0017945779493355471
0.036793159320925556 -0.000692002505947184 -0.00040391785901618127
0.03679845891059402 -0.0021822762727747727 0.0033900130709563422
0.03696761191482543 -0.023398140728119667 -0.004347739158239709
0.036948344450434156 -0.020281990873892316 -0.006886534723257738
0.0367682903987814 0.001155051521365177 0.006953192107279792
0.03702048798994559 -0.03187225156631095 0.002240132694735772
0.0370057251505422 -0.030739540790053633 0.0064302666442633445
0.03700578126077671 -0.029419646136160566 -5.984478653506351e-05
0.03692619639828524 -0.020666045477623577 0.009585814757981375
0.03687762912701485 -0.01161405217786747 -0.0026667245264437355
0.03702937387605804 -0.034654695811268274 0.009988431587655463
0.0367427287780953 0.004893700092439812 0.0055185095450709775
0.03700196871408157 -0.02855671134325597 -0.0017665338871456788
0.03701191869694829 -0.028984697193882525 -0.006230685174915854
0.036908310109483575 -0.01597437314987358 -0.0015660536148604798
0.03671067536997797 0.010802271681918461 -0.0022473884261359645
0.036786281020429024 0.00070640844367823 -0.0027084139196165086
0.036963337486735054 -0.026040433078420903 0.011387445227564685
0.03695061462251857 -0.02201174332438656 7.450044951229449e-05
0.03678028534861743 0.0007024299311213546 0.00126193894562891
0.0368608935852629 -0.011954194127099778 0.010024308275478568
0.036978796493666095 -0.027341607661475135 0.007562206999500214
0.036560577231339 0.030161156055791255 0.0020130080137203605
0.0368800383158468 -0.011528225868660341 -0.004673897006318939
0.036895948857098265 -0.01461518505225043 -6.574400304484515e-05
0.036798806396433556 -0.0006770877234711613 -0.004198028931714199
0.03665156655083121 0.017358270372584767 0.004649762401160706
0.03701821155700482 -0.03194737539750735 0.004107498685732351
0.036652517958004074 0.01792105997985269 0.0012712723779032408
0.036678732611631494 0.013962868104722321 0.0033490089052612883
0.03668125188174215 0.013275141370660916 0.0050512990935337055
0.03672633754519338 0.007203463778550239 0.005026922732689483
0.036993594985187006 -0.02825131383095083 0.0022582811644735164
0.03687914991477562 -0.012243325809147934 -0.0005922603335182831
0.03699185461443204 -0.029778154885900833 0.010870039025156153
0.036982675196738125 -0.026024405322258904 -0.0014336729868002157
0.03686109061509772 -0.009330165475295991 -0.0029347445714254673
0.03685776444200404 -0.009700614651329735 0.0010682411775096556
0.0370233588737167 -0.033049494296693405 0.006104031470629432
0.036925358439338085 -0.019677822749265484 0.005306445483652689
0.036749564430204544 0.005432300963867239 -0.0016191942597697435
0.036911881878755694 -0.018082139129927975 0.0063854399289309605
0.03683198467174822 -0.0077239400328666784 0.00839183065417644
0.0369880212946209 -0.02519665313568442 -0.009003520241258691
0.03694500467917156 -0.020488252262377906 -0.003677323844866974
0.03691734308734175 -0.016748008178181766 -0.0037360123700084466
0.03674414712490926 0.004352604843278969 0.007229362503680284
0.03684155191504511 -0.006240012084427312 -0.005167706879448302
0.036762951772729244 0.0036784140303653783 -0.0018659210360768607
0.03698883420367014 -0.028926313948886 0.008695604196747947
0.036848847385544475 -0.00950814201284649 0.006003191207211643
0.03696422301645939 -0.02538135654021897 0.0075816063741946296
0.03688375391788593 -0.014665687562768873 0.008217133282728559
0.03652298115659669 0.034940459940991396 0.0034206367092345018
0.03657215042638437 0.02812332961133724 0.004349947191957731
0.03689355850831477 -0.01282942326589211 -0.007221424615710421
0.036947573547770646 -0.023358590118867546 0.008663353390974123
0.036969958593372 -0.024650862057980567 0.00023061404033191714
0.036977628540346724 -0.027843598215310312 0.010786137535659943
0.03691644603105893 -0.0160355234460084 -0.006628319905510681
0.036590472459280605 0.02551066910953617 0.005050118165742127
0.03686321991503999 -0.011367237787428468 0.0056216464368398795
0.0368996794920155 -0.015550184504451824 0.002047255111267368
0.03671673140698518 0.009231601161596539 0.001441144997822825
0.03700589836122099 -0.03167689779154289 0.01089898854491682
0.03702784099288041 -0.030791036994097045 -0.007891393195264898
0.03688637546045617 -0.013865035647303797 0.002575152803611718
0.03671933337291535 0.007708771737643934 0.007171867995837357
0.036897251728640015 -0.01569533952927616 0.004356733279984146
0.0367310107417262 0.007673310209710604 -0.00034966226451598956
0.03681019886533544 -0.003428611020905215 0.001747358338194717
0.03671233494773687 0.009064175067363456 0.005156799027844453
0.036700103446354215 0.011206022555772834 0.0027450842307376678
0.03671377015918251 0.010006231143867365 -0.0003947813631801022
0.03663106787769941 0.019771573988316308 0.006358589732124394
0.03695914147280695 -0.025104105096998522 0.00957461640923166
0.036814815845304494 -0.004657360161908733 0.004712473014528306
0.03667954875406361 0.014507716141518896 0.0001473714667743313
0.03690518538421561 -0.014935180743523464 -0.004587735235661056
0.03675477310362593 0.0036998663553844046 0.0034186026770957187
0.036941206637168406 -0.021946251471040717 0.005953778067078447
0.03684789847069045 -0.010031995285431512 0.00918967407676057
0.03686245915652673 -0.008974395364645091 -0.005575963615440701
0.03683020102245842 -0.006749788543934997 0.00480442858764166
0.036935386863935264 -0.022174047707115865 0.010902495034260364
0.03693889046505322 -0.020173998230658737 -0.0011847368795988092
0.03673974887764627 0.005729709067206769 0.0033947846128877497
0.03677709107764596 0.0015115146090650226 -0.0005888882210419604
0.0369606312727847 -0.021495571271926917 -0.009049693032152178
0.03682534646091877 -0.0053444654666653674 0.0011325774039888737
0.036992197282737616 -0.027552301020791557 -0.0002382551321166576
0.03695126215070403 -0.02252168197502335 0.002140962542752133
0.0368720386111984 -0.0117229931251184 0.0015498222148344247
0.03703799843788147 -0.03307240443826476 -0.011168578839563677
0.03703799843788147 -0.03858960614714333 -0.0063551492743946
0.03703799843788147 -0.038079188748046285 -0.010487121100518233
0.03703799843788147 -0.034176416646097114 -0.004336413550959257
0.03703799843788147 -0.03584091324922025 -0.005762133870477509
0.03703799843788147 -0.03947751648114039 -0.008584286992826179
0.03703799843788147 -0.0371419960773415 -0.0002717511893419154
0.03703799843788147 -0.03630004553437147 0.0021887423653175887
0.03703799843788147 -0.032845619567741235 -0.005802991495147733
0.03703799843788147 -0.036788620873997445 0.010254178632789398
0.03703799843788146 -0.04014130846485919 -0.01077448459561838
0.03703799843788147 -0.03527264726854982 -0.011209458438279647
0.03703799843788147 -0.03471402635468967 -0.009154655892224207
0.03703799843788147 -0.03666082960984141 0.0055428491959018155
0.03703799843788146 -0.03538262275197857 0.007497428704797129
0.03703799843788147 -0.0340386417756713 -0.0024071716907436147
0.03703799843788147 -0.03433045701696571 0.00015498115285250604
0.03703799843788147 -0.03726991012180737 -0.0022104841995418856
0.03703799843788147 -0.03630946677922456 -0.008006243344319805
0.03703799843788147 -0.032822107171844694 -0.007932023880253629
0.03668848950912214 -0.009619028868080585 -0.012720619153389599
0.036087183211897786 0.034719411771358635 -0.014194848747697683
0.03657907456707224 0.016992309525380424 -0.012856237031949293
0.03639913512440185 0.02046246185960707 -0.013368632770675558
0.03652480436482887 0.02838317627641842 -0.012932828831575295
0.03653365174055944 0.002631683070143335 -0.013100396998303506
0.03665919738081681 0.009911627450634636 -0.012669791440156019
0.03676387823949428 -0.0030319997622622052 -0.012454025143864884
0.03636101075997315 0.015357755999016572 -0.01352120199242219
0.036166594782744484 0.03156572362543909 -0.013980940400183916
0.02653790528406301 0.04361186229586665 -0.01400235345288633
0.010027375105323486 0.04342750426484166 -0.013845246204613883
0.014703047433902963 0.04348424057266375 -0.013880935049466508
0.024670453397071083 0.04386895471701576 -0.013444152868166716
0.016539148165719407 0.04360384786732431 -0.013705708068364172
0.0019132489807809575 0.04340055344466318 -0.013644271286567866
0.020215072783155392 0.04382680935962938 -0.013386972615698338
0.008206395060858318 0.04350940308827751 -0.013629140259159437
0.03292729107856584 0.044593617914813824 -0.008403773483063514
0.03321816019994983 0.044743832795027985 -0.0006509832012981361
0.032948718111989274 0.04468087623340333 -0.004858518901302259
0.033821103412242114 0.04448558111690009 -0.006815515337953502
0.03413349769689586 0.044473617373292425 -0.0022686382140427604
0.0342530534099495 0.0442823798782705 -0.010595860432934342
0.020186717347553316 0.044321972604893976 -0.011497494758038995
0.026566611087372235 0.04440679100831087 -0.01143775102735175
0.004361742333036664 0.04430596238456393 -0.010374575728916723
0.010114759808040056 0.0443664853905636 -0.010425079647940549
0.0028710648090040335 0.04409337046972126 -0.011649160654663572
0.031168048073576374 0.04465893788900811 -0.01014581629505802
-0.0032704377124176225 0.044102202030052925 -0.011114982880450779
-0.01016507730588195 0.044100454020546714 -0.010591564834612863
0.027872338933560788 0.04465542321010885 -0.009913136835335854
0.029711419684287917 0.04425425132486721 -0.012679226396400834
0.015132623697621337 0.04445510196095675 -0.010234839247688225
0.015005802348219487 0.04417104153853179 -0.012082585972104255
0.023958024924434225 0.04465806708426727 -0.009592196099583096
0.008254572048953157 0.04429589854293034 -0.010742371967300247
0.022541726268543883 0.044188818628841095 -0.012550930822236333
0.018526131303554585 0.044555062677174184 -0.00984440612988901
0.011920653719348695 0.0444031951902134 -0.01032511108576638
-0.0010966124439846505 0.04422840099332751 -0.010458350977172482
0.03218550896624392 0.04435709263429875 -0.012198632407949874
-0.011712314220679811 0.04388759729707562 -0.011863493877311719
-0.014457237580334513 0.0440104960170298 -0.01084687357834392
0.006475513496189874 0.043985472395680146 -0.012431069728067684
-0.016058802310447408 0.04303984630509314 -0.013781471781003326
-0.010073955778181879 0.04331265954805025 -0.013368890043014848
0.00021262420428225237 0.04386929061072567 -0.01244138695601196
-0.008262523521880477 0.04356938416027084 -0.012810518003064037
-0.020812952860632974 0.04361348343013613 -0.012141889607111895
-0.006419811022233282 0.04386411100433958 -0.012158944525476547
-0.02820108583522447 0.04348586797812939 -0.012130561343615738
-0.03327226110019587 0.043365111130564314 -0.012205332493215836
-0.002090329069606829 0.04382164365588042 -0.012457440604488734
0.018072338876490707 0.04408123574835245 -0.012709092195511768
-0.027274901596266603 0.04282754098728967 -0.013810496326899627
-0.031364545469098386 0.0434550948479626 -0.01206629559462142
-0.023244089436406566 0.04356730994660764 -0.012148567655271602
-0.021658272838230238 0.042975589960762554 -0.013692078694363896
-0.024931369973901697 0.04327143360746 -0.012809923652992392
0.01318705776369787 0.04406428403629784 -0.0125337515720105
-0.031884789686602445 0.0427441732629779 -0.013812739933349643
-0.03515888915957937 0.042766562975636316 -0.013611215736961764
0.004392120805242778 0.04390402326504693 -0.012541039806827945
-0.01337064400451581 0.043619416160678465 -0.012458520201922887
-0.01775903203570424 0.04380942827550549 -0.011790135931320313
0.01179878586348037 0.043247214335902034 -0.014180771390128357
-0.014096628441947303 0.042814517568938636 -0.0141976199253352
-0.004204181711323445 0.04287997976038485 -0.0142912039850787
0.03061296688052663 0.04204063304880529 -0.014744672018613717
0.028857798241578678 0.04115444320610668 -0.014872072967392649
0.009035502879974502 0.04181485294891136 -0.014777130750993558
0.030173309266831434 0.03996969748986116 -0.015042395082405638
0.03288973963696288 0.039624483092787516 -0.015092023998920186
0.020892647439536387 0.04106938327512588 -0.014884301403544686
0.007256600584603159 0.042269971561086445 -0.014711701719645726
0.015757716606654197 0.04080610698283153 -0.01492215068573366
0.02537356903138117 0.04232882386636711 -0.014703240959694164
0.0042027010342178235 0.04247899825697368 -0.014681651500050491
0.01397470735356343 0.04119389800538152 -0.014866400843182567
0.028906127701456785 0.04321769276080911 -0.014345663187471831
0.022170663608716154 0.04306686151689214 -0.014420613005381982
0.01837789595943872 0.042905342383432465 -0.01450087376122691
0.033724943763742216 0.04333595541651214 -0.01428689708384285
-0.0016493848427372166 0.0425412937196803 -0.014649111606244634
-0.005604933425867253 0.03792562733435813 -0.015167004209113022
-0.0123289712073231 0.042263520526036505 -0.014512275726545478
-0.004521892020082021 0.03975174680045864 -0.01495435383355942
-0.00632780201155638 0.041600556558334445 -0.014692361835381341
-0.018353706974328622 0.04025555974624243 -0.014668325465981888
-0.017600636092329876 0.0421697461150077 -0.014439270189084471
-0.022860028922091057 0.041352758888434364 -0.014457581103955132
-0.014902626951546281 0.040832904097587705 -0.014651112122562954
-0.025066079461867674 0.041579238195365666 -0.014393551485203899
-0.008759947325436522 0.039072189075743495 -0.014971782916290484
-0.011593769880695668 0.0404986744695351 -0.0147464614194977
-0.030054517087094827 0.04210516729306457 -0.014247025378466113
-0.0200611580534533 0.042022022104623205 -0.014418292767953741
0.014556647078054114 0.03894004373273494 -0.015134079197085754
0.00795076443969091 0.04042683643671541 -0.014941589573748693
