-0.00460561723449 -0.00457345753643 0.0145743820442
-0.0214917408827 0.00514727595495 0.014161626665
-0.00702293131342 0.00783477787189 0.0144548572854
-0.0225499391895 0.000413276167069 0.0141650731204
0.00723182928757 0.000693784345332 0.0147974506924
-0.0123147323785 -0.00915007875696 0.0144353977933
-0.00902682485708 0.015527530941 0.0143700013705
-0.0239146426282 0.00449483192376 0.0141136335595
-0.0047900606268 0.00256599140773 0.0145312892417
-0.00724324009018 0.0141966990921 0.0144152665736
-0.008332462408 0.0108705416831 0.0144103292799
0.00316093864722 0.00990752205511 0.0146602538598
-0.0032891502721 0.00355494718665 0.0145578113089
0.00649657710329 0.00605838907235 0.014752370467
-0.0155051505363 0.00720380934824 0.0142777714552
-0.0252820414353 -0.00837058677978 0.0141551073413
0.000643857610471 0.00976452798257 0.0146074612809
-0.0242792965027 -0.0105368221995 0.0141883350722
-0.0193220805603 -0.00673951615338 0.014273019392
-0.0172997870171 0.00482030078213 0.0142526477988
-0.00487831198939 0.00789402235055 0.0145001813214
-0.0193858510759 0.01195181617 0.0141691217899
-0.00514830655629 0.0131011007039 0.0144658684699
-0.0183833946966 0.0172040252754 0.0141616459616
-0.0122469699671 0.0109819402085 0.0143263963463
-0.0202114816816 -0.00938524756356 0.0142686025681
-0.0275435880943 -0.00903768521578 0.0141106291349
-0.0111834810143 0.0157694627381 0.0143227688798
0.00949551618005 0.00377590328925 0.0148287257072
0.0076011618488 0.00419693939618 0.0147860938499
0.0114731086283 0.00429797824414 0.0148679554343
-0.0269065074502 -0.0166576433238 0.0141659925583
-0.0120010282246 0.00200797864962 0.0143808622592
-0.00611579496096 -0.000526172940813 0.0145200340178
-0.0125300566657 -0.00692161763326 0.0144185892459
-0.00204834090684 0.0140633355399 0.0145265736366
0.00254253232142 0.00644846432885 0.0146660671542
-0.00747450227232 -0.00205200687782 0.0144994840985
-0.019841044298 0.00284853100026 0.014209373241
0.00460181229706 0.00636298485436 0.0147103686615
-0.0197019022581 -0.00483850748932 0.0142545058506
-0.0030891888154 0.00162865476173 0.0145726351619
-0.0211586853372 -0.0135053160373 0.0142710435743
-0.0238003682484 -0.00643467691883 0.0141760249696
-0.0115122519425 0.00922208738394 0.0143516896153
0.011932795079 0.00731812945947 0.0148611715572
-0.00587641086393 0.00407056154364 0.0144999118203
0.00148132370018 0.00156151677619 0.0146702886018
-0.0170716528853 0.00944001028304 0.0142321601011
-0.02153285807 0.0122909868009 0.0141215612353
0.0226329249851 0.0054903420033 0.0150989551511
-0.0215893711427 -0.0105936837337 0.0142459031124
-0.0133619686607 0.00540804195182 0.0143332414473
0.00576789063227 0.0030811224471 0.0147531933109
-0.0241008296603 0.00219516159086 0.0141222864356
-0.0155281894819 0.000315424282951 0.0143150705855
-0.00216481158145 0.0123392501998 0.0145335528061
-0.00101235651798 -0.00110085322048 0.0146318153571
0.0171271231882 0.00586168226201 0.0149797248713
-0.0133689698382 -0.0107088178514 0.0144215091492
-0.0133067713626 -0.00190617601214 0.0143745419758
-0.0188399674322 -0.0123836179259 0.0143142447694
-0.0247120737277 -0.0025156158395 0.0141351190871
-0.011695532381 0.00423713890346 0.0143751357339
-0.00119749776137 -0.00389363036349 0.0146431956659
0.00752928644525 0.00905682700041 0.0147579027218
-0.0185997384009 0.0143329439543 0.0141727916889
-0.0160592575311 0.00344511500278 0.0142865971854
-0.0148633986652 -0.00529822113223 0.014360017245
0.014752990702 0.000942543254273 0.0149561768294
-0.0233108920674 -0.00425202211252 0.0141744696645
-0.0168911188767 -0.0129190724318 0.014358664254
-0.000477006329552 0.00805453869926 0.0145929842216
-0.0283432138969 -0.0153839739126 0.0141284243859
-0.00713943764854 -0.00862790920723 0.0145426913283
-0.0138818007418 0.00327291816267 0.0143338898612
0.000910315652802 -0.000467453795897 0.0146692653614
-0.0126145052563 0.0141151242384 0.0143013846398
-0.0103950793999 -2.44411639896e-05 0.0144261953083
-0.00726456819574 0.00582267474821 0.0144607523029
0.0128412942942 0.00197127934262 0.0149098420111
-0.00920015069688 0.00724763706609 0.0144117353718
0.00137298100854 0.0078758396714 0.0146333422547
-0.00995719326521 0.00257086056437 0.0144212781176
0.0157088682203 0.00420867911771 0.0149586051045
-0.0223334622584 0.00269979291672 0.0141571371368
0.00107026669981 0.00508305693543 0.0146422200061
0.0248194134295 0.00538515116542 0.0151460724759
-0.0368276127657 0.0404743584968 -0.00310919862423
-0.0368832264672 0.0403530499103 -0.00109816997044
-0.0368923796326 0.0397556783054 -0.00504183296189
-0.0363634965938 0.0424322793393 -0.0128918073747
-0.0367912650276 0.0418681556756 0.00530803328829
-0.0366073361819 0.0413952621102 -0.007814029592
-0.0366166418638 0.0409905919574 -0.0103231088733
-0.0365103318036 0.0423407944439 -0.00588827871141
-0.036171592719 -0.00298693230516 -0.0138625295879
-0.0362836848065 7.99024916532e-06 -0.0136385447601
-0.036279054113 -0.00852495732807 -0.0136477979119
-0.0360521490601 -0.0104513756311 -0.014101204484
-0.0358949774733 -0.0278161912677 -0.0144152681398
-0.0366546211052 0.0311103775403 -0.0109627441191
-0.0364098540898 -0.00459926158847 -0.0129195810891
-0.0367096350567 0.0233097665296 -0.0105229245061
-0.0364202883491 0.0228199151376 -0.0128361623964
-0.0364478041438 0.00223798087611 -0.0126161820847
-0.0365175481586 0.034623500029 -0.0120586001476
-0.0365551612626 0.0247719587477 -0.0117578949553
-0.0367485780017 0.0342462149007 -0.0102115876442
-0.036341182399 0.0282307906011 -0.0134685901251
-0.0365594895626 0.0148453638079 -0.0117232915286
-0.0363737280336 0.0103652141942 -0.0132083977912
-0.0366178368196 0.0270891599532 -0.0112568231637
-0.0367061783615 0.0291001336587 -0.0105505597205
-0.0364837827698 0.0165168066768 -0.012328544041
-0.036673967826 0.0191722560868 -0.0108080730395
-0.0365833930535 0.020865631923 -0.0115321904748
-0.0366447691954 0.0364925324457 -0.0110415071064
-0.0364920991455 0.0381043091106 -0.0122620571767
-0.00155250184467 0.0446291008701 -0.00636238311748
-0.0185150845058 0.0445158779463 -0.00516105029425
-0.0219671997847 0.0444245752802 -0.00632098713546
0.00598521252495 0.0446533251633 -0.00743299086718
-0.0141154040642 0.0447014808969 -0.00225816774137
-0.0197938000093 0.0444226034132 -0.00681396108769
-0.00483307745761 0.0445830073363 -0.00662786918748
-0.0128151100617 0.0444661658461 -0.0073703316637
0.0064242094938 0.0447686569462 -0.00515147059724
-0.0273310093572 0.0444172796779 -0.00535458797416
-0.00865635143131 0.0445057810561 -0.00742093223738
0.0186750544985 0.0447227831281 -0.0086453764223
-0.0139524750429 0.0448002200775 -0.000260567930287
-0.00358480289796 0.044665429149 -0.0051919118111
-0.00694878916955 0.0445884724444 -0.0060750314199
-0.00554362495666 0.0447529447193 -0.00298357999163
-0.0195878401083 0.0446172423505 -0.0028522239572
0.000902211500293 0.0445705119287 -0.00807878471638
-0.0177474737454 0.0447797088703 0.000107370529867
-0.0241412116679 0.0446055373739 -0.00214524228279
0.00348222375999 0.0447591703703 -0.00473426407691
-0.0145863783319 0.0446096643166 -0.00404921705446
-0.0301574103349 0.0443147563499 -0.0068756303517
-0.00365415114523 0.0447728261828 -0.00296783092344
0.0103767471087 0.0446986397337 -0.00741478310166
-0.0206291052116 0.044674260476 -0.00146235727774
-0.0274065106295 0.0443188713684 -0.00736357877062
-0.0119262558509 0.0446330809169 -0.00412114838328
-0.0154681049843 0.0445015388281 -0.00609031473082
-0.0159912299884 0.0447141740382 -0.00160654982386
-0.0231599905695 0.0445389516246 -0.00371946007231
0.0128150172219 0.0448158707243 -0.00551034585889
-0.008047954511 0.0448027040484 -0.0014385158448
0.00103223926319 0.0447301035645 -0.00482232442463
0.0147445391138 0.0447937571416 -0.00636696220022
-0.0107558746879 0.0445446333614 -0.00618453759399
-0.00979274807066 0.0447934935981 -0.00126482950558
0.00824273948163 0.0447004545634 -0.00693323978994
0.0231749819779 0.0447700703124 -0.00860914551776
-0.0248296495279 0.0444766368049 -0.00465401190042
-0.020414708928 0.0444969161721 -0.00515576426971
-0.000611843230465 0.0447649283472 -0.00376359644605
0.0170905798609 0.0447769909448 -0.00720025889294
0.0201886714083 0.0447981367515 -0.00741007615718
-0.00942871028387 0.0446643623965 -0.00399742218258
0.00357108713276 0.0446661903064 -0.00666578445311
-0.0120528045725 0.0448012210019 -0.000635399954382
-0.0261428756223 0.0445511551202 0.000411586760252
-0.0324941124137 0.0443183165063 -0.00400791760374
-0.0316925005926 0.0443662057754 0.00211117692592
-0.0276768879489 0.0445062505614 0.00275057952034
-0.0258948862179 0.0445706646794 0.00371564314536
-0.0309183780811 0.0444105230848 0.00744039904394
-0.0206514429637 0.0447405368516 0.000645030965743
-0.0337745265505 0.0442928443524 0.00155403814198
-0.0339516486626 0.0443058826684 0.00730161315264
-0.0309055548079 0.0444039032336 0.00531822494611
-0.0323395570582 0.0443514684529 0.004361330817
-0.0266838130372 0.0445241137959 -0.00213211357317
-0.0244939560604 0.0446139730245 0.00227073605128
-0.0297490558241 0.0444335048313 0.00227673552029
-0.0302353589022 0.0444026342267 -0.00198198689664
-0.029380755681 0.0444372644594 -0.000395346799282
-0.0224879992334 0.0446738637169 -0.000435852913151
-0.0321448099522 0.04434380257 4.66483359886e-05
-0.0333970884711 0.0442810674273 -0.00588235225867
-0.0294031633804 0.0444257117602 -0.00363652756626
-0.0338556081109 0.044281734225 -0.000948394329379
-0.0342581686696 0.0442613573872 -0.00291742015804
-0.028757089732 0.0444782244519 0.0054779738171
-0.00456203538088 0.0447732244295 0.00882276662299
-0.0267802020215 0.0444717043635 0.00773026149596
-0.0216282553034 0.0446294710896 0.00537832889337
-0.00709098125986 0.044725051914 0.00910921966941
-0.0208132855112 0.0447299765284 0.00276582984405
-0.0218864353472 0.0445287695179 0.0082481050294
-0.0233627560356 0.0446259568411 0.00469920112688
-0.0131858228111 0.0447051735105 0.00694614010106
-0.0182726401955 0.0446983501338 0.00485115414293
-0.0178282970767 0.0446437091373 0.00667224867819
-0.013738650245 0.0447807711035 0.00445456843528
-0.0150991768644 0.0446795318425 0.00684244195835
-0.00965628654874 0.0447204907587 0.00808592588399
-0.0265645988325 0.0445464107735 0.00561216160904
-0.0248145037343 0.044523836897 0.00707199413901
-0.00722386236196 0.0447840667886 0.00729907894838
-0.0155437216868 0.0447319395844 0.00508748508607
-0.00236316418153 0.0448176238083 0.00849913838963
-0.010461748282 0.044766179527 0.00636722556856
-0.02744133952 0.0443911807218 0.0098196607431
-0.0308170290332 0.0443493930865 0.00953435432543
-0.0237126203371 0.0444670590677 0.00925342014258
-0.0155375547791 0.0448030740708 0.00298072630729
-0.0180227321225 0.0447750923373 0.0026881743179
-0.0115069416184 0.0448086766845 0.00463490576892
-0.014302896273 0.0446310627375 0.00863944869829
-0.0291466477678 0.0444410720063 0.00756993789654
-0.0187281157708 0.0445725099738 0.00837732928243
-0.00456259200788 0.0448260215887 0.00306483615641
-0.00888207000634 0.0448242793462 0.00477920930823
0.00577879475256 0.044827711216 0.00418079932362
0.024530526547 0.0448311963432 0.00531789266988
-0.00708746043408 0.0448254129687 0.00320489631796
0.00927813073967 0.044828409941 0.00429127976376
0.00668033881497 0.0448268696674 0.00635832825114
-0.000414408319876 0.0448268393364 0.0032179648125
0.0143749239625 0.0448286582297 0.00607079748274
0.00855294664902 0.0448273311429 0.00623323880548
0.0166921831663 0.0448296339691 0.00506466568644
0.00715252679645 0.0448260956785 0.00819982331548
0.0108780642392 0.0448281179283 0.00562815919781
0.00386792835689 0.0448271839738 0.00442696367142
3.04987118588e-05 0.0448260230549 0.00513611022818
-0.0137599641214 0.0448247266127 0.00163531050228
0.011540005744 0.044827328469 0.00758789705781
0.00203890166469 0.0448263006898 0.00545909527025
0.00378519586748 0.044826080163 0.0067116898434
0.00170236371084 0.0448251498797 0.00772806884152
0.0287008617614 0.0448318787184 0.00576580891472
0.0199850959838 0.0448299933769 0.00579574272279
0.0162047432523 0.0448287204499 0.00676629843385
-0.00897388955479 0.0448251712 0.00286154563301
-0.00265862361467 0.044826371464 0.00318868384422
-0.00179545226654 0.0448256372729 0.00512303434332
-0.00461190938049 0.0448249295883 0.00533980785092
0.00339267099632 0.0448278058954 0.00114306509622
0.0200936493985 0.0448306876765 0.0030896798016
0.024851433176 0.0448316539238 -0.00172634921463
0.0143400149035 0.0448297433802 0.00062609735784
0.0312645949495 0.0448328850142 -0.00558072105658
0.0273690152119 0.0448322568603 -0.00766257277895
0.0230905311276 0.0448312345593 0.00233865372587
0.0268921394604 0.0448319624901 0.000121787449
0.0263099558791 0.0448319660148 -0.00378986058897
0.0117859002039 0.0448292956139 0.000588994111885
-0.00512794217762 0.0448263257456 0.000516043864569
0.0109292362829 0.0448292140501 -0.00196004315341
0.0166878870734 0.044830205586 -0.00121014241718
-0.00733838173226 0.044825929931 0.000790699839983
0.0252378983365 0.0448318553632 -0.0066626455531
0.0204178166526 0.0448308831859 -0.00203203633688
0.0290862630273 0.0448322903987 0.00225137733507
0.00136063238481 0.0448275497839 -0.002587823966
0.0143271203788 0.0448298048432 -0.00172970525847
0.0189269918195 0.044830691552 -0.00463116239931
0.0182475352 0.0448303597845 0.00321983826601
0.0111305729492 0.0448291283568 0.00251541079589
0.00529096827129 0.0448282066221 -0.00134057449812
0.0250592488042 0.0448316392459 0.000166022750062
0.0272840983516 0.0448319306556 0.00384440232061
0.0159842147701 0.0448300184398 0.00113748760625
0.0212358128907 0.0448309325504 0.00145613177761
0.0140842683731 0.044829824148 -0.00402067917478
-0.00279699189353 0.0448267461628 0.000114655104453
0.0321773514713 0.0448329072398 -0.000473850093464
-0.0159245677977 0.0448244149646 0.00102480821401
0.00143410046269 0.0448274291214 0.0023497831966
0.0194778158589 0.0448306403859 0.000837915695221
0.0315072812451 0.0448326713748 0.00389297545168
0.0153194464615 0.0448298352966 0.00358982979428
0.0226920557536 0.0448311106951 0.00432928759223
0.00746633211592 0.044828600043 -0.00175456624165
0.0314105476551 0.0448328228848 -0.00233605654479
0.00779458824159 0.04482859956 0.000395349790036
-7.7476159709e-05 0.0448272687001 -0.00153793519396
0.00756653878503 0.0448284916458 0.0029033097211
0.0272152374123 0.044832180724 -0.00584691267624
0.00440655504652 0.0448280996737 -0.00313148122945
0.0289354940977 0.0448325065016 -0.00671637278632
0.0221632574354 0.0448312778762 -0.00528535540277
0.0269637402348 0.0448320259604 -0.001759410065
-0.0115241753546 0.0448251817161 0.00126206367808
0.01168477214 0.0448293990829 -0.00389269107605
-0.00599196161213 0.0448262143082 -0.000976459056444
0.0296242586189 0.0448325170322 -0.00263203830853
0.0185431510535 0.0448305634123 -0.00238743089131
0.00961086333211 0.0448290217316 -0.00341376680154
0.0207622616691 0.0448309952775 -0.00393841538485
0.00169545718854 0.0448275394432 -3.08433125078e-05
0.0128693023837 0.0448293994832 0.00378617508896
0.0223870068776 0.0448311775355 -0.000122869672144
0.00556812956569 0.0448281584351 0.0022409053673
0.0240360875444 0.0448315764636 -0.0041587146393
0.00976644832487 0.0448289322136 0.000905906052504
0.0159799011197 0.0448301837843 -0.00500267346908
0.0309475623702 0.0448326375542 0.00150774884719
0.030158670743 0.0448325466139 -0.000254486376243
-0.0151503427918 0.0282483038953 -0.0151448908674
-0.0266330228018 0.0362711190427 -0.0145534953751
-0.0196931313725 0.0273922327599 -0.014990883467
-0.0296212489949 0.0374919109648 -0.0144167951665
-0.0316654778214 0.0240683134897 -0.0146061887123
-0.0260747935297 0.0325032065341 -0.0146492670417
-0.0277173133085 0.0309210403775 -0.0146188337448
-0.0131943499314 0.028539915247 -0.0152127295117
-0.0315659455426 0.0332573943525 -0.0144276134144
-0.0214783156255 0.0258265239856 -0.0149547536754
-0.0278790156059 0.0285887801755 -0.0146590218665
-0.0185951153232 0.031517769931 -0.0149503580197
-0.0239297762301 0.0299303871398 -0.0147810542008
-0.0157589106055 0.0299850094275 -0.0150875258735
-0.029707574629 0.0342402585871 -0.0144780622822
-0.0276518925079 0.0376659184939 -0.0144874702169
-0.0299597184139 0.0246073577857 -0.014659699096
-0.0319765261163 0.0353707466851 -0.0143702276607
-0.0210980950938 0.0302305519512 -0.0148816844764
-0.02351119967 0.0337080470292 -0.0147218565918
-0.0277427990301 0.0266518736598 -0.0147025795388
-0.0324727896974 0.0388687059876 -0.0142821445899
-0.0230473993318 0.0278753784032 -0.0148550409997
-0.0274264594329 0.034270176898 -0.0145633309782
-0.0340823079888 0.037306939518 -0.0142525487325
-0.0306486597953 0.0392868383021 -0.0143425095281
-0.0298515299318 0.0323906633206 -0.0145093417921
-0.0177068745292 0.0284763743331 -0.015044136568
-0.0310010343593 0.0301201161184 -0.0145111240953
-0.0325024216454 0.0316352103327 -0.0144245499518
-0.0294319189522 0.027418795161 -0.0146237836372
-0.025668549621 0.0247989584124 -0.014817419248
-0.0313558128409 0.0264736231701 -0.0145701205954
-0.0256513274582 0.0291745569776 -0.0147312506815
-0.0216136801489 0.0323904174491 -0.0148194234281
-0.0234678328142 0.0259999214363 -0.014876426859
-0.0341488941362 0.0408341099432 -0.0141800593521
0.0125679878452 -0.0415403529874 0.0130225844918
-0.0145884061943 -0.0414021610093 0.0131103838187
0.0157901148383 -0.0406132449819 0.0132469508914
0.00272733054871 -0.0416784511676 0.0130075744708
-0.00464051813752 -0.041254883722 0.0131274670879
0.032358906156 -0.0399670961672 0.0133751524796
0.0289131183856 -0.0396345088461 0.013464691466
0.0220118370693 -0.0411306161188 0.0131059701541
0.0200625993701 -0.0412085037418 0.0130904221878
0.0243263773983 -0.0409871085118 0.0131371286696
0.00958683878358 -0.0407109369398 0.0132348416303
0.0179794167222 -0.0408873433541 0.0131744376919
0.00628132196392 -0.0416133601709 0.0130167818583
0.030416991355 -0.0405467622454 0.0132347264031
0.0317958786059 -0.0422345445285 -0.0123405028824
0.0336463617176 -0.0438900320881 -0.00884165795895
0.0215127666732 -0.0427669884497 -0.011922434824
0.00709750346333 -0.042988296977 -0.0124079841842
-0.00853224370448 -0.0437935034297 -0.0117808671131
0.0233873398418 -0.0445597420681 -0.00814188963296
0.0289201723791 -0.0434104090899 -0.0101277476847
0.0168204071799 -0.0425545242747 -0.0126611044869
0.0322692128139 -0.043018089448 -0.0107106623755
0.00157521496653 -0.0437023545831 -0.0113097553446
-0.00486516248425 -0.0432085823396 -0.012736167741
0.015489148821 -0.0420172402347 -0.0138441504416
0.0301686636989 -0.042696646967 -0.0115032314216
0.00884720229662 -0.0435805864429 -0.0110854779428
0.00392879645918 -0.0426868610935 -0.0132291690831
0.0111281796986 -0.0421848425465 -0.0137856311615
0.0110915439506 -0.0430851013756 -0.011950754974
-0.0115228425259 -0.0427999482561 -0.0140029570276
-0.00887690507779 -0.0428664942208 -0.0136951255318
0.0174162372348 -0.0433978121651 -0.0109013758921
0.0238619669954 -0.0422227381457 -0.0128804151696
0.026089764603 -0.0419333421695 -0.0133261789361
-0.00287540510957 -0.0426048198598 -0.0138389701147
7.33943595059e-06 -0.0424974296305 -0.0138707136532
0.0151795005806 -0.043866860256 -0.0100895572968
0.0178306823163 -0.0442186323946 -0.0091992921616
0.0200945614293 -0.0436632346853 -0.0101855693518
0.0122971662202 -0.0441499277082 -0.00969926309831
0.0132168098839 -0.0423511622484 -0.0133104132754
0.0245904686024 -0.0432370294663 -0.010763075362
0.0047000460883 -0.043387353825 -0.0117494536254
-0.0104218119306 -0.0435157231049 -0.0124706131802
0.0101218357652 -0.0441732423249 -0.00979310995642
0.0191824567981 -0.0422060866516 -0.01321863279
0.0329769544649 -0.0447476441025 -0.00713495505101
0.0282947647416 -0.0424655824976 -0.0120966205352
0.0346830981926 -0.043093749288 -0.0103993178862
0.0268138599143 -0.043571632087 -0.00993566246026
0.0148892396453 -0.0430623201757 -0.0117503425762
-0.00656873379127 -0.0428692776105 -0.0135393810244
-0.000288005884447 -0.0436043602399 -0.011630879264
0.0305154088165 -0.0442891794947 -0.00823063028364
-0.0171767948698 -0.0429176029006 -0.0141304338878
0.00667246712139 -0.0440481180999 -0.0102727231194
0.0313381270378 -0.0410652581493 -0.0138931374768
0.0284951911073 -0.0414728066581 -0.0137698369691
0.00574591148199 -0.0418814275554 -0.0142019320872
-0.0137000757854 -0.0425041998842 -0.0144352663676
0.00873379096254 -0.0420034950967 -0.0140577781351
0.0343846777028 -0.0411556432434 -0.0137631023886
0.00220073569484 -0.0420259115066 -0.0142290793655
0.0363887777958 -0.0128044707231 -0.0133298147117
0.036139949843 -0.0211083587892 -0.0137668690596
0.0361202520771 -0.000725898328216 -0.01394780335
0.0360556847451 -0.0356832630693 -0.0138330639721
0.0361803529279 -0.0297915518914 -0.0136261317212
0.0367663032185 -0.0370544797117 -0.0124104187475
0.0359726236517 -0.0230163244854 -0.0140863371053
0.0361713352308 0.0228870601085 -0.014010454227
0.0360568712865 0.00613671680735 -0.0141215707733
0.0365968571672 -0.0275312878253 -0.0128136082477
0.0368721706965 -0.030874660302 -0.012242876694
0.0364198505005 -0.0184911705966 -0.0132284726116
0.0359689702565 0.0033730802802 -0.0142771456841
0.0366565119139 -0.0146790486395 -0.0127843710385
0.0359349670235 0.0277867727727 -0.0145145652914
0.036228200875 0.00977011112822 -0.0138061424288
0.0359623246151 0.0207141834192 -0.0144109717821
0.0364453821018 -0.0071593958323 -0.0132565162228
-0.0238865650574 0.0356231709729 -0.0146686274509
-0.0116108717846 0.0336204218566 -0.0151226081356
-0.0187326600233 0.0383657125083 -0.0147579175349
-0.0237500890732 0.0393337458186 -0.0145681371524
-0.0164967040793 0.0386113305508 -0.0148233499385
-0.0160399753275 0.0357978686023 -0.0149176781546
-0.0143806842499 0.0351906870131 -0.0149885551718
-0.0220011953592 0.0357821287248 -0.0147251616868
-0.0191312329704 0.0332163071433 -0.0148906035132
-0.0141994794591 0.0371125780954 -0.0149400836319
-0.0136053495472 0.033153743651 -0.0150712422172
-0.0273015069208 0.039850660632 -0.0144385650974
-0.015079771365 0.0317946869604 -0.0150619401742
-0.0251264408325 0.0379795534678 -0.0145618720563
-0.00728445049991 0.0351117410779 -0.0152204884446
-0.00788316764577 0.0368893922231 -0.0151508493041
-0.00600702925086 0.0368973442248 -0.0152113540673
-0.0127249000352 0.031167991272 -0.0151558844651
-0.00975623912632 0.0347358419582 -0.0151511056615
-0.0118946260398 0.0373156490744 -0.0150089491298
-0.0196203900932 0.0353573834049 -0.014814235764
-0.0215705213332 0.0392878295822 -0.0146399867601
-0.0170316366426 0.0331662352758 -0.0149599819804
-0.0180363543738 0.0362891524249 -0.014839166524
-0.00969301259404 0.0304952907173 -0.0152359995991
0.00576716444408 0.0371120506704 -0.0152359995991
-0.00408992179358 0.0365695699839 -0.0152359995991
0.00261585294738 0.0336196629037 -0.0152359995991
0.0105813812596 0.0342473918304 -0.0152359995991
0.0223580637949 0.0378373844493 -0.0152359995991
0.00562097096414 0.0350969310932 -0.0152359995991
0.0172969559743 0.0364767947755 -0.0152359995991
0.0125357847576 0.0341371018729 -0.0152359995991
0.00608598488668 0.0327854807527 -0.0152359995991
0.0081089837918 0.035315793512 -0.0152359995991
-0.00571415567759 0.0300669784858 -0.0152359995991
0.00148328856848 0.0362594690194 -0.0152359995991
-0.0054989771614 0.0347318204365 -0.0152359995991
0.0133533982649 0.0363441153069 -0.0152359995991
-0.00133756233111 0.0358961626335 -0.0152359995991
0.0153976800845 0.0359623934979 -0.0152359995991
0.0260239495776 0.037844888671 -0.0152359995991
-0.00350410820274 0.0332480890324 -0.0152359995991
-0.00604705990907 0.0320010469806 -0.0152359995991
-0.00115484853679 0.033705113716 -0.0152359995991
0.0104726813931 0.0368043078251 -0.0152359995991
-4.90744774626e-05 0.0311911902035 -0.0152359995991
-0.0023646416409 0.0316423142398 -0.0152359995991
-0.0087302198375 0.0320280863933 -0.0152359995991
-0.0246022658587 0.04396531011 -0.0102907012566
0.0106543178394 0.0445184670737 -0.00944388830035
0.0123828195058 0.0446206431747 -0.00885407163014
-0.0209644176652 0.0442393095008 -0.0086186692591
-0.0193165734738 0.0439814843931 -0.0106514039037
-0.0244689356424 0.0442289271394 -0.00837702156122
-0.0137833763996 0.0442421187995 -0.00924871434929
-0.0162317392525 0.0443894293709 -0.00795078054044
-0.0286932557623 0.0440181093237 -0.00953437193307
-0.0308629210678 0.0440929317659 -0.00879122255008
-0.0327318126416 0.0440710492466 -0.00878176488711
-0.00521757223617 0.0444009440329 -0.00886449429702
-0.00108573964082 0.0443469655884 -0.00963313821313
-0.0226925444841 0.0439578293393 -0.0105183607843
0.00445440665973 0.0445734337473 -0.00848066737547
-0.00688011974468 0.0444544638832 -0.00832290569122
-0.0172725388415 0.0441710610054 -0.00945170019389
-0.00270148027652 0.044471202922 -0.00857918911144
-0.0269126648504 0.0440510999726 -0.009454683567
-0.018945923985 0.044278253498 -0.00851704369508
0.0249495329589 0.0447262125679 -0.00922135575534
-0.0341940318367 0.0437391463594 -0.0110738913165
-0.00989491375209 0.0443646300472 -0.00870602858429
-0.0344889427557 0.0441413963676 -0.00730495120469
-0.0350516977378 0.0440570694328 -0.00471238760078
-0.0334739655685 -0.0435020182667 0.0119313226018
-0.00280394995073 -0.0441829104599 0.0103543582386
-0.0239416536401 -0.0439840041411 0.011118667782
-0.0113149456831 -0.0440461024052 0.0108318200008
-0.0260546232546 -0.0442739296915 0.0102680578504
-0.0141883384592 -0.0440660370796 0.0107951637269
-0.029142169657 -0.0438486797545 0.0115652001823
-0.0177364829821 -0.0439545710563 0.0111570849334
-0.0201763406185 -0.0442128550676 0.0104037687748
-0.0271612631349 -0.0428989580363 0.0123952003373
-0.0312881807939 -0.0429507968136 0.0123824420041
-0.0167577010967 -0.0420182524841 0.0129252236966
-0.0214508185076 -0.0420797106134 0.012909050675
-0.0102088757268 -0.0426150010398 0.0124947482112
-0.0250276502079 -0.042734757076 0.0124930016869
0.0258670378215 -0.0417945415863 0.0128500908308
-0.00272201152341 -0.0424472763335 0.0125668027949
-0.00750877639444 -0.0423097741672 0.0126831894114
-0.0120183537034 -0.0421696453498 0.0127998653159
-0.0195401047693 -0.0434671064949 0.0119012432738
0.0278199807512 -0.0428293291233 0.0115837570267
0.0289800987173 -0.0418901883169 0.0126894353068
0.0180413238995 -0.0435051671124 0.0109932423315
0.031597606591 -0.0431263358596 0.0111390075749
0.0239130687982 -0.0440297416984 0.0102260830129
-0.0159376907252 -0.0433469406621 0.0119634844165
0.0097187356715 -0.0436201084878 0.0110455802544
-0.00733277373862 -0.0438613477823 0.0111458851073
0.00609564108165 -0.0435829492253 0.0111734952192
0.000418351630035 -0.0429735081778 0.0120385144627
0.00484688816533 -0.0425517564411 0.0124454166924
-0.00131392728437 -0.043523472621 0.0114151786274
-0.00554340966737 -0.0433913199557 0.011671534465
0.0304760248214 -0.0441359648921 0.00994745994156
0.0222607849166 -0.0429317608283 0.0115877856287
-0.0218930231994 -0.0435432300903 0.011863439162
0.0202988199123 -0.0426235058101 0.0120044457692
0.0346135792958 -0.0434594547909 0.0106681910481
0.0344116630605 -0.0423380906955 0.0120248148277
0.00930411148677 -0.0424587412185 0.012455314036
0.0124520350682 -0.0433059714303 0.0113616234941
0.015936170581 -0.0441491756792 0.0102650742705
0.0158717879535 -0.0423381613227 0.0124500317125
0.0263775971049 -0.0441140355062 0.0100679168173
-0.036091904014 0.0118193541652 0.0126471088837
-0.03675131102 0.0390140934763 0.0120610052663
-0.0364617889753 0.0361803273176 0.0125583022717
-0.0361900326997 0.0093486660144 0.0123881459975
-0.036720775471 0.0332630528825 0.0119697874142
-0.036089050871 0.0148661003887 0.012733028649
-0.0334755641139 0.0284649908712 0.0133146249288
-0.0319578412662 0.0055069715416 0.013694467877
-0.0306865044494 0.0279700571608 0.0134636348114
-0.0305797649848 -0.0130587050315 0.0140093395643
-0.0289305083533 0.0162214751264 0.0137080494249
-0.0249031983739 0.0198400725875 0.0138661559476
-0.0266179117358 -0.00103618289587 0.0140534421622
-0.0285578451799 0.000206957403671 0.0139379619481
-0.0298410035396 -0.0102891960638 0.0140106149512
-0.0319599369909 0.0224149812215 0.0134717224388
-0.0278741010444 0.00873608470191 0.0138605859993
-0.0301424064808 0.00128510421765 0.013842810234
-0.0255749733335 0.0240163640833 0.0137768431825
-0.030585805765 -0.000512895426387 0.0138438323978
-0.0285062189083 0.0107736642605 0.0138014610727
-0.0282489564394 0.0235054219421 0.0136469575481
-0.0288016915231 -0.00379608455732 0.0139782144269
-0.0304916350318 0.0187182046477 0.0135954156151
-0.0308423249697 -0.00435439980346 0.0138813103547
-0.0341774948895 0.0329321656382 0.0132199412636
-0.0291905991526 0.00738798871422 0.0138110774677
-0.0245470016308 0.00753130652843 0.0140464312462
-0.0352940859083 0.0385695728845 0.013088663463
-0.029349244762 -0.00652161109256 0.0139861287038
-0.0266369056827 0.0109023705558 0.0138952693424
-0.022004768354 0.0153976890344 0.0140727320986
-0.0316179628857 0.0202633262355 0.0135175260524
-0.0284751253815 0.0138740969358 0.0137622242963
-0.0310851703821 0.0106661822405 0.0136711179824
-0.032775223221 0.0184608214689 0.0134821364481
-0.0273857917858 -0.0057869953955 0.0140767681749
-0.0324658873079 0.0325546539919 0.0133123580568
-0.0264595007012 0.00640646699608 0.0139635333271
-0.0254657068249 0.0165678675147 0.0138805046234
-0.0233243745897 0.0184381502261 0.0139652778882
-0.0334070969432 0.0347051584197 0.0132359547099
-0.0302167113347 0.0132450583723 0.013681529789
-0.032661265957 0.012599604503 0.0135651368332
-0.0242386895609 0.00945325873504 0.014036875329
-0.0296846999182 0.0216968262316 0.013597420471
-0.0263854139739 -0.00362352978892 0.0140993896689
-0.0250282164932 0.0217614336549 0.0138344690181
-0.0293538020499 0.00304595431711 0.0138599137381
-0.023552517109 0.0166315291634 0.0139774110223
-0.03192215976 0.0152230095769 0.0135683536751
-0.0256058699346 0.00382520482594 0.0140411343357
-0.027870038183 0.0214272654602 0.0136936808337
-0.0313025276363 0.0170391721977 0.0135760960662
-0.0342899777039 0.0367379973136 0.0131640807552
-0.0297155607118 0.0253047276826 0.0135483362949
-0.0313942794555 0.0298847475366 0.0134022627279
-0.0298789040899 0.00494594389914 0.0138080679728
-0.0322177313998 0.0269141339264 0.0133993085827
-0.0294379192474 -0.00840410731511 0.0140063863417
-0.0340652431885 0.0222257888169 0.0133666537703
-0.0270881253672 0.0179199232897 0.0137798120556
-0.0286898349785 -0.0126425339774 0.0141004159144
-0.0266409146854 0.0131639939188 0.0138652843096
-0.0240552791583 0.0148450546709 0.0139752485894
-0.0275844821555 0.00189879143173 0.0139654135282
-0.0300211363303 -0.0166970534056 0.0140857882614
-0.0282754950586 0.00562428975427 0.0138810537749
-0.0281874117877 0.0299041007851 0.0135658464407
-0.0247506984609 0.0111872322546 0.0139878845285
-0.0305756211839 0.0237660203357 0.0135246570159
-0.0342426982607 0.0263246258498 0.0133036156504
-0.0314903660675 0.00858793835473 0.0136777821159
-0.0165579756377 -0.0379952886527 0.0135251836173
-0.0182217525125 -0.0404924855849 0.013224521344
0.014833294521 -0.0388463448612 0.0135245499144
-0.0130596171626 -0.0405160729894 0.0132381803657
0.00607296320742 -0.0394513754895 0.0134250744359
0.0188582954604 -0.0389688400642 0.0135228870095
-0.00860970755014 -0.0395586913188 0.0133655959096
-0.0289566318274 -0.0413073943203 0.0130939303404
0.0113645116246 -0.0386371635349 0.013538238145
0.0131260034028 -0.0393480667779 0.0134597676048
-0.0223702162352 -0.038138297102 0.0134897486274
0.00934660898967 -0.038881559749 0.0135029017776
-0.0320525138629 -0.0407193967252 0.0131536120174
0.00776477227726 -0.0400133440301 0.0133639973919
-0.000848762517014 -0.0391571102003 0.013437823518
-0.0195666226977 -0.0393831813029 0.0133514410706
-0.0242009916743 -0.040816006834 0.0131672037259
-0.0115256375219 -0.0393469442751 0.0133813492415
-0.0219979656859 -0.0398934173691 0.0132833445813
-0.00272092978886 -0.0390732678114 0.0134417745762
-0.0147118438577 -0.0390630367879 0.0134047762666
-0.00483104219781 -0.0394453455221 0.0133910426144
-0.0350449154525 -0.0419961334904 0.0129930684106
-0.0255213214831 -0.0385317127934 0.0134331758074
-0.028400026394 -0.0386163879969 0.0134139878474
-0.016419306757 -0.0399011718271 0.0133002035049
0.000842715206754 -0.0401342796127 0.0133276367419
0.0269948788745 -0.0375244359133 0.0136713684378
0.0246063359392 -0.0332225871602 0.0140334258545
-0.00160039693936 -0.0356148987218 0.0137684545402
0.0205520361017 -0.0342357798023 0.0139374838747
0.0306436097466 -0.0342154268887 0.0139625420989
-0.00309561371238 -0.0373566919387 0.0136161698006
-0.0090250837315 -0.0360360982207 0.0137153080065
-0.018358141118 -0.0368553112562 0.0136237429422
0.022293270823 -0.0351894709326 0.0138600181295
0.028955932825 -0.0358890830828 0.0138156346829
0.00847958309019 -0.0367731643278 0.0136927774669
0.033710749903 -0.0382312055137 0.013626496367
0.0288535035512 -0.0376658375776 0.0136635810233
-0.0057774592855 -0.0371544749795 0.0136272513916
0.0204470761995 -0.0379819791221 0.0136171427347
0.0360059709571 -0.0388470149781 0.0135791814621
0.0249537205643 -0.0388425341284 0.0135540253016
0.0169668130459 -0.0373674566916 0.0136616093266
0.010727858084 -0.0354946914875 0.01380721336
0.00373434484101 -0.0363881073544 0.0137147140547
0.0158917663684 -0.0348522790994 0.0138740375977
0.0226312051065 -0.0382808564182 0.0135966517816
0.000277066483276 -0.0366083402188 0.0136879070671
-0.0125288980077 -0.0372214096356 0.0136059311634
-0.00767105783587 -0.0374320670832 0.0135991565528
0.0147907650325 -0.0368918448857 0.01369722025
0.00390690457457 -0.0383427114002 0.0135480992537
0.0267058307978 -0.0342399908323 0.013951343964
0.0186610863506 -0.0344715012779 0.0139129728438
-0.0106898566842 -0.0369926658806 0.0136297260268
0.0250783674856 -0.0370199446373 0.0137100467282
0.00183759138143 -0.0380995872759 0.0135640916194
0.0310607566448 -0.03742948644 0.0136888767556
0.0193724483894 -0.0364004179299 0.0137497979733
-0.0198450619066 -0.0308435390872 0.0139560508726
-0.00559429147009 -0.0316691013119 0.0139803835152
-0.0166468470573 -0.0308244533181 0.0139730046558
-0.0218414133768 -0.0331766808638 0.0138149262821
-0.00580438855558 -0.0338636542468 0.0138559224003
-0.00409237092265 -0.0334123551702 0.0138898035483
0.0147578706759 -0.0330334034927 0.0140047142268
-0.00622060956941 -0.029711510992 0.0140873651183
-0.0239684689672 -0.0284673099868 0.0140692115403
-0.0261424507961 -0.0281887633907 0.0140740818233
-0.00351051193326 -0.0314018879493 0.0140057579464
-0.0129196827482 -0.0303263815904 0.0140195222371
-0.0202420785831 -0.0282586107159 0.0140994514675
-0.0159524476646 -0.0360739632925 0.0136812291817
-0.00497504263245 -0.035501366486 0.0137679383079
-0.0201944046623 -0.0358498587949 0.0136727693999
0.00734114238206 -0.0321650437617 0.0140167222302
-0.017107933142 -0.034508189808 0.0137635481468
-0.0107810164417 -0.0349837721343 0.0137682179157
0.0111266483286 -0.0337862511518 0.0139443448743
-0.00743821407405 -0.0352159631023 0.0137717582613
0.00901965967351 -0.0332601921294 0.0139634674804
0.0172207208129 -0.0332319846844 0.0140057754094
-0.0150515293722 -0.0319056993103 0.0139201186319
0.0128112363879 -0.0328805618571 0.0140036439508
0.00547137856358 -0.0318553045779 0.0140248572966
0.0216570519138 -0.0323607260295 0.0140768016846
-0.0223307403891 -0.0348754229438 0.0137169622307
-0.0221247659471 -0.0292369980963 0.0140350803318
-0.0106084624492 -0.0294128937062 0.0140823713759
-0.0190561748273 -0.0328059829439 0.0138496035357
0.00745892190414 -0.0343128435845 0.0138965184705
0.00209087518157 -0.0332426285008 0.0139300510071
-0.0019926733055 -0.0327977058527 0.0139347962222
-1.4170935089e-05 -0.0334532239589 0.0139077550726
-0.000609626066512 -0.0314660650366 0.0140165528104
-0.0245045414831 -0.0323328469627 0.0138491585454
-0.012531907321 -0.0329815981239 0.0138721228698
-0.0140834031155 -0.0341819979494 0.0137969106349
-0.0257565098112 -0.0305056681328 0.0139456994228
-0.0261700083319 -0.0337961447747 0.0137585954655
-0.00204666830058 -0.0299293140666 0.0140958415556
0.00178001078825 -0.0310641241954 0.0140510227897
-0.0105696014509 -0.0326815535383 0.0138987405069
-0.0252752576734 -0.0362887917752 0.0136228560677
0.00348261686645 -0.0317489227614 0.0140209650203
-0.0168485808576 -0.0286852426739 0.0140923085079
0.00380567446077 -0.0345192506203 0.013866770639
-0.00841751991663 -0.03223954961 0.0139342840072
0.0314438436408 0.00452706989742 -0.0152359995991
0.0342470072858 0.00949861121044 -0.0152359995991
0.0327037705094 0.00580133085947 -0.0152359995991
0.0321949011502 -0.00244264592762 -0.0152359995991
0.0317518492595 0.0100008697759 -0.0152359995991
0.0334669114314 0.027483208077 -0.0152359995991
0.0302281236109 -0.0139510753479 -0.0152359995991
0.0337564522939 0.00432120198432 -0.0152359995991
0.0331212692032 0.0195429126744 -0.0152359995991
0.0329616146582 0.0123625729241 -0.0152359995991
0.0336484468803 0.0142262189607 -0.0152359995991
0.032007694303 0.000347468583281 -0.0152359995991
0.032353020598 0.0157841911705 -0.0152359995991
0.0308160502424 -0.00979036229625 -0.0152359995991
0.0337289082376 0.0245048380277 -0.0152359995991
0.0317488837771 0.00272215262507 -0.0152359995991
0.0319821604245 -0.00529624454493 -0.0152359995991
0.031276521812 0.00774826893037 -0.0152359995991
0.0330245412044 0.021817545115 -0.0152359995991
0.0298971985548 -0.015945906497 -0.0152359995991
0.0348738754761 -0.00396345106281 -0.0150813830228
0.0356394207302 -0.0313874301474 -0.0143509356654
0.0348883385811 -0.033742603549 -0.0146702034392
0.0319916577434 -0.0203545063062 -0.0150634511151
0.0344646372747 -0.0187278228079 -0.0149429602264
0.0345681753808 0.00264626010908 -0.0152272613438
0.0340964920792 -0.0233791495805 -0.0149010186611
0.0299650300481 -0.0253591838994 -0.0151123323057
0.0346568611879 0.000107613224309 -0.0151876719855
0.0347537158762 -0.00992636126436 -0.0150458213543
0.0325812565486 -0.0282209382338 -0.0149226271475
0.0343808818072 -0.0299074216299 -0.0147959647011
0.0327357590488 -0.0107924603146 -0.0151504065786
0.0320041118069 -0.0313532168687 -0.0149133650877
0.0301314758537 -0.0273572378091 -0.0150756011406
0.0325523975993 -0.0259496548801 -0.0149551361995
0.0343529241174 -0.0272267401383 -0.014833981621
0.0322073649078 -0.0144485191068 -0.0151312205592
0.0294808663103 -0.0217768483988 -0.0151888971443
0.0335742032295 -0.0125794161347 -0.015077797505
0.0317129964323 -0.0185954964417 -0.0151034058379
0.0310275244743 -0.0120569338529 -0.0152317243382
0.0327968164552 -0.0332866176436 -0.0148414043761
0.0299308591403 -0.0191775023491 -0.0151982527821
0.0331254679388 -0.0085962692347 -0.0151577629005
0.0343398662408 -0.016832229928 -0.0149758971197
0.0321239319489 -0.0239982280556 -0.0150063411569
0.0282845393076 -0.0241737334597 -0.0152253216571
0.0355396197957 0.0312831741642 -0.0148477844789
0.0349187716735 0.033019794786 -0.0150388933617
0.0348309440046 0.0192677024447 -0.0151398908769
0.0347918164009 0.0226356365133 -0.0151347176447
0.0345947775938 0.039395424921 -0.0151097254633
0.0350391889229 0.0349766621396 -0.0149897070276
0.0348972426291 0.0372391133372 -0.0150235442391
0.0354389320642 -0.00658855725656 -0.0146778347019
0.0354184218487 0.0113688742352 -0.0148159085777
0.0356822358325 -0.014877214816 -0.0144422230974
0.0354836398891 0.024651768402 -0.014858950501
0.0356099299345 -0.0247649006623 -0.0144276462662
0.0348781498639 0.00733906427044 -0.0151854307393
0.035400782087 0.0171553145897 -0.0148685083376
-0.0360371435594 0.0241660917435 -0.0139543604574
-0.0360274844329 0.0369559626306 -0.0137749491824
-0.0360876441773 0.0208090383398 -0.013977490511
-0.0357850795486 -0.0139991286214 -0.0146300460045
-0.0362145904573 0.0396692540583 -0.0136423945714
-0.0359739860447 0.0321575281482 -0.0138707955054
-0.0355192121011 0.0150119162698 -0.0143449611246
-0.0359204184381 0.0175463216794 -0.0141080282067
-0.0357230195255 0.00214357991148 -0.0144285146994
-0.0358749862278 -0.00625437429054 -0.0144552150778
-0.0359807507549 0.00429715104179 -0.0142438741178
-0.0359167124876 -0.0158172190901 -0.0143718367653
-0.0330482979311 0.0254334909634 -0.0144730043908
-0.033978032247 0.0190764032562 -0.0144581375621
-0.0333844121822 0.00620243769703 -0.0146443373326
-0.0337684509402 0.0170077028071 -0.0144980320089
-0.035386961798 0.0123076873337 -0.014405710917
-0.0356194349134 -0.0121478877582 -0.0146406183684
-0.032809937386 0.0118259928672 -0.0146358288748
-0.035535514999 0.00689836109682 -0.014449186001
-0.0349889310182 0.0223816204155 -0.0143353477488
-0.0335036856083 0.0333596328282 -0.0143505129552
-0.032288984766 0.0201393640193 -0.0145945751874
-0.0333585300918 0.0275704379594 -0.0144236063541
-0.033452127956 0.0139384482767 -0.014557691403
-0.032917190375 0.0297466207423 -0.0144394451712
-0.0345377181109 6.32630928853e-05 -0.0146076684706
-0.0352218105187 0.034192586248 -0.0141917502163
-0.0338330001566 0.0034966658019 -0.0146333920871
-0.0351572248196 0.00876659873802 -0.0144627313805
-0.0351047566052 0.0268444028496 -0.0142786583255
-0.0351833845165 0.0297563987659 -0.0142414016067
-0.0329359426685 0.0225218111573 -0.0145132037381
0.0370379984379 -0.0395735301435 0.00448109973302
0.0370379984379 -0.0380261099551 0.0122844465184
0.0370379984379 -0.0381501971192 0.00623379395013
0.0370379984379 -0.0377361319417 0.00884861705223
0.0370379984379 -0.0394071439723 -0.00110932226287
0.0370379984379 -0.0402015345352 0.00720843729294
0.0370379984379 -0.0385087951985 0.000567133463787
0.0370379984379 -0.0408877534696 0.0105921313997
0.0361407186064 -0.040794386021 0.0131213055133
0.0363535880914 -0.0423143354571 0.0112765418185
0.031979097257 -0.0445968452341 0.00390116484355
0.0329475588338 -0.0444925878977 0.00616336238356
0.0285035433514 -0.0446982847929 0.00172037882352
0.0190186347558 -0.0445580206579 0.00485018198157
0.0174533975356 -0.0443502535471 0.00938632445095
-0.000324881750813 -0.0445898324575 0.0043123419671
0.00104887939309 -0.044416223367 0.0080812601945
-0.0151410801109 -0.0444419109619 0.00765152542125
0.0267113485394 -0.0444126400073 0.00795393214884
0.0181143100835 -0.0447217190678 0.00129328808803
-0.00373105525937 -0.0445660083186 0.00485830962303
-0.00933993087137 -0.0444182808325 0.00811959350741
0.024243835349 -0.0445595820691 0.00477437489153
0.0336004041145 -0.0443640350067 0.00895706136389
-0.0277851954545 -0.0443795779911 0.00910984865742
-0.00946898695866 -0.044521364013 0.00587624353926
0.0141535636183 -0.0445511231262 0.00503928826955
0.0118206608711 -0.0444469329338 0.0073264408919
0.022762457331 -0.044768576567 0.000235887604576
-0.00292672337897 -0.0443975843078 0.00851889197758
-0.0111986157395 -0.0444517369205 0.00740604239059
0.0302420734971 -0.0447320842643 0.000970567051428
0.0296670233466 -0.0444118247476 0.00794803159708
0.0218339044164 -0.0446536581074 0.00274538447214
0.00771670344834 -0.044543538304 0.00525593581614
-0.0183505458639 -0.0443761479532 0.00910903476888
0.00506955855172 -0.0443732713806 0.0089842612104
-0.00534810328763 -0.0444752391524 0.00684752426527
0.0320259696781 -0.0446797149042 0.00209650658567
0.0130424961863 -0.0446579625749 0.00272201269611
0.0249121438153 -0.0448235623965 -0.000978494999938
-0.000929063847555 -0.044383350655 0.00881280980339
0.0207093320478 -0.0444361899348 0.00748921756963
0.0212499690157 -0.0445598680654 0.00479210445602
0.0033196981104 -0.0445627804098 0.00487217041877
0.00975224189242 -0.0444865528642 0.00648036552895
0.0248541833082 -0.0444354559095 0.00747203274137
0.00227799969695 -0.0443374906236 0.00978563676548
0.0183092052316 -0.0444330471921 0.00757684848217
0.0202841852897 -0.0447020942527 0.00170320716919
-0.0222287863112 -0.044416118025 0.00826981783632
0.0318303468767 -0.0444270233914 0.00759980795792
0.00750808010278 -0.044689196301 0.00208626064251
-0.0193270561904 -0.0444435218171 0.00764994850873
-0.023883411683 -0.044365084986 0.00939417675174
0.0302801286438 -0.0446419453894 0.00293281478522
0.0126496301433 -0.0443720154682 0.00895095111861
-0.0172184793027 -0.0444474712698 0.00754708640661
0.0269159254531 -0.0447603526371 0.000381708072946
0.0300559069061 -0.0445014034978 0.00599456290479
0.016387704013 -0.0444633534484 0.00693237984997
0.00957563816319 -0.0446292987522 0.00337383814995
0.015525239578 -0.0443926623146 0.00847840667565
0.0273560906893 -0.0444896601487 0.00627184893054
0.0155646705272 -0.0447205475242 0.00133919736564
0.0159445655436 -0.0446332702097 0.00323640631574
0.00115874244918 -0.0445256793764 0.00569724576129
-0.00249273685477 -0.0444883285173 0.00653968737121
0.0332214556009 -0.0448116806208 -0.000786288321314
0.0219348612496 -0.0443580123664 0.00918153530822
0.0136322881354 -0.0444490738215 0.00726533198226
-0.00465387889858 -0.044378815217 0.00894136316944
0.0277103515933 -0.0448363747198 -0.00127984262139
0.0251601618159 -0.044693384239 0.00185382952197
-0.016286109897 -0.0443507415448 0.00964567752957
0.00629592607244 -0.0446124914313 0.00376601993336
0.00905329934481 -0.0443558716683 0.00933121989783
0.0268028803512 -0.0445780123917 0.00435262289733
0.0124195853731 -0.0445741323957 0.00455219304255
-0.0130752109911 -0.0444136934999 0.00824936048949
-0.0078668747917 -0.0443636800869 0.00929660326113
0.00841110450887 -0.0449015663251 -0.00338440560201
0.00557233006929 -0.0449011603416 -0.00400717721087
-0.00652778864276 -0.0448995014608 -0.00304280690293
0.0217804705476 -0.0449033766561 -0.00559010541925
0.0158018839363 -0.0449025595397 -0.00498597849734
-0.0110628180199 -0.0448988655346 -0.00339860317708
0.0194698381952 -0.0449030644263 -0.005176021272
0.0303056373739 -0.044904603523 -0.00333312078188
0.0259181567404 -0.0449040031602 -0.00292560749639
-0.0140166160484 -0.04489846184 -0.00309950655581
-0.00823722868724 -0.0448992456755 -0.003989561369
0.02021713015 -0.0449032063849 -0.00323877376124
0.0233330928429 -0.0449036208215 -0.00413153308814
0.0122263007649 -0.044902062806 -0.00503128872286
0.0325719800608 -0.0449049120309 -0.00362489710949
0.0151837655253 -0.0449025114274 -0.00308538665675
0.0286855246457 -0.0449043536589 -0.00460668301939
0.0104389375146 -0.0449018362727 -0.00395342728719
0.0314357889147 -0.0449047166134 -0.00553833876754
0.00199993677936 -0.0449006558354 -0.00446767860269
-0.0249889271574 -0.0448969416709 -0.00302897326825
0.026452304966 -0.0449040224012 -0.00569688919314
-0.00559191792118 -0.044597047367 0.00417327873353
-0.0158255063796 -0.0448112653152 -0.000808285446121
-0.0294082534767 -0.0448261135481 -0.00119481689467
-0.0309436235447 -0.0443789525296 0.00913040522839
0.0114347459154 -0.0448432927692 -0.00146084109198
-0.0214653228789 -0.0448322589768 -0.00131134045289
-0.00271045366553 -0.0448727623246 -0.00218695053024
-0.0192094555827 -0.044840403992 -0.00149227660799
0.0220737222776 -0.0449000234936 -0.00273732959482
-0.0302855652499 -0.0445206387982 0.00585933202313
-0.0130491423793 -0.0446981759308 0.00181315602953
0.011371639723 -0.0447444265647 0.000822925537183
-0.0268899699986 -0.0447648494611 0.000228549838497
0.0206526565537 -0.0448426939893 -0.00141747806284
-0.0129557503279 -0.0448483820485 -0.00165654838037
-0.0173053257553 -0.0445815210282 0.00449443745002
-0.0125299548994 -0.0445821244021 0.00449579678816
-0.0318884191037 -0.0444463375626 0.00757067555557
-0.0257293574175 -0.0446629890207 0.00258540841861
-0.023613614508 -0.044628994299 0.00337751925996
-0.022041838206 -0.044523150346 0.0058277205974
-0.021089855216 -0.0447320341967 0.00100521646621
0.00386815977086 -0.044776253889 6.36250643559e-05
0.00959417497028 -0.0448244298239 -0.00103097303272
-0.00770564226054 -0.0445974614378 0.00415694156084
-0.00418553098858 -0.0446718884442 0.0024488345957
-0.00368555219336 -0.0448009703583 -0.000531564107998
0.0187841046922 -0.0448539939242 -0.00168451082761
-0.00259049198716 -0.0447234591736 0.0012625773879
-0.0231823918097 -0.0447044304363 0.00163620426231
-0.0238973890373 -0.04477873252 -8.25842646852e-05
-0.0188103761362 -0.0447104512189 0.0015111205444
-0.0283205648839 -0.0445845738563 0.0043886240779
-0.000156678506359 -0.0448914940073 -0.00261150141141
-0.0172763764267 -0.0447513830267 0.000570444039417
