-0.029142168019318477 0.009224098225700573 -0.0215318895936594
-0.02942887084731787 0.008388834318333703 -0.01897374937311062
-0.02857495808488564 0.010989197733784838 -0.024198607094830567
-0.029287872146007744 0.01022143597658784 0.018012382281111256
-0.029504738797485823 0.009498259532356206 0.013137867663307812
-0.02970131599964508 0.009049836338541598 0.0205961674484941
-0.029224939526889017 0.010541053765681837 0.025721530097454738
-0.008999317949506829 0.022687313714009883 -0.004588207182953866
-0.012330450175133126 0.023523803632063942 -0.001430472178007435
-0.005663150104152196 0.02242036945904036 -0.005300594699306105
-0.001970855110707665 0.02234353707723533 -0.0051506864222528636
-0.003974317732373096 0.028355881156135535 -0.02455900050699711
-0.014171999879181385 0.024905796048928435 -0.00813002164858452
0.0021440000273287296 0.0287265751717809 -0.0005638594207675447
0.0021440000273287296 0.025502188472083565 -0.005580540209735569
0.0021440000273287296 0.028436870901637934 -0.013973017847270657
0.0021440000273287296 0.028200121206063737 -0.007973135034613197
0.0021440000273287296 0.02852335283044757 -0.005159596106288027
0.0021440000273287296 0.0254113083131733 -0.01676614288183135
0.0021440000273287296 0.027684487717989856 -0.018176058563150004
0.0021440000273287296 0.02829096056841963 -0.02040267511945428
0.0006400191744176987 0.030068445197090607 -0.02455900050699711
-0.005693539395501601 0.03006984455983803 -0.0035708965531140342
-0.0054996101370664 0.03008671091359234 -0.00665593262374964
-0.004897787489850197 0.03017235778842381 -0.009631975098630126
-0.005439917800165363 0.030067036039031034 -0.012531552702385233
-0.004414599051488183 0.030294936584191252 -0.001360616859597239
-0.005885831887029456 0.030062646120807796 0.0013751134213393344
-0.014171999879181385 0.0239099130984267 -0.02157509950837447
-0.008352024305974957 0.023868535109149505 -0.021978908386441533
0.00033784726370270123 0.022901780890410613 -0.017366467561895506
-0.01084502408485944 0.02401980194268459 -0.02302904816127286
-0.005813821343195384 0.023954624118036935 -0.021429803485143742
-0.002012829974066831 0.024264811225448647 -0.0210001546989016
-0.002838142609489863 0.02275802588625129 -0.017829974077957018
-0.014171999879181387 0.02719850697679784 -0.00928518867234208
-0.013731763870106382 0.027279283703954528 -0.020447465680747443
-0.012799825499961521 0.02768570940291428 -0.0243913916136183
-0.013953790870530391 0.02729064692830195 -0.012268803929201056
-0.012966478432768542 0.027730933628796684 -0.01579724571356031
0.00096234344462665 0.026089274825623367 -0.022765614397194656
-0.0025487369233071835 0.025700638249428937 -0.023220315034124063
0.0021440000273287296 0.027997946975191198 -0.023378952920127097
-0.0035766859198675238 0.023044507578596454 -0.0029308977362769734
-0.0006051889247026339 0.02308220044199374 -0.0032671042830585847
-0.009852034531366264 0.02223178565616607 -0.0072972877207632455
-0.009091994561381857 0.022040061850166787 -0.009425667947206715
-0.006933218950668074 0.02207314978509511 -0.007942433676212486
-0.0034449110096669584 0.021826663978629812 -0.009455016906195723
0.0011256974275214511 0.021771455618221983 -0.008474293587341374
-0.0019625358769969634 0.021963037452494314 -0.00746072993147217
-0.0009144540254407773 0.03049599938094616 -0.0099981379930045
6.482028982451616e-05 0.03049599938094616 0.0003673520070006768
-0.0022967309842478233 0.030495999380946156 -0.00233266185541532
-0.00030465677741886723 0.030495999380946156 -0.005372398943110758
0.0013195762200340453 0.03048879301393716 -0.0034817432110264223
0.0011469837198227395 0.030362397756212602 -0.012831622341327158
0.0012403718267247307 0.03031940767991856 -0.01518691921993284
0.001259061306451698 0.03028205890256088 -0.01757179338500847
0.0015431890985884106 0.03040583956102222 -0.007791082525707989
-0.002725344113911991 0.030435813576080044 -0.0069419080844866695
-0.003108605845612451 0.03030975277220225 -0.01596911788984387
-0.003192561152221966 0.030271615876342764 -0.01887372694299035
-0.0017665952103140213 0.030420325994990054 -0.013509850562981169
-0.0017392705916578954 0.030107454629434358 -0.024488284778290178
-0.00014720318668029608 0.030205719691555645 -0.021656936893642616
-0.0030190797795333177 0.030194847021197364 -0.021970215199836572
-0.006018603660616177 0.022594783710123613 -0.01774708650898038
0.00030408244499084745 0.022061975855898017 -0.014597791805948803
-0.008481823498700658 0.02282325014187622 -0.019067939775181286
-0.0020239213553590743 0.022179995860379224 -0.015405942601653141
-0.008413878441553257 0.02950237903788392 -0.006598076825898219
-0.008683807631078531 0.029308490093239416 -0.016467112519639622
-0.00878668125829496 0.02934280199081927 -0.012031945046687595
-0.005147845844241314 0.03005051291141844 -0.023370351738551096
-0.007994363201138218 0.029500603419149264 -0.014220128616004137
-0.00731033354598026 0.02954816634122668 -0.022825950105433954
-0.0057768331734719906 0.029934376274439768 -0.02094127445181153
-0.007173918955478825 0.029743082033506923 -0.010496157554470163
-0.007314593366545661 0.029602286139760046 -0.018650437086946994
-0.008416762842329437 0.021859844265381876 -0.011698512625483316
-0.012271524716144774 0.022402284052499763 -0.016758433747650875
-0.0004423624198503281 0.021620867349593904 -0.01131164947744386
-0.009043627610734857 0.02237497411517806 -0.016717376181441826
-0.00810927877561162 0.021970114679829914 -0.014280935502135935
-0.00498258336060054 0.02210984199872419 -0.01523560208143898
-0.011133377755466084 0.022808166276603502 -0.01928836313289565
-0.004363789212120296 0.021753774177438484 -0.013086093498806677
-0.010277032826221942 0.021945480348722384 -0.014059295997053915
0.0004633144116045596 0.024753101376887347 -0.0012906317869081697
-0.00205532796487876 0.024457210177938636 -0.0010662752951367909
-0.005106979600861635 0.024508736854841208 -0.00031579994237936716
0.00048023079507483984 0.026448992364642102 0.000338114782209222
-0.0052345496178727345 0.02618280485442212 0.0012762687154035748
-0.011965072270381707 0.028271829539093418 -0.008926738204677721
-0.011829839185099972 0.028381572632730407 -0.004324680503985499
-0.01323846198493281 0.027722847895263303 -0.006555374555225171
-0.012006398087685152 0.02820812566783064 -0.013179606292711915
-0.013484331780129623 0.027665274897051173 -0.001528159099509783
-0.010364948550900935 0.02885804533207284 -0.0003067898322444108
-0.011145787971345088 0.028489316013887114 -0.019763357228451316
-0.01039045948211399 0.028758294086093733 -0.021886527157352415
-0.009566837560369426 0.02913392962318022 -0.008689002501027485
-0.008998025168688705 0.02934868200635467 -0.0036427401068331684
-0.008190102932197343 0.02963202273010021 -1.3690926407494079e-06
-0.012270781108379827 0.022393610281861036 -0.012066538734811033
-0.006153518447479752 0.02306798805693457 -0.0026216518591244183
-0.008954648805199153 0.023530964195622436 -0.0010355278418235083
-0.012102273432464523 0.02272191546719906 -0.0061010646999291665
-0.01208439097786116 0.022457287307091185 -0.008519620174694717
0.01631581817547411 -0.020556381318445123 -0.0341915015411189
0.013398145639891078 -0.018694219122903602 -0.029221000149846077
0.009381315269457735 -0.02464582111264459 -0.029221000149846077
0.010029537214058267 -0.02162739697640626 -0.029221000149846077
0.006596967993942991 -0.024367480470181505 -0.029221000149846077
0.008649365207107039 -0.021847400187113612 -0.03428283053952753
0.011102052843241835 -0.02099183122657412 -0.034446132342288716
0.0026043160485288764 -0.026286722162427917 -0.030854168787385935
0.016389210516243993 -0.021140272559180974 -0.03141400761884866
0.01853279147495124 -0.019144082824929604 -0.03033506966250557
0.009152062067692836 -0.024984965482754504 -0.033791675471443565
0.003848487127692045 -0.025862749812897302 -0.03426996618123702
0.012097316152276716 -0.02352916585332202 -0.03370417142775845
0.005026015368398524 -0.026105088602650595 -0.030681126844093062
0.011765953715303663 -0.02393552372628149 -0.03148043495922409
0.014350797873044264 -0.02241846656241153 -0.03208782325493807
0.0189537492793896 -0.014957999810576439 -0.03340302703796243
0.0165006584169424 -0.016327309376354644 -0.031673150892766455
0.01859128311462223 -0.015214917704813148 -0.031122979409897028
0.013600303943214832 -0.017885655040218242 -0.03213444328393932
0.011105689532111513 -0.01936833431073465 -0.029686348796820007
0.006054334354444505 -0.02209583616945306 -0.030872886245954433
0.005845828664870624 -0.02221219286317608 -0.033258209066030164
0.011545912561118208 -0.019031258484518733 -0.03252451793387515
0.00811913144097377 -0.02094357522785249 -0.03197971530628134
0.016678454930611906 -0.017125367254238563 -0.034178721239183016
0.0033539697618867105 -0.023660897641586045 -0.033892344909693804
0.018846999475514388 -0.018045960038618688 -0.034658917305115104
0.013319768526275408 -0.0214892864496039 -0.03446997916392604
0.005871041290026455 -0.024473549435667184 -0.034351530205424904
0.0215956367457825 -0.01137809491651146 -0.029221000149846077
0.022583646665488833 -0.004370111365677617 -0.034188773145643836
0.01988094882432908 -0.012361703606156068 -0.03245429037989142
0.02309881200557249 -0.0019973688593712905 -0.03309679448516225
0.019458801661253893 -0.01347954080625004 -0.029479629578631716
0.021482064406956904 -0.0071899909213218975 -0.03259806248671385
0.02202586247223709 -0.005380230089166153 -0.030644721890451233
0.02356319282799162 -0.000531655990283516 -0.029269052648043012
0.02294390950413385 -0.00248480878707001 -0.030666526708607457
0.02383802155047027 0.0003351241526123128 -0.03245752225885291
0.021169914446388716 -0.008079797825263614 -0.03039952963507566
0.024079610013468925 -0.00391773068161338 -0.029221000149846077
0.02651866924587287 -1.9927304502143756e-05 -0.030780894807549152
0.025908065698081538 -0.0054749141607467085 -0.03215529475071151
0.026339154078172042 -0.0029370872606392373 -0.031170600937828065
0.02640304030989188 -0.00030712718003895415 -0.03349779237653039
0.020566023434152616 -0.016641536445258547 -0.030878195762049216
0.020838531451534817 -0.016432602089431775 -0.03363694287911963
0.022686209102955174 -0.013752071926161801 -0.033303371067711446
0.022700018725422065 -0.010006937525339958 -0.03438747648433766
0.02527657475753602 -0.003973061943734986 -0.03442576256004793
0.024565806209312917 -0.006694807767575592 -0.03436930123690899
0.023965351431167313 -0.011710286159631496 -0.03288801824607622
0.025212809588795605 -0.007893385503968052 -0.029300586960828136
0.024721810318395113 -0.009562298009958142 -0.03291366879993731
0.024634081296208372 -0.010200612359345763 -0.030535901352347655
0.010642510937141567 -0.010430959940531618 -0.026074670263031213
0.003584779567375061 -0.010087002601673912 -0.026169012363074555
0.006263922423482502 -0.018946517066164757 -0.02590036771215267
0.005998803530600426 -0.004524461445717899 -0.02628825441722278
0.005386618591455622 -0.008128474351380107 -0.026199509992881218
0.006734539001447995 -0.021650078649192807 -0.025822575066454575
0.01280359162983416 -0.014003408934712847 -0.025953302020571233
0.009016657953059507 -0.00790072423447104 -0.026161780239379553
0.009139910743868877 -0.013353170370271197 -0.026014856811733992
0.012070623634976118 -0.017962129604785156 -0.025856553801892244
0.002992880976971553 -0.023959408029561875 -0.02580612864045064
0.010193478127992234 -0.021496953550039492 -0.025784919511092453
0.015265824502883295 -0.019758656771833447 -0.02577007669652624
0.004054346393961848 -0.016390982929301166 -0.025995196429952926
0.01016714691128312 -0.015825633632875757 -0.02593651150121836
0.00399920462043076 -0.0191679498352179 -0.02592179027054365
0.006474592780557456 -0.014731355339701121 -0.026010258830168102
0.00984226995716465 -0.01866336193784602 -0.02586473958622329
0.012555446205419912 -0.02016845515689327 -0.02579185277958788
0.0062362553932731124 -0.024294885067135556 -0.025758041607937224
0.0032954846614749464 -0.006890096514040761 -0.026257776201638463
0.004339308139509574 -0.021815133117549977 -0.025847076370421496
0.0071758873754945215 -0.011556390138073799 -0.026086483718348617
0.0049228135711520335 -0.01267492361677071 -0.026083836903444603
0.0021440000273287296 -0.025998010322719298 -0.027281900879171518
0.0021440000273287296 -0.013271483870795743 -0.027113623055151262
0.0021440000273287296 -0.018273924799701007 -0.027906870769325087
0.0021440000273287296 -0.011541859557075406 -0.02865141578445899
0.018064203571229065 -0.02376042225057911 -0.026550217421591766
0.018654792306339943 -0.02105018719486842 -0.02781534938799933
0.018848000094294548 -0.012622334338252331 -0.026534438093083444
0.006601940717856289 0.0011914633526666834 -0.028863703590759276
0.006456086676064383 -0.0012714196572774857 -0.029009215774315488
0.012836525087088973 0.0010171612329856173 -0.02887400171776363
0.008889496832277848 -0.002175214174049843 -0.029062613809500544
0.01513960940679707 0.0002462373482577508 -0.028919549483276425
0.011123302126515848 -0.0008599166141461502 -0.028984903329873628
0.010301676639958691 -0.004120164014376229 -0.029177525438282947
0.013176070518350748 -0.012386019036031037 -0.029221000149846077
0.010745232252358797 -0.012302522626232245 -0.029221000149846077
0.006536939470205282 -0.019787376679664 -0.029221000149846073
0.008075306304169319 -0.015977718697303477 -0.029221000149846077
0.010835044383424967 -0.016691102786906387 -0.029221000149846077
0.012855461070481978 -0.021501370333937214 -0.029221000149846077
0.016521024652543206 -0.01669779597726378 -0.029221000149846077
0.013965066140131316 -0.01539663960190187 -0.029221000149846077
0.004626247569841126 -0.02125018030279109 -0.029221000149846077
0.012774555482329388 -0.01010295896966581 -0.029221000149846077
0.016015215333861733 -0.019017042099849214 -0.029221000149846077
0.004219084360062274 -0.02451951024469918 -0.029221000149846073
0.010902344360967044 -0.006496833264726425 -0.029221000149846077
0.01334647744623119 -0.0023838013801414887 -0.02907136405068453
0.015614109939251693 -0.01175027699890742 -0.02919198355480706
0.013516814687044468 -0.005021504305824548 -0.029124558065765783
0.015379596295696732 -0.006531411114265982 -0.029082526762871135
0.014949756495473438 -0.00936828053169362 -0.029164908384950398
0.012329766328809118 -0.005676587001819155 -0.026236581438972867
0.016134096547425845 -0.013246577446829281 -0.0259662496664432
0.016621805876539032 -0.004134287422292226 -0.026291355046267985
0.015197437563340363 -0.0001568159890568885 -0.026433360043704196
0.018279193948012445 -0.008887286946495652 -0.026121664565928817
0.003990757682174739 -0.00012495673574938835 -0.026435167869390895
0.012126903764138837 -0.0009804644505379025 -0.02640415540109409
0.018142942428818885 -0.0016732523951153591 -0.02637907587106843
0.01417234000684919 -0.010991769684608058 -0.026046820676321962
0.00693471632121158 0.00033871392314124057 -0.026451535764325785
0.009563361823688273 -0.005447864164454034 -0.026244908125636478
0.01555667473190028 -0.01594249169591583 -0.025870091632922705
0.012590538742306267 -0.008585478989105241 -0.026132773979680772
0.010634726541951193 -0.0034211661494924412 -0.026317158353372172
0.014317445807196925 -0.0030682367377547074 -0.026329530665258328
0.014737128201577448 -0.0069005864228294704 -0.026192763901301996
0.009672404750706541 -0.00117487775444788 -0.026397365538232406
0.006379487495917093 -0.0021512411980386817 -0.026362725206101112
0.0152800445262108 -0.022815860431192575 -0.02869851610044715
0.013348098722138727 -0.025257734549516325 -0.028039672734959713
0.01577047541244218 -0.02470108575808371 -0.02771314168451092
0.018848000094294548 -0.007510855780431989 -0.02855137461349446
0.018535300323151798 0.0013729373633821242 -0.028201024177118623
0.017714948304270145 -0.0031757582691538024 -0.02878646758637555
0.0077157324180267975 -0.011292833165458323 -0.02922100014984608
0.004653092686487771 -0.013371659140684992 -0.029221000149846077
0.004922023439987702 -0.016379878484165167 -0.029221000149846077
0.006990803491981686 -0.013656733963151521 -0.029221000149846073
0.0022427384491845353 -0.020464439584898155 -0.029221000149846077
0.009109739974383912 -0.00889093280072331 -0.02922100014984608
0.0030745873434090357 -0.0012568726855948136 -0.028938017977788152
0.0021593089167313904 -0.0036027588837881782 -0.028984754888395546
0.005148213915895327 -0.005093089361919296 -0.02909464713790677
0.004598732707882319 -0.009835242964540162 -0.02921834273784276
0.004468020601091857 -0.007438517985337057 -0.02914665158158349
0.007278255072335062 -0.007267736840323429 -0.029204877983696906
0.008124415346025723 -0.026684816173113825 -0.028481278452589708
0.003835225804444813 -0.027937526784728064 -0.028396001581042753
0.010056184355028504 -0.027689745270652773 -0.02735357183543283
0.007731341431798113 -0.028826637393907534 -0.026429731107456358
0.010713152414334457 -0.024038054652271195 -0.025724999606609348
0.018848000094294548 -0.015906981884487255 -0.028576084943739415
0.027864441942978557 0.0017430000007152557 -0.026921572163327197
0.025244587035228864 0.0017430000007152557 -0.026982274234584713
0.023115990259263447 -0.008834603964577666 -0.029221000149846077
0.021950311373550302 -0.013936531591002478 -0.029221000149846077
0.0210027767939695 -0.02022786432744778 -0.025724999606609348
0.026433247179546905 -0.007326205911064976 -0.025724999606609344
0.02681885165549063 -0.011906024821341893 -0.02741543202177188
0.02430804806714835 -0.012747533971683819 -0.028684294108087836
0.024245651467679263 -0.017713170469806507 -0.02583519844183389
0.02552887178061872 -0.01510297364952141 -0.027246827810475542
0.020695750643874414 -0.019551433453889672 -0.027945683339553468
0.022889742532109958 -0.01834788594669793 -0.027568539636447495
0.023356912820374776 -0.015644629403361577 -0.02841805537495549
0.020026418281122702 -0.005460393719175319 -0.028810690360844153
0.021566810483027686 -0.0014334812086185692 -0.028859688192358603
0.019096666219849692 -0.010577432859165996 -0.028968731559374572
0.02070846530379747 0.001180443320394112 -0.028493129001342737
0.029702963239524857 -0.0005766693717466004 -0.027130280984065377
0.028860492468160633 -0.005603258289799959 -0.027394453089803976
0.028521859640910866 -0.008490434265067159 -0.02732996050717945
0.02688606583034087 -0.001585692416086624 -0.028950568708112398
0.027783823078258815 -0.0007311784101807819 -0.025724999606609344
0.024243131086880563 -0.009676454480450163 -0.025724999606609344
0.01925206126799551 -0.016832121266261164 -0.02581133550145774
0.02435381951065702 -0.006361089440189334 -0.025737487158626737
0.02093865537835904 -0.014910266531721134 -0.025760889530704892
0.024907403188112805 -0.0005169035600962842 -0.02580907038289903
0.019356332091236376 -0.004058364046020283 -0.026022169535833892
0.021817257432736194 -0.012139636836077706 -0.025764526443268133
0.0213081422125313 -0.00808089201761986 -0.025858181947548867
0.021946253670318515 -0.002855117851055762 -0.025915153250711483
0.021815965338533666 0.00010056731037789957 -0.0259715309252023
0.0058748789744776375 -0.02955001211930911 -0.025096005637339776
0.011310868895744671 -0.026972340434323366 0.029440000653266907
0.012488754793456094 -0.02622199989855289 0.012741373749717393
0.014299820395777558 -0.026221999898552895 0.006300952990990897
0.015087534489852224 -0.026221999898552895 0.01925727372841586
0.013125643254702743 -0.026221999898552895 -0.006036167130587787
0.011040446272130858 -0.026221999898552895 0.023257169745950636
0.014320411226867294 -0.026221999898552898 -0.012870197525194532
0.014795915102329913 -0.026221999898552895 0.027336573304871697
0.002145000034943223 -0.028519163463316472 0.011065397788573872
0.002145000034943223 -0.029949997115498384 0.020527938133542825
0.002145000034943223 -0.030298600252745937 0.02721089582135979
0.002145000034943223 -0.030308140940253366 0.008081629071332981
0.002145000034943223 -0.02863012929664809 -0.006076184444414719
0.0030900910329698657 -0.028010384441446042 -0.02546299730923121
0.01172966438341519 -0.02622199989855289 -0.012079499283558476
0.01288639751299752 -0.02622199989855289 -0.018482140793990562
0.008473114531407002 -0.026221999898552895 -0.016572218553567074
0.010545811066547315 -0.026221999898552895 0.008394252610239631
0.010995283331417291 -0.026221999898552895 -0.014623829724575573
0.009686668177239377 -0.026221999898552895 -0.0230225378816483
0.008387960809939128 -0.026221999898552895 -0.013819602429806076
0.009273067508900827 -0.026221999898552895 0.0031019951009197567
0.008212016685101504 -0.026489706965551543 -0.025045429577986257
0.00603294578451395 -0.026797925770632024 -0.025126742249875753
0.01495059051147323 -0.026952029334598022 0.021564033177326282
0.014655506188488905 -0.026248781173847133 -0.020741180641040732
0.002145000034943223 -0.030488682720310897 0.013767833758384463
0.004276089661389038 -0.03049599938094616 0.026027288727029873
0.004122233697130699 -0.03049599938094616 0.02279169231209278
0.01160036659366451 -0.028121346123971047 -0.0179630484451279
0.011849277597939268 -0.028436061762969648 0.016732349325440096
0.011975408910226241 -0.02813380734767086 -0.004358104608150176
0.011511890307876358 -0.028241820262720436 -0.010836209731501512
0.01118800329507731 -0.028505956884735277 0.0004383141329391948
0.011173790869218835 -0.028411579087232113 -0.007942202866661939
0.012926488591865824 -0.027980015125471422 0.026364074031972898
0.014325040269072376 -0.027314697322184063 0.024298680034116137
0.014341732640305615 -0.02721795504968781 0.016436723592888225
0.014039154634332867 -0.027339839018911197 0.014086892012926157
0.01206697193724356 -0.02820901565066298 0.00540654325659449
0.013502815050419656 -0.02756835487365076 0.011028575129980164
0.012794023786859806 -0.02801309212277428 0.019659494628832222
0.013381478689736286 -0.027593295780262435 0.007961331578314756
0.012389093560120924 -0.028245089817434114 0.02263016860605105
0.010313739714336332 -0.029074352594504357 0.020588382884484238
0.010748440617603884 -0.028651150711603908 -0.0017795491761651606
0.011338057363926686 -0.028608930997160064 0.014284480301318654
0.010120144775370172 -0.02902285843404256 0.009611091923994664
0.009955160104705346 -0.029284570292847777 0.026921471905675662
0.009991424205222851 -0.029226772051454575 0.023092759892690974
0.006562221132455101 -0.02983649412658998 -0.00843030593322746
0.008108695562110805 -0.02975688187934379 0.01879254779835778
0.006134758172125939 -0.0300879526745717 0.007347980110866292
0.005982887458601001 -0.030198404255357508 0.015097905025127104
0.006489233631167745 -0.030140585525836226 0.020786491831475497
0.007363311726360513 -0.02984428379558156 0.010650831872620763
0.007807395538560419 -0.029871074370866037 0.0235107139819212
0.006860955692728224 -0.02983588695876853 -0.0016714382783367242
0.007451271094565243 -0.029730949101588217 0.0011489149117054395
0.004548452421607788 -0.030244946520438652 0.029371292338259573
0.009090898829684202 -0.028991078863046627 -0.01902988729766656
0.008604715058988244 -0.029449153745830015 0.0053469232937264945
0.00980895595367264 -0.028743193232375067 -0.02183392504903776
0.009595088397488521 -0.028768923356337864 -0.02472407117147933
0.007201171375172717 -0.02956305689199464 -0.01787636420393447
0.008872415091819236 -0.029209142796745705 -0.007129521641561195
0.008160355755489715 -0.0293750482795954 -0.010537760126373417
0.008130681740055969 -0.029694701624994387 0.013541313764753357
0.009267141960108674 -0.028974983264332656 -0.016252583279730226
0.009340785883323268 -0.029199220126482 0.0027955506870090806
0.008483424517092752 -0.029625805563744036 0.016259053107614885
0.007315115035567948 -0.029490913863266285 -0.0208622169665795
0.007686032959530606 -0.029593134397539793 -0.004476842563266829
0.009970125474971923 -0.02880428305752218 -0.0134008913644413
0.014397201961872302 -0.027043496020351478 0.003710178916220268
0.012374001802237548 -0.02771799382446571 -0.02475911190586252
0.014309307640801724 -0.02703045820153784 -0.0011598391815599018
0.01381493870522785 -0.027192026735760266 -0.008394763999043908
0.007500189882742996 -0.026620449299832753 0.010735272373390623
0.009016355688166994 -0.026319955531215716 0.01504430598796203
0.007254435453199675 -0.026500506514230023 -0.001530727305746226
0.004507233678493004 -0.02758896845706892 0.02797309299884867
0.006698812414907149 -0.02672972320826731 0.005058861638594744
0.004571141746582185 -0.027338058662750638 0.01181377276343094
0.006710028924326735 -0.026851528398282913 0.01359774136118539
0.007208353986569456 -0.026449442030192474 -0.00579059556732013
0.007505017095783657 -0.026764921596912978 0.02072385738194013
0.008368101825512297 -0.02652560258159629 0.018494792498983
0.008730460361090684 -0.026516389525020126 0.023818594051753312
0.0057759154336972495 -0.026891447427678176 0.00098268541543599
0.01013773276775711 -0.026228695637823828 0.027215791941131304
0.005380798583711711 -0.027326802118502292 0.024349199551184548
0.006581989299322619 -0.026796182496198924 0.007697151135689126
0.0027529917625656033 -0.02797332403512729 0.025503062649985742
0.004181278263063221 -0.027573417004367887 0.021549033581805054
0.0028106400904584156 -0.0275449223926445 -0.003274217153345074
0.004218582296425513 -0.026951305260133084 -0.020929851236893428
0.004661395536243993 -0.02704189804514387 -0.0072160986783559805
0.005787359199582428 -0.026642659867558857 -0.01609048580961382
0.0035676860812471943 -0.027392223654090463 -0.001199816138693131
0.004069492018416969 -0.027421435829497756 0.009237531437549901
0.002482625931008278 -0.027870038765568508 0.013819539649991226
0.003546994541250565 -0.02719870697607943 -0.01499231849431967
0.0021715464791821426 -0.027854182516386945 0.007505759679742934
0.005690465197563364 -0.02684555664950408 -0.0036163589108473802
0.002963489688293695 -0.027375551494319618 -0.012481393732134723
0.003043577819864384 -0.027773506100553756 0.01651092957637429
0.006263019831283617 -0.02657132743546402 -0.01307718244032067
0.003632122882975598 -0.027430683359494862 0.0025520439531048628
0.008182203553335224 -0.026221999898552895 -0.010926711131661795
0.00913610274473592 -0.026221999898552895 0.0065295666067974045
0.008199739864621716 -0.026221999898552895 -0.008100640309809639
0.006031126116954045 -0.026554748454177657 -0.01891383692823415
0.006561102696475724 -0.026441112341754648 -0.021942918844538133
0.0051783820453999325 -0.02997774491047857 -0.01939801615843585
0.006135502234503685 -0.029873784625821777 -0.014027848680270795
0.005392563607069794 -0.029909081703739526 -0.02230500226868376
0.005205851593838948 -0.03006040811193365 -0.011492712708133103
0.004848023998431077 -0.03020190049389621 -0.004212586081347508
0.0031996610485630446 -0.03012853649448232 -0.024076216968437994
0.003995590844683308 -0.030462470133626785 0.010627810148879688
0.0035561158470555354 -0.030241489137564775 -0.017008925087336205
0.004532493165788441 -0.030481849532035827 0.018842280422180994
0.004615848992747169 -0.03033597901875744 0.00493858539752008
0.0029666969254765205 -0.03033371917139446 -0.014454454980762563
0.004504416034496224 -0.030310213310816715 0.0010168198061849352
0.0028180178009422803 -0.030375002058886325 -0.01197305351485138
0.003646094609546249 -0.030326418212967155 -0.0073044349761347376
0.021356726466386602 -0.021974649349897263 0.003221257095076628
0.020996557501591292 -0.022292381278757656 0.0008859756823717834
0.020786205151543592 -0.022605350219292147 0.011268645651588811
0.02097007259372725 -0.022484101315378854 0.016236848759857307
0.02020677767623626 -0.023252224881101652 0.020025125584193882
0.02036287522950022 -0.023134960947790054 0.022921957239481837
0.02080811969537174 -0.02261318055220697 0.013915177507218497
0.02118562252011959 -0.022059773187139264 -0.003956811941338784
0.024323490179400345 -0.01728699915111065 0.02194967996751068
0.02221714551785873 -0.01728699915111065 0.0002787546360881153
0.02332002214030433 -0.01728699915111065 0.0023582187585516404
0.02238166248316221 -0.01728699915111065 0.01721199748415151
0.009644338008767971 -0.025876903725239202 -0.0050272417622573605
0.012138215747290198 -0.02592742565480874 0.025500946044261574
0.009575202285265972 -0.025850546473609307 -0.000629099536448895
0.018324040850726885 -0.024107096533899308 0.02944000065326691
0.013663954137084669 -0.023284763265704146 0.017997080759790816
0.0156613836340137 -0.021929743566781536 0.02107219407187938
0.012799993610732651 -0.02287646391593038 -0.000669598786783401
0.011699985683674053 -0.024065857430156955 0.00536323301653951
0.01829622540306419 -0.019964249299018154 0.02202417281513394
0.011016283785283121 -0.02509438184272895 0.014156041420742458
0.012213443532176951 -0.0243093998375276 0.016472440657510926
0.016868643107781012 -0.021331220557511795 0.026774377105608503
0.020373092342402286 -0.018346052720678567 0.02157279120533096
0.011222977287851706 -0.0239739934766146 -0.0026143579689451024
0.020706887449186848 -0.01832767193071267 0.025714058490825895
0.013541775451767263 -0.023576923992513363 0.0214575817031621
0.016947539471766734 -0.02033561752908749 0.010471304044498156
0.013031196767248471 -0.02255321468686676 -0.003214813980523732
0.016766370070271812 -0.02089191435812023 0.017748327614469452
0.017561921555021853 -0.020159077034074657 0.015605674781075262
0.014546345327955835 -0.021624546679737375 0.0008469651774725574
0.01643571258671939 -0.020473381957274998 0.006031719127286481
0.014325825220767223 -0.023325307140085585 0.027550937081845948
0.014568339399811232 -0.021840914745439668 0.004913180611680728
0.01100363262712753 -0.02397490934940619 -0.005530294548242661
0.015215597864042654 -0.021908273833734615 0.01473921990112834
0.015748799850604685 -0.0208134237730511 0.0027783892269721364
0.01173704599475835 -0.02296924725077835 -0.01326003823631527
0.012715912994673149 -0.02342196519850704 0.00771696406611273
0.014392832450144732 -0.02308190532101912 0.02420305636771482
0.012307146642617079 -0.02266871306394189 -0.010879306790156312
0.01393064378385666 -0.022650361991833106 0.010501479488756356
0.016737805929430374 -0.02129511219554238 0.02439599737449421
0.014756965784934172 -0.021835853862899927 0.0073462512372576595
0.018297254570968136 -0.019834676351123924 0.019778914193430152
0.010867403695986263 -0.02454303218479642 0.0025536110206570532
0.013153865704985807 -0.02340341937190171 0.013247592701283633
0.01034800533047681 -0.024256808698681527 -0.010847771272611573
0.010499175515816129 -0.025793437471307582 0.01763327408804035
0.010765279603245356 -0.02568382163413687 0.020169775697401072
0.0100693811673413 -0.02419486791209349 -0.016492145417961623
0.00845584360787306 -0.025605912033141824 -0.01924979114509862
0.010440408499237911 -0.025452399467698127 0.010896185785080411
0.010898055271237056 -0.025975975084229195 -0.007381033577962616
0.013119434002154037 -0.026107852174868655 -0.015205606991420335
0.012021644763197961 -0.0260543361911193 -0.02131975876434313
0.015295355110628238 -0.026215393802990407 -0.004343696753910591
0.015593222986232613 -0.026213994125479256 0.01094703612447363
0.01199314584159078 -0.026027779199767544 7.122059495326123e-05
0.024184612649752683 -0.01728699915111065 -0.016696402585369592
0.024504899526735822 -0.01728699915111065 -0.012575381942623308
0.023368593701853894 -0.01728699915111065 -0.008064348928359687
0.022039581966503134 -0.01728699915111065 -0.021883681065417444
0.014147838307786941 -0.021572836228818556 -0.0058622484627439105
0.014944378184311788 -0.02118312447879105 -0.0018114208525595917
0.015643860179907314 -0.020598187930844697 -0.0038536160125760607
0.01385136148258913 -0.021653009639769412 -0.008866786830172783
0.018724679763860205 -0.018905235610521973 0.007531120316185861
0.019409258571430558 -0.01880889835642703 0.016517086198704675
0.016328856136656307 -0.02028664895841768 0.0001743955827887047
0.018932916820138136 -0.019034795453608488 0.013929547351144149
0.0202011777563529 -0.018353548766571665 0.018977970406252098
0.018578817264880823 -0.019220459544137997 -0.0254592301426102
0.01765536957865922 -0.021644355960604024 -0.025723999366164207
0.01480943291606912 -0.022742263831304885 -0.025723999366164207
0.022190986159398633 -0.01728699915111065 0.01982762210622708
0.02118634470193902 -0.01766773669854648 0.012619571254932486
0.019180106665480427 -0.018477687050985236 -0.0033000161186121438
0.019383710080326678 -0.01844019589859318 0.0022781493430212717
0.020863593523319256 -0.0175870681911684 -0.008640537931168955
0.02072108897573398 -0.017859425456236058 0.009269661686630907
0.02053911777478166 -0.017699481307849964 -0.01286235522450141
0.01892585237614415 -0.018561070881460806 -0.0070248732949087685
0.019691777726725257 -0.018256997615675386 -0.0004913715054417171
0.02111234546620158 -0.01749632655824985 -0.0058083883134426376
0.019728895270497482 -0.018122146357102582 -0.010821129014062028
0.01949975016915856 -0.018409863532463492 0.004662719450680009
0.020811078444582496 -0.01903447475350946 0.029440000653266907
0.01818806833802519 -0.02044837933475393 0.0289108762480939
0.012963227637213904 -0.02214407703524424 -0.02143525001177671
0.01689018829094996 -0.01999241306656168 -0.023725459369471756
0.011524478572090999 -0.023439612197700223 -0.023183816768727966
0.010770917505351696 -0.023495254240554903 -0.0191837842809117
0.010153989756316454 -0.02407084579717006 -0.02146825347945874
0.01367984005013968 -0.021633299518011576 -0.014787129154502922
0.012445724091962075 -0.022385735272428132 -0.017728696723197428
0.01660974395376221 -0.0199580553524719 -0.02115656100766982
0.019120202901030732 -0.018560434326830924 -0.022627246059709664
0.015366532222184748 -0.020628246352328114 -0.010968501131153871
0.020111237470492038 -0.017891671256308566 -0.01771581270883671
0.018398181923486086 -0.01887599226590556 -0.014545216384926962
0.01719220303683036 -0.019557994711431367 -0.010143423594401287
0.017462132399270025 -0.019441306743849664 -0.018252773406459286
0.019821404980868068 -0.018072803423646425 -0.020070583747618755
0.016280829969281416 -0.020111923418040564 -0.014450012884062533
0.016242752496603945 -0.020095448378164116 -0.006781470992866785
0.014463500510055686 -0.021197546013264488 -0.019285034014123587
0.024441791230105116 -0.018686728799561347 0.011486571135214289
0.025054506174979903 -0.017518140039776187 0.0275194617026178
0.025000033462806735 -0.017912369029071805 0.01882945405702458
0.025043610909898664 -0.01794639240068461 0.02490829160320622
0.024642402724030038 -0.0183403747519321 0.008496917137722645
0.024437555689934425 -0.01791956450422128 -0.01987671894099129
0.016607022292499052 -0.02569389960787968 0.0012941675019953868
0.01664468682462665 -0.02560581812872456 -0.006631097049940726
0.01755663042382972 -0.025260473086803695 0.020997218935195617
0.017635673833527973 -0.025261759515770973 0.02722629800212808
0.018202712067320884 -0.0248807222003477 0.023979776638810648
0.01695849038041988 -0.02560836040367511 0.017783426045731576
0.016489236848840544 -0.02573867269319138 -0.00225354125350293
0.01673936425442346 -0.025648737154937973 0.005912095323643856
0.01805968518950202 -0.02483644278045058 0.008862694343109281
0.018717460748026167 -0.02442842551718402 0.012613247664756468
0.01723917936664379 -0.02515802313488706 -0.010906280557664527
0.01764641466383948 -0.024744078869143045 -0.02157757282928966
0.01817176580917529 -0.02464699369278354 -0.00015647627204408215
0.017647388436674263 -0.024801420165848062 -0.016905379538226743
0.01566421517261345 -0.025858621167938235 -0.02472837372508776
0.015986071618249862 -0.02591303866764967 -0.015268608225906014
0.015472309987848785 -0.026083469732013437 -0.018642577386192405
0.015982156976387482 -0.02610758706840194 0.008440608624366231
0.016116892801644977 -0.026094959052246514 0.01326405072803224
0.018461946261885107 -0.024316490010979012 -0.009052919471790984
0.019215453050969594 -0.023968885899547352 0.006488408329063989
0.01806940313350441 -0.024531782267633584 -0.014738093722109158
0.019182036135062006 -0.023936885954319215 0.0024568893237132683
0.019101232241610484 -0.023617452134312954 -0.02435384421058006
0.01909180344422383 -0.024225455439849 0.01800263241958965
0.020009200292185197 -0.022856639535747677 -0.02186219660037178
0.02092226250333575 -0.021864935780272182 -0.02377148197898321
0.02340899119677331 -0.01937026112850966 -0.023578239340012738
0.022538994042695815 -0.02038164236069922 -0.020021244696175212
0.021126870057636443 -0.02193701436597842 -0.016502935509193118
0.019706616327497765 -0.0232636714535454 -0.013057923197740419
0.02006680979943884 -0.02304942022200256 -0.0059098728394491205
0.020252459329082307 -0.022948632141835526 -0.001546105610289001
0.020344037810644165 -0.022771680037835796 -0.008362161884300936
0.02329009087572687 -0.019811851052069 -0.004832056991715054
0.023840318372141785 -0.01949793623474422 0.014601207265601095
0.023720354849815717 -0.019489336573616806 0.0052789852450021435
0.02363786571715385 -0.019860686217157638 0.02377099791812479
0.02286140915533355 -0.020510347637986558 0.009989969855962445
0.023496173530716716 -0.019671514887030533 0.000944016498649709
0.02258480233621077 -0.02085793953164958 0.012747664338198995
0.022641443639187596 -0.02084870925073918 0.01627191118949657
0.023747323921182697 -0.019209044251273007 -0.011254259316003837
0.022721080316701593 -0.020794149001017427 0.01923601626484628
0.021697967112855838 -0.02181717489339632 0.021786350492842846
0.02069573975420616 -0.02281938654206031 0.025828504810778433
0.023338238104703903 -0.020177480372974822 0.02734959976627437
0.02281852155529183 -0.020177233899784444 -0.014240981948618024
0.022009910309095042 -0.021108046270482034 -0.01092563583124887
0.022401722845104288 -0.020966012798693985 0.0068917377589622145
0.02270312588577972 -0.02039409929938409 -0.008485524450863119
0.023133853615002878 -0.019777676271375215 -0.017832791275744685
0.022701432051061475 -0.020501281841283546 -0.0018634421351340635
0.029253806651328335 -0.007593438936247521 -0.018699094931213772
0.024389709179094936 -0.012535816013204965 -0.025723999366164207
0.023464455794099212 -0.014912240951011027 -0.025723999366164207
0.027460271420928276 -0.009669525945505245 0.02944000065326691
0.025749232202641817 -0.012384394533362635 0.029440000653266907
0.024380479917786954 -0.01728699915111065 -0.02316707051268435
0.028340723737908233 -0.0075755770686372365 -0.002241961968716493
0.02729780481310664 -0.007575226281622668 -0.015901971237928185
0.029164581479737987 -0.007575865099429015 0.005114194682016553
0.022457364045668105 -0.015322772800698839 -0.006195268262643324
0.022699955572239656 -0.015668884299447412 0.01083511728777095
0.024061031422071118 -0.013701679812686518 0.026306868018132062
0.022892585138699795 -0.016091422538041335 0.027383919519571753
0.024725385155220235 -0.01207753529788282 0.02025796545515421
0.02661958023901138 -0.00860817840215534 0.026802489964214322
0.023367616728779985 -0.014945311496153578 0.023370116642055527
0.023459444786045985 -0.014600271080417952 0.020064568711403483
0.02322035387485193 -0.014866663005332518 0.015724868471518813
0.024294422762324602 -0.012701678371995217 0.015384899473184499
0.02257810473723457 -0.016040041224559123 0.013445478639742204
0.025599299256698373 -0.010456953626530808 0.02286881823402559
0.024461994439617166 -0.01206928003603817 0.009296377900697159
0.023151037856053415 -0.014584918422295926 0.007113043037079882
0.024500827527869543 -0.012676593235896665 0.023328494271240348
0.023611091710443288 -0.01342941844493672 0.0022931909317481704
0.02508737885311401 -0.011618371781996121 0.025684665120240292
0.022690890171099598 -0.015367428767478028 0.004288288140986626
0.022321995660307917 -0.0158233162988419 -0.0014882825983269163
0.023958804214043325 -0.012863611569113899 0.004950107215367398
0.02385775944815547 -0.013428285446534799 0.012377231510372042
0.024457553394819243 -0.012488625932534997 0.017704784386739912
0.022373257884520673 -0.01728699915111065 0.005893714617241655
0.0230833813503084 -0.01728699915111065 -0.003974472838256592
0.021626597656921206 -0.016646919369188024 -0.015780008108069357
0.022511555872844015 -0.01678502445257224 0.024598853284807574
0.027230830674168358 -0.014496930873476633 0.027884364371013104
0.028199362499096544 -0.01226554252217456 0.015062487324867832
0.028065259138373756 -0.012697057596031673 0.022397609952945086
0.02752222313014522 -0.01297839979644011 -0.015107745973948265
0.027277300870122815 -0.013706392985152235 -0.004466888742381891
0.02700282420828918 -0.014704743188392032 0.015824963826771274
0.027760808505780443 -0.012776693046181838 -0.002209881422495858
0.027808490080797957 -0.013289744387329851 0.025735940154440785
0.026987991437695452 -0.014517490100868644 0.005863860833856876
0.027299514538244047 -0.014035698550548075 0.01269149369265079
0.02797889655390299 -0.012798570168236337 0.019035379424786735
0.02677885608573289 -0.015226640977159993 0.01896256010377017
0.027730074476465895 -0.013112093698218764 0.010313462216960643
0.025177325198040664 -0.01728699915111065 0.006493382480568395
0.025718039888208845 -0.01680077527113308 0.015826257017197077
0.026005493924552807 -0.016354424545744956 0.008998781644419914
0.025355157838357588 -0.017103303426338153 -0.0015869852165102463
0.02651213736859502 -0.015850581221907856 0.025183598250503692
0.02529424627725181 -0.017158632639071324 -0.004056134619746488
0.02943084142693659 -0.007761183054476847 -0.006284828965504795
0.02961980761280025 -0.008039722837136892 0.015195734506441044
0.029391851366730715 -0.007643283955358 -0.010505300367779918
0.029151609687850098 -0.00847250362979254 -0.014983021958201594
0.028925581134901204 -0.009667301295414559 -0.00755184750018726
0.028630130495679234 -0.010079706466492344 -0.021767626178680208
0.0276710513725893 -0.01242490520855698 -0.022812442929776328
0.028140467808801882 -0.011393071295565597 -0.019596466288001817
0.0282501560096512 -0.011948345130733435 0.007831231258840762
0.02850583130736084 -0.010687953422192545 -0.013810835816244763
0.028101117948886686 -0.011883156573047948 -0.0063471028636072685
0.028663012813359336 -0.00966791233384617 -0.024770718248395492
0.028639460889884085 -0.01066455616648819 -0.0024400303358206813
0.02955285895835425 -0.008661828223905595 0.020077867135997726
0.028756966134838018 -0.011226229902706223 0.02790129997466668
0.02857515790302629 -0.01102234634301021 0.003236771980118387
0.029264099462300304 -0.00963974542956623 0.02450811692016407
0.029041610023498705 -0.010093352436392347 0.017876646334697262
0.02895260760306919 -0.010003339620257179 0.006130517365301966
0.028953987588753338 -0.010228702983809587 0.013814838457554266
0.028621588385368664 -0.010475026041978936 -0.010541942031419378
0.028661669857400388 -0.011018068482089798 0.011580156394029274
0.028934074948837325 -0.009913284702333401 0.0012959450930504143
0.02870013273658087 -0.01117178420574066 0.020502282559785454
0.02856669099878051 -0.010452305227441337 -0.016688358542112963
0.028877824299819957 -0.010321975688495313 0.009467681544159468
0.023495741783838037 -0.013157612488029356 -0.02369833014578861
0.022340887046371497 -0.015170557302462449 -0.020536115349021253
0.021699572528586997 -0.016887658493581082 -0.024470079426993096
0.026222395014087352 -0.0075857448691162965 -0.018136900793510748
0.023772142620812182 -0.012283289701635646 -0.0204032685668654
0.02542532309958946 -0.009113865426562631 -0.02206620940193918
0.024636436194001226 -0.010626293949011592 -0.018886953007890138
0.02366458215218489 -0.012489501161716344 -0.017525645928146115
0.022778477303413584 -0.014571045527045568 -0.008492322891026067
0.02644763917089241 -0.008579570130456507 0.018766441679325348
0.024023135531148605 -0.012486331672572931 -0.0003972809822931356
0.02233962945750674 -0.015281873197980689 -0.011879908539356134
0.0265817835645063 -0.008439820920347119 0.02151004784805333
0.025519941117067155 -0.010220276804313236 0.014646867924541354
0.025207427474784633 -0.009596938419377225 -0.014917752492945958
0.025569404524220338 -0.009679024325416122 0.0042455812962128815
0.024113486670112087 -0.01208716474149649 -0.005853510917364334
0.025137612908475705 -0.010628179102002675 0.006997398993854761
0.025451076806289934 -0.009223114053680644 -0.01251391292913137
0.023717605220302244 -0.012603904107202397 -0.011976562410093207
0.02609164781712 -0.008474558244915872 -0.0004642358804366666
0.025554441842075774 -0.009610511417136501 0.0018606283728710652
0.024948753476652333 -0.010645026973951885 -0.001541303424609796
0.02390875498466202 -0.012573089844925969 -0.0036709271573508173
0.022375929870721768 -0.014960583822060076 -0.01791996740219897
0.026080997777934014 -0.008859890827787483 0.008456174409080046
0.025106255674392074 -0.009981749094715752 -0.010300293472852265
0.026445421321197208 -0.008345381098951386 0.013142847336101538
0.02352371962365626 -0.012846324521186059 -0.015236015461555083
0.026367116287787595 -0.008406309516342454 0.010921957939265871
0.02393938317523695 -0.012287273954409973 -0.009210335173285523
0.02545154738237397 -0.009515955838340525 -0.005328758974526111
0.026629388282195403 -0.0075752339801149525 -0.006686553188251491
0.025939739469133402 -0.015628826914261536 -0.024913947113305118
0.026703990249371486 -0.014808994505234273 -0.006341322095559751
0.026533514889270835 -0.014919420375277312 -0.016481497277698563
0.027239051999990768 -0.013331637164803734 -0.02490778345744302
0.02709539287278125 -0.013724443398465673 -0.020094460061461483
0.026418084813784447 -0.015203598099059005 -0.014015209077635095
0.026508916122415384 -0.015282226949689025 -0.002486255991181338
0.0268944998243112 -0.014363695378430047 -0.009354810041458654
0.02638350278687781 -0.01532273654229693 -0.011761076104436087
0.026662711030250925 -0.015036616784111844 0.00015571551865588024
0.026898935786651226 -0.014616415490019958 0.002299602957987115
0.026195852031887696 -0.01614836747429432 0.013669298913080366
0.026558432823879874 -0.01572033685582217 0.02170439718361035
0.025947675120172764 -0.01590947833010129 -0.018849065981071556
0.025773254912289677 -0.01639618315286548 -0.008449825643297373
0.02616021268775595 -0.016018369163197335 0.004138352879663698
0.02593606900561779 -0.015878225791240187 -0.021389899814572892
0.027856378288156687 -0.007575487017057074 -0.02332842344961243
0.013474271281322378 0.018759588256314682 -0.03292819534521037
0.006437126875328457 0.022188273864448396 -0.03342931589165107
0.004026508277237321 0.023362791938418087 -0.03090357596345728
0.009409296639574866 0.023061114916816648 -0.029221000149846077
0.011713406372391714 0.021971735094187424 -0.029221000149846077
0.011713133091489136 0.02058551134594867 -0.03432823729458577
0.015198830955843318 0.017919336501446427 -0.030404328959593628
0.017291121467407453 0.016899916414099013 -0.030862008608195792
0.009264350132627785 0.020810774820230048 -0.030556070569050343
0.011275393085586217 0.01983094072384938 -0.030862523350708833
0.006850399331651286 0.024325740975195215 -0.034306599089162546
0.015276617757317743 0.01977260328360409 -0.034597278043979905
0.015534376477936604 0.021836231533266554 -0.03313702856118342
0.015955065295730365 0.021629940751465772 -0.03061504540903006
0.012904905781759941 0.022656965396186834 -0.03419044029589048
0.01761082339527585 0.019030542309001957 -0.034548265236755346
0.01730010608461332 0.020305572075757276 -0.03191054618808947
0.005998077323317113 0.02616150100452693 -0.03232475060423336
0.003919417457331135 0.02656926492252122 -0.03157609329163892
0.007802839535911999 0.025674225950403837 -0.03067950918391118
0.010319135946129713 0.024743740019858004 -0.031110840004557508
0.01254810197824393 0.023732218590865644 -0.03190573693182785
0.008944117786446527 0.02525108867500254 -0.033180809246101714
0.004094259827398701 0.02352913454098833 -0.0339428138985914
0.008925350606043842 0.02111563914119624 -0.03394724321039657
0.02228124474530941 0.014820711486679471 -0.03151412093195835
