0.0336589999497 0.00191419667021 0.0096455283669
0.0336589999497 0.000251720904782 -0.000600414649725
0.0336589999497 0.00357108461184 0.0131526982471
0.0336589999497 0.00619221270657 0.0160984359879
0.0336589999497 -0.00211012609726 0.000511596969607
0.0336589999497 0.00491402389088 0.018134209002
0.0336589999497 0.000716984930434 0.00519242140694
0.0336589999497 0.00259142424359 0.0164674502659
0.0336589999497 0.00341244522738 0.0040493263736
0.0336589999497 0.00334631923071 0.00688617171455
0.0336589999497 0.00465713289704 0.0102909307632
0.0336589999497 0.00584560412466 5.65373752124e-05
0.0336589999497 0.00343653706218 0.00146566819941
0.0336589999497 -0.00202910254941 0.00370532501132
0.0336589999497 -0.00139897538012 0.00847232433376
0.0336589999497 -0.00525367490929 0.0342178549323
0.0336589999497 -0.0039875158043 0.0136064724746
0.0336589999497 0.000359531029073 0.0183345371123
0.0336589999497 -0.00375107513739 0.0273239078625
0.0336589999497 -0.00213414838061 0.031113731369
0.0336589999497 2.97479115073e-05 0.0137551990345
0.0336589999497 -0.00524962492845 0.0165480803633
0.0336589999497 0.00260228133473 0.0206581710222
0.0336589999497 -0.00497092301564 0.00223414620325
0.0336589999497 0.00476493466311 0.0217313094118
0.0336589999497 0.00253531471423 0.0294785346567
0.0336589999497 0.000595191556883 0.0330676827077
0.0336589999497 -0.00185854685923 0.0116796053603
0.0336589999497 -0.00301834314692 0.0180997880544
0.0336589999497 -0.00586124649892 0.0369197501724
0.0336589999497 -0.000395822988005 0.0238519927589
0.0336589999497 -0.00572710780064 0.0196841153829
0.0336589999497 -0.00453733172972 0.0217699600707
0.0336589999497 -0.00432377568322 0.0297272680944
0.0336589999497 0.000153708541137 0.02927280222
0.0336589999497 -0.00220992165598 0.0357694646343
0.0336589999497 -0.00541642318104 0.00596212400748
0.0336589999497 0.000364616001765 0.0262219712488
0.0336589999497 0.0042949312684 0.024225152732
0.0336589999497 -0.00488835039214 0.0402875086263
0.0336589999497 -0.00531310040448 0.011373589202
0.0336589999497 -0.00549933327999 0.0251945963606
0.0331948756327 -0.00772721370609 0.0382646059611
0.0336158501517 -0.0060608065249 0.0084776204789
0.0332287406205 -0.0075931607968 0.0324731166297
0.0331802887345 -0.00778495523356 0.0413380620325
0.0334222581681 -0.00682713098639 0.0276941619042
0.0334777470855 0.00289705754293 0.0361300987784
0.033494649012 -0.000315693701116 0.0404242350038
0.0334768627457 0.00618385840155 0.0312239890261
0.0330100482867 0.00801108900884 0.0430769660023
0.0335764869207 0.00355878857166 0.0320495055347
0.03361283787 -0.00136801136458 0.0383084617728
0.0335624773682 0.000674575744867 0.0368169818941
0.0332708369629 0.00544267372969 0.038778338664
0.0336561566146 0.00502431098777 0.027358617445
0.0333128572226 0.00286834731056 0.0413287760834
0.0331943569195 0.00545941425828 0.0411444971285
0.033379687731 -0.00250426757715 0.0436530001462
0.00642432667904 -0.0325102886003 0.00370326766103
0.00887501506115 -0.0319147746976 0.00308963521447
0.00886414500935 -0.0320471905043 0.0146176928967
0.009626944055 -0.0319513573633 0.0223775455694
0.00721386930565 -0.0325167303818 0.0211166651861
0.0112813539087 -0.0314731290689 0.0151951334706
0.00753185659966 -0.032272280374 0.00618973726278
0.0113864453491 -0.0313986693468 0.0108239722037
0.00487825956078 -0.032903505572 0.00564677661046
0.00756263353016 -0.0323132303979 0.0104830172302
0.0110965535863 -0.0314086337636 0.00552539585809
0.00716959461063 -0.0326258151463 0.0298601440946
0.00988421685136 -0.0317248837108 0.0077520401303
0.00654137717346 -0.0326500693679 0.0186140143725
0.00721718328309 -0.0325681222627 0.0257514950858
0.0124077706364 -0.0311226854519 0.00809901813644
0.00618604319376 -0.0325345150157 0.000772135042111
0.00906784391726 -0.0321410971393 0.0273025822454
0.00952344808718 -0.0319190352082 0.0172993816136
0.0143529122544 -0.0302538943023 0.00433687764558
0.0100450067516 -0.0311339873924 0.00026096508662
0.0162423422268 -0.0291654775564 0.00157076481891
0.0122932403281 -0.0306758913138 0.00239598094708
0.0102711610128 -0.0319340997459 0.0363838460703
0.00916837112603 -0.0322572461846 0.0414270855067
0.0100430161842 -0.0320158097026 0.0389707974954
0.0111592748122 -0.031561033385 0.0206004446621
0.0115515535604 -0.031515243526 0.0259916053518
0.011821756034 -0.0315950094304 0.0412690824292
0.00962060641921 -0.0320519015989 0.0317925716218
0.0124870965911 -0.0312550357929 0.0231605585621
0.0120510458843 -0.0313116706802 0.0177637283294
0.0115278138074 -0.0315640578654 0.0304489634572
-0.00220558785042 -0.0322876074267 -0.000650408145622
-0.00960037448886 -0.0324724935346 0.00529016308296
-0.011206510389 -0.0321243858079 0.0256169961039
-0.00900977464862 -0.0327153585389 0.0235211399054
-0.0104838839856 -0.0323436233967 0.0304854078669
-0.014260837052 -0.0312031705834 0.00625640555013
-0.0140573928902 -0.0312460079825 0.00340051224899
-0.0134451646869 -0.0313994687384 0.000300297494943
-0.00921316366506 -0.0327023570265 0.033050837518
-0.00956211088104 -0.0326205186384 0.0360774874981
-0.0102202462264 -0.0323449483568 0.0146576853666
-0.0106281103316 -0.0321813177437 0.00298288671846
-0.0113597483522 -0.0320475486459 0.0177932086906
-0.00819672622247 -0.032887249035 0.0122631567284
-0.00979281089877 -0.0323984619933 0.000491665361476
-0.0124880861842 -0.0316978183895 0.00853450660671
-0.0114535938268 -0.0320353848614 0.0208106380458
-0.0092565530039 -0.0326310257327 0.0197408378622
-0.00986324326671 -0.0324155784507 0.00862996047207
-0.0117763273473 -0.0319055122148 0.0114841275794
-0.00704943130158 -0.0331265295608 0.0179077094567
-0.00771452931461 -0.0329561988785 0.00295258711966
-0.0058348109563 -0.0333320971591 0.0107626947689
-0.00746211209484 -0.0330905882261 0.0314084602562
-0.00684569685165 -0.0331803987818 0.0230417977782
-0.00491345934228 -0.0335294698388 0.0188775718028
-0.00733931127348 -0.0331021398724 0.0276708534722
-0.00695925353876 -0.033114159642 0.00835215577244
-0.00717009695034 -0.0330953341288 0.0150987309768
0.026824395211 0.0209485381599 0.0347015137978
0.0270677653541 0.0206455891431 0.0381624413809
0.0270123724546 0.02061283124 0.0165946750483
0.0261196677825 0.0217184167014 0.00274327591382
0.0264704529867 0.0212858058484 0.00855901395608
0.0275666449167 0.0199217323735 0.0242447514034
0.0286883172298 0.0185023018435 0.03546332713
0.0267839275777 0.0209363661606 0.021347555573
0.0264211609782 0.021336658563 0.0057115514476
0.0274149797616 0.0201504295131 0.0302403219933
0.0309343832142 0.0140859739244 0.00746824718693
0.0288878633294 0.017868786845 0.0238855506817
0.0303373308459 0.0152052166062 0.0128027825611
0.0289403524609 0.0174465321208 0.0121349769346
0.0293281319972 0.0164901199174 0.000676473950445
0.0287511294159 0.0176653554652 0.00909167662949
0.0305684064526 0.0144941736807 0.0010587260641
0.0311026866144 0.0137309610994 0.00458819805401
0.0289428738405 0.0180047666961 0.0317232119496
0.0277027370247 0.0193160937066 0.00749999532352
0.0293657414041 0.0169033964307 0.017192913976
0.0287711330546 0.0179563506594 0.0203560529451
0.0281172207996 0.0188619129715 0.0150419835669
0.0295187647463 0.0162785831343 0.00405306313764
0.0270742027779 0.0204771666916 0.0125171376926
0.0286126077273 0.0184619961468 0.0290345583211
0.0291758043691 0.0169063078446 0.00658807195536
0.027820645191 0.0190556444965 0.00507342193667
0.0274139898059 0.0196074395905 0.00137309777609
-0.00580523022424 -0.0310248104106 0.0436530001462
-0.00298947011224 -0.0334451595451 0.0359689318148
-0.00497999022469 -0.0332177328643 0.0409079563721
-0.00728362215632 -0.0330937722825 0.0366241600536
-0.00427837932635 -0.0335075802006 0.0241082958802
-0.00494304279779 -0.0334246067704 0.0262625458603
-0.00362153568909 -0.0334853018977 0.0294680654583
-0.00198481577832 -0.0335764515856 0.0322907574673
-0.00516106591153 -0.0333238419805 0.0322511095356
-0.00527816410146 -0.0332788972893 0.0348085875344
0.0206571876065 0.0268653154157 0.033842458861
0.0183860260559 0.0285191260737 0.020451654442
0.0208775496521 0.0266998670614 0.0373962730707
0.020194208881 0.0272113968342 0.0270651715015
0.0198401667971 0.0274568572552 0.0305606013506
0.0184094498568 0.0284656978856 0.0370378211873
0.0182112171365 0.0286278582052 0.0278142286738
0.0202941856293 0.0271072018878 0.0418517773758
0.0183576637983 0.0285336521832 0.0230550587068
0.018009076071 0.0287596022976 0.0336095591022
0.0188521989105 0.0282179030625 0.00590989787256
0.0202745086194 0.0271649425007 0.0170527194473
0.0237972982473 0.0239292111906 0.0105444824368
0.0231281087808 0.0245857454819 0.0162324011375
0.0223093322495 0.0254087779884 0.0252903006166
0.0205705091794 0.0268035018598 0.0069848713317
0.0234135903723 0.0244330609531 0.0273494176302
0.0244109106848 0.0232935351986 0.00174978707968
0.020064568979 0.0272181640905 0.00259874056653
0.0220088335707 0.0255227478025 0.00861896429908
0.0214503581998 0.0260856694167 0.0149612902791
0.024183021698 0.0235222178596 0.00422930572145
0.0221176282972 0.0253823153679 0.0041121571621
0.0217354267114 0.0259035231768 0.0229067017523
0.0240665350823 0.023712015075 0.0132471415186
0.0235142800215 0.0242862669251 0.021389864769
0.0208499261521 0.0266752866583 0.0201222061799
0.0227318383922 0.0250705048078 0.0298043899541
0.0235114181549 0.0242635086616 0.0186963037803
0.0199164747295 0.0274164704718 0.00949321161017
0.0242124265946 0.0235231578071 0.00714617348138
0.0201064539682 0.0272690349709 0.0120192682145
0.0223478548592 0.0251508341335 0.00155906220528
0.0223406235949 0.0252605437695 0.0125293937481
0.0264281277922 0.0214224220265 0.0280005477377
0.0261791146745 0.0216728846998 0.0191048106178
0.022606218753 0.0252421106354 0.041627043357
0.0255357812546 0.0223128714019 0.0396431889133
0.0239018024767 0.0239468717539 0.0395107910374
0.0230181986744 0.0248309433003 0.0366403060445
0.0251725264885 0.0226798362596 0.0168748325739
0.026677655683 0.021170589658 0.0421428318943
0.0244984468582 0.0233511538216 0.0338252907174
0.0258031616333 0.0220496578379 0.0140719812386
0.0251560723166 0.022694873997 0.0255673094259
0.0251285786575 0.0227215023837 0.030877375012
0.006198071087 0.0331218104244 0.0164447239701
0.00675086987213 0.0330407420897 0.0224488134755
0.00516895576976 0.0334059969587 0.0244308425913
0.00793458882923 0.0329176575413 0.0425686168931
0.00616850812757 0.033252610007 0.0343091285073
0.00626375580418 0.0332078894351 0.0309214503178
0.00457510071167 0.0334313794509 0.0367244907754
0.00517222131178 0.0330991751668 0.0428024717512
0.00520270627073 0.0332414689933 0.0398919714991
0.00146457825098 0.0333512521339 0.0416821373841
0.00388266138983 0.0335725722854 0.0270339449346
0.00212141502091 0.0333558803981 0.00172793801459
0.00606902395382 0.0330427457972 0.00499667507303
0.00429674961095 0.0334005185032 0.018062069232
0.000443513749934 0.0334768386178 -0.000473553299743
0.00530833828339 0.0331723784198 0.009003401136
0.00432292954083 0.0332276309519 0.00665430266994
0.00286457202064 0.0334207648026 0.0106293502803
0.0063858348964 0.0329489375469 0.000663564033423
0.00326708369026 0.033215356911 -0.000645374701446
0.000941423924606 0.0335656054925 0.00852113463552
0.00449967045042 0.0333221024736 0.0140600965638
0.00452436589655 0.033156178059 0.00310914496479
0.00284570821055 0.0335777503581 0.0210179586511
-0.00219673029292 0.0336039997637 0.0297251488716
-0.0006629588015 0.0336039997637 0.00189524972908
0.000708903556192 0.0336039997637 0.0221650874842
-0.00338506804733 0.0336039997637 0.0357708028262
0.000962812892051 0.0336039997637 0.0146627019891
0.00385885235548 0.0336039997637 0.0326066891898
-0.000643359789201 0.0336039997637 0.0113259633876
-0.0017335856234 0.0336039997637 0.0195657318732
0.000716990314306 0.0336039997637 0.0179433600292
-0.00145135357519 0.0336039997637 0.0394069321912
-0.00295649054438 0.0336039997637 0.0251500487126
0.00170793873438 0.0336039997637 0.0309088249825
-0.00480383806413 0.0336039997637 0.0430867355337
0.00160625566548 0.0336039997637 0.0249688830112
-0.00422165381 0.0336039997637 0.0396510811341
0.00206656346797 0.0336039997637 0.0347724751131
-0.000289989040821 0.0336039997637 0.00490127584418
-0.000220503461579 0.0336039997637 0.0356626878262
0.000842797464891 0.0336039997637 0.0280560064588
-0.00205275495781 0.0336039997637 0.0161563390867
-0.000608842544451 0.0336039997637 0.0317746641993
-0.0191606474343 0.0287578249703 -0.000243253742785
-0.017633353819 0.0298247644301 0.00127183471029
-0.022162776038 0.0272289190316 0.00601473243827
-0.0221152857994 0.0270629867144 0.0120107961562
-0.0215281861961 0.0273624371393 0.0169040872235
-0.0207160847473 0.0282901913176 0.00854838764749
-0.0207621284943 0.0278168437102 0.0214135427315
-0.0220171586839 0.0275005069055 0.00141726309338
-0.015624386786 0.030745849315 0.00373106435707
-0.0166813253195 0.0303789838082 0.0216045676998
-0.0149257988337 0.0310767038623 0.0127833553159
-0.0180792694284 0.0297449132795 0.010101691517
-0.0150653760667 0.0309675462588 0.000809408496097
-0.0143448747288 0.0313326619346 0.0157846446987
-0.0163845485697 0.0305223800929 0.0261210843863
-0.0184098008789 0.0296192087752 0.0130995523663
-0.0156497948527 0.0308200472112 0.0237619415484
-0.0148071718555 0.031221380609 0.0352149955126
-0.0136675099137 0.0315740368667 0.00580808140304
-0.0161148888505 0.0305590826696 0.00812701811533
-0.0132759723672 0.0317270348319 0.00322312162903
-0.0130705443688 0.0318761898794 0.0181305454112
-0.0138265275144 0.0315255846901 0.0100893002779
-0.0167379888328 0.030329537329 0.0155317753151
-0.0185885702592 0.0295192756607 0.00717833989171
-0.0156726754829 0.0307873747077 0.0183097141392
-0.0154024674175 0.0309570127106 0.0316488928151
-0.0197684468715 0.0290125049781 0.00417303860687
-0.0147571893479 0.0312131409381 0.0375559049023
-0.0184150092043 0.0291682755307 0.027998381431
-0.0183988209898 0.0289409734951 0.0350014794658
-0.0177576915432 0.0291351586042 0.0415134701676
-0.0202089409489 0.0285743297645 0.0112675349038
-0.0196624099326 0.0278612065795 0.0426959933813
-0.0182007990191 0.0296412538978 0.0181552191828
-0.0188246713084 0.0291591522962 0.020451875412
-0.0197930410505 0.0278581222728 0.0402947570019
-0.0200719847005 0.028008757183 0.0305369519877
-0.0165390423695 0.0303556259173 0.0288178648713
-0.0176166151953 0.0293228309767 0.0386776685152
-0.0200053632728 0.0279641146386 0.0331226680824
-0.0203053873486 0.0284057930074 0.0143911867067
-0.0196617819249 0.0285165074308 0.023408707368
-0.0157785029858 0.0304672799122 0.0400384834775
0.0325750175527 -0.00987149145891 0.0142357153353
0.0329482897149 -0.00855853429899 0.0192204105568
0.0325063868819 -0.010134974984 0.0171686142746
0.0331658037562 -0.00776215864506 0.0166707786874
0.0327727035419 -0.00922743929268 0.0258179943077
0.0331336833727 -0.00784047400249 0.0101983322808
0.0330655503618 -0.00806688824004 0.00698050935898
0.0334143430574 -0.00685375114031 0.0140293949809
0.0324264010475 -0.0104575522284 0.0232889091085
0.033234590675 -0.00755466456906 0.0235968017405
0.0328220456102 -0.00910594850902 0.0355539803154
0.0325927764526 -0.00989718525292 0.029842297947
0.0331346283501 -0.00770680945507 0.00384970663907
0.0319091795538 -0.0120111562302 0.0155379822577
0.0320651370155 -0.0111690967277 0.00865701939881
0.0319360079821 -0.0113161669674 0.00427109930194
0.0319141911618 -0.0121992382903 0.0192600995355
0.0311658818015 -0.0136013642537 0.00392137390111
0.032408013891 -0.0096964760581 0.000469529710933
0.0314211318821 -0.0133060647878 0.0125070118376
0.0290476265456 -0.0179123364075 0.0233857533387
0.0314780739863 -0.0136314136634 0.0222382202792
0.030282320532 -0.0157257401893 0.0222329476021
0.0304095508453 -0.015282788753 0.0116402000823
0.0297747990904 -0.0165503659919 0.0191369649207
0.0309167998156 -0.0141821209119 0.00142812601621
0.0305571770521 -0.0151184666427 0.0161763819292
0.0310295605445 -0.0140858782591 0.00630169858131
0.0319792062294 -0.0119591473483 0.0321280907293
0.0319330849223 -0.011273252754 0.041830185271
0.0301565390013 -0.0154812053995 0.0425841980798
0.03255346811 -0.00994243826981 0.0398787084022
0.0301364618621 -0.0158902918548 0.0381902955793
0.0315538473603 -0.0123902567033 0.0393275581033
0.0320477626575 -0.0114327720212 0.0365313745903
0.0316689357822 -0.0131076468996 0.0272234480522
0.031245154162 -0.01355914657 0.0341284574493
0.0301007096498 -0.016065964755 0.0275518093152
0.0303106581428 -0.0157217258863 0.0250796904431
0.0290045080153 -0.017959571196 0.0296214698799
0.0307381797484 -0.0149355501048 0.0296403954726
0.0296307111312 -0.0168215562274 0.0347791522174
0.0303623436223 -0.0155677586795 0.0322667861236
-0.0109599258844 0.0324970907382 0.0240936778014
-0.0110767261122 0.0324537917909 0.0285135133672
-0.00818056444093 0.0333138556186 0.0288870331045
-0.0128942825762 0.0319247420451 0.0227675508185
-0.0123711078934 0.0321002948052 0.0124406450311
-0.0121939366797 0.0321476055743 0.015194101156
-0.0122587407047 0.0320960643853 0.031815174412
-0.00824313469506 0.0333029476099 0.0249280065494
-0.0134493246456 0.0317505046464 0.0275403025567
-0.010129451311 0.0327529384745 0.0194511736707
-0.0123559088552 0.0320576043363 0.0367478969627
-0.00970997725373 0.0326648508001 0.0386139539519
-0.00673765852927 0.0335180778919 0.035223252496
-0.00796076268391 0.033022415304 0.0405873037056
-0.00884745884757 0.0330996796196 0.0324896395268
-0.0100178413958 0.0327034431188 0.0354793950296
-0.0116507949188 0.0321412894295 0.0399064563576
-0.00742178594624 0.0332593066452 0.0377164565736
-0.00563906215885 0.0335711240226 0.0209744438045
-0.00832873856168 0.0332695652381 0.0223616884791
-0.0113318208624 0.0323588260561 0.00132401202936
-0.00494968344773 0.0333572012304 0.0091606292296
-0.00366609528509 0.0335946188258 0.0121777091745
-0.00728996908966 0.0332983088845 0.0183744413032
-0.00405725021668 0.0332605824807 0.000961833526148
-0.00708837553165 0.0332357406572 0.0149193103347
-0.00642755933335 0.0332298525436 0.0114316696648
-0.0101434471152 0.0327465253586 0.0107232935724
-0.00409854480187 0.0333678131608 0.00538445393921
-0.00761447232055 0.0328212950526 0.00120449350532
-0.00907135977356 0.0329420169761 0.0131328358357
-0.00816658529432 0.0329512121044 0.00903664061728
-0.0105391983316 0.0326095290159 0.00728290351078
-0.00932923784716 0.0329881157215 0.0162172742077
-0.0084693675786 0.0328198292026 0.00535904477538
-0.0105476931844 0.0325308963648 0.0042308378682
-0.00321544053408 0.0336036597147 0.0214055110884
-0.0053224837766 0.0336003594947 0.0268584020205
-0.00586676044609 0.033599773645 0.0296420145499
-0.00433116034996 0.0336007684547 0.0183947172464
-0.00555645108437 0.0335994084063 0.0244489636394
-0.002337697968 0.033602724822 0.00722295837832
-0.00553339996016 0.033601107642 0.0329660575613
-0.0328180897937 -0.00304601348171 0.0215676081283
-0.0325186617812 -0.0053764365685 0.0183053246783
-0.0322360986055 -0.00458314139057 0.011932759285
-0.0316580839642 -0.00700755207107 0.00335200163437
-0.0326411090651 -0.00544330296409 0.0207620338969
-0.0328664940001 -0.0043686928493 0.0239656368442
-0.0333641236689 -0.00400137334843 0.0332463130356
-0.0322855411388 -0.00610141161858 0.014566297703
-0.0329349219136 -0.0052826718549 0.0263034856769
-0.0326823786179 -0.00154428020858 0.0186489403237
-0.0314432946319 0.00230589501736 0.00430334340844
-0.0316294338471 -0.00406095553357 0.00363965735861
-0.0318454276381 -0.00427255895045 0.00636412334411
-0.032029120115 -0.0044399672572 0.00868726394808
-0.0322958933417 0.00070805962079 0.0146863723375
-0.0310184807516 0.00539346646055 0.000245748704276
-0.0314576055171 -0.00475302813392 0.00105329715274
-0.0324319974882 -0.00223481564345 0.0150350183729
-0.0312136644304 0.00387583214031 0.00206181628134
-0.0313379122591 -0.00136768697351 0.00113494241871
-0.0316536042561 -0.00147290944186 0.00521632946829
-0.031695804442 0.00242598881249 0.00766735122197
-0.03195340469 0.00144868541009 0.0105636121289
-0.0312096660763 0.00670301726941 0.00338619008244
-0.0319828713563 -0.00173885565689 0.00939715856694
-0.0315460451415 0.00565617537531 0.00727985779788
-0.0321254737294 -0.00106455471666 0.0115922768396
-0.0313398176674 0.000779985571268 0.00220570774615
-0.0317433523787 -2.26541158917e-05 0.00709740489588
-0.0334203509187 -0.00112796482067 0.0358842727425
-0.0335414948132 -0.00221334530245 0.0384437963011
-0.0332601934635 -0.00299643168514 0.0306960220107
-0.0331305119849 -0.000995786082019 0.0284142902701
-0.0334650258501 0.000713898958117 0.0380529073427
-0.033324398997 0.00134119602995 0.0347361739266
-0.0330608915876 -0.00204411934069 0.0260299852363
-0.0335245334543 -0.00432126742389 0.0368509914711
-0.0325271690175 0.00381905272844 0.0231493495794
-0.0328100192769 0.000487124346013 0.0233956089397
-0.0320124801719 0.00472410111809 0.014726270242
-0.0325706479552 0.00163303446665 0.0205991622191
-0.0330140918024 0.00379085749274 0.0323982965843
-0.0317167518419 0.00712449884094 0.0127939411234
-0.0317856334467 0.00458101845451 0.010175847764
-0.0331032387178 0.00147149382276 0.0305134727089
-0.0326732417808 0.00391440893876 0.026084470939
-0.0322334491717 0.00377378303634 0.01747394093
-0.0329408053317 0.000992823216502 0.0266734536107
-0.0332726203735 0.0033356541485 0.0366282923876
-0.0313902120822 0.00818175987751 0.00819688648047
-0.0322114531418 0.00595928110412 0.0204333085207
-0.027155688553 -0.0204711246916 0.0268402050159
-0.0258591681898 -0.0228689557144 0.00198422948114
-0.0257942713279 -0.0229218674069 0.00596470543406
-0.0269446150371 -0.0211621684469 -0.00061426979092
-0.0264310833277 -0.0217870593016 0.0148307154032
-0.0276647203459 -0.0198346538094 0.012858362371
-0.0272766549385 -0.020570757087 0.00398609308149
-0.0270050026477 -0.0207635633741 0.022880539904
-0.0285287298631 -0.0186171623158 -0.000194884343993
-0.02646700553 -0.0218093374295 0.00861294375019
-0.0260909362578 -0.0222722232665 0.019513637804
-0.0266045452477 -0.0211968731046 0.0391276062116
-0.0263843873807 -0.0216750855492 0.0293760162722
-0.0274984902677 -0.020015102499 0.0195572508209
-0.0230652562899 -0.0260618766902 -0.00026331978051
0.0190332873893 -0.0277618313518 0.0332162141597
0.0194193176301 -0.0275296376015 0.0431843161301
0.0198019994365 -0.0272291319776 0.0368901784564
0.021450261439 -0.0260609310622 0.0387888990242
0.0190176449549 -0.0276565904146 0.0064415327217
0.0196935621144 -0.0272167283443 0.0162348296917
0.0195069727792 -0.0273609434862 0.0187732389472
0.018187433446 -0.0283174178349 0.0221420117447
0.018260919972 -0.0283004715001 0.0303085872467
0.0193399957569 -0.027571149733 0.0397101573317
0.0208018520439 -0.0264647920924 0.0252309508086
0.0203596884719 -0.02679425317 0.0284199383713
0.0180376191342 -0.0284915728005 0.0376043548623
0.0172685281033 -0.0288711168858 0.0248619306618
0.0181184539485 -0.0283209273699 0.0139722135907
0.0171207417904 -0.0288138621787 0.00411817612115
0.0147093899186 -0.0302485833203 0.0163264198662
0.0157607634389 -0.0296334069713 0.0125395347933
0.0150378724465 -0.0300059749546 0.00768136913708
0.0168599868489 -0.0291193601461 0.0276951553301
0.018073931309 -0.0283258231379 0.0110009534469
0.0160466928688 -0.0295397155511 0.0224063330032
0.0175057511917 -0.0286272562545 0.00845572824543
0.0166132681027 -0.0292914447874 0.0326880114572
0.0131687350088 -0.0310292338639 0.034477461213
0.0137820674758 -0.030719772664 0.0296763019743
0.0133470053669 -0.0309340730616 0.0138324187323
0.0143447844978 -0.0304346349368 0.0207854045096
0.0160105208568 -0.0296015607369 0.0350137978654
0.0130194015733 -0.0311049400169 0.0369717304624
0.014460201515 -0.0303797914136 0.0324027482516
0.0150271498716 -0.0300930594324 0.0254752095393
0.0153944762441 -0.0299117368374 0.0374230664898
0.0171561859447 -0.0290274801042 0.0407145688257
0.015285165198 -0.0299680816488 0.0426770151991
-0.0328366585823 -0.00638943749121 0.0288598766781
-0.0315417239603 -0.00809257597149 0.00545526730852
-0.0307185957744 -0.01145087564 0.000977646984824
-0.0323882880979 -0.00748345130368 0.0230606276152
-0.03158856774 -0.00845999633872 0.00826252389758
-0.0311673878608 -0.0108807782224 0.00918126606168
-0.0319651335229 -0.00721278371869 0.0116323072961
-0.0317558802438 -0.00904090322506 0.0149467939419
-0.0303144056733 -0.0141690497879 0.00366461340758
-0.0312698779363 -0.00859484235593 0.00120330563518
-0.0321923531898 -0.00764435209475 0.0190769500452
-0.0309732849435 -0.0109902455933 0.00500666815146
-0.0300435244325 -0.0140979829817 0.00058386477602
-0.0311723869319 -0.0123038981184 0.025948314408
-0.0315861050689 -0.0113250016031 0.0353395122116
-0.0319476697003 -0.0103107115233 0.0404454550279
-0.0318184574138 -0.0101020659452 0.0274661716378
-0.0306804420766 -0.0136399960554 0.0181428758862
-0.0312195292535 -0.0124899250783 0.0328302573358
-0.032608139577 -0.00790095133845 0.0388945617755
-0.0315359149109 -0.0108260711925 0.0221362287182
-0.0316270128308 -0.0103758200057 0.0196200926596
-0.0313406079661 -0.0112501626242 0.0169602232761
-0.0318967215143 -0.0103435861105 0.037576604097
-0.0322463214286 -0.00887594206796 0.0330035940963
-0.0315135922181 -0.0112843352321 0.0295482780763
-0.0317667637753 -0.0101286298171 0.0244226959244
-0.032518033863 -0.00803342517677 0.0352725712905
-0.0307286653232 -0.013096774626 0.0108563759055
-0.0327266164068 -0.00709082601726 0.0312364592903
-0.0299394078287 -0.015384175123 0.00883701533559
-0.0307140333737 -0.0136978652916 0.0240606128866
-0.0306988112448 -0.0136759449869 0.0206465573858
-0.0301635941594 -0.0148889601265 0.0128369434915
-0.0293292896104 -0.0168627645503 0.00535540742234
-0.0302367560364 -0.0147603188591 0.0160075271033
-0.0292147584695 -0.0170936149277 0.00205923598266
-0.0127877672609 -0.0315486041057 0.0356410483286
-0.0134345601738 -0.0314194178156 0.0192349107129
-0.0129020851448 -0.0316152121751 0.0158145517166
-0.0146719345001 -0.0310573261151 0.00960212175408
-0.0134609171796 -0.0313077666461 0.0387000982192
-0.0144452524126 -0.0310056042347 0.0337088896162
-0.0140014713905 -0.031190450861 0.0267580337489
-0.0137801178533 -0.0312811333856 0.0235781327888
-0.0131442092093 -0.0314651739926 0.0289155637248
-0.0120483939511 -0.0317666086404 0.0410861412038
-0.00923324905642 -0.0327125523376 0.0398846335369
-0.0143830560444 -0.0309795461726 0.0425690238863
-0.0157300059603 -0.0304465668787 0.029889254948
-0.0195499611637 -0.0284974586762 0.0108570836458
-0.0165296412293 -0.0300879567502 0.0202723253918
-0.0165577884243 -0.0301872260341 0.00717480119171
-0.0206629038634 -0.0279645736479 0.00132252300457
-0.015621647076 -0.0306611192149 0.012268497223
-0.0161694481949 -0.0302516591679 0.0243570597229
-0.0163528391457 -0.0302146822377 0.0169896175182
-0.0189290823875 -0.0287871436187 0.0170423435298
-0.0195802812619 -0.0285061529423 0.00795051271156
-0.0157400030528 -0.0306887721921 0.00163928890482
-0.0183593395113 -0.0292398244433 0.00141129835187
-0.0186830994017 -0.0290286416488 0.00504201826506
-0.0167852586948 -0.0296810367543 0.0420996937208
-0.0154161841033 -0.0305234568192 0.0402735065394
-0.0185448545771 -0.0289214764954 0.0234147226674
-0.0181312414894 -0.0291286742208 0.0259419113249
-0.018002157838 -0.0291219606738 0.0313761035326
-0.0181809152323 -0.0289638461463 0.0347464483665
-0.0210458315734 -0.0277176861794 0.00494045579733
-0.0169527204516 -0.0296565778753 0.0372085664203
-0.0185753008267 -0.0289475102882 0.0205416808153
-0.00898780700826 -0.0325826998131 0.0425117869873
0.0238576229917 -0.0239316888244 0.0199515903016
0.0206546404639 -0.0263985618203 0.0108368199337
0.0196722231348 -0.0271641142166 0.00872029656792
0.0218549703243 -0.0257184241812 0.0328677098488
0.0227023121672 -0.0249953462181 0.0299098913678
0.0199714818456 -0.0269829283979 0.0133277395253
0.0239391388437 -0.0238314952228 0.017333251908
0.0194724081463 -0.0272469499196 0.00273795791126
0.0228252036312 -0.0248412638031 0.0257314819064
0.0211278839674 -0.0261531198604 0.0212529600019
0.0215570225729 -0.0257603223251 0.0177289299665
0.0225702716269 -0.025015214423 0.0232999570862
0.0223176087892 -0.0250833697482 0.0129477516615
0.0220629542747 -0.0252211248124 0.00777564694585
0.0227987217761 -0.0246657191395 0.0107278909202
0.0231733634311 -0.0246285529994 0.0399838906038
0.0257981476074 -0.0217353554498 0.0294833917622
0.0252097771809 -0.0225420101811 0.0153494094534
0.0243446790441 -0.0234412753584 0.0244723101361
0.0240866828608 -0.0236631500474 0.0320221345561
0.0247596515637 -0.0229419353014 0.0271846969296
0.0255742601165 -0.0220564524387 0.0226298505293
0.027520947109 -0.0198395508594 0.0222607119437
0.0269141039533 -0.0205050266141 0.0250454256086
0.0269662612106 -0.0201734498709 -0.000585333721851
0.0208670509765 -0.0261123541159 0.00422148584481
0.0238096376248 -0.023494433711 0.00571614872641
0.0224516383157 -0.0243638236211 -0.000197518387339
0.0222679296107 -0.0246940998465 0.00228176665347
0.0250634250869 -0.0225683015382 0.00927229217208
0.0240149108864 -0.0230908547692 0.00241333403371
0.026767389682 -0.0207193515727 0.0176072135019
0.0266920026572 -0.0206617324046 0.0035117834878
0.0260461285126 -0.0214692075287 0.00697130694051
0.027367843098 -0.0199451292988 0.0121442887358
0.0280034693661 -0.0192092622571 0.0143530597014
0.0284651813863 -0.0187009964326 0.0184645904938
0.0275589139868 -0.0196750085907 0.00813801394577
0.0248491757116 -0.0229617071013 0.0130067339746
0.027504538935 -0.0197129216446 0.00555870770967
-0.023580713415 -0.0245622321263 0.0361361039494
-0.0208116483296 -0.0268660847422 0.0390148958544
-0.025328769869 -0.0223234444175 0.0423799158531
-0.0230218530194 -0.0244675612308 0.0424683581947
-0.0239854850339 -0.0237848130717 0.0402437157548
-0.0189871712554 -0.0281658912264 0.04315354904
-0.0223370350408 -0.0263622437364 0.016586130804
-0.0227208627847 -0.0259684665152 0.0191125086649
-0.0216309964686 -0.0262859192541 0.0365327246218
-0.0189895537698 -0.0283041102002 0.0403940212374
-0.0208231436609 -0.0274321823992 0.0214637741927
-0.020867635051 -0.0272189641989 0.0269039253285
-0.0208674044617 -0.027653957919 0.0135481008983
-0.021118601305 -0.0268739075988 0.0312461191091
-0.0202222485325 -0.0274889014919 0.0347023901925
-0.0222259831405 -0.0261882887694 0.0246980747041
-0.0224551961742 -0.0256931004797 0.0341941458702
-0.0226468378499 -0.0257002654909 0.0291962662471
-0.0259998618411 -0.0223318805993 0.0245205425993
-0.0251279898978 -0.0232534064955 0.0278590279951
-0.0251295969978 -0.0234234332682 0.0215247791794
-0.0250577497408 -0.0232511862908 0.0309455642714
-0.0255957437597 -0.0225474804329 0.0338629659125
-0.0255736475457 -0.0224937295908 0.0367889169704
-0.0246977994847 -0.0240080358104 0.0184534883605
-0.0242784080193 -0.0247753110891 0.00353562188256
-0.0228714422427 -0.0260573356797 0.00973144900412
-0.0237051160774 -0.0248807319167 0.0262551021192
-0.0235497829537 -0.0251110183049 0.0226408113813
-0.0247557970518 -0.024169800823 0.00969194416254
-0.0245267730525 -0.024274827113 0.0157210994704
-0.0239471389841 -0.0249192077603 0.0126447297226
-0.0235448694419 -0.0254624420887 0.00585863529198
-0.0224554427807 -0.0266081133443 0.00324640210984
0.0325330066842 0.0103042212527 0.0262024353944
0.0328177109174 0.00928900467734 0.0227597287826
0.0328238251121 0.00910052763269 0.0155350701042
0.0319665310082 0.0120206508503 0.0200295824618
0.0320713561956 0.0117547884585 0.0233924559476
0.0329183020836 0.00889355836436 0.0199666176921
0.0320653293618 0.0114597131714 0.00988392074865
0.0323440203684 0.0107280636375 0.0177596769561
0.0321343795314 0.0113429683592 0.0146038836007
0.0326294978642 0.0101019502417 0.0311193338492
0.0331767800111 0.0080836406325 0.0353157601321
0.0325895373248 0.0102331050621 0.0372702784012
0.0331039374754 0.00826756113322 0.038365530863
0.0326371679826 0.00996421265073 0.0403212908483
0.0332959795565 0.00780861877687 0.029444390468
0.0302495727845 0.0144061986782 0.0421637065006
0.0315441910218 0.0118208223137 0.0421446134423
0.0290834357526 0.0167369208526 0.0421723071115
0.031730399818 0.0121184964709 0.039151731711
0.0282373349191 0.0187155216006 0.040504344213
0.0312071459061 0.0135048951257 0.0372740870417
0.0303827942636 0.0147466205251 0.0394217152148
0.0320062095595 0.0119550746242 0.0348590327042
0.0299495577573 0.016064352696 0.0217912664935
0.0311093231699 0.0137472881153 0.0103802794072
0.0300208014493 0.0159219060819 0.0316887746311
0.0300650120607 0.015833529109 0.0360169275017
0.0314361724812 0.0130942245236 0.012908715963
0.0312120088838 0.0135420071305 0.0216136118
0.0313803958505 0.0132056334936 0.0159156618021
0.0303803977034 0.0152034818782 0.0278040042668
0.0312168338208 0.0135322801363 0.0299297197946
0.03063438582 0.0146961261522 0.0176094747847
0.0303388269202 0.0152865683937 0.0250209967136
0.0310082753468 0.0139489408024 0.033205139043
0.00386624523694 -0.0331840494684 0.0138204701112
0.00531517421707 -0.0329192268955 0.0165257032693
0.00261551269547 -0.0334578104516 0.0162947114211
0.00552168260783 -0.0330370129025 0.0334737044706
0.00620911703549 -0.0329512270812 0.0390016197066
0.00479118908963 -0.0330943104336 0.0239935887483
0.00492178015589 -0.0329232503025 0.0085628853982
0.00434167938073 -0.0332285929762 0.0287051522279
0.00564248035967 -0.0330412856868 0.0365053855567
0.00506514832475 -0.0329244004385 0.0117434714262
0.00176139985672 -0.0333530297297 0.00904085411062
-0.00052443255065 -0.033343558374 0.00896351458402
-0.00423946889942 -0.0330818888744 0.00351339170128
0.00254668621305 -0.0332407188646 0.00656894530363
-0.000242287149413 -0.0331774042899 0.00535557825073
-0.00172948788819 -0.0330003407791 0.00161041902475
-0.00517484978169 -0.0329708862453 0.00116568893893
0.0035105410089 -0.03292208036 -0.000373667400807
0.00319008898025 -0.0330782995927 0.00302161554826
-0.00479128555977 -0.033501770103 0.0134712654941
-0.000113569850734 -0.033495670897 0.0122853787467
-0.0029880778252 -0.0335824723666 0.015001898615
-0.00524145635928 -0.0332142990541 0.00669108656767
-0.00354895001431 -0.0334054763023 0.0108904093307
-0.00283442361505 -0.0332775252227 0.00766921415421
0.00216378227996 -0.0335405755758 0.0192210955839
0.00164278084529 -0.0335819090785 0.0224009204123
0.00614770398002 -0.0329702748091 0.0425357888868
0.000890822902453 -0.0335700369365 0.040390743822
0.00157593358274 -0.0334795487771 0.0429789877932
0.00211765074731 -0.0335103835565 0.0258445746324
0.00277941578161 -0.0333910040572 0.034334891772
0.00211800420839 -0.0334799449873 0.0315396323899
0.00339479174233 -0.0332985546231 0.0387526356433
0.00622363257066 0.0133278697084 0.0454841446426
0.00351673352615 0.0232747369653 0.0463492905595
0.00688371222696 0.0186822858857 0.0460744171766
0.00374263773886 0.0177652471381 0.0457951729988
0.00425462189941 0.0208746311042 0.0461455223966
0.0110352569368 0.0109447848673 0.0455218019516
0.00386362855089 0.0146708582749 0.0454836080996
0.00888141126039 0.0128332016151 0.0455895667028
0.00661731752389 0.0233257866439 0.0464240014553
0.0191733054795 0.0234722646522 0.0464240014553
0.0209837622641 0.0167514507844 0.0464240014553
0.00980948029082 0.0225429490374 0.0464240014553
0.017513624767 0.0212781083429 0.0464240014553
0.0125224634991 0.0243640386645 0.0464240014553
0.0168297720325 0.0183564602381 0.0464240014553
0.0134890356513 0.0214599036809 0.0464240014553
0.0246878808315 0.0145771209706 0.0464240014553
0.0226344349167 0.0217992477361 0.0464240014553
0.0156865058529 0.0234295820061 0.0464240014553
0.0217770089384 0.019409477498 0.0464240014553
0.00472799483237 0.0116930150771 0.0436530001462
0.0260397899161 0.0172618744897 0.0436530001462
0.0275909800105 0.0126354099094 0.0436530001462
0.0193878354551 0.0125933482746 0.0436530001462
0.0166063421963 0.0123114901987 0.0436530001462
0.0208671306312 0.0170750689411 0.0436530001462
0.00858356213527 0.0108313111353 0.0436530001462
0.0227717724493 0.0187895248256 0.0436530001462
0.00436087113415 0.0335349896125 0.0453742518029
0.00740290492619 0.0295700343237 0.0436530001462
0.0160279660748 0.0182225616163 0.0436530001462
0.00571043186752 0.0177516499811 0.0436530001462
0.0155123518041 0.0224493807855 0.0436530001462
0.0199593949053 0.0196756780693 0.0436530001462
0.0136814309846 0.0247026552151 0.0436530001462
0.00252203048456 0.0189095503249 0.0436530001462
0.0133246884188 0.0165322480984 0.0436530001462
0.0160150941246 0.0256070548408 0.0436530001462
0.00325323222025 0.0263679370537 0.0436530001462
0.0111861905208 0.0146723929279 0.0436530001462
0.0101132853988 0.0262273921574 0.0436530001462
0.0214584008132 0.025614897532 0.0444208833759
0.0234799111223 0.0236673100617 0.0436663980523
0.0140027225915 0.0282662681421 0.0436530001462
0.00735775090615 0.0295312412564 0.0464240014553
0.0109280415052 0.0263355547406 0.0464240014553
0.00848913719181 0.0259412909125 0.0464240014553
0.00440615656584 0.0276852824574 0.0464240014553
0.0120368668638 0.029000283893 0.0464240014553
0.00251068513399 0.0302158674713 0.0464240014553
0.0170027291091 0.0276454099504 0.0464240014553
0.0272219807671 0.0202988483605 0.0444224205403
0.0251777460091 0.0222138025843 0.0456953768505
0.029176526903 0.0169675513633 0.0464240014553
0.00911636170433 0.0324619329655 0.0458556126098
0.0149647902879 0.0303950681177 0.0458469983846
0.0195413728963 0.0278865184771 0.0462524604496
0.0102943572258 0.0160984028637 0.0460060970383
0.0158583794935 0.0143305643934 0.0460832295143
0.0178992940277 0.0130535899298 0.0460565009259
0.011813184143 0.0197292674448 0.0463872452704
0.0123648197601 0.0143373042887 0.0459382193442
0.0226642606375 0.0116283043725 0.0461303186923
0.012639976183 0.0169586960006 0.0461791654677
0.00954747561438 0.0187270815056 0.0462050858501
0.0204378931293 0.0140853151571 0.0462526194264
-0.0238429707436 -0.0128273299221 0.0436530001462
-0.0199541118682 -0.00632324435345 0.0436530001462
-0.0241072498216 -0.00986911412146 0.0436530001462
-0.0267035943845 -0.0107732034103 0.0436530001462
-0.0173766062821 -0.00527957933013 0.0436530001462
-0.0220478643654 -0.00775153150531 0.0436530001462
-0.0172263473938 -0.00999867448792 0.0436530001462
-0.0265867464571 -0.0135025628632 0.0436530001462
-0.0161696334751 -0.00789720811187 0.0436530001462
-0.017045569331 -0.0267153447814 0.0436530001462
-0.0205417671114 -0.0108246418302 0.0436530001462
-0.0181185381816 -0.0244155150457 0.0436530001462
-0.0171933041895 -0.0125667729331 0.0436530001462
-0.0240268814991 -0.015605197332 0.0436530001462
-0.0267630361486 -0.00512468431947 0.0436530001462
-0.0215322734353 -0.0169605433729 0.0436530001462
-0.0224857256126 -0.0156373489408 0.0457310006022
-0.0190114204824 -0.0111337786078 0.0457310006022
-0.0234349791174 -0.0183515846995 0.0457310006022
-0.0239861528181 -0.0117793969073 0.0457310006022
-0.0210334186236 -0.00887848004287 0.0457310006022
-0.0217578734644 -0.0133168555845 0.0457310006022
-0.0199068177953 -0.0168400197384 0.0457310006022
-0.0152301280229 -0.0101812431497 0.0457310006022
-0.0253329341496 -0.0155300559494 0.0457310006022
-0.0195096170502 -0.0142014010283 0.0457310006022
-0.0210036298511 -0.0198963809248 0.0457310006022
-0.0236522006032 -0.00834396969805 0.0457310006022
-0.0293961062041 -0.0145603594259 0.0436530001462
-0.0293788601814 -0.0108292237066 0.0436530001462
-0.0154025844672 -0.0189360568355 0.0457310006022
-0.0164805823775 -0.0145593642749 0.0457310006022
-0.0180024084738 -0.0199443549141 0.0457310006022
-0.0173835653167 -0.0170235681758 0.0457310006022
-0.0172075163505 -0.0224030961522 0.0457310006022
-0.0149959778229 -0.0238766064205 0.0457310006022
-0.0174857114317 -0.00837060767983 0.0457310006022
-0.0205429266047 -0.00485756577556 0.0457310006022
-0.023618686744 -0.00548241798353 0.0457310006022
-0.0283931465262 -0.00630628264718 0.0457310006022
-0.0327032135014 -0.00706340364199 0.0457310006022
-0.0250982354676 -0.0200609573506 0.0457310006022
-0.0222627451892 -0.0039561912845 0.0436530001462
-0.0323941832241 -0.00905287429325 0.0443854028617
-0.0297253149676 -0.016045820994 0.0457040341189
-0.0206966417479 -0.0261467163963 0.0436530001462
-0.0139480111098 -0.0310941643393 0.0505819991231
0.00021847157767 -0.0289621598549 0.0488271882263
-0.0120391470768 -0.0289167370007 0.0503303105109
-0.00472499542908 -0.0289959437745 0.0494659756126
-0.00224106007383 -0.0298395936718 0.0496831874315
-0.00229727123055 -0.0277302765836 0.0483711732579
0.00247900001705 -0.0278583461833 0.0478345549033
-0.000315728866144 -0.0285839420592 0.0436530001462
-0.00251910848531 -0.02927780472 0.0436530001462
-0.00936694490143 -0.0308006296948 0.0505819991231
0.00021303854239 -0.0326479414673 0.0505819991231
-0.00580865931666 -0.0317357051375 0.0505819991231
-0.000181059983307 -0.0337304549282 0.0462583165678
0.00155948319518 -0.0339958868661 0.0485516973414
-0.00406154350365 -0.0331646058547 0.0436530001462
-0.00561581568277 -0.0339558555733 0.0477581426125
-0.00642008227671 -0.0332927973589 0.0448709246655
-0.00104953250603 -0.0342487231074 0.0495112765468
-0.00309889726424 -0.034036001357 0.0473598850243
-0.0126995178409 -0.0315186835355 0.0449934718321
-0.0118626390823 -0.0273299625098 0.0474881659693
-0.00692948324273 -0.0274747222242 0.0482201424176
-0.00437508180395 -0.0269830215681 0.0472778693323
-0.00912165007556 -0.0271626529838 0.0473172041597
-0.00783216539512 -0.0266789998859 0.0453449113285
-0.0106886705833 -0.0325375797801 0.0474526696637
-0.0128024577244 -0.0317360681045 0.0484452039952
-0.00772168497581 -0.0332174415067 0.050103838535
-0.00388640172313 -0.03376721299 0.0501019330922
-0.0133408236439 -0.0043102913035 0.0459844104088
-0.00699542118534 -0.0246557528273 0.0436530001462
-0.00365729065111 -0.0199324071335 0.0436530001462
-0.00661254630786 -0.022319716417 0.0436530001462
-0.0142146177674 -0.0120228503894 0.0436530001462
-0.012256845969 -0.00955648373511 0.0436530001462
-0.00763848869504 -0.0200076936595 0.0436530001462
-0.0121006015693 -0.0220327080352 0.0436530001462
-0.0111554303188 -0.0195852973231 0.0436530001462
-0.000857294015087 -0.019455809594 0.0436530001462
-0.00447604015264 -0.00871566509043 0.0436530001462
-0.0101557396737 -0.00568146145668 0.0436530001462
-0.00366469240793 -0.0127456646704 0.0436530001462
-0.00223683976682 -0.0147322923365 0.0436530001462
0.00182599259762 -0.023119649263 0.0436530001462
-0.00436366374029 -0.00582358008466 0.0436530001462
0.000709085516196 -0.0122828616862 0.0436530001462
0.000421736703641 -0.00794970317274 0.0436530001462
0.000396798539924 -0.0150488812389 0.0436530001462
-0.00690339591202 -0.0125940205184 0.0436530001462
0.0013939918274 -0.0202253034225 0.0436530001462
-0.00189299989831 -0.0266759991646 0.0453502129438
-0.0131624588918 -0.0266759991646 0.0450748966721
0.00247900001705 -0.0134045361638 0.0459068862273
0.00247900001705 -0.0109312884898 0.0448873702478
-0.00156855066492 -0.0208741825212 0.0477305558431
0.000846386179991 -0.0212913404478 0.0475095157443
0.00147839086062 -0.0155371418968 0.0477309918075
0.00158829996839 -0.0182553504085 0.0475923441848
0.000781397543379 -0.024075264318 0.0473823067217
-0.00276365549756 -0.0239280274081 0.0473414137976
-0.0112189645662 -0.0252435477723 0.0463566226038
-0.00742143885055 -0.0242653435549 0.0468896878421
-0.0029652019772 -0.0114602256918 0.0478099994361
0.00144611167503 -0.0118541140809 0.0478099994361
-0.00446493366852 -0.00931944279579 0.0478099994361
-0.00151314018834 -0.0139707643434 0.0478099994361
-0.00668434034892 -0.00812987564925 0.0478099994361
-0.00092404303528 -0.0168290280493 0.0478099994361
1.76534934141e-05 -0.00462218494977 0.0458382971937
-0.00579173546822 -0.00574391263546 0.0474652320735
-0.00138859927172 -0.00786480078685 0.0472226016802
0.00124693005686 -0.00715712824523 0.0464182462612
-0.00690608747103 -0.0136621326047 0.0478099994361
-0.00912462072855 -0.00729465640119 0.0478099994361
-0.00911662802117 -0.0107094125692 0.0478099994361
-0.00466872749673 -0.017400427263 0.0478099994361
-0.0075240160243 -0.0180311517408 0.0474935655904
-0.00948274162449 -0.0135823702182 0.0475870304195
-0.0108610897581 -0.0225518103479 0.0466415328054
-0.00674437454406 -0.0210381185474 0.0473530473999
-0.0102313597246 -0.0165790654169 0.0472301970075
-0.0102702715698 -0.0196441816166 0.0469684982334
-0.00396636093605 -0.00406774963727 0.0463696548211
-0.00652984343316 -0.00381699996069 0.0456666449507
-0.0106598268153 -0.00451144131857 0.0473743583474
-0.011961796307 -0.00713451660664 0.0469134279751
-0.0133737901334 -0.0207515126485 0.0463604021781
-0.0126829630409 -0.0158795805146 0.0466563487554
-0.011713594972 -0.0129861971924 0.0470716207753
-0.0128855804038 -0.0109101255507 0.0465695485767
-0.0294709302402 0.0106571174477 0.0436530001462
-0.0297112409786 0.00523395903671 0.0500650152317
-0.0285774896748 0.00265899399505 0.0483796084485
-0.0287834871545 0.0118294321984 0.0505502612188
-0.0306779810995 0.000528977357586 0.0500237704379
-0.0294517025623 -0.00184756140536 0.0482883468104
-0.0276974110739 0.00527745206435 0.0480605024072
-0.0285859131097 0.0081752913848 0.0495698317281
-0.0295938050296 -0.003810999915 0.046390976746
-0.0310868402596 0.0129381008141 0.0441072907294
-0.028883522394 -0.0035879994141 0.0436530001462
-0.0340754010353 -0.00222304389376 0.0436530001462
-0.0342440009117 -0.00354044512488 0.0469313023909
-0.0318764978801 -0.003810999915 0.0473280808522
-0.0311525131689 0.0136319605161 0.0507243153444
-0.0304404613898 0.0149265159154 0.0467332276249
-0.0311982322638 0.0100561778796 0.0511260938774
-0.0320687722206 0.00686101374657 0.051126336202
-0.033211176538 -0.003328745678 0.0503929799184
-0.0274351926212 0.00782498586189 0.047155230884
-0.0278003304413 0.0140751444508 0.0494287389255
-0.027317000553 0.0101245842562 0.0460354780083
-0.027317000553 0.00527763469608 0.0452176160197
-0.027317000553 0.00279820640382 0.0461856184794
-0.027317000553 0.0135827340237 0.0464613725906
-0.0333267068032 0.00875002568525 0.0499683724256
-0.0329777793804 0.00921598109652 0.0473279606904
-0.0322666380722 0.011453669592 0.0469373302616
-0.0337856383655 0.00151972884398 0.0444004846213
-0.0335969960797 0.00403787144664 0.0456259314538
-0.0330689784986 0.00708471341007 0.0459432318016
-0.0342440009117 -0.000664714354817 0.0459375240101
-0.0342440009117 -0.0010723843907 0.04871688452
-0.033958953964 0.00108070586709 0.0507731906834
-0.0341055616329 0.00252289324517 0.0475180187789
-0.0342380447436 0.00338391738744 0.0499835788316
-0.0337961439102 0.00533827398115 0.0477908051845
-0.0112146694312 -0.00196246770657 0.0471169985831
-0.0164720144173 -0.00256513391209 0.0436530001462
-0.0229175198427 0.00969779360106 0.0436530001462
-0.0194822437616 -0.00150827267027 0.0436530001462
-0.0179850204315 0.00055537361509 0.0436530001462
-0.00283088066437 -0.00140271133439 0.0436530001462
-0.0085510880278 -0.00254956407662 0.0436530001462
-0.0189468190008 0.0084445201496 0.0436530001462
-0.0255463086751 0.00714618624086 0.0436530001462
-0.0256672694123 0.00963230705202 0.0436530001462
-0.0054082993529 -0.00269959966324 0.0436530001462
-0.0246423640679 -0.00288187500107 0.0436530001462
-0.0249629997421 5.13176713842e-05 0.0436530001462
-0.0133757877975 0.00255574993941 0.0436530001462
-0.0235714850465 0.00530825372067 0.0436530001462
-0.0273129995912 -0.00315495677933 0.0455556271093
-0.00955085246581 0.0104429082131 0.0436530001462
-0.00214286686835 0.00701585276049 0.0436530001462
-0.0120824639583 0.00567791689179 0.0436530001462
0.000257881892943 0.00993078162357 0.0436530001462
-0.0145306867709 0.0124872857409 0.0436530001462
-0.0126739579988 0.0108348266681 0.0436530001462
-0.0054950219495 0.00739075451006 0.0436530001462
-0.00309505670339 0.00233196307248 0.0436530001462
-0.00363182849254 0.00496061453944 0.0436530001462
-0.0192253074575 0.0127337294506 0.0436530001462
0.00202437355293 0.0128442430746 0.0436530001462
-0.0222775136645 0.0141545990316 0.0436530001462
-0.011829744212 0.0137591881189 0.0436530001462
-0.00710299420067 0.0133887134533 0.0436530001462
-0.0268956482688 0.0155880004168 0.0444479125784
-0.0229895489965 0.0111139236508 0.0463485100242
