0.022614877553375975 -0.024831000383642922 0.012009462623734386
0.021054264721408915 -0.026258570284810382 0.024757632807904703
0.023269658344360487 -0.02449944135496489 0.02703342710786922
0.02069085999575945 -0.026338385197539095 0.008480473833998152
0.01929436123830549 -0.027394504436777052 0.003025646247073529
0.02193631653353726 -0.025447891499531562 0.017261210435707025
0.023313442210415675 -0.024394384076779182 0.021723119150668088
0.024554988868538425 -0.02328193301056563 0.01335290793115046
0.021718637063738604 -0.025585066503850517 0.014319760159675043
0.021163807133124678 -0.025918309604763448 0.0055734647366136765
0.024315615641150805 -0.0235132750606578 0.01625113399685788
0.02696616787959998 -0.02048096483828682 0.02136201885678885
0.023634318491507576 -0.024120754379243898 0.03810915094129896
0.027248775665175733 -0.02011994843766291 0.025394014949256714
0.025851559267113015 -0.021725816779380114 0.024125277132276364
0.024671459149353543 -0.02302983116045791 0.028508863658851046
0.027317464566531332 -0.0200139608433609 0.02827612113530246
0.024976255021489396 -0.022656349586727666 0.031201631398705174
0.024303318909189322 -0.023385203922520584 0.035238568143552244
0.025887080744239753 -0.021743942990793373 0.018010237155802654
0.02478259847844213 -0.022436099645838457 0.0032385881660255394
0.02287441977222525 -0.024074529838317666 0.0013563002567505283
0.02121414690319505 -0.02572057805138266 0.003118305154623666
0.02315252571539559 -0.023992279562133408 0.004044477955593037
0.019584181018367876 -0.02700245397205908 -0.00030401176808765584
0.02520885585125427 -0.021841956119099684 0.00014111866445165372
0.02426317258335372 -0.023101766399572517 0.00611347644616464
0.02293322225437651 -0.024425436898438346 0.007603786974454319
0.027037238363230492 -0.02037167874927373 0.01517781294430107
0.026547756506549655 -0.020932001525443233 0.012870417751878999
0.027807928961387923 -0.019496026678282555 0.019438807299284426
0.026521852451101023 -0.020899376452636974 0.00680247008786115
0.02712117730147505 -0.020148719928910482 0.003460761507524464
0.025326554709896018 -0.02236716412878229 0.010667277931909
-0.023930706488271294 -0.02431671595741003 0.03530283566001087
-0.02247086945223757 -0.025103006867944335 0.041221902862038674
-0.024149073108383705 -0.02383511397712582 0.03815801482197544
-0.024715358634844562 -0.02290289323583173 0.04230758979921509
-0.020033418943103332 -0.027257565001620382 0.042454833057286395
-0.021730083709814565 -0.026061615438869937 0.038474568492915515
-0.021646614295697118 -0.02684958220259125 0.018829490785914657
-0.021893301573846065 -0.02687645945093504 0.011853781343141384
-0.020291236518488808 -0.027895915306575002 0.02048033678444419
-0.02095021957805851 -0.027090396325263263 0.028794202331702747
-0.020709257857546293 -0.02739616206563844 0.025409472500370622
-0.020192644710901448 -0.027340129948711586 0.04001021069462119
-0.021334566390757502 -0.026633301181126494 0.033252557235023725
-0.01924202978016391 -0.028321062328137095 0.033578860635455766
-0.0230170313866206 -0.025540046203203846 0.02488842693792343
-0.018809420482008298 -0.028524763107382903 0.03810717121283996
-0.02179451997219092 -0.027139418801331184 0.006239248358476916
-0.02587311586342225 -0.022477452483185743 0.02457812469347449
-0.025508329869184568 -0.022587531079423996 0.0361264729128039
-0.025569804244364776 -0.02300436335854774 0.018136428708828978
-0.025744663790573434 -0.022493274543942336 0.029489981493897362
-0.024479163822581376 -0.02418799143440998 0.021174868175956294
-0.025006693289136912 -0.023272876353246107 0.03233036793808873
-0.02442697342144855 -0.02408896498276377 0.02705659321722086
-0.0259818361102121 -0.02194653380921304 0.03949170518908793
-0.024310867016518172 -0.024687718756860377 0.006202584785092325
-0.023591603960705903 -0.025517618728814556 0.0009179287038277708
-0.0236497018134594 -0.025108207497706377 0.017927273613965067
-0.02427645093016894 -0.02462449748231397 0.010935031561094842
-0.023789184879627036 -0.024704573765627607 0.03070667110749859
-0.02334088462347424 -0.02572011654444821 0.003279211525110514
-0.02347415355139302 -0.02547295053132621 0.008781951058829516
-0.02405189712859498 -0.02477257804811439 0.01466195454865419
0.03334660398127226 0.007528259665079536 0.021736278010916463
0.032561885257404694 0.010276358365501599 0.029075799502891672
0.03272036443427186 0.009534902692227674 0.01959402374673161
0.03258265457687156 0.010287118343867335 0.032463647980400474
0.032996084290680995 0.00856935992003472 0.01701661462304093
0.03207709268135005 0.011808638586531604 0.02651097187783972
0.03217583060779019 0.011279614378249026 0.017725957457514548
0.032315001529276195 0.010749403070668798 0.014586679457435255
0.0328087387172812 0.009350198907898292 0.024120994579533483
0.03195492719681307 0.011744517008879055 0.006547929866636447
0.032480384580417576 0.01037628241546228 0.0218800166625889
0.03310504117113385 0.008251143231787971 0.03878203004940198
0.032920706908393306 0.008866996200515636 0.04139352727494023
0.03361342520525835 0.006719352918653446 0.025921073622446566
0.03144457068829353 0.012135373502799857 0.04162978183147365
0.03160343914534578 0.012453586611256591 0.03878941545699245
0.030011267398873664 0.015375627417621348 0.03996313349953426
0.029040989619317358 0.01671906114638227 0.0426312559550356
0.030607948747685916 0.01469713926957811 0.0370642292431058
0.02788391292465342 0.019466908178308113 0.04008607538725794
0.03221044787982592 0.01154700213616346 0.03573634854965801
0.02950954799902126 0.016943331828182053 0.0361420815962767
0.031557841317034395 0.012851155623154215 0.010750433313875379
0.031198866146496928 0.013568346887892737 0.013872230993869882
0.030725536739196542 0.014514010956894674 0.01740079343948337
0.03153000981373654 0.012906530426755469 0.032944751543506665
0.031134140250057993 0.013697561234590365 0.024061999054505935
0.02945446086328855 0.017053422180011945 0.03350412993682514
0.02990240196934045 0.016158495223778054 0.028837639632193598
0.030196705504365512 0.015570517077436067 0.02564656107044294
0.031322648541246 0.01332095272701055 0.02151702395207367
0.031457078522932086 0.013052293166688076 0.028374388693098024
0.005406021983436935 -0.0330225105416993 0.029462248466431713
0.0025595878224507966 -0.03342460228343022 0.01156545610599123
0.003924042312338048 -0.03310574760380301 0.006714907294517961
0.0055343691260783924 -0.03294350279799564 0.02378638094213331
0.004545113584775577 -0.033046528299979665 0.013656346860266311
0.00394470596705139 -0.03318848942549605 0.015966885779234954
0.005420540613555222 -0.033074516747783084 0.03531010142039349
0.0046591530057164205 -0.033067843013228015 0.018358672308642587
0.0048699529561487855 -0.03304961789802634 0.020914329436112097
0.004582171286418158 -0.03294612368441696 0.003754672085657886
-0.0013403401827313261 -0.03330900518516403 0.008261968285971519
-0.0029277565929769446 -0.03297609348748969 0.0011529990575693933
-0.004098190078524533 -0.03316126596921048 0.005221627685067648
0.0005669775045167329 -0.03298767140615629 0.0012084890725906738
0.001147124258244319 -0.03328475819948074 0.0075990857396481
-0.005988049806313292 -0.03300340756759358 0.0019141249603226833
0.001510190652740811 -0.03312515140476745 0.004128188960823726
0.0031220371523027913 -0.03299831422464517 0.0012961466595712455
-0.0014856816239299595 -0.03313727619018149 0.004557335028944725
-0.0003190097875356722 -0.03347408221119277 0.01181435243202182
-0.0033598962431040935 -0.033569514057612784 0.014774417335077422
-0.004269343340560647 -0.03343483244469989 0.011753163295492496
0.0012057809960536038 -0.03353007542229327 0.041273819131965796
0.005543371858927747 -0.033053741160532696 0.03956942059817293
0.0033375539217957075 -0.03331041277585227 0.037731143749563975
0.003185339671442069 -0.033396287170963865 0.024834478050285887
0.003906562325164633 -0.03327434345644022 0.032558587559622376
0.004336841164660082 -0.03317502097147917 0.04214472486779215
0.003013729289223886 -0.03339393153475531 0.028873798308862147
0.0026201928407460235 -0.033406662928521104 0.03473959409480306
0.005591463383078016 0.013919975597096661 0.045507931335284746
0.0037789506239981822 0.01699874747181148 0.04571836956896767
0.009353477051107839 0.01583499458647665 0.04592648703713256
0.0030201888868543313 0.014072571436345825 0.04537236947785825
0.009893319324560801 0.012873642595175674 0.045653265802202296
0.007983154649277294 0.01828438824901422 0.046098122859614954
0.007247609830638843 0.011498471548545556 0.0453559838482969
0.012338426263133017 0.01203553687947649 0.04571080585382735
0.01081998187138477 0.024242679340022746 0.04642400145530701
0.026508850171975042 0.015418498484614445 0.04642400145530701
0.018109191201295755 0.025255693913475354 0.046424001455307
0.021520592297085046 0.020504793372777445 0.04642400145530701
0.00824561684792896 0.023848939014403218 0.04642400145530701
0.020946571889590374 0.025304479583976233 0.04642400145530701
0.014577224175636108 0.024095441823620573 0.04642400145530701
0.022003751324868242 0.016382160176052714 0.04642400145530701
0.01708579292905367 0.018381539771315396 0.04642400145530701
0.019261660897472617 0.021539769856855497 0.04642400145530701
0.01687259861107079 0.02087108341544023 0.04642400145530701
0.010174218834370481 0.021528804278386573 0.04642400145530701
0.013120865381834912 0.0215247960951425 0.046424001455307
0.02288155662189378 0.01243837099586071 0.04365300014615059
0.01895939951039662 0.016857913642947638 0.04365300014615059
0.017946145091459358 0.012941192639712076 0.04365300014615059
0.020158610321464397 0.012163861981724259 0.04365300014615059
0.02123604246507011 0.014879477347224479 0.04365300014615059
0.026323096889725926 0.012165383187811312 0.04365300014615059
0.015670292485006468 0.011365046945611367 0.04365300014615059
0.029986777016422137 0.010738000273704529 0.045554493549878707
0.004837756664258049 0.010738000273704529 0.04503762376492239
0.021231745701956736 0.010738000273704529 0.04582111189075076
0.004532704436661578 0.033592239912963236 0.045506102422552104
0.016826486551465927 0.021033105544984877 0.04365300014615059
0.010497253593440663 0.016764225019453162 0.04365300014615059
0.0026569401634420424 0.012066260942959275 0.04365300014615059
0.00562994735733048 0.02839560765709246 0.04365300014615059
0.015469845735965312 0.025277909204303388 0.04365300014615059
0.011643204450765662 0.01907104188892682 0.043653000146150596
0.008975601536096627 0.024335623089420878 0.04365300014615059
0.009865369176790414 0.014258870120384338 0.04365300014615059
0.014495541216513412 0.019785972730926915 0.043653000146150596
0.0029367754500635845 0.02838592693487043 0.04365300014615059
0.020258029439317787 0.019627503295661604 0.04365300014615059
0.007012659589088989 0.020123663121831906 0.04365300014615059
0.006495490611659149 0.025378498036205926 0.04365300014615059
0.005257536725336533 0.018427548099709673 0.04365300014615059
0.012579523649020275 0.015475904140585561 0.04365300014615058
0.01825847029070275 0.028324706744125853 0.044865369920836014
0.014126520161108607 0.03081785736766878 0.04365300014615059
0.007453092910419457 0.030497968333630367 0.04365300014615059
0.021426133457963282 0.024146414749895612 0.043653000146150596
0.015693836512490185 0.027887127663136772 0.04365300014615059
0.01005961902965113 0.029437607360283686 0.04365300014615059
0.018859153200060992 0.025015277651669107 0.04365300014615059
0.005422559127089769 0.028758492768099934 0.04642400145530701
0.005106702755297155 0.026009298734270842 0.04642400145530701
0.009829081111940386 0.026573385525667903 0.04642400145530701
0.007925798728589584 0.028818215006545758 0.04642400145530701
0.014818060083358491 0.02789658600534638 0.04642400145530701
0.0024790000170469284 0.029291134220394657 0.0458073519364384
0.02312275989711441 0.02446790915223752 0.0460266375757028
0.030578158397030736 0.013631340152206713 0.04481062254013133
0.02773357090441293 0.019102826678321236 0.04384013910666687
0.011294636008331312 0.0316824145261448 0.043918719675291075
0.007062306493708889 0.03283345734182926 0.04604088731194745
0.01080652417531068 0.03080785784047119 0.04642400145530701
0.014138827097756332 0.030632431420567943 0.04642400145530701
0.0265870638394181 0.010883366678086495 0.046228595969525596
0.019100693483264285 0.016469815174593692 0.046405630135251695
0.01693685353059377 0.011149222424726098 0.045849679852335616
0.007254025088661441 0.02130421548658518 0.04633510645290308
0.012716127056375454 0.01860478677377825 0.04632643914854924
0.003972258442375387 0.023512148899030482 0.04639161717926504
0.016169685602118136 0.01386747259497442 0.04605566435205684
0.020094351298508697 0.013127019527281552 0.04615441183935888
0.012092229554508746 0.015441210533593808 0.046023495412854845
0.02364266142239121 0.013452397576411439 0.04633077766911978
-0.018191440278145846 -0.007324853840957711 0.04365300014615058
-0.029707919998304258 -0.005827965351912096 0.04365300014615059
-0.015023424752841977 -0.010984063132808624 0.04365300014615058
-0.01651346793569898 -0.016315284011384438 0.04365300014615059
-0.02193636866966888 -0.008280854128231374 0.04365300014615059
-0.01871524693689213 -0.014819478023622882 0.04365300014615059
-0.02956686511605132 -0.009450601288420724 0.04365300014615058
-0.015367230964989546 -0.018863343841999076 0.04365300014615059
-0.01983684259100704 -0.004719897363803307 0.043653000146150596
-0.027094194420793145 -0.007178053549623541 0.04365300014615059
-0.0169454740115621 -0.012893461578971062 0.04365300014615059
-0.017320166610463626 -0.020184425181242135 0.04365300014615059
-0.026809568876836495 -0.01346579530139514 0.04365300014615059
-0.022084534733601648 -0.009989941026778271 0.04573100060224533
-0.022199776800203394 -0.01263278684017454 0.04573100060224533
-0.020087596663113272 -0.020696640901669054 0.045731000602245324
-0.027224096218763864 -0.015900791269422784 0.04573100060224533
-0.023485198770991166 -0.015490142790774441 0.04573100060224534
-0.020161731970725124 -0.01619594320695778 0.04573100060224533
-0.0300917091873852 -0.007875049076837282 0.04573100060224533
-0.017392164273907454 -0.011244868177032193 0.04573100060224533
-0.019347527700921293 -0.013703183195394125 0.04573100060224533
-0.025421582234785998 -0.013597423910574023 0.04573100060224533
-0.025538019343928416 -0.007581632120007516 0.04573100060224533
-0.026198026530801034 -0.016606242560016873 0.04365300014615059
-0.023536072539871576 -0.021163082908915477 0.04365300014615059
-0.015291159237766297 -0.013442111340570799 0.04573100060224533
-0.019090101282904535 -0.02579689302963771 0.04573100060224533
-0.017666630862858034 -0.01792436837156105 0.045731000602245324
-0.017412177000592746 -0.023259909567815686 0.04573100060224533
-0.01484300009906292 -0.01705601476441962 0.0454534192624587
-0.022504525131750493 -0.005809995362593743 0.04573100060224533
-0.027142559639479234 -0.004837797706771986 0.04573100060224533
-0.01849149948061738 -0.005081250662177831 0.04573100060224533
-0.020513110039522876 -0.00744358985082448 0.04573100060224533
-0.016498755477009228 -0.006740427223123 0.04573100060224533
-0.015630646198204198 -0.004342438454365356 0.04441844822068375
-0.02622093403350812 -0.021408116460715925 0.044086827393884725
-0.03355000168085098 -0.004992367307598315 0.04374391798262828
-0.030299325034617432 -0.003815999953076243 0.04533868997759993
-0.02955081559009912 -0.014409896383142794 0.04365300014615059
-0.031046189554307713 -0.01264265657700334 0.04503045334976615
-0.028545607855952213 -0.017871591276224848 0.04430656860837091
-0.023303778564200395 -0.024200093605188645 0.043764097884486486
-0.018726637373139756 -0.02835647701359062 0.04429279244538585
-0.005427652934478914 -0.03306156194871062 0.050581999123096466
-0.0009756619525197198 -0.02935241846323093 0.04922043290798246
0.0009701303889034598 -0.031181564416367345 0.05012115171191911
-0.00360841811996871 -0.027495260190952157 0.04838802954588727
-0.0034896094730849946 -0.030392785240825226 0.05018511937399954
0.0020251461479568714 -0.027652687253886435 0.047782589640527375
-0.0057232091693838 -0.028742826857820397 0.04943241354225936
-0.0025048098236927045 -0.02667899988591671 0.043813100864275346
1.8475407872146216e-06 -0.026678999885916706 0.0460345716313768
-0.01226995014376184 -0.02667899988591671 0.04386399566233779
-0.008950888287510426 -0.028001964694220255 0.04365300014615058
-0.004367056466190042 -0.028339564446586814 0.04365300014615059
-0.0018981391312022267 -0.02951643071502124 0.04365300014615059
-0.010814600432704886 -0.030022101486435696 0.050581999123096466
-0.006997767720858684 -0.03081760485489458 0.050581999123096466
6.115356022757656e-05 -0.0336721446212305 0.04610163624157408
-0.0076318552862816615 -0.033247448616367796 0.04598553524644483
-0.0016738795431722807 -0.03405933589790078 0.04781426009553978
-0.0032745499112390697 -0.03372319756890996 0.04471265451787639
-0.004519713820431946 -0.034111199804202116 0.04773008288164372
-0.01190485601825892 -0.03192403821651261 0.04444400040134101
-0.014538470450169427 -0.030528640800184432 0.045745112125524914
-0.005945848521789767 -0.03307439410324874 0.04375818126524295
-0.008592977828737929 -0.032290908929355266 0.043788725635036684
-0.010129426896819668 -0.030147094523963823 0.04365300014615059
-0.00816883710371143 -0.027248771471461923 0.04759419241346011
-0.01333819455628166 -0.02740795588287788 0.047552045777052104
-0.010870517589625301 -0.027962333727088996 0.04904201094052048
-0.006859400234109985 -0.026678999885916706 0.04550901004693834
-0.011543216309726908 -0.03236855630106329 0.05018601627081479
-0.011818815512425383 -0.032159655276461356 0.04722996340134019
-0.014075672962072064 -0.031156916065506066 0.04946270395520557
-0.000519908349742745 -0.03413643693080946 0.05024452717798673
-0.007983423824384316 -0.03334625065516921 0.04989227085460783
-0.014296028062535198 -0.007773541970360055 0.04572623944956661
-0.013353755008308106 -0.004001547128252344 0.0459486194365121
-0.008649108386313763 -0.024952763144276715 0.04365300014615059
-0.008111495917745553 -0.019942257264253117 0.04365300014615059
-0.0029797091475381246 -0.023676140359698766 0.04365300014615059
-0.011235181858334818 -0.02430251237294122 0.04365300014615059
-0.005116597566849468 -0.018142698210966677 0.04365300014615059
-0.013024417794562787 -0.013125380213752397 0.04365300014615059
-0.005493808837122605 -0.024047660748195053 0.04365300014615059
-0.0011861322810930895 -0.005668023526820308 0.04365300014615059
-0.0008440432939766247 -0.015996740477574923 0.04365300014615059
-0.004524655032962852 -0.01266254289890595 0.04365300014615059
-0.005538617541091576 -0.007984950920738665 0.04365300014615059
0.0009223904275940262 -0.01901050285091561 0.04365300014615059
-0.006149719858793539 -0.015156523100881546 0.043653000146150596
-0.008526236991698861 -0.0058931704778065735 0.04365300014615059
-0.007714238710539913 -0.009732051719742852 0.043653000146150596
-0.004195926968050227 -0.0266759991645813 0.0458930852582825
-0.0017269101942805156 -0.01950734249029642 0.0478088619390828
0.001735976213152129 -0.01791275379091561 0.0475963634465422
0.002229905769008961 -0.024011752760959387 0.04726466981213554
-0.0013569559207802125 -0.024481289116380447 0.047324329824842554
-0.01168485592505416 -0.02584554119213206 0.04617828690539942
-0.005772389862854832 -0.024458979197375053 0.04697626206888287
-0.00348280458799327 -0.022721473707874966 0.04756658943105245
-0.0005543916825270067 -0.011641245387058614 0.047809999436140053
-0.0030424427056006506 -0.010650810599170174 0.04780999943614006
-0.00796589460524103 -0.006269382416718727 0.04780999943614007
-0.007223805375619612 -0.009252901296441993 0.047809999436140053
-0.002624898537321017 -0.013901155698251887 0.04780999943614006
-0.0008769786494671308 -0.016407043870068458 0.04780999943614006
-0.004224139540298679 -0.0173116926087553 0.04780999943614006
-0.005086793889513713 -0.005469153933927398 0.04722159164972672
0.00036898189027641443 -0.005222288567847435 0.04596258037968258
-0.00029269904522117945 -0.009403061446768493 0.04749905042358174
-0.002725584033558299 -0.008272741694135827 0.04764696185194313
0.0024790000170469284 -0.007471771025293809 0.04603960024092339
-0.0065385827788031654 -0.012214853589241213 0.04780999943614006
-0.0044283268054045475 -0.019815579261772236 0.04778434445787344
-0.009003335558653909 -0.014570908266320038 0.04757253878021936
-0.006888481210446603 -0.018370438928379917 0.047555522250525256
-0.009586399810581455 -0.010964122401242416 0.047791121913742074
-0.012429467936726484 -0.018568069819737295 0.04675160192296441
-0.006420067812944958 -0.02171328670990796 0.04734270543815163
-0.010094737003665321 -0.01954884289830537 0.047001410612204336
-0.008537174699298784 -0.023157073547040035 0.046921187999159585
-0.013065887487247246 -0.023666731292075298 0.04623503923259644
-0.011184741886730212 -0.021865678757138175 0.04665288406569548
-0.011080866196113225 -0.016147337951147377 0.04714555961580275
-0.009850583773795926 -0.004212771094442723 0.04746265799831545
-0.002342962999483841 -0.0039370859551519175 0.04593649586468425
-0.00735970409911778 -0.0038169999606907368 0.046018386352670276
-0.009965000651273209 -0.008308661343464602 0.04774841568909673
-0.012184338440304521 -0.009272572980898668 0.04684900850891355
-0.012098890392994171 -0.006307993008921223 0.04684179708358656
-0.014843000099062918 -0.021231478017030184 0.04560965935084772
-0.012907445667741827 -0.01356922260043522 0.04656018161628992
-0.03378987041522903 0.00653350327426963 0.05003375216302928
-0.030595940055752512 0.0052149436632711686 0.05078519394517081
-0.029774448798732315 0.012300351893523381 0.051175207812994825
-0.03185880467125646 0.001023999963915181 0.04365300014615058
-0.029583424260166854 0.004754241365651903 0.04365300014615059
-0.02959093796750375 0.012747526645653012 0.04365300014615059
-0.02750822016102404 -0.00322671551864069 0.04365300014615059
-0.030711984598408616 -0.001405609377953241 0.04365300014615059
-0.030644188304978892 0.008004374135386337 0.04365300014615059
-0.02878108674422704 0.0016750062052915704 0.04365300014615059
-0.02860267397959094 0.015588000416755676 0.047329467730659006
-0.02838454870030092 0.010298207733133512 0.04365300014615059
-0.028492485519218253 -0.00045195603833901024 0.0476281209297426
-0.028238164216663697 0.002223175880576572 0.04794691411238495
-0.028134607070906724 0.013955491798675446 0.050356863381015186
-0.029517550564260916 0.007687926586803956 0.05039705754097862
-0.03151325158310066 -0.00212169053811183 0.05029116777990464
-0.030193906402250364 -0.00022901092181760237 0.04937730575491943
-0.028971698273808636 0.00417283900908195 0.04909814014080809
-0.029075561282298802 -0.0031241618640237773 0.0476387092139383
-0.027317000553011894 0.0075808802645855825 0.04395866244959652
-0.030045520347114506 0.014864893694637976 0.04460278886372622
-0.033689380907890074 -0.0038109999150037766 0.048025773736507245
-0.030737651646956646 0.014986640878456997 0.048415183569732324
-0.03184849027610351 0.012996488403308335 0.04988428278681441
-0.03197134665695775 0.0031382587327792545 0.05108679184134829
-0.0315209474662092 0.010533733415370212 0.0509875814550642
-0.033530459421980706 -0.0009212010531649954 0.051088836635188595
-0.027656058360212718 0.006402524780625253 0.04815896191104742
-0.02765026875773437 0.011006562839827917 0.04845869593620988
-0.027317000553011894 0.004313338750124677 0.04600291192757137
-0.027317000553011894 0.01284859942334491 0.04516467984982422
-0.03321063192860605 0.009156287200489837 0.049554113359355285
-0.0319521703287632 0.01239538816384065 0.04669030614981942
-0.03340216922722401 0.0034308893357430778 0.04439631872714658
-0.03184398288937529 0.010326263751890667 0.043702293295040155
-0.032613389224404946 0.009705815326345426 0.046210937331105685
-0.034244000911712646 -0.0021901890559623705 0.04563378091533194
-0.034244000911712646 -0.0002351742731162294 0.04824424238410189
-0.03393009528226801 0.001408658800215835 0.05084760061900315
-0.0337238752036579 0.005828099098372756 0.0476448970872628
-0.03410998233544324 0.0040124335467933165 0.049425774896045147
-0.03412390268341286 0.000528587846471096 0.04521823206535192
-0.023726652893782948 0.000983369286921503 0.04365300014615059
-0.01165890297385989 -0.0011170027181851845 0.04365300014615059
-0.01762343918460889 0.004610969929819469 0.04365300014615059
-0.02354448496174824 0.0050668718500708155 0.04365300014615059
-0.010038569317834962 0.004318791999353524 0.04365300014615059
-0.014342127518057874 7.948841051589792e-05 0.04365300014615059
-0.011929443109971825 0.0020307563002766984 0.04365300014615059
-0.015740470066725312 -0.0018825317736421091 0.04365300014615059
-0.02506715160964177 0.008423173944085009 0.04365300014615059
-0.009326839759385891 0.0017579816791131228 0.043653000146150596
-0.01641131790277301 0.0019004151808308589 0.04365300014615059
-0.01257721410491669 0.005590567509208657 0.043653000146150596
-0.02466266908512243 0.01510824349498275 0.04365300014615058
-0.004164469378482714 0.008010242116255081 0.04365300014615059
-0.012370617013093603 0.00802536213021312 0.04365300014615059
-0.006315699414453938 0.012430522425701335 0.04365300014615059
-0.0030162297211994804 0.0038432442691438374 0.04365300014615059
-0.003325978328362415 0.013402090140160697 0.04365300014615059
-0.010021298002183748 0.00684523167472288 0.04365300014615059
-0.0026615757402413467 0.010205235316487786 0.04365300014615059
-0.008738274041294562 0.011731259057216316 0.04365300014615059
-0.0042367251696419275 0.001792485751193139 0.04365300014615059
-0.02059444001627714 0.013329554170650364 0.043653000146150596
-0.013107540513842 0.013555305771387974 0.04365300014615059
-0.015208889361405905 0.011336592241153185 0.04365300014615059
-0.006391450693653249 0.0030256705340693303 0.04365300014615059
-0.001515323004056561 0.001375236798474338 0.043653000146150596
0.00043299815701337624 0.00722368879216868 0.04365300014615059
-0.0020267851326736877 0.0066189283677836885 0.04365300014615059
-0.015460999671418584 0.008591781604734169 0.04365300014615059
-0.017720418741436452 0.014301758118473448 0.04365300014615059
-0.021490594926457742 0.015588000416755678 0.04366502471684123
-0.02465071623956854 0.012838834194971203 0.04611124897504197
-0.027042129487809735 0.010154278972252196 0.04576968841359381
-0.02635220256521555 -0.0006037304071252747 0.04586822923551691
-0.025107369249952063 0.008576378952278325 0.046046026178970106
-0.0051697219407955426 0.011215313724028182 0.04681339970510686
0.00036794952851041643 0.012824779972615462 0.04599528660914978
-0.0023363796809021033 0.011029057830897238 0.04669758818611212
-0.0036379237224741885 0.013434981826181979 0.04605501486579275
-0.012160471550654833 0.013681066007699381 0.046497573666143835
-0.014490782196739436 0.015172775191656605 0.04619146144652321
-0.006784657399249978 0.013503336077250704 0.04622516698962473
-0.009616357271654241 0.012853016472736442 0.04659173053396674
-0.0064560759299619784 0.0019923408152849567 0.047116998583078384
-0.006579366841133477 -0.000665936542436502 0.04711699858307838
-0.009813109208244217 -0.0003396314595149893 0.047116998583078384
-0.013591262752684984 0.008092582814650032 0.04681244451263315
-0.004831092402845786 0.004499579679918242 0.047109479838948844
-0.0007857906306592806 0.008835936933736433 0.047045343308863875
-0.014702414042300334 0.01087685525516842 0.04669658693439566
-0.0028098869808239023 0.0062354440058643 0.047091897567904197
-0.010676574503331523 0.005907291411295491 0.046944507988023194
-0.008934600470830861 0.002237081156509679 0.04710281378258829
-0.011433360126790205 0.0032555225341537953 0.047018303034854395
-0.003427407943304599 0.008946958684374054 0.046988422834854736
-0.012032284080477181 0.010721973335280308 0.04675555417305376
-0.008300673177443627 0.006548341564317685 0.04697082680525201
-0.013565594004228874 0.005159664668858608 0.046911435121102504
-0.016690688973555884 0.01381347601546956 0.046557952024352395
-0.009529772124919272 0.009999226989877496 0.04683021241703103
-0.02139016607127147 0.013091703633308974 0.046426806701200446
-0.016559295509083295 0.006847727882926978 0.046761685383438424
-0.02205013769000567 0.010468232721384758 0.04644748989607637
-0.01835905702341271 0.00977373324483193 0.04662546351552325
0.000991183528293618 0.006227002212664682 0.047116998583078384
-0.0020860227841673347 0.003059070797005688 0.047116998583078384
-0.0032426989794773244 0.0007961552887891803 0.04711699858307838
-0.0009334311005673467 -0.00029764888255340337 0.04653113784880268
0.0007594072371294462 0.002530910014521671 0.04684506523476731
-0.004158975355706383 -0.0018034484390751383 0.04682879702836466
-0.021186187200292163 0.0016410228922116926 0.04636549364091063
-0.024320512071986173 0.0019132474215606053 0.04609791073624846
-0.022010314048504728 -0.0010176777100889963 0.04624429356676959
-0.019829154443958434 -0.0026030411502836236 0.04640450833506403
-0.018626823794140736 0.005065531520705017 0.04665190123662126
-0.023977009628446323 0.004678316198196936 0.046179282479849766
-0.020160859455655804 0.007389740971642162 0.04656173792249982
-0.016222887659872277 -0.0033390610055804414 0.04670450832458266
-0.018802105480264904 -0.0005045155921323001 0.04653292892150558
-0.025463008154903 -0.002933904989067408 0.045908262922916034
-0.015730504035141174 -0.0007714040063213855 0.046795154937487114
-0.01211276371412699 -0.0017836270945045304 0.047071172115670454
-0.012749717402089442 0.000778622867294206 0.047031337529909956
-0.016105799435543883 0.004097893794708591 0.04682145078287102
-0.0091716495528175 0.03281910479363553 0.045763919138621115
0.00016519191465318075 0.03079910514311053 0.046424001455307
-0.013588295117643971 0.02426722846466106 0.04642400145530701
-0.006600297363342996 0.027418273721728083 0.04642400145530701
-0.010367294618487916 0.022022020803088398 0.04365300014615059
-0.014477506281438809 0.022757022183287554 0.04365300014615059
0.0004914912721431519 0.030540123045543276 0.04365300014615058
-0.0020124339292313543 0.030380782742704733 0.04365300014615059
-0.01920643634718982 0.023422578886927142 0.04365300014615059
-0.006985988118396795 0.029504898082086856 0.04365300014615059
-0.014427051187726032 0.02655363023625812 0.04365300014615059
-0.004257592995227731 0.02529803766216797 0.04365300014615059
-0.011746396958795759 0.02707996764187392 0.04365300014615059
-0.012422554612042528 0.026412991768839718 0.04642400145530701
-0.018429525437170698 0.023370769845534788 0.04642400145530701
-0.01629048693489494 0.024784477402330925 0.04642400145530701
0.0024790000170469284 0.019470279959273792 0.04511253587311451
-0.020428164464374524 0.019169183858136644 0.04365300014615059
-0.0058989716134200156 0.016154985958420034 0.04365300014615059
-0.025461486619925082 0.01801628573776741 0.04365300014615059
-0.02300599432778323 0.019975334680711547 0.04365300014615059
-0.013143272653777089 0.020342843012180593 0.04365300014615059
-0.008024260560830832 0.018052494989115625 0.04365300014615059
-0.009240363226532308 0.0309953903364346 0.04365300014615059
-0.02381823164106036 0.01834141627378116 0.046424001455307
-0.02331958558167968 0.015857712837196468 0.04642400145530701
-0.016082721860954385 0.01847283870771595 0.04642400145530701
-0.018830061245224062 0.017792307713278863 0.04642400145530701
-0.0015898422584380166 0.029008233958029254 0.04642400145530701
-0.020871854314641593 0.01628611900331263 0.04642400145530701
-0.0117992929951941 0.02221123812198804 0.04642400145530701
-0.025822976286869283 0.016502029142091753 0.04642400145530701
-0.019003569212339814 0.02044502118808579 0.04642400145530701
-0.015319636194418592 0.021628317791534443 0.046424001455307014
-0.007254311455900638 0.024577381288837366 0.04642400145530701
-0.019837659998903488 0.02620371083384615 0.04642400145530701
-0.014648491991428893 0.029899316922377055 0.043653000146150596
-0.013155984634563044 0.03160216653396577 0.04509938702870863
-0.0018101860713008722 0.0252832950722313 0.04642400145530701
-0.011450465253745898 0.01922630718473645 0.04642400145530701
-0.00884841536529913 0.02208244466094322 0.04642400145530701
-0.004690778537548197 0.025806237901793944 0.04642400145530701
0.0005891089441443334 0.026861248611727756 0.04642400145530701
-0.006198142494828604 0.020236205063658794 0.04634504369069307
-0.008683488459539406 0.019444108626679814 0.04637856395861706
-0.0010036393874375215 0.020188078715028136 0.04609248532306052
0.0002685944985058833 0.02287578352364341 0.046319805353324583
-0.003512094384396482 0.01862338550833822 0.046044343692009826
-0.007118440874981243 0.016684734067931563 0.045951667641783746
-0.0016399529646653364 0.017145894173665945 0.04570163695080752
-0.009796884032733023 0.016414889015984528 0.046062812361082554
0.0012997535218107553 0.017178983934684405 0.045513881582637736
-0.028530208722563122 0.017143031978650837 0.04450661255672504
-0.027392947234021414 0.01918774112603201 0.046418059726259155
-0.022955420535032165 0.024794993600605462 0.04535478594626014
-0.024257867137155876 0.022937601117151075 0.04642400145530701
-0.0003952091598178526 0.03360399976372719 0.04524921616821653
-0.00556260202413195 0.033341720114047596 0.044986528203431395
0.015527806223862727 0.001968480600877405 0.047372590649768134
0.013840298254016106 -0.0009639207980575684 0.047731546262743466
0.014249332127418227 -0.00989182998025738 0.04365300014615058
0.014227665420724572 -0.012691912031087509 0.04365300014615059
0.02339298341593214 0.006817466103637014 0.04365300014615059
0.01937672215211693 -0.015474806029212446 0.04365300014615058
0.023522851355557768 -0.0012326613857198557 0.04365300014615059
0.02577317142811906 0.0005518287993475654 0.04365300014615059
0.012110721192661955 -0.01409013856810004 0.04365300014615059
0.02652732410656746 -0.012071897524199937 0.04365300014615059
0.009165414780346604 -0.016933855593231753 0.04365300014615059
0.012334107301269702 -0.008119205193978539 0.04365300014615059
0.02504218460010118 -0.009839706236281588 0.04365300014615059
0.013826015286448431 -0.01580040667381276 0.04365300014615059
0.0024790000170469284 0.009195145388407079 0.045984067646986274
0.0024790000170469284 -0.002247906407485945 0.04500938772337066
0.004157077032656574 0.007833730271148562 0.04365300014615059
0.011279526945975024 -0.005667166163553976 0.04365300014615059
0.003137093199507344 -0.004547478372839905 0.043653000146150596
0.011088358930438521 -0.003038347861531042 0.04365300014615059
0.018130341504324653 0.0022310779318320305 0.04365300014615059
0.008242869233516144 0.001375725221367943 0.04365300014615059
0.014851015343718486 0.006635456709821663 0.04365300014615059
0.0032325294092013365 0.0029740169203253 0.04365300014615059
0.00636553024503634 -0.007381525171081602 0.04365300014615059
0.006105702866576313 0.0050882700931299 0.04365300014615059
0.010472782334011646 -0.0005020033816589471 0.04365300014615058
0.014855205404225223 0.0015245751156181065 0.043653000146150596
0.005587506555385643 0.0026183949489602945 0.04365300014615059
0.003906741280184379 0.00012241385420487527 0.04365300014615059
0.011292514931473863 0.005619038718130858 0.04365300014615059
0.0024790000170469284 -0.010336730546491384 0.04595260242500999
0.024508825978698884 0.0015869948717135846 0.04610154088257474
0.01994739620629081 -0.009584802453776837 0.04686214466263206
0.02183943041700834 -0.011169206194346753 0.04654665402823174
0.019648274723246897 -0.006465708627738032 0.046912022210254464
0.023389436347243765 -0.002985902378331959 0.04628819551226824
0.024860372330903248 -0.01131959671087686 0.04604292165621518
0.02359925319730303 -0.01364027284254103 0.04625320922567886
0.023424000097326217 -0.00874860023577629 0.0462824321178333
0.026608499752142543 0.006148102873129035 0.045751427017262425
0.025920539269792167 -0.007393046048344178 0.0458661422205022
0.02233559872929218 0.00010101636256314259 0.04646391955402136
0.021538151078776685 -0.014826340567450962 0.04659689139128363
0.016354501514272878 -0.013163256201552077 0.04746124832539743
0.02658992097193189 -0.003033446982176254 0.04575452496925602
0.018899782123892456 -0.01210917366345414 0.04703683094979873
0.00958127485046408 0.009255381548539861 0.04671269415163996
0.021202406676151704 0.007226838219127485 0.046483935856456896
0.01856660433312749 0.006046590509733851 0.046771858789355046
0.016475599830170606 0.00478616369422658 0.04704691079345402
0.018564730399484003 0.008524014042591859 0.046415452823222805
0.01465699864590502 0.007187637275367622 0.04678282770251119
0.008734216894086808 0.006169635587983687 0.04719466925323075
0.011560529215305678 0.005197759139921036 0.04720789181620889
0.013131320886120974 0.0021117564410675967 0.047581578018093186
0.005231786415338448 0.007762266664103756 0.047122414758049486
0.011999204344255006 0.008549916804956674 0.04670587788246623
0.0030029292916594064 0.003815116151550886 0.047294790660306
0.008569298874285867 0.003403670345390136 0.04758865165493116
0.002499003234429862 -0.0037861780055157943 0.047506945866851905
0.003087140355878573 -0.0013328973843615987 0.047459953688574356
0.00507054961811147 0.005219019177782268 0.04735528595404413
0.0034791559855539547 0.0014435053154822804 0.047392961088319856
0.006946019597975304 -0.001381662809391271 0.04765628115269073
0.006044004359611773 0.0014893071140797975 0.04752100763943049
0.010559143293665503 0.00033414466096059103 0.04778504702597689
0.006084931307937621 -0.004984402677577833 0.047725423009095054
0.007477447529015884 -0.010416768619040416 0.04780999943614006
0.009762432733605313 -0.0022831065872363867 0.047809999436140053
0.007130759465427339 -0.013464811846442505 0.04780999943614006
0.011479355893418312 -0.01285247230637637 0.047809999436140053
0.010597672391629575 -0.004897295040764362 0.04780999943614006
0.004351561352023008 -0.012550703340999952 0.04780999943614007
0.012027533498966991 -0.010086728571506397 0.04780999943614006
0.00630983776469772 -0.0081320374563961 0.04780999943614007
0.01030941163765978 -0.007869089461113065 0.04780999943614006
0.005213055176251512 -0.016977999359369278 0.04449651925852616
0.02386992316449726 0.010667371862769155 0.04571989004711397
0.01422988657016534 0.010010037407351818 0.046101210065177305
0.009249758656844603 -0.015210921072184962 0.04761118389261499
0.014217853370205355 -0.015867141968127517 0.04763735823993223
0.0033747151905706768 -0.014677612520674687 0.04723958975949566
0.02595134175826752 -0.016977999359369274 0.04574571259884787
0.016727603157633244 -0.0048328888522024965 0.04735713814138915
0.01379168562708059 -0.004494294215372353 0.047797371393840674
0.016009480184841614 -0.008455346213395835 0.04749276789313151
0.022748899763202296 0.0036426021121208378 0.04638509118225555
0.020121370661143678 0.0027401560121585863 0.04678817533445932
0.016798506207461796 -0.0018283420347770512 0.0473237813057244
0.019392528627583772 -0.0005903023461301213 0.04692321914543891
0.01910171535989094 -0.003457698857603102 0.04698870772558532
0.015355990200382792 -0.01085315867245792 0.04760941231998657
0.024084096309862017 0.0067131676193948 0.04616055897659225
0.012973876480934479 -0.006998161148652163 0.04780999943614006
0.031490721414103 0.006003205917092352 0.04365300014615059
0.030059513052620716 0.008140773283440232 0.04365300014615059
0.029488536345520115 0.004475037779450571 0.04365300014615059
0.031007715268429062 -0.0008898697713131632 0.04365300014615059
0.031217972054192 0.0023313099579871624 0.04365300014615059
0.028223733230397126 -0.00509391528886923 0.04365300014615059
0.026998515095577984 0.008872381610489831 0.04365300014615059
0.028362906512654898 -0.0087673173504061 0.04365300014615059
0.031040952323594002 0.003212870175963801 0.04642400145530701
0.029331057306822055 -0.01200043314305924 0.046424001455307
0.028403448418042286 -0.009153570164110475 0.04642400145530701
0.028666134586242672 -0.006598027806697447 0.04642400145530701
0.029499473492035674 -0.0026174201602649242 0.04642400145530701
0.033659998327493675 0.0005380499917740143 0.04489020259151685
0.03365999832749367 -0.005855181088232729 0.045315032294566855
0.029102867139806116 -0.014013048172097154 0.04365300014615059
0.0335151688677159 0.004557369239391332 0.043653000146150596
0.02673199959099293 0.0026202792058487683 0.04568304327438947
0.02673868427305412 -0.0004681984736155517 0.04598739243059252
0.02890896961265073 0.004588508908484399 0.04641521959774254
0.030314207667146216 0.00787451789660312 0.04642400145530701
0.030653232058807593 -0.014121802115575375 0.04572970943496772
0.0288934920823313 -0.016800812688984985 0.045632695176411386
0.026919048143096 -0.019735554673773335 0.04571351763785185
0.0323080093982483 -0.00993315738731855 0.0448253094709938
0.03281219561853789 0.008851392546683075 0.044941288583027636
0.033234499460643635 0.00507531823473786 0.04642400145530701
0.020148508640681653 0.024101269335874483 0.048494859457543636
0.02153221300614208 0.02212395762439536 0.048557269904169045
0.024338368655609642 0.01811396490598749 0.04757011516869074
0.02749334311928576 0.013858630119135545 0.04828591137264467
0.028913940078785092 0.012211750865226297 0.0498303777844263
0.02391371059534673 0.020752464309327333 0.04642400145530701
0.02808467242018771 0.01732174825895419 0.04642400145530701
0.030867235460895745 0.014653858065490317 0.047504566032138644
0.028660663070613622 0.019161561742009562 0.048775556720214656
0.025354137168725328 0.02324572925120127 0.04876255248815318
0.027019997799255256 0.021318178577622054 0.04941425269574925
0.032246358326452555 0.011484361700028808 0.051141008944627
0.03134232039780012 0.012370297966311627 0.046914426161327225
0.02755213081636817 0.018652041792355103 0.05104259875541433
0.024385458515991772 0.022472455641039276 0.051143397265125866
0.029014654310703023 0.016012159089257818 0.05121482382574984
0.030181563576947235 0.013784819826756842 0.051274001598358154
0.02638358414988189 0.02149310633193824 0.04647575090075118
0.026223688536683817 0.016541329101909686 0.05087175392399801
0.02332556394617638 0.020327395946752053 0.050231200620652075
0.021969491204941266 0.02391336093825209 0.05083963688627561
0.02241042845006167 0.026654940947926503 0.05049949574991181
0.01974458927504152 0.02870257211721803 0.049939714335386735
0.011902012549474551 0.02866688413631039 0.046424001455307014
0.004656542799672686 0.031019225175805385 0.04861881930126277
0.012558011866212656 0.027952123279722064 0.04917193669105978
0.016348448219747246 0.026421936149933378 0.04889953448497489
0.009833921637014008 0.028871690536785205 0.048144835619485356
0.004419306112813685 0.03407218725089782 0.05058942326872712
0.01018541346789022 0.030787920843389015 0.0509942284500208
0.006909566397403772 0.03137623490577979 0.05081378149877497
0.009267586604984905 0.03325754869193089 0.0496384220017001
0.015158547419221824 0.03082889018183063 0.04864761834612991
0.012250328856360043 0.03207764511250004 0.049913196717729404
0.017623734465389937 0.02977659007741218 0.0483165260251071
0.0033736633897663688 0.033048921557237196 0.047512298858050285
0.0061261481789309236 0.03358819312548428 0.04844819870669823
0.012880634226495054 0.030025777891827043 0.05105192579782025
0.01600532444589345 0.02920740500644443 0.05094087742699116
0.01958793658962963 0.02811920620830436 0.047503556799749255
-0.032667719120977545 -0.010431259943831872 0.0497317091137242
-0.030757462877338847 -0.005087139014319988 0.04776184026680736
-0.028767047422529092 -0.010362188153235093 0.04666835065078881
-0.031160414759412208 -0.004561595625918186 0.0501075337503042
-0.032182931043363325 -0.011299519584915034 0.04766020106840012
-0.0275982479112454 -0.017542730984457307 0.05058100074529648
-0.02795859103247437 -0.013654441831313794 0.049985209487410934
-0.028527180141333514 -0.01164465726124642 0.0488318172135218
-0.027575582747919016 -0.013893180483630892 0.04742093990909441
-0.029434491240628483 -0.009196859952581444 0.049266375654277994
-0.026927417645755073 -0.016155123220025647 0.04864850413183937
-0.033596519798323995 -0.006349036833142219 0.04731018417896221
-0.03201268519173977 -0.009453258064238862 0.045731998980045326
-0.029957514250978992 -0.015558721398279941 0.04613204641847579
-0.02809100075397372 -0.01999166807825884 0.04683114905352492
-0.030747023904401177 -0.015330310186655267 0.04861094986185208
-0.029071630248189848 -0.018568085518914264 0.04869378552617008
-0.030945756613550972 -0.007368636470840148 0.05058100074529648
-0.030757390826670214 -0.012625696836925855 0.05058100074529648
-0.03407978930953372 -0.005328275258164617 0.04994220417693448
-0.01989805763685213 -0.028126862068238306 0.04868927346978229
-0.025899254039330594 -0.021867081541022394 0.0467663689192743
-0.023792631195653904 -0.02256449862105296 0.045887394425177364
-0.025115763264024583 -0.01925897134508884 0.04573199898004532
-0.02551279548156092 -0.01838805682114371 0.049442036871168854
-0.02203797541410534 -0.021518678118241534 0.04975883395476782
-0.0235626175722028 -0.019768261832664627 0.04809317383130862
-0.017582355032903958 -0.025370380680373672 0.04918809571995683
-0.015425981170616512 -0.02736913141564069 0.04943406600501313
-0.018266350842326785 -0.02800685612472044 0.05095223883713808
-0.022133190600639934 -0.024145354084798062 0.05091326143835164
-0.02458217030538908 -0.020635567339369505 0.050665864709171275
-0.016077458502155372 -0.029729009709288334 0.0503086668333592
-0.023804017314191527 -0.02464545852732805 0.04776980829444423
-0.026421828096136878 -0.02202906490563054 0.05011977353615018
-0.021546246141141145 -0.02646177568315606 0.050474642333432726
-0.02233867737182862 -0.025515412453661304 0.04594239968577857
-0.01716581788854181 -0.02934087379666646 0.04741470893425067
-0.025874497078555443 0.0225735030246798 0.049293525235009655
-0.020512114862800187 0.026334800128745263 0.051274001598358154
-0.01779888980155911 0.028433407921111476 0.051274001598358154
-0.01740640811175833 0.02736547571462407 0.04642400145530701
-0.022199990709075176 0.02145428690322973 0.046424001455307
-0.025178093570758724 0.01751201509725664 0.04889303375134822
-0.022973248888549614 0.019496168457586546 0.048920477734512205
-0.017319721079631888 0.02485640600958649 0.04873717735873855
-0.020789492541217598 0.0216446696550167 0.049153350192228024
-0.015332745860346574 0.026636613244309545 0.04831531485323032
-0.022952563604598075 0.02489857856046406 0.05107432700361662
-0.02793056847674557 0.01955628499117064 0.05109254707134087
-0.02552626420564432 0.019457484823508613 0.051274001598358154
-0.015381911069240323 0.027669216273491656 0.051274001598358154
-0.02071727695129575 0.023068419871041558 0.051274001598358154
-0.01840311626412958 0.024794992898548356 0.05118944340242751
-0.02748417620607348 0.01627017871566838 0.05076618139946434
-0.022560727838842602 0.021121240649761754 0.05123742277936456
-0.02876510134198538 0.01791498721889405 0.048356683483350434
-0.021951812092359597 0.02648706233093591 0.048387025341776475
-0.02756397543937317 0.02071816094607578 0.04862411475862405
-0.004760788272371019 0.03171538429184985 0.04642400145530701
-0.005001993372010746 0.03259736810292046 0.05127400159835816
-0.001477466119047576 0.03262253917823048 0.05102961339651841
-0.009127105340427367 0.02974972778731498 0.05076526176601537
0.0003133176531765634 0.03154444835041278 0.04934087662039213
-0.004029724128806133 0.030653168976681106 0.04960194908470291
-0.013520419455220277 0.028853559284405323 0.04818268628268152
-0.008732154577149641 0.03030272523649204 0.046424001455307
-0.0064718557394604585 0.029997326857707073 0.04859512410955183
-0.013426189951607725 0.02885864377383446 0.050873703921019586
-0.010266881240800493 0.029237282730485436 0.04813764120483073
-0.0028516303243374614 0.033399492202403305 0.046602867320119166
0.0008150745918274514 0.034242894886688045 0.05023092478151156
-0.0019418167246697687 0.034240359065644314 0.04941174925873512
