0.013813029094427876 -0.046040237044090396 0.011870321836084854
0.009202871333027697 -0.05065401609677973 -0.00020586489817957221
0.011593317072508335 -0.05032464370731647 -0.0004389139897278345
0.015130929499940507 -0.04983811141796983 -0.0007241798452856132
0.007077805860028482 -0.05094210009112655 -0.00030988602919259224
0.0031906505347519512 -0.0513507668185544 -0.00026900323155878395
0.0009490823015414284 -0.05145811432810554 -0.0011461496928027095
-0.002850855248392228 -0.05180591586154058 -0.001201622767561595
0.011822355524508688 -0.05020590438319515 0.0019752536214596586
0.009354959688869013 -0.05057141624500509 0.0017645693766974663
0.013512479483098314 -0.050038391718887076 0.0005980891074104631
0.017298089956421615 -0.04950376652352609 0.00044091358620139724
0.015402699337391702 -0.04970343460773481 0.0017684547156475942
0.006227650624100196 -0.050964316945628654 0.0022815651890607087
0.0025811640314552203 -0.051247512466688884 0.003047241656819068
-0.00576628599358388 -0.05195093635780651 0.001560034600999218
-0.003732374366907986 -0.05188444470183039 0.0006745203532244885
-0.0009574111600371598 -0.051768008386142116 0.00017272096163834015
-0.008277723160577302 -0.05205631026375438 0.002014316686495197
0.024755882112547044 -0.04598161713195282 0.0073189015338080456
0.02418643247370695 -0.04715272415651671 0.005411456918608366
0.020276683399482114 -0.04444965535225604 0.012278314240517217
0.027635634026134934 -0.04620025626723611 0.005554259568091912
0.022889174985185803 -0.04584884313907609 0.008446140710051703
0.022086148819499017 -0.04743173376576661 0.005883732047902683
0.019714999943971634 -0.015453799720835984 0.005261279184253272
0.019714999943971634 -0.02166663452817901 0.005092551448026055
0.019714999943971634 -0.025125778591223863 -0.015235358146057712
0.019714999943971634 -0.020539032265153263 0.009026637490474824
0.019714999943971634 -0.019228234487058495 -0.002530069253440879
0.019714999943971634 -0.02400067171218045 -0.010833687770964336
0.019714999943971634 -0.023894080441002684 -0.006448089367615878
0.019714999943971634 -0.021403063451892204 -0.0019793463385745277
0.019714999943971634 -0.023032985543055953 0.00793792467672532
0.019714999943971634 -0.0208263891249112 0.00034411967036384033
0.019714999943971634 -0.01998563730701949 0.0021358712754133615
0.019714999943971634 -0.023716152398801094 0.0036075151742713764
0.019714999943971634 -0.020725918745635466 0.011911659029219424
0.019714999943971634 -0.012963563188425425 0.006158104982305282
0.019714999943971634 -0.019833550981480985 -0.00468851886398346
0.019714999943971634 -0.0171090333184645 0.006560707104378614
0.019714999943971634 -0.017136286579008564 0.010842579451159906
0.01971499994397163 -0.01345675107244775 0.002608766269434983
0.019714999943971634 -0.017415985571344737 -0.009966334385296116
0.019714999943971634 -0.013150345162541892 -0.005408125879614128
0.019714999943971634 -0.014230086636926396 -0.0033714728721628336
0.019714999943971634 -0.013916409334025442 0.0005351671007501444
0.019714999943971634 -0.03357765118100846 0.003349889115350329
0.019714999943971634 -0.026787524036133277 0.004537282914756453
0.01971499994397163 -0.022629897403614548 0.01741836305077045
0.019714999943971634 -0.031816257450871716 -0.003839842139264058
0.019714999943971634 -0.034166138940352205 0.012116273308275315
0.019714999943971634 -0.029596173064460995 0.008026627539351499
0.019714999943971634 -0.03579067720100984 0.0019160813671429966
0.019714999943971634 -0.029761247223821806 -0.0042268637026408465
0.019714999943971634 -0.042221792022465475 0.011469650577744659
0.019714999943971634 -0.023952200878476337 0.009724798736417484
0.019714999943971634 -0.023360543035198383 0.014071370925760013
0.019714999943971634 -0.027002168034877705 -0.007708043113392759
0.019714999943971634 -0.03633099088285244 0.01263109551714129
0.019714999943971634 -0.03480215080425332 0.005051465596370035
0.019714999943971634 -0.03519155801803074 -0.00029136672870903706
0.019714999943971634 -0.026269185106058704 0.009844646546548715
0.019714999943971634 -0.026991561370642746 0.0024469390291762304
0.019714999943971634 -0.027999835483561504 0.0001483120645161453
0.019714999943971634 -0.028641567337652114 -0.010990727055590028
0.019714999943971634 -0.032092489757513366 0.014211473438103901
0.019714999943971634 -0.03112839745556322 -0.0003281309530737825
0.019714999943971634 -0.04105408918165415 0.00965220507204206
0.019714999943971634 -0.025816053416531173 -0.0015936064451364943
0.019714999943971634 -0.03568419283729984 0.007065995033189243
0.019714999943971634 -0.02638103158459033 -0.01305006917058366
0.019714999943971634 -0.025334484614291445 0.007738299816134324
0.019714999943971634 -0.02959701246592801 0.0056536318256948815
0.01971499994397163 -0.029559902205850516 0.014729980543018911
0.019714999943971634 -0.025071620223480806 0.005482024622438285
0.019714999943971634 -0.03190926101171509 -0.01291782120945964
0.019714999943971634 -0.038479529114458934 -0.008075509616907652
0.019714999943971634 -0.04272522616400049 0.004415058220990688
0.019714999943971634 -0.03694024043024849 -0.0018658167556152992
0.019714999943971634 -0.04051967748037286 0.00024129364550472873
0.019714999943971634 -0.03778235485877171 -0.004117933697546642
0.019714999943971634 -0.029829070582634454 -0.012695303037036884
0.019714999943971634 -0.03856323004469744 -0.014672174916189705
0.019714999943971634 -0.0400163039295392 -0.0038914821788336097
0.019714999943971634 -0.04094448341389889 -0.001952661567792141
0.019714999943971634 -0.03566292236180077 -0.010085947620114243
0.019714999943971634 -0.036501683455845944 -0.016256707392095903
0.019714999943971634 -0.03203699779688492 -0.008047963539538145
0.019714999943971634 -0.041159996056037346 0.0027437540287926906
0.019714999943971634 -0.04107481015148029 0.005500264412797685
0.019714999943971634 -0.030954127509177726 -0.015247578623105438
0.019714999943971634 -0.03408778789026602 -0.009004752242557472
0.01971499994397163 -0.03397724094710307 -0.012093283542729275
0.061873962445463206 0.00401989728638143 0.0011394551190316337
0.032516770288806555 -0.007404932990226187 0.0069810993955108334
0.048791736997349795 -0.00142061148789143 0.004334335249593951
0.061790743991639044 0.0013781226414868232 0.00557570386788504
0.024012566713380402 -0.009943795500610088 0.007367947146803414
0.059692129294163995 0.0001251172864965822 0.006732278182420868
0.03964859873878565 -0.005730320454299511 0.007426560292377164
0.05960882780656898 0.002930672290853631 0.0019419964880181334
0.04859880027582061 -0.0026490685557972243 0.006326268057183794
0.04044156052498836 -0.004004364435265718 0.004868095605352141
0.052519443967015314 -0.0017134641199510027 0.0065457407520561825
0.06404125340960873 0.0021859200602797413 0.005243104367416236
0.05521775662486086 0.0018550256764077548 0.0017432451985950866
0.061483170189275585 0.002385200417307022 0.003728415025166453
0.053768363000535335 0.0003280663706298106 0.0036625855520700324
0.034216954023008735 -0.006136156034216659 0.00561446538143306
0.05615814095250293 0.0006299748440825932 0.004250929986477916
0.06413246157044095 0.004407763137167946 0.0015217973275816511
0.0426038398239137 -0.004076506563570044 0.005985305323249365
0.035994542486840544 -0.006284213524591587 0.006683234307149857
0.06309547339653752 0.0032799994308201122 0.002954771422359076
0.037450269156074426 -0.005254960433278267 0.005609805230994538
0.046407052435529124 -0.002890535172974537 0.0057266770572680795
0.06581252989536275 0.0022481421419186416 0.005952804682462577
0.02963852003814591 -0.008446948566974062 0.007421541190212883
0.05065098925094701 -0.00035003905866720007 0.0033766116777092427
0.05735149837176366 0.002231189173254775 0.0020879987239253942
0.05536521228416488 -0.0011447176811228677 0.006891958065343376
0.05832666036435975 0.0011231586918070322 0.004413482293191542
0.019714999943971637 -0.012857861145460846 -0.01041443417337289
0.019714999943971634 -0.011504001618258514 0.004099140259898812
0.08099610793388573 0.004485190105828248 -0.012850087625124526
0.07865382177707637 0.005575264134313787 -0.011696998625809453
0.0684155150865006 0.0032793320798892795 -0.012815815550481951
0.07431008297062816 0.005582457854695648 -0.011315709079482266
0.07674650310960723 0.006040807184571854 -0.011126239171705004
0.07857251394330501 0.00704547650606118 -0.010407516291479142
0.08066701713585163 0.00627088628189512 -0.011264017321969121
0.07802532449336527 -0.02226440034993454 -0.005105070255474646
0.08338123916449033 -0.017124286673011056 -0.006262538769966264
0.08141143817029967 -0.01896679952970049 -0.006044697620800494
0.07782576117529927 -0.021945399711606268 -0.007276304663532717
0.08479360878043432 -0.01562958495667964 -0.00717170871676517
0.08657036340323837 -0.014184378218959374 -0.006428129056698333
0.076345192211847 -0.023701738177214823 -0.005501454703581487
0.01987371077955894 -0.039557489394548444 0.014260301013765547
0.02046349802269167 -0.03544884124434191 0.016255316340501647
0.0700943723340592 -0.021071920855969664 -0.014392541461867242
0.07642087817352686 -0.02060874287531131 -0.010534464684015107
0.06485557428999308 -0.027122747443127218 -0.012087510327194663
0.06576218693132097 -0.02459002181198518 -0.01392809410023842
0.06810503199173772 -0.022003554852175138 -0.014842934721632964
0.0701190764629041 -0.023529383022757203 -0.01199088558175659
0.0689830986451836 -0.025530701813733764 -0.010822172940792872
0.07419211973447387 -0.020413084016703886 -0.012241849334714675
0.06659510840853408 -0.026861911950023208 -0.011156230113646512
0.07338358531504019 -0.022989662139085647 -0.010291929956583228
0.06100472749841007 -0.02405066112550363 -0.01677100331622846
0.058614725715780434 -0.029342181560399853 -0.013509476814865893
0.0589851322240446 -0.025986335437704917 -0.016085323710210493
0.06484251746045425 -0.022580980022168254 -0.01627069928132693
0.06360680003866605 -0.02540220210107342 -0.014514715300039444
0.0608409283257089 -0.029313752492100033 -0.012546414569912259
0.057445989110289995 -0.025203195552919225 -0.01740662000647082
0.06001742374512047 -0.02707398635163437 -0.014739953545207882
0.05538141216584698 -0.026427310251084985 -0.017321835748952907
0.05560427175782752 -0.028303030657496876 -0.01569163275337635
0.05791384261500472 -0.027591692166999863 -0.015249211015510383
0.0628643859885063 -0.022830459098007176 -0.0169433779431445
0.05262124322538117 -0.02926025275252396 -0.01623165959249723
0.026559754024175375 -0.023042028328271902 -0.017470058223902504
0.03529953985606634 -0.019191754264718218 -0.01743105601936041
0.03924772219866183 -0.01576095595773832 -0.017022092791953967
0.048882555102949296 -0.011163606796818895 -0.016897477978299838
0.05096754180973759 -0.01382452178515616 -0.017716338769669174
0.04180858973678593 -0.016356501665471146 -0.017409477364241307
0.037381131655498584 -0.017417732459990776 -0.01722348862066928
0.05232857400523566 -0.009829574758264419 -0.01692469355638216
0.04711858858151307 -0.01406070044402159 -0.017395844317615344
0.0455356914532971 -0.01522659960973241 -0.017511317597485837
0.058182132336655396 -0.011729275349510203 -0.01793473854506874
0.04843712593755852 -0.015709726226630527 -0.01790588548950457
0.05472751233668785 -0.007640577044302796 -0.016652044684367782
0.04112228781604527 -0.014438414471190942 -0.016898805153068054
0.0542781398892989 -0.012974583776811308 -0.01784235885786859
0.028610376235513577 -0.022209587165935775 -0.017477322909755868
0.024543060940855448 -0.023598736670683913 -0.017402305010854352
0.056200778705737836 -0.010703177039050679 -0.01750422072156811
0.03316889441578228 -0.02042654894819967 -0.017509083128879933
0.09272828933667718 -0.005628756153098868 -0.003543468131017899
0.09506021672881165 -0.0005963420112211364 -0.004750831235315704
0.09264401739499822 -0.006115866353661282 -0.001394767708797087
0.0918579695595359 -0.007339324758969796 -0.004248840508188706
0.09383463938338513 -0.003384356736391229 -0.003129024524481827
0.060169831224151545 -0.027868011570569083 0.011122785863414055
0.05317594789239928 -0.029740073211517684 0.012688773778002978
0.05747678008197448 -0.029313000414224674 0.01148358495837154
0.051164355122480326 -0.02812119624890958 0.01386073148322472
0.051600127342395205 -0.031315729439241984 0.012655690827457215
0.0638559643733865 -0.025628433623813347 0.01071648165415967
0.049979714144417146 -0.030089955693241424 0.013573560708745538
0.06668575313366436 -0.022711572003921453 0.010805111935880272
0.054980176394224756 -0.02706230000942403 0.013018883658191581
0.06154596550750162 -0.0249481186918829 0.011668055413240234
0.048299280712573306 -0.03189164583120486 0.013497666958098007
0.05548655762000614 -0.029217037666573752 0.012139485316524014
0.053688227691047335 -0.03202740347981278 0.011763179236922328
0.06755382675935193 -0.024867895824553236 0.009114765873661574
0.07021163860185496 -0.022293905036628595 0.009361054530147855
0.06559261704362077 -0.025733637611063023 0.009668245516523306
0.06910783131320285 -0.025540327246480123 0.007709953353857116
0.05935746642337793 -0.02967651687505943 0.01058109265122154
0.07123548192712441 -0.024255085255334315 0.007355633396018406
0.06297842636678536 -0.02827198909023942 0.009421300065016073
0.05205581716408535 -0.03503700244468965 0.009836223765890238
0.05015937623186694 -0.03541233162455527 0.010882352386203756
0.05081492192439855 -0.03698785928801563 0.007364358553071082
0.0479851549907027 -0.0365740370305927 0.010727922733647866
0.047104706698103474 -0.03817901379606756 0.008565392499897125
0.048479921268299565 -0.03860374294951162 0.006516853026587055
0.04478049584042035 -0.03859408564923505 0.009930632502277593
0.04511110309630534 -0.03943987768895074 0.008061626054743526
0.019714999943971634 -0.043914687559377726 0.01018820439872079
0.019714999943971634 -0.04243857338244131 -0.01060494196106497
0.019714999943971634 -0.04281799425927156 0.0008122387576097577
0.019714999943971634 -0.04225976286088016 -0.003789744684232643
0.019714999943971634 -0.041485003513874144 -0.007575710806695495
0.019714999943971634 -0.043660012508647365 -0.005249013885114565
0.019714999943971634 -0.04390561262693921 -0.008661879390634815
0.019714999943971634 -0.039989672222704005 -0.013355480494456989
0.04104024621039434 -0.004927118855639252 -0.01038191123337443
0.060849552208363286 0.0028035620280111567 -0.009317928363978743
0.036716934859388387 -0.00663759082868008 -0.010656282563611497
0.02807083864458773 -0.009885058712718761 -0.010891172353348168
0.06151943177860887 0.0016938817148320507 -0.011765267516021475
0.059185412329131507 0.0008591328487383531 -0.01175277449780581
0.05840923218096519 0.0015491422949920688 -0.009996109537268778
0.034655765341335576 -0.007348395563661015 -0.010597505616235969
0.03210876950358503 -0.008385265651510453 -0.010811993573814967
0.051461647739328896 -0.000728032247002052 -0.009582939195561564
0.06270863811655436 0.0027509363190661024 -0.01062743366164041
0.053421536118978694 -0.0003804676235193156 -0.0102334622185993
0.04948878692663275 -0.0014847063676482462 -0.009664915494332602
0.04645282343850521 -0.0034924909360920446 -0.01131855586746602
0.05667582254639415 0.000500849838174751 -0.01076264806562521
0.045587989711471905 -0.002827032677209208 -0.009548456896089182
0.038803597095781954 -0.006547521779104555 -0.011855974417630224
0.06420380965496125 0.0024308783980284384 -0.012183630681356576
0.025217807431234373 -0.011242459939884424 -0.011486325297712485
0.043671932362224906 -0.0044159592935492775 -0.011174892957270975
0.05305506393965446 -0.0016683034360390624 -0.012326620066686427
0.04147163065080055 -0.003945209126121928 -0.008601720029531579
0.029605559918478144 -0.007551589810523079 -0.006434817671820841
0.04375895528159696 -0.003320940849456232 -0.009203711156436065
0.03182053266535498 -0.006284305559065125 -0.005295099682364021
0.039286018965824815 -0.004130943313656097 -0.00695880531175475
0.027130566072357462 -0.007838687148257976 -0.004773921388104431
0.04503388572601666 -0.002077431344868568 -0.007211524010311781
0.05129585624380833 0.0002728038032362829 -0.00719299961184187
0.025252708234815048 -0.008731912175078248 -0.005269247174080487
0.0483924484408879 -0.0010447862231580535 -0.007793916291091034
0.02460158213887908 -0.010640544861958128 -0.009596935825683094
0.025692989702242777 -0.009622492342634077 -0.008012270998826001
0.020477888683500735 -0.010791142036974096 -0.005977755413616992
0.05508726085969144 0.0013119721147882913 -0.008179409432515043
0.03709557734519922 -0.004946623711214569 -0.006948563107243104
0.032402171802968116 -0.007413057846086799 -0.00879466714466991
0.028236577566053973 -0.00899422385984895 -0.008853100831479053
0.030095579047978313 -0.00872244933057235 -0.00995472352105586
0.02081740306849038 -0.011437198264628653 -0.007987203345686021
0.023836029482995544 -0.009903831768903592 -0.006937494887631761
0.05702421984706046 0.0020175677123228965 -0.008229254686162077
0.0352041414219085 -0.005717780663415058 -0.007113401121201778
0.022764807117410038 -0.011172161266756207 -0.009192316817028617
0.03941977372679066 -0.00494678263696094 -0.009209439788436743
0.027475756094463885 -0.008566326820731494 -0.007000942802291231
0.033280533250173466 -0.006399000041110367 -0.007013181379529682
0.05774151316566507 0.0026278419045153785 -0.006346676330699391
0.032452891385103017 -0.0058835335562607135 -0.003491703763865323
0.03923057992168959 -0.003632093320471276 -0.004700631720972742
0.04646712719660871 -0.0010723494366320651 -0.0036641145694640666
0.053536486066610794 0.001147389062400847 -0.006844941720550165
0.056324589921287596 0.002251442453053058 -0.004686323642543013
0.057852130901118765 0.0028763333550063403 -0.00320499659024774
0.02960436285307177 -0.006932999999740365 -0.0045248690946011905
0.05745270651555662 0.0028929266428467074 -0.0009050352895994495
0.035890790086104865 -0.004674996972769193 -0.0031117401384068532
0.04989071884360049 0.00012519579061486766 -0.0033747452661628116
0.03581891426723375 -0.004838705422085286 -0.005186646370567571
0.04363362854142672 -0.0021234667420189776 -0.004799150268600045
0.05296620072046458 0.0011038093786628139 -0.004565500959064659
0.04169195921468573 -0.002721961578303218 -0.003758610438352573
0.05961785203399847 0.003619229891345748 -0.0011855779248495168
0.053566980065395765 0.0014650894575045006 -0.0022582871958574586
0.044394187372001515 -0.0016751946030535711 -0.002014065565450989
0.061508959337132484 0.0038781971395193114 -0.007035548284626716
0.049487237723973954 -0.00018771307695439983 -0.005973474340586676
0.055838220926751135 0.0022448488076375708 -0.0022858313918325207
0.04634522975354702 -0.0009803432391937515 -0.001664141233462793
0.059720532882653485 0.003478306431209296 -0.003817162072705955
0.04724509908260323 -0.0009524403437072781 -0.005871023686974496
0.0613327316495543 0.004139254011692362 -0.0022324685143116827
0.023271607880334468 -0.009080941305324613 -0.004056725011705147
0.06722820594470537 0.00474978753201278 -0.009606901647206482
0.06976153702481497 0.0051130055602508166 -0.010451811035680329
0.07197051453762368 0.0058189773277035305 -0.010442681379842222
0.06616529649935543 0.002985825096159257 -0.012340343474846941
0.06424064172232799 0.004242405986946612 -0.008761942355117139
0.07220590674789158 0.006863320469570634 -0.006395532819247923
0.06351543370128271 0.004557129963478413 -0.0059537541349609655
0.06998647122047102 0.006368952042119924 -0.005323900643627374
0.06435638222524444 0.004985340226890671 -0.003918333059550273
0.0659006947765021 0.005276783001505421 -0.005196538439305148
0.06565846806198013 0.005495823540308288 -0.0023127587888958513
0.06823731677670306 0.006003676682486158 -0.004232649176230182
0.06816441689547463 0.005657499819496484 -0.007541397730938528
0.07089741590535012 0.006334747590475032 -0.008166893718997679
0.033167791851442585 -0.043565881775108915 0.00764953143094781
0.03976537969815304 -0.04053557752573263 0.00988014071402633
0.032052013048611286 -0.04197515620024231 0.011029558305682984
0.02859534855219016 -0.04323491788487579 0.010446655849479805
0.02582766531732761 -0.04456362995604646 0.009408193324506603
0.030291970098860276 -0.04350856026359621 0.009139310700534678
0.022261447173377504 -0.04444029274416249 0.011348972706064421
0.02690638884479711 -0.045265826010897424 0.00763335205226098
0.03646470938091874 -0.04172187331100264 0.00935322505144118
0.03568601473224278 -0.04309149457944124 0.007282136291157915
0.034447648963910574 -0.04165191182362737 0.010451294247425105
0.026275713502787748 -0.043344189824351856 0.011370504930137564
0.028378216770073853 -0.04435021273278361 0.00855899347489755
0.031170913537471357 -0.044749812039950515 0.006497855596610838
0.03451075381357189 -0.04419626476046012 0.005679912062265341
0.044679730539369834 -0.04057580622021539 0.005466881320949483
0.04094324809809081 -0.041808870247924707 0.005806413070281643
0.049326710817683896 -0.039183257964344693 0.004665804656112865
0.04731955894569709 -0.03983723701078485 0.004870747762188389
0.04217328645655058 -0.040328745109687654 0.008580866457433016
0.031230120076761243 -0.0458010477545401 0.004575076690507406
0.03804723822425703 -0.04310263345718296 0.005161253090187154
0.02200555110236863 -0.03708249225308258 -0.017253195515035076
0.02857524679095191 -0.029232295761001954 -0.0182015122085042
0.025796289620737392 -0.03233573661987142 -0.017809787631280168
0.020840672434846757 -0.03066623002562217 -0.017423385022585242
0.02378247476100939 -0.034637296603177936 -0.017523638941564695
0.027070536269482276 -0.033748305650538865 -0.017866537284911662
0.02108074164336902 -0.03491310543636053 -0.017261587090438332
0.023221242687943896 -0.032097074071894854 -0.017581755730948605
0.024308432237484714 -0.029471419449361977 -0.01779616958977267
0.029334846980357654 -0.031853676778573994 -0.0181582417783309
0.030971452644478724 -0.03024634019077345 -0.018379390646616398
0.025580326921121 -0.03607155088068924 -0.017469008482297634
0.029183193848063657 -0.034227058543299896 -0.017778955872675296
0.03644272122557611 -0.030130003778508642 -0.018505325967170024
0.03289760846859372 -0.03360248589126609 -0.017756708008557803
0.03407809814419343 -0.030693238616684604 -0.01847515955685257
0.03789033813228875 -0.032375332071625185 -0.017830552521524663
0.03900981427784924 -0.03001783096748769 -0.018404442559257075
0.043429056687832854 -0.03072749414753594 -0.017989149488826687
0.03558851441620195 -0.03308850522658591 -0.01775705329015609
0.029071951124298376 -0.026834159405673415 -0.01807103151956911
0.037665028130369135 -0.02384332577105148 -0.018202350675210574
0.04290044065405912 -0.022263364848634858 -0.018307518837666382
0.04304191701619643 -0.019640862620970888 -0.018042395648697668
0.03158212197885869 -0.02380186444462244 -0.017885174886093407
0.04150851269329343 -0.024561279764009437 -0.018474611135723448
0.047728904031274375 -0.019707061441645142 -0.018290342993435765
0.03396837019873865 -0.022802757825834557 -0.017904132134557008
0.03511687931101509 -0.024520352333262812 -0.018141611675502982
0.039014085142095874 -0.02597780248144695 -0.018493446879630022
0.050870014495285415 -0.015949396582064845 -0.018061593873622057
0.03979466750948058 -0.019307486543579933 -0.017840748235974525
0.032966303256725116 -0.0285173043505826 -0.018446162916347965
0.02668703083070282 -0.025269788832879708 -0.017785873608548795
0.03928856213712249 -0.021711773709055145 -0.018064450988173945
0.035320523235682424 -0.028143116401438576 -0.018528383264442318
0.022491480041747506 -0.02599053066338885 -0.017644942580956956
0.04866540299972647 -0.0177806136046492 -0.01813841045652549
0.05620133383750695 -0.014368631369126108 -0.018171611381255056
0.04662417837940425 -0.017535266086239624 -0.0180079374720021
0.025950193816462793 -0.027617583105054806 -0.017991840941902877
0.037227472927692275 -0.027522344887125 -0.01856198594789447
0.028824658034393984 -0.02435831285108523 -0.017801145457276776
0.0444310821209293 -0.01773654368849781 -0.017916044150390983
0.03129148154550779 -0.025708772650023574 -0.018068297030706167
0.045401942054240876 -0.01983558915890829 -0.01818400785329755
0.03615552947106282 -0.022205969836862016 -0.017954638337746714
0.07478621884821368 -0.012773227248907837 -0.01612161606878167
0.0689463534957947 -0.01751607433477998 -0.01704280792733494
0.07600090273915926 -0.011111218669987065 -0.016090535259209587
0.07083461248626433 -0.017262499028486145 -0.016440778463303222
0.08179798008266206 -0.008078353076113966 -0.014777992671608085
0.06990572777390353 -0.015313063860553214 -0.01722983765504678
0.07247767695009735 -0.01337678179672183 -0.016787887053650342
0.0772082627602117 -0.009471261808961687 -0.016056782879962817
0.08360870547804268 -0.006819578436365817 -0.014442031896073475
0.07264066416445378 -0.01580099937482488 -0.016154632310003723
0.07939378509555003 -0.009047267910393082 -0.015390989228570368
0.019714999943971634 -0.01734016581310418 0.013714551594395632
0.049469760980852526 -0.004276755092377453 0.00866133833844986
0.031623283739754 -0.01177589412881665 0.011686509918143639
0.04325325788618853 -0.006453993989750014 0.009243850739205226
0.03861180686370022 -0.009756749408719706 0.011495898359673698
0.037539704727318754 -0.00818822633326995 0.009490108160963889
0.04209127438651221 -0.005564019009747771 0.007947553072491672
0.04500035026551579 -0.00495931086984761 0.008123677009527529
0.02875840878576865 -0.013064239190723088 0.012263707440000365
0.0396939197665233 -0.00753656195917282 0.009399647753444137
0.033864750696602816 -0.008388692459001965 0.008657148114437515
0.02354450305482867 -0.016336296784864774 0.014318910435461801
0.025963138603548118 -0.01186458592248567 0.010165158309774993
0.06445845235856577 0.0010264796286667275 0.0071986906606602945
0.06179806656986247 0.0001453890521848104 0.007393080734043987
0.026388057646620014 -0.009890750917286655 0.008148019786683046
0.04559831300620545 -0.006238270700354125 0.009680247889687955
0.030130439253685314 -0.010677111256988104 0.010069431105767936
0.03480199908526027 -0.010362940938256219 0.011063988112793431
0.024103579312576576 -0.012145948933577445 0.009938614392051452
0.035482807702439015 -0.008911876279065908 0.00968637140798317
0.021080495433788572 -0.013067711372108238 0.010073425894923584
0.04059015561890626 -0.008664803888457738 0.010878157046127294
0.05739522206650985 -0.0017885264577880058 0.008230234712651807
0.05345309137027213 -0.002634191157116373 0.008019970481211183
0.02227238523418048 -0.014113291755336245 0.011546861219254523
0.021567834864515308 -0.01643837694752818 0.01386465633951056
0.024782089374218663 -0.013640277111013096 0.011751544652653689
0.047150485367492084 -0.004586653618105582 0.008334342682980122
0.027256159459814897 -0.014108060431841502 0.012965358568103236
0.031531703543920105 -0.009253409166313993 0.008927338235328087
0.02771450226092332 -0.010737225355708677 0.009444182998756764
0.040981108465436955 -0.039469103241180914 0.010927900098373659
0.03700743202559478 -0.03981578366635962 0.011973071779869313
0.025192986419194124 -0.042273494431474046 0.013334748723718905
0.03388631166242546 -0.0404641033441577 0.012333964727354905
0.029812232056522836 -0.04114247031544268 0.013010464464036205
0.028096512833244647 -0.04232923975216038 0.01219293536957492
0.020917898014734534 -0.03833611449459689 0.01568936830494993
0.022962325700519596 -0.03706595768824363 0.016083075093828485
0.02500218331642353 -0.037419651047503416 0.015696900811475276
0.027849010564222162 -0.04060618438383867 0.013863833391405535
0.02822646222159888 -0.0384443517591476 0.014862728769081953
0.023982823088923376 -0.0404342132890507 0.014356248474223067
0.021532657246326477 -0.04095354453910594 0.014366365738707431
0.025938951649845485 -0.03933652236794683 0.014676432907249489
0.021622816822043273 -0.042662620049506515 0.013535488092647555
0.03116960841914767 -0.039583837298231124 0.014003192026369352
0.034626279534225805 -0.03874718644570871 0.014038889348866993
0.03153170312193262 -0.03762244600904042 0.014907389989164101
0.03390869873938594 -0.034897037751091126 0.015431030462332922
0.0367127978747209 -0.03525913631881032 0.01495493718534629
0.03689982824637054 -0.03261093694272333 0.015664067384282342
0.030757873634316084 -0.03569422454715938 0.015632178140428565
0.03217612848393824 -0.03344078197606812 0.016066901073481504
0.03939104176326459 -0.03283201620216261 0.015268992134778309
0.027973698359832433 -0.03649266111195363 0.01578385408010062
0.028505824360849467 -0.03429580589480036 0.0163216158671237
0.04539528197730497 -0.03504708344037466 0.013010563845708562
0.04101218862980695 -0.03494770514297589 0.014316143175800614
0.04235021125020412 -0.03276245154747087 0.014847939835230977
0.05196252764363491 -0.033279659411046394 0.011859081691242765
0.045190581906947504 -0.03307487251771251 0.013897740261863578
0.03841054573053632 -0.036831323583368554 0.01427536666044214
0.04767743249109949 -0.035079290275015884 0.012338989891730262
0.040757360938821006 -0.03673535915616439 0.013638967318227545
0.04972560108272178 -0.03377431658636525 0.012296379801625248
0.03906921513497123 -0.03843444243064011 0.012864157824722885
0.04376465951056181 -0.03758572137913667 0.011610923385418134
0.04288208240377842 -0.03646364204293013 0.013119874311255721
0.04573885985545385 -0.03662502567387401 0.011683977855313266
0.09001557542189438 -0.009099374665288292 -0.00017297503370103056
0.09031203270563727 -0.010410408151432586 -0.004676063012723083
0.08836244710030189 -0.011259177750401488 -0.000343246264981248
0.09287933423674984 -0.0052897802573044035 0.0003038027255183153
0.08569728524107889 -0.01551257061300354 -0.0026768783299481553
0.08225327928120607 -0.01889490903407718 -4.9232448941376627e-05
0.09134177945334043 -0.007296376486455947 0.00015133669172506304
0.08862153825509231 -0.011716657588851173 -0.002441369832538837
0.08630965956352935 -0.0137171804042882 4.3143081256342865e-05
0.09112145403267821 -0.008604242042219561 -0.0025941988484879676
0.0890415395569411 -0.012064215001028885 -0.0047906783286274955
0.07958597946584572 -0.02098870493013604 -0.004315504258498517
0.08196169113390886 -0.018815087206029778 -0.004164400046634507
0.08270686854502696 -0.01837172318690438 -0.001950924349213051
0.08045480045413217 -0.02056570573499005 -0.0008814030057090102
0.07838161408843348 -0.02225684821841215 -0.002881912520495054
0.08706963472495814 -0.014115279820113322 -0.004079175134950407
0.08404314671856067 -0.017000266179471493 -0.0032182495322657092
0.08559914517380308 -0.015409386603187705 -0.004638701672956893
0.0756463408314803 -0.02472001342799442 -0.0034140841946660506
0.0457481017470056 -0.030581451146893122 -0.017811521420445002
0.034610778380268846 -0.03614743945758994 -0.016328744469163218
0.029332938376418233 -0.03626735540020907 -0.01709314915470715
0.031180240595435657 -0.03543518146216042 -0.017286046330173686
0.03967723139581971 -0.033828887454219816 -0.016878889719082316
0.02848856892140141 -0.038287640394655195 -0.01604940922339242
0.026369773049046585 -0.03817114371707918 -0.016452213807263555
0.03119112747703478 -0.037638754802911296 -0.01600031293343948
0.04194674718394892 -0.0334167182895158 -0.016760311782668645
0.037930145504004725 -0.03583079335253079 -0.015988553476132313
0.05668135485580151 -0.029924755663665533 -0.013885306522452779
0.05176325268365852 -0.03189360565841645 -0.01416705479717226
0.04862622476172965 -0.033856193958610795 -0.013675940573620217
0.04256542255843544 -0.036125459432568105 -0.014172208378364389
0.050498352559082624 -0.03345098738828675 -0.01324193078272137
0.05684426219306256 -0.031437786457151506 -0.012377945360490682
0.04971430540798835 -0.03169084029405747 -0.015255452185611033
0.045037519830010905 -0.03215078051651049 -0.016863896065415006
0.04760326591681535 -0.03253882179563243 -0.015373660555626618
0.0506521150272478 -0.029734266276711496 -0.016702504557938067
0.0548032771954184 -0.03148201953081994 -0.013228417002373963
0.0441141926008828 -0.033956039484904194 -0.015554135082852878
0.04747926583582681 -0.03554390818405017 -0.012512247506770208
0.04538160777225951 -0.035584893388877124 -0.013439739518390765
0.042258445893878505 -0.03843961400803676 -0.011965360637029661
0.03749873878610714 -0.038335996434151975 -0.014270844506271156
0.050316018620981603 -0.034984195565088194 -0.011773367156867054
0.03346786400966013 -0.03879470949760249 -0.014860384681508135
0.023972096229476464 -0.04355575255140882 -0.010471977948611814
0.02919652037691816 -0.03992816356893702 -0.0141821511309768
0.023431675491121955 -0.040784001715951444 -0.014132965391371183
0.021530375500156917 -0.045086538325763544 -0.008949560348311654
0.02472151081745412 -0.0392358248649187 -0.015887699367723083
0.021330674304035173 -0.04199961950282981 -0.012953521560047554
0.02585738409400417 -0.040757891863974084 -0.01372436937467673
0.03000125467179593 -0.04122482865532791 -0.012368885587200285
0.031488965008601315 -0.039239570454644955 -0.01464932382143642
0.024215725948718916 -0.04195091453979095 -0.012490238262627431
0.021047969475650633 -0.03953857873731784 -0.01616818299577355
0.02686505815015744 -0.04192556331983929 -0.012039905415708232
0.03562484155895584 -0.041091477368462456 -0.010277795109620153
0.03816563030001934 -0.039768622432730896 -0.011519776497276014
0.03203005198939038 -0.04117360707581717 -0.011789031758331531
0.026294537183753366 -0.04389157754034955 -0.009475288777615727
0.033930753157422285 -0.040115981928987035 -0.012842381710469579
0.035314898034379386 -0.039033331646629324 -0.014180152886822832
0.029018577594860734 -0.04332952359848886 -0.009243010792829381
0.03231345762757353 -0.04218724196402216 -0.009806697188973233
0.023848956643296344 -0.0449098983684799 -0.00874552924987198
0.04002947176436104 -0.039246890771610775 -0.011611371149715185
0.036169424688647686 -0.007861636298925827 -0.012286913409158703
0.03039744549713963 -0.009940631851983177 -0.012122877797267445
0.038034625988775134 -0.008612287721526687 -0.013449242557882884
0.03393315702335322 -0.009049054082531965 -0.012521218961637316
0.027120042621845208 -0.012801908261970911 -0.013340511501790785
0.03604721621994066 -0.009828558485419312 -0.013783024180340962
0.05092230812976446 -0.0032071639175279454 -0.013220363953548638
0.022627647894297005 -0.014247771369731054 -0.013078517281682309
0.032495433272268226 -0.01079040965584793 -0.01343451488505449
0.04558597255104809 -0.005060992264377947 -0.013015481083376742
0.02186930028142392 -0.012530107282135316 -0.011504423954364663
0.05577646619818081 -0.0011383534442174043 -0.013108448484787033
0.04872188630956554 -0.003992782887706324 -0.013152412821525834
0.042001613902003104 -0.007060725738224499 -0.013466291997157742
0.02501495643056854 -0.013014116862956646 -0.012854872748437206
0.020381132174291203 -0.01433320491281177 -0.012450266553930486
0.031441284044272454 -0.01911483114384694 -0.016969243578941758
0.04869126061483194 -0.009223822843681133 -0.01631735740097433
0.021238259114262553 -0.021118227229966924 -0.01595822345915228
0.02783368985626987 -0.017687225226499934 -0.015836322002697224
0.029439638580423116 -0.020319585285617493 -0.017065589474506773
0.0305393046855934 -0.016524203439075274 -0.015875065085728567
0.03558485817398344 -0.016092582798100413 -0.016578002666480077
0.0420242401312759 -0.012438002939736893 -0.01634834653729111
0.02783448480210092 -0.015500936159379568 -0.015042744746399129
0.0243775922113476 -0.020010724671106886 -0.016091016829642247
0.046494179505014735 -0.01030689103392968 -0.016336229051812007
0.022742509018097448 -0.01823555714420673 -0.015167981670885464
0.020640229552870325 -0.023963739214040086 -0.01688937215818043
0.03358897488434526 -0.013787543501247373 -0.015401131168190134
0.022381228253677582 -0.016235360685373946 -0.014380275207957517
0.025061577107932845 -0.018095954604951656 -0.015512410256960008
0.03884489214931897 -0.012913344401360945 -0.01597923521804943
0.04442383104885587 -0.012247629175041224 -0.01668806211958201
0.033394492240834114 -0.01637633073722799 -0.01630783234291086
0.03606432646831537 -0.013435847603154805 -0.015695187877367657
0.0229184411907953 -0.022006367604057046 -0.01656691504154886
0.05055133543513415 -0.008297995004076202 -0.016298153179116606
0.040676906361880524 -0.008644569283819964 -0.014221161876494831
0.04615276667335837 -0.006948949653207985 -0.01451867809745407
0.04485946536351332 -0.008833683246731174 -0.015411486974745108
0.030855549186020334 -0.012229723029081402 -0.014040483146473836
0.0572321848770396 -0.0036445569935216536 -0.015202657257698416
0.053824327810261745 -0.0034367622724434223 -0.014197957003359905
0.04241974622334456 -0.009663445041967192 -0.01532713787725679
0.029573571911801395 -0.013735796086195845 -0.014690484566372888
0.052271700947385265 -0.004847342924231929 -0.01471691265717947
0.04855597746263443 -0.006595104344863533 -0.014902511816639576
0.0557042007967386 -0.005712724847317718 -0.01615458562730041
0.03699099326676967 -0.011219575892668976 -0.014951137217488624
0.058058878208150554 -0.0013253382450564037 -0.013908824282418575
0.051085087596768636 -0.0065799246058041005 -0.015538228695738865
0.06143943317918036 -0.0008822247337416196 -0.014484206741026372
0.06320439774222839 0.0006457821510343301 -0.013943257937405968
0.039291575129698525 -0.010194833034547898 -0.014873455354329188
0.08651771293351856 0.00883830904547705 -0.0013157152617485211
0.07556653203534114 0.007042423766889832 0.0010993808440830615
0.07400188213378996 0.005781594120244414 0.0027672398808077253
0.07714006813222997 0.0078338348730734 0.00026259577515976403
0.06628968123512877 0.00419852599447187 0.0028193835290506136
0.06942378442053179 0.004087942962625385 0.004127877240171627
0.07286862086953996 0.006406199279302999 0.0012630036861557223
0.06892984957860604 0.006131053857513788 0.00034894644483957635
0.07107726724376155 0.006744998782561438 2.9043570077660804e-05
0.06785272179435833 0.00509910083168944 0.00178633681377906
0.06707317210898091 0.003398230473901943 0.004509222657365319
0.07029957111408763 0.005502765423948185 0.0019436864577297673
0.08161334388408938 0.008662321050249978 -0.004820819831283626
0.08514989252881941 0.009143680574262599 -0.003074136059011404
0.08064263804360172 0.008878836877591747 -0.0014541379141101234
0.0793569627485444 0.008547504180317456 -0.0038138313339238237
0.08296172517208948 0.008965638222628426 -0.00283337309225456
0.07916001534777437 0.008335499530946205 -0.005954170368919788
0.0788093893473718 0.0081116712742568 -0.008070091980271279
0.07476157785305548 0.007696869492683109 -0.0007251184099536436
0.07853541904590175 0.00851804331692126 -0.0012913489040763358
0.06867024080135113 0.006282932936716489 -0.0019688888841519307
0.0746018207792461 0.007562078593496089 -0.003140375741141044
0.06531429007643473 0.005601306753103167 -0.00027983483745650087
0.07267492748333686 0.007186088965090423 -0.0017954940400425501
0.07699143657522386 0.007861611606227108 -0.008874388220936292
0.07607039872468865 0.0078110271960510165 -0.005082536255961188
0.07454025854690714 0.007416113483561743 -0.006363891379111651
0.07194705823355049 0.006945302697305502 -0.003695750300182311
0.07650635588107124 0.00802387276616437 -0.0022708918431621405
0.07057215815131149 -9.040876137860268e-06 0.008185978731633577
0.07793364570707044 0.0013988031390009875 0.007160784015350436
0.07165149641126856 -0.002432833703187445 0.009805834630439944
0.07250163847191501 -0.0009543925097147214 0.008801849707822986
0.08034136310832797 0.0035159576127866644 0.005710496712549309
0.07110837209488852 0.0016338539261136174 0.007074627448786256
0.0760120768284927 0.002702836022822012 0.006303431880148711
0.0753655485120425 -0.0013200383906742472 0.009017708089534162
0.07492208534373263 0.0002412618677254271 0.007971610921738152
0.08620686804847505 0.0016864129984734447 0.005285452528585532
0.08600096679817151 0.003652498872479904 0.004234509182143288
0.08876417819238262 0.007282882293934651 0.0006172386518975696
0.08700232249968418 0.006327349749270069 0.002121159712463674
0.08427370209171794 0.004801277511336629 0.004477600024917115
0.08427674268670121 0.0010887845608350314 0.006276327731572576
0.08134386848352321 -0.000432286457363799 0.007495346833884322
0.0819793168933736 0.0017403464960791173 0.006487633588376279
0.07807857706024499 -0.0004518446624613014 0.008177183611745907
0.0836086680021521 0.00310071525247086 0.005602493634332677
0.08478172074450743 0.0067515122377605884 0.0019121436080949089
0.08257309228258253 0.008381948696585354 -4.8654589402491954e-05
0.07206237140250656 0.004388792949517113 0.004372936231062758
0.07705057182524767 0.006289955585713531 0.002398044065762897
0.06992967639185302 0.0028464786503908813 0.006094347511673348
0.08019365383761841 0.007944813338222157 0.0006042917392433513
0.0751420027085971 0.004432949163696581 0.004511778290375967
0.07267033314812366 0.0030499634254051162 0.006020502778441741
0.08184960626949628 0.006267905715861922 0.0027236437552521594
0.07827929498400492 0.0036750559634353037 0.00561851912182766
0.07983757990983956 0.004991694300758274 0.004132639554246401
0.0792514519009788 0.0066391543721385235 0.0021153667884949313
0.04360327883036616 -0.02588875563850596 0.015676932819441117
0.045651666937549115 -0.025137416002646143 0.01541364236290084
0.04075809902303755 -0.024194791242441935 0.016247709220050362
0.03904702877766736 -0.02305885852949497 0.016599748991790602
0.04781121219907565 -0.019156410464916996 0.015524762577285516
0.04175901792271932 -0.026477047398714017 0.015920590851827954
0.04262900113860145 -0.02253986586755464 0.016079796006444883
0.04602646516235456 -0.022863425917457155 0.01552551318878493
0.042811253317734166 -0.029293577618670383 0.015545444205503993
0.04568931322050735 -0.018607060880636673 0.01563563114431349
0.027591914037260065 -0.022137476419848992 0.017095701569745443
0.03238106136717613 -0.021374938378265585 0.016733094098052428
0.03941320552384965 -0.020419621436004752 0.01622341320942255
0.029540272673254212 -0.021319572837466282 0.01687789815711388
0.030513826273390936 -0.02320775561708244 0.017087050365091352
0.0439143697686153 -0.020395372562996235 0.015978472547128593
0.03465882748596484 -0.022929852008458686 0.01682610894017464
0.035910862421568525 -0.021369288398479062 0.016542862688235394
0.023526575678063488 -0.022293260453752867 0.01733546088032086
0.023086660179997474 -0.02920378584452732 0.017144588545461963
0.025727698507159086 -0.025199918302699686 0.01722654310094529
0.02749959324471968 -0.02848482092898765 0.017044673726321076
0.02571575277314094 -0.023074487472098816 0.017311198995562396
0.024393601069402977 -0.030617372759691078 0.01705047953380289
0.02835409578819325 -0.024078392027952592 0.01719459161538357
0.029150320759920877 -0.026948800444803835 0.01705755954074069
0.024015298492674864 -0.027243596957531372 0.017195315216000234
0.020626123931639553 -0.03304386737191674 0.01706387747920521
0.021989366506022873 -0.026018707081117656 0.01730286474022004
0.03511557969415624 -0.024892052734467294 0.016965531029111903
0.032495948450054504 -0.025258586603484838 0.017027233440707192
0.02103283380379869 -0.031070188562704933 0.01713032940204002
0.030259796986205418 -0.029433516552615994 0.016858383004279515
0.030413220101419843 -0.03246851057750251 0.016414593430528857
0.03179415210397818 -0.027629082722907365 0.01695302070574522
0.040696864346629225 -0.030882545585042408 0.01556767643394058
0.03533302148412967 -0.027574992122683526 0.01659226615910724
0.04012019276427038 -0.028582668431975374 0.015951900557870918
0.024570521617007613 -0.03324992906481665 0.016912639870802722
0.03604698377023343 -0.03028487562786685 0.016135955399680484
0.032688009056850924 -0.02974082132729359 0.016562299506168568
0.027901521733307857 -0.03098492238308772 0.016885178767330436
0.03378962247086151 -0.031499752842757314 0.01619968426794935
0.02278648306656514 -0.03487753131552233 0.01686891955393076
0.03741644846847071 -0.027419146722276893 0.01639735972494598
0.03420668279953994 -0.005237095484318798 0.0028184107753895897
0.04364724665756225 -0.002334741229271386 0.003312799046679989
0.022118284021353216 -0.010362410090583274 0.006924392310520324
0.039026104779027224 -0.0038316879304555614 0.003327265218148874
0.042158192345449735 -0.0023794904971982094 0.0018455350285978157
0.04800508266035317 -0.0006340317893698253 0.002326891889399771
0.03193201189973977 -0.006238973601842433 0.0037169949627554435
0.05202099851465121 0.0007134079180696734 0.0021577573347626544
0.049846493108376466 0.00015568888649049968 0.0016712010466162345
0.03633708886434671 -0.004499935181231726 0.0026534900666427648
0.020100348408101737 -0.010767502320437753 0.0060945684886453515
0.02540955779697555 -0.008974015214876596 0.005830214934543491
0.02514254784634732 -0.008285904992984722 0.003225607525916425
0.020734959422944513 -0.009775637721556572 0.003447823887718031
0.028150661041587418 -0.007522296020760672 0.003925308750074996
0.030346503509161748 -0.007381432927681861 0.005837175507353602
0.019749604310478536 -0.010795652499014409 0.0020210708093476967
0.037074606739943276 -0.004154585658761313 -0.0011842244162782105
0.04045744469027183 -0.0029499804630188087 -0.0005069534286069183
0.03046790125220642 -0.006356259228574359 0.00027991351950085327
0.03832835951089712 -0.0036322486937289643 0.00046796833724182597
0.03213133854525468 -0.005700690210485526 0.0017804800798017387
0.04275284688859672 -0.002160638384413366 -0.0005650496897107455
0.0506560076110495 0.0005375226204711709 -0.0011265251142372342
0.025948502293241485 -0.008089506076913475 -0.002913056024878108
0.03592662859559168 -0.004461707760174726 0.0004631560381868075
0.02981119095724077 -0.006728708889365813 -0.0024107684230897696
0.02340310628582622 -0.008738787235438947 0.0013249230514623955
0.0207704831515624 -0.009894964949355519 -0.003240729721007806
0.02046496002474888 -0.009839226538425786 -0.00026384140792106185
0.022256125381099327 -0.009266404972950615 -0.0011054428957031088
0.04629982393206645 -0.0008589362707711523 0.0008587098017534153
0.04880138584397218 -0.00011415270595569451 -0.0013364044363295617
0.02481400993670868 -0.008368881777309193 -0.0008393174009149284
0.02868005706812813 -0.0070138877834454985 -0.0004655941753906065
0.02747310421140662 -0.007346905337417315 0.0010795949335493994
0.03195711722304291 -0.005914657535906403 -0.0010597134757299987
0.053378606716196375 0.0015391993959131879 1.2719628883346126e-05
0.0344273040304493 -0.005056090692260531 -0.0009538372128255895
0.03989723822180237 -0.0030329308635932977 0.0015326789196935908
0.07192042398865946 -0.020176096777107733 0.009803589501149328
0.080974959999386 -0.014115846138865705 0.006297919476134742
0.07554059656828081 -0.020642430357117877 0.006427371645004738
0.07704536478340042 -0.01649746491262585 0.007989164873383036
0.07950570127838005 -0.015657444285211746 0.006485289494218522
0.07844182665724264 -0.017575876405068563 0.006072750283243094
0.07278224887120643 -0.022115018254918947 0.007750641610215946
0.07369317294993871 -0.01946131935177769 0.0087948445849436
0.08815798227133925 -0.005013424724834526 0.004416247919997775
0.09142076243304254 -0.005407001128316161 0.0021359186703789126
0.08753633737296827 -0.0030820041118181387 0.004916363094118905
0.08934370966231084 -0.0031637852366341737 0.0036580239632412036
0.09187877354937395 -0.0031692926471880477 0.0018969090914179412
0.089168129449651 -0.0073402602307846634 0.0036322852817220193
0.07985336899216638 -0.018896308171348658 0.0031823314547095353
0.08707592905339558 -0.010140333421990085 0.0036542914449944983
0.08326879023608974 -0.015338254732644555 0.0027415538337402954
0.08470712069243137 -0.012453474981982706 0.004136210368980708
0.08209370394567159 -0.015216723534938864 0.004427101721383344
0.07850300379913444 -0.021023552366879614 0.002535350715555372
0.07745657638295467 -0.020433607145080898 0.004585442949955218
0.08062838294008934 -0.01696263464824492 0.004366127915641424
