0.048268384451 -0.00246451380164 0.00586162807226
0.019714999944 -0.011818047397 -0.00310978028233
0.019714999944 -0.0111541795949 0.00397628904066
0.071138233653 0.00362917299258 -0.0127457146994
0.0739083383877 0.00598453569751 -0.0109302931441
0.0798709328055 0.00459625876181 -0.0126560612849
0.0689415041946 0.00326961472601 -0.0128697029768
0.0755997079988 0.00470777590602 -0.0121900311299
0.0825126931388 0.0048324552116 -0.0126781027335
0.0853901269331 0.00526191914081 -0.01255190418
0.073568970007 0.00394464328423 -0.0126803871213
0.0800533368594 0.00642637902674 -0.0110753996054
0.0801472178509 -0.0201241702671 -0.00601399918759
0.0834551589157 -0.0168942354306 -0.00696864269452
0.0737004130984 -0.0263459180133 -0.00447027665804
0.0767326435567 -0.0234497981688 -0.00506512771987
0.0808790509279 -0.0190270419015 -0.00788449968453
0.0877345340601 -0.0132140833952 -0.00604224969197
0.0861849853549 -0.0145769585095 -0.00624625523417
0.0822706719663 -0.0183190906763 -0.00546307423053
0.0781208276924 -0.0217898431134 -0.00678652318214
0.068588692387 -0.0252693853196 -0.0113443083731
0.0761450623057 -0.0209024244931 -0.0104372588153
0.070134231365 -0.020642727963 -0.0147819111214
0.0647057274878 -0.0267331346938 -0.0125676357323
0.0668265437759 -0.0249180452229 -0.0128850698793
0.0685571536406 -0.0220900417165 -0.0144511650562
0.073161601316 -0.0220351274182 -0.0113693983708
0.0644705227644 -0.025192354834 -0.0142230253335
0.0666061082898 -0.0228796426544 -0.015013319651
0.0673496409355 -0.0211594821945 -0.0161763897005
0.0718505697504 -0.0238102654053 -0.0105393719891
0.0697844856756 -0.0231572666509 -0.0125798194413
0.0536560557638 -0.0288357138074 -0.0161198303187
0.055245596969 -0.0265085237491 -0.0173156975147
0.0597527906899 -0.0273058383175 -0.0146678936376
0.0586047124973 -0.0258539461095 -0.0163619528482
0.0605102817286 -0.025209577922 -0.0160438365543
0.0637906373888 -0.0225962714384 -0.0167242283412
0.0617606095533 -0.0234590458689 -0.0169191613221
0.0582306010361 -0.0285642664066 -0.0143147998799
0.062515205633 -0.0246969800202 -0.0155741167
0.0558017552149 -0.0284086225544 -0.015517929105
0.0527143633125 -0.0275078855272 -0.0176211600446
0.0629524018576 -0.0266783839465 -0.0137626687924
0.0490079479996 -0.011426133497 -0.016970439374
0.0303854198293 -0.0204568424418 -0.0172448005903
0.0574223167132 -0.00890002003702 -0.0172060872313
0.0351405212605 -0.0177535861034 -0.0170828128455
0.0384150016387 -0.0181957717704 -0.0175042672905
0.0338443924428 -0.0195168754244 -0.0173644522805
0.0363720585718 -0.0197568182562 -0.017666326163
0.0506700712029 -0.0102196246897 -0.016853292142
0.0471688171452 -0.0126969338621 -0.0170852094837
0.0417494960355 -0.0165231753674 -0.0174422805621
0.0549783054093 -0.00794203095879 -0.0167462346792
0.052479988094 -0.0116236727282 -0.0173545459113
0.0283397251786 -0.0220489460592 -0.01741377687
0.0386391624869 -0.0156970688475 -0.0169479981395
0.0543930408217 -0.0100696499087 -0.0171814523158
0.0251363226559 -0.0236473836741 -0.0174713825882
0.0553631302746 -0.0117437117823 -0.0176633245218
0.040352591274 -0.0183791731793 -0.0177355475366
0.0437851675002 -0.0149828386649 -0.0172843045197
0.0455463830007 -0.0138409835464 -0.0171917740414
0.0477224626012 -0.0158459725579 -0.0178677536852
0.0579183412964 -0.012138232263 -0.0180036472103
0.0490629574543 -0.0142546993309 -0.0176302372073
0.0920486334106 -0.00723755989079 -0.00221180119741
0.0931388093475 -0.00485864480142 -0.00295735150716
0.0916543599403 -0.00754881852793 -0.00572891446341
0.0944639532947 -0.00197131114453 -0.00383383987685
0.0908336307397 -0.00942688280931 -0.00456683474213
0.0510906854662 -0.0299868527025 0.0132598281825
0.0594283562222 -0.025966979478 0.0119910154579
0.0537787496388 -0.032635438863 0.0115314409207
0.0602022254834 -0.0279297517037 0.0110919825674
0.0556211225446 -0.0275311133324 0.0126611881147
0.0576953929275 -0.0270184889372 0.0121824944017
0.0475042609721 -0.0299730033622 0.0143885693469
0.0658154829137 -0.0242881032209 0.0105505925386
0.054514208557 -0.0291633478687 0.0124622103068
0.0570438077488 -0.0299106387155 0.0114194052394
0.0528569399218 -0.0276571735759 0.0134854156893
0.0632700011262 -0.0242355973077 0.0113659955868
0.0493936601506 -0.0287817637382 0.0141947926388
0.0609077322184 -0.0243069382939 0.0120825511406
0.0676256637281 -0.0243901031378 0.009411792848
0.0619774294246 -0.0288330900308 0.00961898702173
0.0700967453526 -0.0249869309706 0.00751398993482
0.0588998441858 -0.0303122163012 0.0104017535418
0.0671385067434 -0.0263103297141 0.00833637105338
0.0701760003662 -0.0218176748599 0.00972104753839
0.0640390851578 -0.0277600211287 0.0091530937347
0.0637134183075 -0.0261124874841 0.0105191586504
0.0511821187243 -0.035839998197 0.00915192921038
0.0512799750992 -0.0370118648512 0.0068930276501
0.0488338631363 -0.0377494798958 0.00777315399827
0.0427600050122 -0.0395534450803 0.0100096188635
0.0490175445585 -0.0363537182811 0.0101880364368
0.0451782665474 -0.0383379084721 0.0100396698267
0.019714999944 -0.0449184847328 0.00140791710103
0.019714999944 -0.0420363941929 -0.0016119372082
0.019714999944 -0.0430962827032 -0.00770984275871
0.019714999944 -0.0439755191752 -0.00289573221627
0.019714999944 -0.044056370705 0.00358167175915
0.019714999944 -0.0419800548552 -0.0118048644524
0.019714999944 -0.0443836831541 -0.000901686282901
0.019714999944 -0.0451689207281 -0.00515851307495
0.019714999944 -0.0423742514914 0.00028704307447
0.019714999944 -0.0412194550294 -0.00833438055537
0.0527601199041 -3.55496379554e-05 -0.00917677436454
0.0355809728941 -0.00778675584187 -0.0119957196523
0.0603479731822 0.00118498041234 -0.0119218872182
0.038638240851 -0.00555690154624 -0.00995378477606
0.0551514266368 0.000998686363218 -0.00886537485797
0.0446151673182 -0.00316372051398 -0.00952289827142
0.0588013246949 0.000165065445862 -0.0127590048165
0.0370606499317 -0.00661076830531 -0.0108321863899
0.0510588687019 -0.00141785193576 -0.0105692685587
0.0433441234037 -0.0050346700364 -0.0120813949033
0.0291060649995 -0.00962392816322 -0.0110943357295
0.0420228150861 -0.00469374376187 -0.010600953582
0.0622814391271 0.00346319182794 -0.00905840067288
0.0527960978654 -0.00126618759695 -0.0114291813409
0.0248624428072 -0.0112865106571 -0.0113340164092
0.0589460575776 0.00167052679814 -0.0101268669969
0.0610546358268 0.00231441228124 -0.0103378100825
0.0630063911431 0.0024680700114 -0.0113342219876
0.0490998102058 -0.0014867162646 -0.00941451057768
0.0460381659853 -0.00359352823617 -0.0112307352195
0.0557705913207 0.000185439595214 -0.0107426964207
0.0265707136185 -0.0105012036076 -0.011027373867
0.0487298433828 -0.00307088473568 -0.0120420984186
0.0411257650321 -0.0059866922811 -0.0123568449114
0.0299120983663 -0.0085734168278 -0.00938890559185
0.0230687611334 -0.00974405866148 -0.00577598036681
0.0249137191576 -0.009706323975 -0.00747226618279
0.0255399150579 -0.00844557205415 -0.00480431685352
0.027470990032 -0.00826706086429 -0.00621844879453
0.0371637259794 -0.00541619337867 -0.00823535878696
0.0328475494063 -0.00761223764274 -0.009745544354
0.0432242146045 -0.00305569765749 -0.00799420791038
0.0207586519089 -0.0101858380375 -0.00467750027938
0.0229820952155 -0.0107647729528 -0.0083447539246
0.0482066281376 -0.000743452048226 -0.00682995704944
0.0271741986723 -0.00931438822527 -0.00865203212455
0.0326716974393 -0.00607407063713 -0.00557647708274
0.0465529872615 -0.00199000579425 -0.00846173120388
0.0352650991899 -0.00535161177202 -0.00622093312676
0.0506377337199 -0.0002218294319 -0.00783858530045
0.0575455034184 0.00224423211689 -0.00814709282604
0.0210487565754 -0.0113031847703 -0.00786388199532
0.0311689429292 -0.00702030032305 -0.00657439119978
0.0397574589992 -0.00432103238983 -0.00791140148209
0.0343581856074 -0.00659934981592 -0.00858203649906
0.0600814640064 0.00347717848795 -0.00568844643152
0.0519899575498 0.000629597395261 -0.00662969868919
0.049508056464 -6.68923560078e-05 -0.0042765621273
0.0292767414201 -0.00706394345095 -0.00479658062597
0.0424213545978 -0.00250986594418 -0.00433957254315
0.0616674722018 0.00408313441171 -0.00479022370843
0.0275155905399 -0.00758884825249 -0.0035848204203
0.052087620657 0.000905041890414 -0.00301904439892
0.0567817264291 0.00259850676356 -0.00185332530027
0.0451407550045 -0.00155391706974 -0.00403919029279
0.0602621889919 0.00388444267644 -0.000536464816722
0.0473754098961 -0.000625680779312 -0.00166196715177
0.0411907301106 -0.00278420617728 -0.002112647738
0.0579328571373 0.00286121459192 -0.00384548966191
0.0326673654707 -0.00578660699046 -0.0031465264472
0.0562770960555 0.00216411692893 -0.00574609050532
0.0614947201968 0.00386285574233 -0.00719143853209
0.0507386785812 0.000526653243097 -0.00173767425068
0.046279259454 -0.00127363338274 -0.00570407052795
0.0389880617197 -0.00377708645157 -0.00561936345106
0.0449894327639 -0.00146315666752 -0.00190663396572
0.0553829349887 0.00201315670086 -0.00340580758305
0.0543104787174 0.00150957724075 -0.00541413013194
0.0469777997266 -0.000890573579778 -0.00357397127186
0.0619401007793 0.00432707857215 -0.00254883857631
0.0590796721973 0.00335574239101 -0.00235436153806
0.0676793875168 0.00454447270563 -0.0102747345302
0.0670515447072 0.00315470159359 -0.0125558097505
0.0648555215133 0.00355430136252 -0.010454421693
0.0718925843193 0.00682295409412 -0.00594602762757
0.0644463640877 0.00485669994123 -0.0054686933608
0.0635028230969 0.00441659878833 -0.0073434875299
0.0707813460322 0.00630169417282 -0.00818381706298
0.074934334629 0.0073905207975 -0.0085292412687
0.0671319986536 0.00583128856376 -0.0029508272244
0.072426141677 0.00665456194325 -0.00911483799355
0.0689673152241 0.00589976727168 -0.00728624547992
0.0668838528902 0.00550156738525 -0.00561255726467
0.0651828977796 0.00536706714052 -0.00231447154942
0.065566215099 0.00494831236316 -0.00760900697746
0.0635455936372 0.00480097278954 -0.00356504322365
0.0386891166293 -0.0414723133638 0.00872593335439
0.0310934174073 -0.0423784363259 0.0107715741338
0.0229138698576 -0.0443843524954 0.0111341597736
0.0365615640889 -0.0410107729154 0.0105768413332
0.0288805947401 -0.042375506953 0.0118443353782
0.0248185815313 -0.0437194660497 0.0114030561752
0.0332759421751 -0.0438972334273 0.00700541517125
0.0298212436264 -0.0434984811621 0.00938440819066
0.0336187319806 -0.0423236328839 0.00965119447502
0.0311475769638 -0.0446085007489 0.00676155866329
0.0277023038746 -0.0445986734961 0.00844121144284
0.0303631836601 -0.0456303303376 0.00531452979196
0.0318123517302 -0.043268525008 0.00883464548501
0.0361935786849 -0.0421574243384 0.00870593820582
0.0410801539069 -0.0421973789121 0.00462871647242
0.0367520579701 -0.042977337544 0.00676400506977
0.0335452024957 -0.0448010536028 0.00499880754663
0.0475053182275 -0.039878021107 0.00457957842232
0.0443086136912 -0.0407405347997 0.00538706474704
0.0426124020192 -0.0405649705762 0.00751690753443
0.0398329107666 -0.0419243486723 0.00658154765269
0.0453142674482 -0.0396721237318 0.00727465073177
0.036517410341 -0.0437232723172 0.00498916926828
0.0307605533092 -0.0299535767893 -0.0183725533138
0.020308833856 -0.0315132744269 -0.0173374491985
0.0256019807683 -0.0300385626108 -0.0178913391568
0.0219186225971 -0.0284659413701 -0.017618512064
0.0289007148848 -0.0288525456111 -0.0182480958975
0.0238640843239 -0.034230459451 -0.0175488222307
0.0291544706304 -0.0327831461261 -0.018101269435
0.0208127811001 -0.0357323269109 -0.0172012841825
0.0249933653589 -0.0319817412686 -0.0177507994953
0.0224916721199 -0.037157700049 -0.0172949371534
0.0234009242885 -0.0300809397923 -0.0176857500137
0.0351985282363 -0.0329766027199 -0.0178068904936
0.0345528493111 -0.0309855914627 -0.0183727029897
0.0329941407576 -0.033368578522 -0.0178143898968
0.0438977594657 -0.029864782929 -0.0181961499891
0.0270151781704 -0.0360615885765 -0.0173985062171
0.0399562972961 -0.0318988735505 -0.017852723604
0.0309289688172 -0.0336986071739 -0.0178313700851
0.0382563702387 -0.0301563285672 -0.0184057952259
0.0320871801801 -0.0314428403004 -0.0183760560721
0.0336621867413 -0.023844966749 -0.0179966383241
0.0447211052835 -0.0185671576324 -0.01801723731
0.027355459846 -0.023974043062 -0.0176856642859
0.0356445488644 -0.0215080272071 -0.0178558610166
0.0491695027317 -0.018005670597 -0.0181877151261
0.0381997519738 -0.0219095938543 -0.0180289965717
0.0256988738477 -0.0274736783534 -0.0179639670899
0.0528142592799 -0.015217788652 -0.0180856021951
0.0366728380332 -0.023699299404 -0.0181363581554
0.0406372169081 -0.0209322690295 -0.0180528505889
0.031116467119 -0.0256868793687 -0.0180570212499
0.0229665155092 -0.0266631365648 -0.0177392393621
0.0499449501284 -0.0159672997845 -0.0180158735712
0.0351490124124 -0.0259899912532 -0.0182959161461
0.0430826716804 -0.0208851181909 -0.018173732942
0.0211134818887 -0.0259731687725 -0.0175722630146
0.0304580600665 -0.0231000436386 -0.0177544614136
0.0387427125697 -0.0261433521034 -0.0184966847354
0.0345590312847 -0.0287564891167 -0.0185529277272
0.0559998562029 -0.0138123187011 -0.0181034642233
0.0274179241173 -0.0261735202141 -0.0179173372793
0.0326112671274 -0.0279585304666 -0.0183698619585
0.033375121486 -0.021697949909 -0.0177588622316
0.0293613280225 -0.0268441937349 -0.0180869576464
0.0452562375765 -0.0216125763501 -0.0183610897321
0.0417304975916 -0.0228987726863 -0.0183133437522
0.0738218097965 -0.0113250632182 -0.0168040135345
0.0774044973933 -0.00912296780298 -0.0160707236773
0.0805654004498 -0.00719461870091 -0.0154203179378
0.0730194272074 -0.0145476431092 -0.0163196310579
0.0900226609308 -0.00209592324697 -0.013314922667
0.0864921971704 -0.00455629998212 -0.0139685178085
0.0690448371681 -0.0177265774901 -0.0169582419685
0.0797785573354 -0.00976212606626 -0.0150861558893
0.0706494883739 -0.0158002956909 -0.0168531854539
0.0755228137943 -0.01225262548 -0.0159869776759
0.0819369122025 -0.00849106872439 -0.01463118624
0.019714999944 -0.0188420921129 0.0146074957153
0.0291711790541 -0.0116076115005 0.0108034686927
0.040066644327 -0.00618071248083 0.00803715429634
0.0227749701918 -0.0112225280004 0.00855846450152
0.0199531659834 -0.0115119990434 0.00806573379905
0.0331939300853 -0.00870858017098 0.00881203844517
0.037767244319 -0.00734368524096 0.0086401067747
0.0591811967005 -0.000448031412024 0.00728822799886
0.056472672678 -0.00126614722567 0.00740063168163
0.0243710965563 -0.0143762365537 0.0124314789244
0.0302761546281 -0.00841737748762 0.00766274847719
0.0514662869753 -0.00451878952217 0.00949410005852
0.0357851977206 -0.00905853350206 0.00993167915816
0.0338202899037 -0.0103283505521 0.0107459773513
0.0262559656621 -0.0150082529503 0.0136548618649
0.0212053665551 -0.0156002719844 0.0128530273297
0.0399790916838 -0.00775957447098 0.00972276285496
0.0312949779741 -0.0098398446561 0.00949506854642
0.0550754240318 -0.00255160431332 0.00839408967385
0.0399755026675 -0.00942726759672 0.0115286095269
0.0510330998244 -0.00303614479527 0.00776393187379
0.0216047592038 -0.0123826067351 0.00948095892327
0.0268475265009 -0.0115177658667 0.0100421170377
0.0250925623778 -0.0129965027626 0.0111427643014
0.0426456695526 -0.0063917332694 0.0090027693045
0.023564048444 -0.0159573976541 0.0139139751633
0.0292542313257 -0.00975971825765 0.00882509055741
0.0338275996456 -0.0118666379903 0.0124147330767
0.0378574070984 -0.0100637634378 0.0116129570088
0.0252791970142 -0.0106436778817 0.0086469146454
0.0314135487991 -0.0114486861814 0.0112720605373
0.0271164020502 -0.0133714313179 0.0121273161381
0.0478798333751 -0.00469124759098 0.00865608442959
0.0219353887901 -0.014140989273 0.0114805700286
0.0353773981399 -0.00783569188189 0.00849025099312
0.0455125702655 -0.00507795633328 0.00839859634536
0.0247659692794 -0.0426227122385 0.0130653977089
0.0374652192748 -0.0397078918201 0.0119357983819
0.0298488143455 -0.0409813339733 0.0131940777007
0.0269598239216 -0.042697243156 0.0121630107449
0.037240456134 -0.0384073775228 0.0136100028447
0.0351921917915 -0.0395981353803 0.0129105565847
0.0328986390412 -0.0408606447897 0.0122140251421
0.0222279532472 -0.039690296429 0.0148997450314
0.0221534743061 -0.0433254079476 0.0131607318258
0.0273835505805 -0.0400727230706 0.0141695296448
0.032759124829 -0.0382745715857 0.0144639085943
0.0234428118879 -0.0412280251155 0.014032005379
0.0291434527751 -0.0380739160338 0.014943556642
0.0207780253714 -0.0416018818522 0.0141347799384
0.0251111430697 -0.037923441845 0.0154432481286
0.0274368764277 -0.0366814407744 0.0157936090633
0.031381380857 -0.0396860445099 0.0139316293599
0.0228312564813 -0.0371706505435 0.0160466552221
0.0403192474676 -0.0325351417328 0.0152269330776
0.0427631739124 -0.031272590184 0.0152495167513
0.0362182678271 -0.0335813632935 0.0154863437324
0.0334879218269 -0.0344288815864 0.01561719994
0.0352319848554 -0.0357644483334 0.01501324942
0.0381141593362 -0.0340052902442 0.0151147944869
0.0305370860885 -0.0357688788346 0.0156410629381
0.0250557478362 -0.0348194600933 0.0166386929162
0.0489571980626 -0.033400382621 0.0126749648361
0.0399692777242 -0.0368139612844 0.0138332024539
0.0442528234215 -0.0343928486798 0.0136147076805
0.045755350537 -0.0355416492724 0.0126990660224
0.0473467486008 -0.0323999439977 0.0135594267841
0.0454341355951 -0.032691713753 0.0139884047744
0.0513514202581 -0.0330048124752 0.0121507034156
0.0418741568523 -0.0357282226674 0.0137398502831
0.0419244900672 -0.0335893725142 0.0146234623064
0.0447257476636 -0.0309979853828 0.0149038800702
0.0441391600962 -0.0373556489272 0.0116723058053
0.0417142967874 -0.038592499631 0.0115260884102
0.0476508125058 -0.0357831074867 0.0116668102959
0.0394286315657 -0.0386937241776 0.0124460603182
0.0503796930566 -0.0345736500879 0.0116500667384
0.0853444048857 -0.0150344695484 -0.000206270307237
0.0841628021489 -0.0169430881403 -0.00130194318947
0.0909139192799 -0.00802111174731 -0.000335158211714
0.0926139138524 -0.005725531573 3.89365755261e-05
0.0902220452073 -0.00957759805686 -0.00214837032374
0.0883121212315 -0.0123146745957 -0.00299048126428
0.0873504416822 -0.0128335336098 -0.00112064744947
0.0887403123893 -0.0110544783411 -0.00107573485952
0.0838716824112 -0.0170057355092 -0.00460470745596
0.0786607614821 -0.0219184360184 -0.00361831258534
0.0849753461522 -0.0161577224622 -0.00306486846931
0.080543246607 -0.0201371327833 -0.0040341849905
0.0870719202209 -0.0141424777271 -0.00381293921997
0.0823795539845 -0.0185124589723 -0.00341385287291
0.0826851614687 -0.0184673081514 -0.00126434813711
0.0754079958302 -0.0248789984143 -0.00396602945146
0.0801464868213 -0.0207645611414 -0.00165716697076
0.0335078844202 -0.0380751070005 -0.0153798378268
0.0358936963096 -0.0355855388124 -0.0164533679886
0.0306690544196 -0.0386589143906 -0.0154883956099
0.0327260412773 -0.0352977171578 -0.0171217982373
0.0356583250643 -0.0378559314645 -0.0151676258089
0.0396256519848 -0.0339455700988 -0.0168190525209
0.0399013693833 -0.0355687092265 -0.0158296732726
0.0237158879922 -0.0388547098814 -0.0164734079588
0.0420146554918 -0.0326287565221 -0.0172087192277
0.0373265584423 -0.0337211394053 -0.0173132498094
0.0299569537938 -0.0366283398446 -0.0167841656896
0.0449820278926 -0.0344285836576 -0.0147261330064
0.0496692497861 -0.0300387363593 -0.0168432850076
0.0565488547199 -0.0299334208317 -0.0139350197903
0.0514382134981 -0.0302419270721 -0.0158769116096
0.0481911728828 -0.0328173029345 -0.014852261321
0.0513625227061 -0.0318437283788 -0.0143896231393
0.0503253626021 -0.0333198920369 -0.0134420057625
0.0428320401721 -0.0343759310125 -0.0157162292494
0.0458337966737 -0.0326337801899 -0.0160572601016
0.0469913670292 -0.0307501058616 -0.0173390238681
0.0429852109905 -0.035857147512 -0.0142433228009
0.0546265425958 -0.0310888948575 -0.0136788403939
0.0588696758981 -0.0301642828793 -0.0127010721776
0.042811171843 -0.0384249976387 -0.011724870637
0.0477909661978 -0.0351606122346 -0.0127599510248
0.0410835133676 -0.0376642117998 -0.0133008276711
0.0391860760495 -0.0379290286558 -0.0139070251454
0.0522984154368 -0.0335792409482 -0.0122931871375
0.0440120470617 -0.0369215909163 -0.0127064746829
0.0560069732685 -0.0319490996867 -0.0122454566545
0.0499640352582 -0.034880373139 -0.0120421394526
0.0266387548114 -0.0431310596378 -0.0105317534077
0.0238237995198 -0.0404616918005 -0.0144757486163
0.0313641419555 -0.039862095765 -0.0138719560509
0.0289244475185 -0.0404460289415 -0.013566141327
0.0202502197876 -0.0395385415332 -0.0163136434312
0.0257124328029 -0.0396302728733 -0.0152000988241
0.0238867711932 -0.0419706474251 -0.012524837328
0.0280139004823 -0.0391074535393 -0.0154525608167
0.0270176368795 -0.0417645210537 -0.0122190782557
0.0218243562866 -0.0416798834112 -0.0132744848649
0.0246961925694 -0.0435440085424 -0.0103550851116
0.0371188303443 -0.039308749919 -0.0128434689935
0.0323363744147 -0.0424057159076 -0.00939707239796
0.0247233217287 -0.0450106705033 -0.00815740648803
0.0228166191349 -0.045699860718 -0.00777976236089
0.0286628860213 -0.0437111577835 -0.00871034454266
0.0392125615156 -0.0393522394468 -0.0117964707412
0.0371993529967 -0.0402962096046 -0.0110026998117
0.0350057031405 -0.039963213559 -0.0126246456846
0.0321796747095 -0.0413290773667 -0.0114359267211
0.0292694811556 -0.0422611159438 -0.011078467907
0.0199009446059 -0.0175575649877 -0.0138122233469
0.0554134225881 -0.00171700333478 -0.0134474166226
0.0482514536024 -0.00451453329262 -0.0134137908506
0.0281117040177 -0.0111565353513 -0.0123640951479
0.0330759102379 -0.00911201989452 -0.0123051655539
0.0510667803361 -0.00270533428494 -0.0128736974098
0.027177436811 -0.0127934098612 -0.0133516367585
0.0229104872497 -0.0143478357491 -0.0132440387257
0.0432454636089 -0.00676584728401 -0.0136210687732
0.0376575867051 -0.00766582739146 -0.0125945188915
0.0306274718054 -0.0102444374061 -0.0124309517795
0.022733355445 -0.0124055963147 -0.0116745870679
0.040046307523 -0.00811016185602 -0.0136798970071
0.0416611052288 -0.0132313257101 -0.0165744863515
0.0471450674695 -0.0103612548161 -0.0164668600408
0.0302335405764 -0.0154294989829 -0.0154255480187
0.0502730650041 -0.00789614519205 -0.0161048550161
0.0221464627071 -0.0160573282104 -0.0142756440501
0.0397701682019 -0.0119723681847 -0.0157952656515
0.0283298436878 -0.0143149484143 -0.0146965790181
0.0366123593306 -0.0163129519217 -0.0168330656901
0.0206677798025 -0.0236495051781 -0.0167799861612
0.0264915810626 -0.0213078573512 -0.0169220990186
0.0328206685649 -0.0142095969567 -0.0154234541048
0.0223798921076 -0.0220810222374 -0.016502262714
0.0526887261921 -0.00750547902707 -0.0163745941977
0.0218470114073 -0.0203037233571 -0.0157662409724
0.0283476185938 -0.019493654294 -0.0165796902673
0.0442620272818 -0.010426344665 -0.0159992938311
0.0231129556823 -0.0240205198906 -0.0173312753245
0.0308086189781 -0.0171963722956 -0.016164974263
0.0345241929163 -0.0150969074519 -0.0160358213352
0.0254124684849 -0.0194068411116 -0.0160480988194
0.0266208143326 -0.0169041060504 -0.015345374542
0.0372987861796 -0.0119210946705 -0.0153555908128
0.0352872157875 -0.0128560838855 -0.0153523100095
0.038549797168 -0.0135529368815 -0.0161611568919
0.0230497844506 -0.0184595207871 -0.0153016415633
0.0331409448888 -0.0176558884822 -0.0167291663393
0.0350065195977 -0.0106500262085 -0.0140750331933
0.0561585231677 -0.00483169889986 -0.0156988902242
0.0430563406978 -0.00863768730545 -0.0148240574453
0.0409832119057 -0.00960153152441 -0.0149202829611
0.0541367454829 -0.00533228120941 -0.0155076308556
0.0449757985813 -0.00726371033914 -0.0144224877084
0.0605102624514 -0.00127178287625 -0.0144998008475
0.0580401322746 -0.00187305154614 -0.0142594289749
0.051723865941 -0.00559075797144 -0.0150594482368
0.0478989406544 -0.00815731663718 -0.0157484585694
0.0384961139395 -0.00938213233887 -0.01414308081
0.0312505487383 -0.0123153747017 -0.0141968845189
0.0254293481654 -0.0145853716531 -0.014183909597
0.0527225416552 -0.00390351101128 -0.0142195762172
0.0596085500076 -0.00299667396599 -0.0153888489645
0.0875199205993 0.00926989580568 -0.00257336788433
0.0674849421847 0.00548977496486 0.000966640331755
0.0692080087408 0.00507694176751 0.00230691377132
0.069563706353 0.00410216399698 0.00415250577403
0.0734232747699 0.00695099618913 0.000499194075901
0.0714581452769 0.00577481503652 0.00187547894419
0.0654379475526 0.00551618315297 0.000192825122764
0.0669662791527 0.00299860740339 0.00517606480296
0.0741616446584 0.00587315781601 0.00266250738736
0.0771439462294 0.00793474435995 8.59987434147e-05
0.0827437041367 0.00863822633993 -0.00622562621538
0.079499007364 0.00848581893551 -0.00463746034431
0.0813964646865 0.0087220619179 -0.00394323431699
0.0861521927603 0.00913654212478 -0.00416284581329
0.0786087757601 0.00814975988981 -0.0074477595531
0.0829975325915 0.00905308590772 -0.00190474934802
0.0840788897973 0.00896776216994 -0.00393564419014
0.0692469100357 0.00643547995641 -0.00139540023855
0.0780392179103 0.00836082315219 -0.00241784429124
0.0698512389016 0.0064832179808 -0.00352863330327
0.0739876378883 0.00735950987753 -0.00472897927814
0.0797745933125 0.00881185689672 -0.000887787364803
0.076112191134 0.00782312653161 -0.00501551753963
0.076182105306 0.0077580141722 -0.00698477190729
0.0734879216548 0.00733968536871 -0.00248585301645
0.0739135072381 0.00726224969679 -0.0066962318152
0.0758812174118 0.00790187883205 -0.00183487442621
0.0710256982564 0.00687317335921 -0.000427521573759
0.0751028578537 0.00230720302697 0.00657929477025
0.0718818096816 0.000611856490456 0.0077542833816
0.0774945606454 0.0016961251678 0.00696531623472
0.0721522798197 -0.00139414501919 0.00910149673197
0.0695746992554 0.000543215098837 0.00782482997173
0.0702967962624 -0.00287910622133 0.0101204803934
0.074188588989 -0.00028556879683 0.00833391710703
0.0742573892241 -0.00237815738159 0.00974153329417
0.084987731393 0.00239523123921 0.00551725820911
0.0874093187955 0.00510445177584 0.00262606254164
0.0856348990849 0.00398915343823 0.00423101054275
0.0834827324498 0.00103483298491 0.00646197596912
0.0802987607096 0.00195307063447 0.0067486706006
0.0811762286971 -0.000134088136226 0.00740963768731
0.0792706312771 -0.00057928407096 0.0079825633631
0.0831520667393 0.00497402193348 0.00436003869453
0.082430508504 0.00824338299408 0.000143367394646
0.0859144256041 0.00701883761813 0.0014757871931
0.0880922150009 0.00763184692908 0.000507415102153
0.0851057077846 0.00817874917359 2.22587082658e-05
0.084593962488 0.00580064088361 0.00316908731925
0.0797742927001 0.00634733969598 0.00249880088392
0.0815922320466 0.00589254882587 0.00315889561832
0.0714353478991 0.00301078755254 0.00599063629134
0.0770724301973 0.00568281255157 0.00312937529566
0.0763608876556 0.00392535667991 0.005198021755
0.0739338529371 0.00419634903297 0.00472094773769
0.0692267407224 0.00282660696691 0.00607443037075
0.0786080981775 0.00450740827467 0.0046382726481
0.0810710104668 0.00426804682588 0.00507955277249
0.0759170649383 0.00666150512155 0.00188068623276
0.0450501408343 -0.02366607541 0.015617705263
0.0444459014527 -0.0255755142489 0.0155689384146
0.0430246663639 -0.0225311122994 0.0160187232235
0.0415116000631 -0.0239430058936 0.0161490151971
0.049537798256 -0.0185440072483 0.0153012694109
0.0440877857153 -0.0275276936597 0.0154785716506
0.047305819679 -0.0235746548436 0.0152726406549
0.0472345864261 -0.0204974759749 0.0155142643308
0.0404234035938 -0.0259419607892 0.0161690458279
0.0379789956511 -0.0247343562675 0.0166408639669
0.0379114738557 -0.0194943988241 0.0161759233459
0.04271515031 -0.0189819155375 0.0158471542032
0.0261600514284 -0.0222490872545 0.0171880032276
0.0403615486942 -0.0221956187045 0.016418387288
0.0332155266859 -0.0234628712423 0.0169773652012
0.0237507115245 -0.0220280711058 0.0172867178122
0.0444450131627 -0.019866324231 0.0158767495883
0.0362899535784 -0.0231502850274 0.0167690814175
0.0384327438484 -0.0216116842687 0.0164410677027
0.0340312440919 -0.0201029975195 0.0164684362784
0.0264195588986 -0.0303620795493 0.0170016428181
0.0232996452922 -0.027435323545 0.0172085384114
0.0252039229494 -0.0287092823684 0.0171025831138
0.0217330265055 -0.0258004558557 0.0173189824793
0.0289126039286 -0.0237433220663 0.0171916278729
0.028549271433 -0.0266440923962 0.0170871390996
0.0305623115453 -0.0251069431548 0.0170895249766
0.0207548454926 -0.0233865572323 0.0174432020771
0.0269362313573 -0.0245934937554 0.0172154247659
0.0266586189872 -0.0273357307719 0.0171147296508
0.0216158757314 -0.0290270212242 0.0171944057346
0.0289741496321 -0.0288137751552 0.0169887099425
0.0227160240626 -0.0340597096045 0.0169627584034
0.022544883839 -0.0314755767587 0.0170702425449
0.030532862446 -0.0275017743341 0.0169953876865
0.0206364549346 -0.0330812502107 0.0170620939634
0.0236848997965 -0.024271911747 0.0173228072149
0.0407691006195 -0.0286660479583 0.015872599025
0.0356618180983 -0.0272314993025 0.0166064594648
0.0367328021676 -0.0303962516071 0.0160488652198
0.0321997248064 -0.0310590707187 0.0164273044156
0.0277310705271 -0.0328475556033 0.0166403613286
0.0374743424635 -0.0283247763941 0.0162636738277
0.0299941368373 -0.0330996728588 0.0163692480548
0.0334646986178 -0.028471811644 0.0166603320622
0.0255035633684 -0.0329702929614 0.0168549327928
0.0349829908803 -0.0319774844602 0.0160081183347
0.0385604831781 -0.0315355079012 0.0156980205265
0.0341485627751 -0.0259744234855 0.0169411820385
0.028246262635 -0.00752448610118 0.00403654153519
0.0463209491302 -0.00119894631633 0.00239730235174
0.0315178047487 -0.0062977291365 0.00346460896537
0.0240041928622 -0.00880326781117 0.00372903459743
0.020839551875 -0.0103812280111 0.00559841043957
0.0522087695189 0.00110513054196 0.00104417009636
0.0360093342606 -0.0048117893368 0.00334634815398
0.0259157173668 -0.00843095349957 0.00455349935151
0.0216679136716 -0.00956648178759 0.00375791826819
0.0403765222389 -0.00365604106643 0.00420362263792
0.0436133620253 -0.00212903514728 0.00258407598694
0.0306481452627 -0.00721828220022 0.00561612320471
0.0409863140952 -0.00276155265552 0.00185744600708
0.0245750792713 -0.00943747696199 0.0064824876972
0.0339619934198 -0.00558305862496 0.00371624335029
0.0327173527685 -0.00639578484962 0.00509767527578
0.0545598636711 0.00191132215434 0.000886823355969
0.0370496360491 -0.00401207492067 0.00178667871667
0.024783617315 -0.00833803437445 -7.59774797284e-05
0.033332663232 -0.00544837088097 -0.00121889943523
0.0361497277763 -0.00452781660027 -0.00217977081364
0.0329617487247 -0.00541720112717 0.00172120236551
0.0261662805677 -0.00772942397468 0.00234743185906
0.0302878534039 -0.00658557800603 -0.00280659641193
0.0416031092278 -0.00252886344723 -3.47011666319e-05
0.0498742735621 0.000357088991726 0.000525334319303
0.0202792850902 -0.00995586044558 -0.00123378495017
0.0282803180318 -0.00703007006101 0.00178392077957
0.0383639886658 -0.0037538257406 -0.00200405122413
0.0528103044316 0.00130124766243 -0.000758093021422
0.0216949821209 -0.00955319306346 -0.00282364337137
0.0479408798718 -0.00030752909872 0.000578637568343
0.0396492749346 -0.00319441483219 0.000131676872547
0.0313781777767 -0.0060641098974 -0.000128599089398
0.0578359307406 0.00307153646292 -0.000108328091153
0.0448901373646 -0.00133523080031 0.00105074754099
0.0270043848771 -0.00762507272077 -0.00106862448567
0.0211220441852 -0.00951158531511 0.00159708213928
0.0242234190338 -0.00865951461636 -0.00244078283208
0.0817569238267 -0.0134501586637 0.00609242297526
0.0721499085799 -0.023595508586 0.0072729289308
0.0834036521185 -0.01182454869 0.0058125799017
0.0767432575847 -0.0189545356738 0.00656514432205
0.0755582456229 -0.0175147908912 0.00854990959236
0.0739778944029 -0.0230775779105 0.00608300607514
0.0793778701348 -0.015571923974 0.00665169804156
0.0748348991118 -0.0200333522744 0.00743963610228
0.0727970129452 -0.0202420024089 0.00901820028784
0.0782455755863 -0.0175006021651 0.00628994267784
0.0882774876228 -0.00336017769439 0.00439170358908
0.0883343725125 -0.00114930636896 0.00443037743189
0.0922070063049 -0.0042820268479 0.001629558356
0.0904348581919 -0.00381042849022 0.00287721577438
0.0799431625212 -0.0173478172093 0.0048291776597
0.0760565208657 -0.0217172913951 0.00496541938766
0.0817145031097 -0.0183605016091 0.0013428629803
0.0852223162474 -0.0127328323581 0.0031395194361
0.0812893476277 -0.0170060220734 0.00344650202283
0.0831358293414 -0.0168241416797 0.0012228978686
0.0802296287335 -0.0189835848021 0.0025874965922
0.0776804739514 -0.0199669420897 0.00482261048732
0.0826403673077 -0.015240269041 0.00368057229637
0.0857993609514 -0.0110137654632 0.00433932428884
0.0893723512952 -0.00957382852975 0.000555155878626
0.090142990573 -0.00690993501171 0.00294484969075
0.0851149929396 -0.0142213641942 0.00151503766796
0.086670534939 -0.0127161162499 0.000893075138584
0.08869554386 -0.00891350740693 0.00267560431947
0.0879552763338 -0.0108140081433 0.00130611005489
0.0508343766172 -0.0274060133569 0.0141035421577
0.0662584813147 -0.0172833449048 0.0119602859114
0.0677919555356 -0.0185705498945 0.0113650468768
0.0599817078915 -0.0208790575855 0.0129197264648
0.0706329439293 -0.0148122480949 0.0112858164378
0.0657649017719 -0.0192720028823 0.0117514985132
0.0621152314938 -0.0225067993325 0.012118753244
0.0634113009119 -0.0209666951817 0.01205354209
0.0564385416664 -0.0255976176115 0.0130133147674
0.0685236853946 -0.0155073542184 0.0116937373644
0.0543785260756 -0.0257405571795 0.0135010090911
0.0698873927404 -0.0185855071547 0.0108422488373
0.0679149730354 -0.0206890081284 0.0109815288336
0.0594066049161 -0.0229638905768 0.0127151572355
0.0658856034406 -0.0214878544538 0.0113523280632
0.074838773338 -0.00765935073801 0.0101186837921
0.0754590012492 -0.00548602287212 0.00986017476632
0.073925554699 -0.0096565311603 0.010472308209
0.073030924901 -0.0116892672547 0.0108204453282
0.0815393888719 -0.00265183987837 0.00774057097007
0.0798416793783 -0.00520569641322 0.00837195444458
0.0735129770288 -0.00417661254678 0.0104887940618
0.0718153184341 -0.00520355471267 0.0110858822087
0.0777508468837 -0.00574676408238 0.00909108005135
0.0724563860165 -0.00797523816303 0.0109313385141
0.0793230173105 -0.00312035147185 0.00850051662097
0.0832742213441 -0.000885120186049 0.00711430564872
0.0532796981296 -0.0240166045906 0.0140085685533
0.0534960891213 -0.0218564246697 0.0141767397728
0.0584882707069 -0.0197319909157 0.0133617099834
0.0566590373639 -0.0181550865088 0.013892117091
0.0485703680488 -0.0268608677449 0.0146947446253
0.0604697814018 -0.0181761667786 0.0131083243884
0.0637471325436 -0.0179318224643 0.0124600670902
0.0662922784714 -0.01492806116 0.0122335362913
0.0540960883795 -0.0184696103211 0.0143869196046
0.0553199829841 -0.0231523676493 0.013675074451
0.0516019842846 -0.0178418775994 0.0149603171863
0.0494158842741 -0.0206116401994 0.0151362203258
0.0511761104303 -0.0243035568786 0.0144118528414
0.0584680342864 -0.0171622008659 0.0136187272962
0.0459019297041 -0.0289198380659 0.0150395340397
0.0514313266853 -0.020479774385 0.0147357573201
0.0621651010687 -0.0158558844142 0.0129888690203
0.0465179526504 -0.0267713072951 0.0151245803367
0.0552712573275 -0.0208345774365 0.013913139251
0.0588545939088 -0.0146983551077 0.0136564162523
0.0676216051743 -0.0126899131984 0.0120378673155
0.0563066207118 -0.014647282815 0.0141191540782
0.066228391219 -0.0103175207567 0.0122625831941
0.0640985090799 -0.0139114397172 0.0126932980852
0.070027955438 -0.011714986923 0.0115884965253
0.069735008934 -0.00892660339362 0.0116081039118
0.0650033917856 -0.0119015845231 0.0125044772019
0.0705652429195 -0.00696335333814 0.0114334207476
0.0535219788469 -0.0165000568876 0.0146479167181
0.0619590165108 -0.012974459571 0.0130710568084
0.0604292630609 -0.011522350495 0.0133317137382
0.0799571953944 -0.0113723652255 0.00760678915501
0.0740291451278 -0.0135355005054 0.0101102463902
0.0752982304955 -0.0155251637937 0.00916563152745
0.0800231363133 -0.0134368578197 0.00723095207917
0.0820074905595 -0.0106334637076 0.00673939429761
0.0770971563248 -0.0131704519823 0.008688896891
0.0773382922567 -0.0150078270704 0.0082662639045
0.0736024200564 -0.0165447804728 0.00981500080887
0.0719828301968 -0.0175691779112 0.0104267509533
0.0810926687099 -0.00881382224753 0.00740194731418
0.0786457500883 -0.00759365363745 0.00867946373642
0.0832433308673 -0.00443456215256 0.00688643585421
0.0862900327748 -0.00501839909169 0.00539998501252
0.0764094801605 -0.00881058402547 0.00958720553412
0.0868703168566 -0.00740617120677 0.00486325561067
0.0753403243487 -0.0109444493254 0.00984829257333
0.0777216973502 -0.0108980219092 0.00874245756752
0.0847583234719 -0.00268362601336 0.00637468866806
0.0844635200113 -0.00873302076815 0.00583830988438
0.0861581502782 -0.00120847510241 0.00588594788765
0.083025532965 -0.00708629884418 0.00669263781542
0.0437021404594 -0.0390608168796 -0.0098802262903
0.0431633308954 -0.0408701389575 -0.00611023039095
0.0456044741191 -0.0400422297163 -0.00587180734519
0.0416755647884 -0.0418650585488 -0.00510318085188
0.0405687522501 -0.0430034623356 -0.00341809280187
0.0383398206113 -0.0440725559198 -0.00289984625434
0.0415623657724 -0.0409226533853 -0.00741919523726
0.0470856938482 -0.0405379020243 -0.00338169094957
0.0448124297058 -0.0395293972811 -0.00778564859679
0.0442806621699 -0.0417930644325 -0.00294160106153
0.0440467063499 -0.0418760037698 0.000381336411307
0.0492631948679 -0.0395864537468 0.00307914524314
0.042978061139 -0.0425253493299 -0.00177362248683
0.0474516890068 -0.0407748772175 -0.00135305701105
0.0221526318128 -0.0470504641619 -0.00530176546733
0.0317008492051 -0.0461242605602 -0.00205120902537
0.0362568008911 -0.0449371700358 -0.00239543522923
0.0218840080366 -0.0478090412842 -0.00353010395517
0.0246273288857 -0.0470979470287 -0.00372796448207
0.0337093434058 -0.0452375150627 -0.00312728308236
0.0271410582346 -0.0473468016697 -0.00161907110826
0.0318409498708 -0.0450158055611 -0.00453101570374
0.0287071653644 -0.0456929076886 -0.00480513462974
0.039597971035 -0.0415705778685 -0.00733432965911
0.0337378598612 -0.0439883999232 -0.00558044067719
0.0326896363288 -0.0432185273157 -0.00763298653284
0.0272162780488 -0.0446553653533 -0.00761141205511
0.0313759496824 -0.0442442211016 -0.00628791544534
0.035841880062 -0.0414535663909 -0.00949033620972
0.0376163687945 -0.0422928184385 -0.006928898156
0.0415646972578 -0.039462147968 -0.010475442279
0.0256881860474 -0.046148901878 -0.00545553942244
0.0358104734136 -0.0438245258778 -0.00484033234839
0.0390667732237 -0.0406989075434 -0.00932213993607
0.0349156012714 -0.0429836262154 -0.00695403884321
0.02910780527 -0.0468613761526 -0.00143614014632
0.0296175800359 -0.0463545035009 0.00342341127712
0.0306022128153 -0.0463239756229 0.000401608094584
0.0278048489693 -0.0470207304263 0.00100641845557
0.0251265888945 -0.0478948527067 -0.00112288483704
0.0335573355017 -0.0456415695499 -0.000939051042821
0.0405135055767 -0.0431268220897 0.000644272584549
0.0471725496782 -0.0404484825021 0.00249063204808
0.0353021690334 -0.0447605455583 0.00207307361159
0.0375021013468 -0.0440361451455 0.00168581629773
0.0423533585912 -0.0423752790264 0.00122610478817
0.0453190917423 -0.0412199185056 0.00181539060787
0.0379332145669 -0.0442690012105 -0.000719833662879
0.033038839408 -0.0454723987341 0.00267923995358
0.0425981120613 -0.0419585712271 0.00327223238302
0.0391777033825 -0.0430311711494 0.00420801115027
0.0642380665424 -0.00457525072908 0.0109592466809
0.0622969330551 -0.00589742662278 0.0117247528651
0.0605571397979 -0.00727690094654 0.0125356662705
0.0688448091301 -0.00163859822177 0.00927165575939
0.0669149900032 -0.000305514679159 0.00833326639767
0.0674422952721 0.0012376074922 0.00736535065705
0.0678200681685 -0.00391675432705 0.0106900647226
0.0653600440008 -0.00303693604161 0.0100199002578
0.0469297939551 -0.0158522316627 0.0150710534935
0.0494156623849 -0.0163413398811 0.0150490298065
0.0429529028848 -0.0146695997235 0.015030483435
0.0407744913336 -0.0168427451359 0.0155426464415
0.0334896133135 -0.0182541641306 0.0161460828409
0.0508695057153 -0.0130317391487 0.0143550085425
0.0515730879053 -0.0154326148876 0.0147773598627
0.0472069125433 -0.013673690984 0.0146455785855
0.0305603402363 -0.0204953771498 0.0167057788313
0.0359875077683 -0.0189375313616 0.0161603037437
0.0544769252348 -0.0123581389907 0.0140609884753
0.0451768764613 -0.016612690903 0.0152959760774
0.0277621297188 -0.0205680345559 0.016848629264
0.0405401596359 -0.0190799492783 0.0159772603995
0.0374290383712 -0.0167406207948 0.0156776324716
0.0574731632688 -0.00980272646173 0.013438683019
0.063646954724 -0.007171413661 0.0124582491769
0.066742425745 -0.00711266503483 0.0121005287968
0.0635079014641 -0.00927690517221 0.0127316558221
0.056643031195 -0.0119614881093 0.0138375601927
0.0535470144047 -0.0143921936874 0.0144856114377
0.0243698053421 -0.0198121045359 0.0165885124826
0.0399936942982 -0.0147122719536 0.0150546365525
0.0270791353165 -0.0164206897191 0.0148858391308
0.0491998428287 -0.0112768391523 0.0139041612915
0.0250800163471 -0.017864886225 0.0155357681792
0.0460082854851 -0.0118915826131 0.013972785515
0.0287845580318 -0.0182136941725 0.0160649063574
0.0309115848199 -0.0171172119006 0.0156256054074
0.0526930379826 -0.0104748259068 0.0137550297858
0.0216851723465 -0.0184154231412 0.01554953075
0.029156852431 -0.0163081256338 0.0150059964488
0.0342529677764 -0.0155778702239 0.0150404502509
0.0371519171842 -0.0134002108456 0.0140010278129
0.0298056853722 -0.0140976829884 0.0136022130309
0.0348472673829 -0.0135898351125 0.013855539481
0.0579516798215 -0.00525839347904 0.0108254031328
0.0581833613071 -0.00341396358307 0.00956585622388
0.054337282853 -0.00783421674137 0.0121876625253
0.058550520762 -0.0073768897763 0.0123763876697
0.049448367671 -0.00779960079204 0.0115740824804
0.0537526530077 -0.00376255888262 0.00927501379758
0.0464306549595 -0.00853740658221 0.0117252764924
0.0609771334664 -0.00239885615688 0.00919409693052
0.0540862836352 -0.0060322949548 0.010899594918
0.0370540483925 -0.0115412009057 0.0126915723008
0.0411234044546 -0.0119904405888 0.013495767131
0.0437752967318 -0.0108017606972 0.0129857426637
0.048174079704 -0.00654093263574 0.0105418559555
0.0434715920803 -0.00864291746549 0.0114421766943
0.0390771581615 -0.0128048120029 0.0138175285498
0.0614665399931 -0.000348506451069 0.00782188235486
0.0473798199331 -0.00991974858354 0.0128046343974
0.0494358105092 -0.0095726573314 0.0128102262443
0.0638825327581 0.000576253290183 0.0074676432196
0.0632504014138 -0.00269318860134 0.00967362111873
0.0554822941951 -0.00446065962741 0.00997084221253
0.0611520213187 -0.00445626750238 0.0106513293729
0.051590489983 -0.00873083420067 0.0124823754424
0.0312068750936 -0.0152588527078 0.0145816816313
0.0510216180354 -0.00621054228454 0.0106545361302
0.0561564431971 -0.00601565848208 0.0111375644087
0.0670508691897 -0.0304520298991 -0.00161617354339
0.067543515185 -0.0302152156367 0.000226364226993
0.0639635062543 -0.032116835707 -0.00289262341944
0.0544167962829 -0.0373496849644 -0.00201140796169
0.0582641470782 -0.0352553404513 -0.00154198705649
0.0609831460453 -0.0337938202018 -0.000153458685087
0.060172397226 -0.0342009781248 -0.00219501198344
0.069528340323 -0.0291272496918 4.19356889696e-05
0.0688829087199 -0.0294282236743 -0.00289967701196
0.0707689991406 -0.0284252128869 -0.00132251406161
0.0526077714989 -0.0383350072861 -0.00220022983009
0.0640444374314 -0.0321147224844 -0.000499032800922
0.0531822513391 -0.0376123349791 0.00345078071674
0.0590943170647 -0.0347554902365 0.00053394840798
0.0628510130494 -0.0327204976053 0.00122850687014
0.0554899330677 -0.0364585718503 0.00276041705575
0.0515828536574 -0.0385516835983 0.00230881546481
0.053352947175 -0.0377202616736 0.00115796688668
0.0518843136374 -0.0385783740769 0.00016082757234
0.049880881859 -0.0396623765438 -0.000195062503285
0.0561101729763 -0.0364362169277 -0.000762711933266
0.0679078817124 -0.027275476839 0.00685232029368
0.0700897420881 -0.0264031380373 0.00603808658998
0.0683005440733 -0.029647757256 0.00208337057773
0.0571337648618 -0.0318801204676 0.0103302553487
0.0660764014054 -0.0287146620282 0.00624383004696
0.0691678847042 -0.0281833743938 0.00380219659516
0.063610794236 -0.0295150763941 0.00750273018536
0.0616396910748 -0.0302768121533 0.00828644968633
0.0648067530148 -0.0300973408792 0.00511841924486
0.0604472297751 -0.031645491369 0.00710141960346
0.0550974627859 -0.0332562257166 0.0100356276919
0.0629937270346 -0.0319744566324 0.00353915252379
0.0651567625201 -0.0313445351981 0.00231369432337
0.0560232520224 -0.0354365894687 0.00464174291452
0.0510074655291 -0.0381398548025 0.00501378983253
0.0561256796519 -0.0335006635584 0.00837212831591
0.0542960052103 -0.034583037373 0.00831650940662
0.0580440454689 -0.0349114227665 0.00337099964171
0.0579907977248 -0.0338437986883 0.00555391686554
0.0625794920326 -0.0311600960311 0.00563216068099
0.052667144989 -0.0370071552299 0.00536413700204
0.0585980099706 -0.0326586861857 0.00721388432636
0.0542866577167 -0.0355849081577 0.00633597225519
0.0603465505573 -0.033568125354 0.00340365194895
0.0748549778333 -0.0246640293194 0.0013815452231
0.0711042545473 -0.0271432671326 0.00307420299564
0.0768790442186 -0.0230042667433 0.00132255349376
0.0751428059501 -0.0234057170329 0.00408712974118
0.0784335220693 -0.0216114979701 0.00159071435043
0.0735454928877 -0.0247977078739 0.00391553366869
0.0715310909856 -0.0275538187076 0.000638235764891
0.0747566408549 -0.0252787973602 -0.00130449351527
0.0767238343203 -0.0236596158747 -0.00106084412087
0.0726137354657 -0.0271715218239 -0.00236471628511
0.0810927099797 -0.0199806447519 -8.10714045773e-06
0.0723655126743 -0.0177177058805 -0.015505592117
0.0834328341075 -0.0151045224514 -0.0100055894715
0.0839339446557 -0.0132987751917 -0.01099407986
0.0869199476387 -0.0103123726285 -0.011183256236
0.0778191418782 -0.0164467715896 -0.0127830712873
0.0792636068113 -0.0144033288155 -0.0133137199557
0.0722324678127 -0.0198254413291 -0.0140489813303
0.0756611665911 -0.0172281938841 -0.0136560997211
0.0788796143362 -0.0188248447959 -0.0103283986399
0.0805174439856 -0.0159841462599 -0.0113141593131
0.0749951911735 -0.0194391149731 -0.0124809432671
0.0811405353385 -0.0136961702645 -0.0125745636992
0.083574908311 -0.0108319912125 -0.0129173393489
0.0770979656947 -0.0146994345433 -0.0144901846457
0.0854962267558 -0.00671801397679 -0.0136774369927
0.0868820447923 -0.00869955963415 -0.0121794507039
0.0791430963078 -0.0122034998444 -0.0145206317923
0.0902219399391 -0.00453066824127 -0.0122675398685
0.081451123269 -0.011474076591 -0.01369192745
0.0846878571589 -0.00839947826005 -0.0133780770404
0.0878574863898 -0.00594107096531 -0.0128423113467
0.087854540698 -0.011347223341 -0.00870176450566
0.0865711670056 -0.0130600378012 -0.00821838392308
0.0888826578 -0.00864058069148 -0.0109776583493
0.0843221956377 -0.0155829329055 -0.00804868750154
0.0857297485037 -0.0126911311835 -0.0100128545451
0.0891643581826 -0.0118911065619 -0.00595135520643
0.0927253635454 -0.00152211678129 -0.0101311315737
0.0915648815259 -0.00216278427951 -0.011981565413
0.0916224862263 -0.00357539223976 -0.0105051910682
0.0948834083705 -0.000330153534001 -0.00669059234504
0.0923367116257 -0.00400230212444 -0.00852339642395
0.0900746382304 -0.00840805078841 -0.00872099500545
0.0934151488763 -0.00330035308719 -0.0066839338628
0.0902486078831 -0.00692656712711 -0.0101317891955
0.0917426773715 -0.00613668067709 -0.0073555202179
0.0900296901576 -0.0100688281174 -0.00676157554187
0.0900001849397 0.008284950327 -0.00172428179588
0.0909370461339 0.00312091931822 0.00173029404032
0.0926003830824 0.00350439859772 0.000544021502861
0.0886123991273 0.00266927142736 0.00334051476023
0.0890285727421 0.00549983296923 0.00149658292796
0.0872650916125 0.00124501912904 0.00493144240497
0.0911598301177 0.00100429019883 0.00233511272738
0.0905813534029 -0.0015159276917 0.00281306321921
0.0934274513649 0.00142994997409 0.000675252316833
0.0936905042193 -0.00136630858585 0.000547028168649
0.0943079796909 0.00218213424567 -0.00498871100845
0.09132961617 0.00656230103411 -0.00319582619597
0.0931659222552 0.00394509161142 -0.00352389376543
0.0922467387128 0.0054096758633 -0.00191914739884
