0.0114139998332 -0.00738021815736 -0.00716878537865
0.0114139998332 -0.00996881177639 -0.0109608380023
0.0114139998332 -0.015288696686 -0.0185846770029
0.0114139998332 -0.0142057196947 -0.0143092931739
0.0114139998332 -0.00897118769815 -0.00127759676314
0.0114139998332 -0.0100925625067 -0.0129926726612
0.0114139998332 -0.0143334622649 -0.0125230586846
0.0114139998332 -0.00939944412659 0.00106178700415
0.0114139998332 -0.0110083263549 -0.00121707278683
0.0114139998332 -0.0113701346566 0.00820376150433
0.0114139998332 -0.00294846735051 -0.00858135857098
0.0114139998332 -0.0145520966499 -0.0164904678532
0.0114139998332 -0.00673900740029 -0.0130973779898
0.0114139998332 -0.00551414066087 -0.0111806754583
0.0114139998332 -0.0102848385612 -0.0150293505668
0.0114139998332 -0.00786534105295 -0.0141357339895
0.0114139998332 -0.00854942915996 -0.00543839390549
0.0114139998332 -0.0067404115809 -0.00862420571282
0.0114139998332 -0.0039202889405 -0.0108608034071
0.0114139998332 -0.0145992193795 0.00685127961979
0.0114139998332 -0.00773967038439 -0.0103718441418
0.0114139998332 -0.0086981993039 -0.00368792478821
0.0114139998332 -0.0146214562856 0.000247235699786
0.0114139998332 -0.0066628252596 0.00133790260836
0.0114139998332 -0.00522621664485 -0.00712717306759
0.0114139998332 -0.0144826285001 0.0138048764886
0.0114139998332 -0.0115569225685 -0.0138761643163
0.0114139998332 -0.012668171314 0.00480095996464
0.0114139998332 -0.00570890115254 -0.004081064635
0.0114139998332 -0.0085522617957 -0.011938419067
0.0114139998332 -0.00938487900977 0.00314948723052
0.012574548837 -0.0161926675072 -0.0175133099504
0.0134552670078 -0.0162910703175 -0.012287033192
0.0116744862255 -0.0160921033388 0.00411787456599
0.0140288806909 -0.0163551602844 -0.0178174950383
0.011927709958 -0.0161203960751 -0.0105984029762
0.012340341998 -0.0161664995321 0.00176943574359
0.012315472134 -0.0161637208174 -0.0142936770007
0.0123808763268 -0.0161710284404 -0.00596383407597
0.0130189212129 -0.016242317318 -0.00859324023846
0.0122481128597 -0.0161561947528 -0.0158034354622
0.0134621059628 -0.0162918344352 -0.0201360238668
0.0118047502893 -0.0161066577677 -0.012221744174
0.0114614505536 -0.0160683008223 0.00559863638072
0.0122524106139 -9.99999974738e-05 0.00601801269189
0.0139478448678 -9.99999974738e-05 -0.0144022926096
0.0131962148418 -9.99999974738e-05 -0.00554885825871
0.0129221782721 -9.99999974738e-05 -0.00146721776259
0.0124555032001 -9.99999974738e-05 0.00216239942324
0.0123624178553 -9.99999974738e-05 -0.00367134855196
0.0114139998332 -0.00148055021009 -0.00040132178214
0.0114139998332 -0.00824239694575 0.0106544952629
0.0114139998332 -0.00608760382338 0.0140726245774
0.0114139998332 -0.00597209420918 0.0172379408713
0.0114139998332 -0.00142711028105 0.00536206893772
0.0114139998332 -0.00563995217106 0.00350060609375
0.0114139998332 -0.00199193637962 -0.00507108084254
0.0114139998332 -0.00821110729538 0.00427271802403
0.0114139998332 -0.00167222475568 0.0013046752169
0.0114139998332 -0.00449764635787 0.0128286257502
0.0114139998332 -0.00159618053802 0.00314509584574
0.0114139998332 -0.00277875940111 0.0101464667376
0.0114139998332 -0.00908800334639 0.00914698858574
0.0114139998332 -0.00353865197961 0.0159403835751
0.0114139998332 -0.00766336829019 0.00665978700421
0.0114139998332 -0.00726091418602 0.00279445747178
0.0114139998332 -0.0113951549697 0.0131358942551
0.0114139998332 -0.00516124987394 0.000374685956397
0.0114139998332 -0.0106106635253 0.00982065443913
0.0114139998332 -0.00295470185506 0.0118797809448
0.0114139998332 -0.00957177890681 0.0135533135436
0.0114139998332 -0.0127778038271 0.0147043844405
0.0114139998332 -0.00650802540117 0.0124153524048
0.0114139998332 -0.0144895593798 0.0154456456978
0.0114139998332 -0.00612735198793 0.00518051000412
0.0161854646751 -0.0130336037886 0.0173593824568
0.0142140377708 -9.99999974738e-05 -0.00401137702792
0.0124719672159 -9.99999974738e-05 0.0156493512898
0.0145378378352 -9.99999974738e-05 -0.0161823668547
0.0140756062801 -9.99999974738e-05 -0.00715774925614
0.0148056352165 -9.99999974738e-05 0.00406823773998
0.0146371249578 -9.99999974738e-05 -0.00200888873079
0.0147091951768 -9.99999974738e-05 0.0142662693809
0.01615442859 -0.00311739503107 0.0120915680403
0.0160516108588 -0.00103801243511 0.00473548006406
0.0161672501228 -0.000747886252331 -0.0132847179123
0.0161991214887 -0.00136359702408 -0.0112930907569
0.0162006942449 -0.000665262549177 -0.0184835116312
0.0160792465722 -0.00182436617762 0.00898764985459
0.016188773571 -0.00152757981353 -0.00830006465177
0.0161741521367 -0.00254174201861 0.00375523821538
0.0160547679944 -0.000843839834753 0.0023805940449
0.0159994391626 -0.00146412231472 0.0158182398303
0.0161059765193 -0.00202335361503 0.0074833468665
0.0161992260829 -0.00182386534936 -0.00670312042689
0.016157668389 -0.00252362452885 0.00572906114807
0.0159934313012 -0.000468511994842 0.00664550673984
0.016141797991 -0.00185354471752 0.00110171154331
0.0159850317116 -0.00101104269821 0.0131700841382
0.0161617837317 -0.00339841513628 0.0139407669579
0.0161262330072 -0.00113432434017 -0.00405707530378
0.0160268979845 -0.00140899512363 0.0116769688483
0.016198407211 -0.0040800709101 0.0159707048416
0.0161308180124 -0.00149144809333 -0.00108452161716
0.0114139998332 -0.00999260721535 0.0202319391781
0.0114139998332 -0.00786210323013 0.0178892999429
0.0114139998332 -0.00401560825196 0.017912871933
0.0140040437638 -9.99999974738e-05 -0.0202085042791
0.0162027555068 -0.00578915892768 -0.00534626783314
0.0162024243728 -0.0101583468729 -0.0130068922075
0.0162029538184 -0.00123928377635 -0.0200947610683
0.0162027443237 -0.00641544472565 -0.000816690643535
0.0162025399661 -0.00805710453936 -0.0160942229891
0.0162026486843 -0.00742374082805 -0.00556609306152
0.0162027010003 -0.00575396284731 -0.0141527144282
0.0162027816462 -0.00386788522848 -0.0205085810121
0.0162025642882 -0.00906391574262 -0.00225145096201
0.0162029104698 -0.00292445107345 -0.00996328855751
0.0162028401959 -0.00602055468579 0.0101041572179
0.0162026308663 -0.0085087580905 0.00252262899626
0.0162027946502 -0.00462193617096 -0.0109494706993
0.0162028509416 -0.003291653061 -0.015523821485
0.0162025870224 -0.00716638143986 -0.0177045009857
0.0162025830773 -0.00808298964984 -0.00914842022395
0.0162024332577 -0.0106829789036 -0.00638135591655
0.0162021901293 -0.0134959770556 -0.0159567179103
0.0162029031105 -0.00473081756669 0.00696266305321
0.0162026937648 -0.00647371960451 -0.00807592709176
0.0162022920597 -0.0118450113577 -0.0166595732933
0.0162023434599 -0.0118066443619 -0.00907073747241
0.0162029501878 -0.00379721887668 0.00492680294819
0.0162029008072 -0.00287041784544 -0.012002487884
0.0162029607335 -0.00401673767708 0.00875817002001
0.0162025330268 -0.00853141472613 -0.0124264668543
0.0162024372347 -0.0107919373353 -0.00467467152032
0.016202796445 -0.00392161820179 -0.0176757168191
0.0162026755439 -0.00767970460492 0.0011602327928
0.0162029704999 -0.0027550483006 -0.00234650295775
0.0162026360541 -0.00812384824984 -0.000522597015726
0.0162028328714 -0.00371435027655 -0.0140988081277
0.0162025782025 -0.00835539816572 -0.007179878595
0.0162023403977 -0.0116861071357 -0.0107513248231
0.0162028412602 -0.00505554009969 0.000617073154787
0.016202292442 -0.0121802036871 -0.0132476600677
0.0162027729516 -0.00658927227945 0.00536236816309
0.0162026030296 -0.00727693207132 -0.0141159061924
0.0162024317764 -0.0103719353739 -0.00972220213487
0.0162028566101 -0.00428157100774 -0.00474333699676
0.0162028772986 -0.00475135974829 0.00316448308127
0.0162026213867 -0.00727277765695 -0.0113101149944
0.0162026196085 -0.0080534652883 -0.00377743258535
0.0162025337944 -0.00922824127473 -0.00533769689678
0.0162023956135 -0.010309046695 -0.0159603756344
0.0162028073333 -0.00460314646399 -0.00917015870844
0.0162025192702 -0.00893327599415 -0.0105407778089
0.0162025316046 -0.00788653475836 -0.0190972231095
0.016202905912 -0.0031656310705 -0.00825793694003
0.0162028251214 -0.00608410835763 0.00840163397506
0.0162023988089 -0.010093401889 -0.0176216472202
0.0162029600647 -0.0026125393016 -0.00539047841087
0.0162027467054 -0.00677320262685 0.00313104592909
0.0162029783981 -0.00124260518724 -0.0162490154513
0.0162022877146 -0.0117616791436 -0.018167042056
0.016202913094 -0.00210892219844 -0.0177132525177
0.016202727419 -0.00511241954902 -0.0164717263469
0.0162028117182 -0.00512840495795 -0.00323633342199
0.0162024666913 -0.0100016858902 -0.00800988180668
0.0162029587605 -0.00329842096414 0.00126748215919
0.0162021109744 -0.0143867606214 -0.0193246069709
0.0162029311024 -0.00479922904437 0.0119886979532
0.0162029411484 -0.00202311978062 -0.0142199861927
0.01620267604 -0.00566900032848 -0.0188740676667
0.0162028116468 -0.00475514372731 -0.00698080641181
0.0162024246604 -0.00953632880671 -0.0191837568504
0.0162027410191 -0.00530742803503 -0.012411754743
0.0162021179271 -0.0144601074431 -0.0175125705566
0.016202860327 -0.00456883093565 -0.00129361132773
0.0162024104376 -0.00910902639505 -0.0209590977339
0.0162025972562 -0.00659279405543 -0.0207440067201
0.0162022333317 -0.0123535464404 -0.0200884478899
0.015636321804 -0.0162119962116 -0.0129401312029
0.0158039452282 -0.0161009538671 -0.00331405617502
0.0158187542899 -0.0161616962976 -0.014708110268
0.0158419344224 -0.016180661776 -0.0193334245011
0.015867027738 -0.0160931063229 -0.00558201749907
0.0155812205217 -0.0162553231582 -0.0172889121461
0.0114139998332 -0.0124177706849 -0.0199833054633
0.0114139998332 -0.00960717061285 -0.0171955493433
0.0114139998332 -0.0115930415903 -0.0182914547667
0.014035800549 -0.00290239750382 -0.0218127658545
0.0121807777495 -0.00741925921262 -0.0193766050547
0.011723678339 -0.00739918732859 -0.0171877776688
0.0117167473398 -0.00932331096508 -0.0188167999735
0.011712659662 -0.00223755604209 -0.0126771088011
0.0120922117107 -0.00505814122773 -0.0169164649035
0.0126095581701 -0.00460392926019 -0.0189818416962
0.0119637919842 -0.000496566513199 -0.0123663669134
0.0123045399119 -0.00343619552568 -0.0165242039612
0.0135671932441 -0.00168037795146 -0.0210059728263
0.0132785546815 -0.00135361911856 -0.0193525345712
0.0119474611098 -0.0109955033822 -0.0213571705202
0.0128178032255 -0.00259269068476 -0.0182339343609
0.0126774785535 -0.00600277593556 -0.0205127476131
0.0114344373361 -0.00414589469787 -0.0130037039364
0.0130643938451 -0.00411155209854 -0.0207172906555
0.0126030774151 -0.000665632835155 -0.0155493777322
0.0119180601414 -0.00329425462531 -0.0145655977775
0.012289765617 -0.00826579446648 -0.0206255504114
0.0115966814726 -0.00496190682418 -0.0144792836801
0.0115037610737 -0.00643881656581 -0.015313527936
0.0153147235557 -0.00109669769323 0.0180867170409
0.0134394699684 -0.00463509247112 0.02045722392
0.0135410478468 -0.00315061250636 0.0198388922027
0.0127324000514 -0.00196470940837 0.0191269963967
0.0152323570756 -9.99999974738e-05 -0.0120497614452
0.0159714350641 -0.000188711210958 -0.00691685627531
0.0159187318612 -0.000135843096492 0.000306937147707
0.0150792813733 -0.0163074932943 -0.0112955727602
0.014934320221 -0.0162881630138 -0.00902707074775
0.0146500399436 -0.0162081679132 0.000360741617927
0.0150312019588 -0.016172932948 0.00449573537684
0.0149255491654 -0.016140786238 0.00826830744801
0.0130205919834 -0.01621085332 -9.98159337123e-05
0.0130491677934 -0.016183255444 0.00313655603747
0.014234296801 -0.0162733420695 -0.00731237713538
0.0146807989673 -0.0161263077827 0.00995673664988
0.0138316240908 -0.0162504774156 -0.00466955870926
0.0131454260257 -0.0161678945176 0.00494516953331
0.0123317313835 -0.0160954404274 0.0133615393864
0.0124231026379 -0.0161322855732 0.00905244468419
0.0140407266961 -0.016076592078 0.0157244032267
0.0134940594588 -0.0162304734005 -0.00235605831378
0.0146268680881 -0.016109870904 0.0118778650637
0.01393703576 -0.0163296917133 -0.013942007721
0.011579637458 -0.0160790984282 0.0152085147817
0.013706719358 -0.0163001557732 -0.0105019170819
0.0146535723779 -0.0161890419295 0.00260338019276
0.0122001420429 -0.0161152582871 0.0110274930296
0.0133583172051 -0.0161455896763 0.00757796948427
0.0126388218794 -0.0154943904641 0.0177231419593
0.0120680990889 -0.0142969012594 0.0187931751229
0.0149425440932 -0.0160645973613 0.0172015281173
0.0155366830164 -0.0160889313133 0.0140631103009
0.0136640068785 -0.0138055650631 0.0192769673371
0.0130273459335 -0.0125608101922 0.0202945186275
0.0128525763968 -0.00605681557134 0.0212647372283
0.0138365511919 -0.00648325592364 0.0201384193488
0.0154710238428 -0.0114530621352 0.0182177820635
0.0147251571947 -0.00410467247185 0.0189585445551
0.0150666761418 -0.00876447076721 0.0186539526091
0.0158538656138 -0.00977608994736 0.0176920327272
0.0150510227393 -0.00594414843055 0.018598292005
0.013696189783 -0.00886069024901 0.0203782510805
0.015755509881 -0.00393931380248 0.017659706107
0.01460703899 -0.0104734217113 0.0192770333278
0.0125855695875 -0.008222171327 0.0215915559127
0.0152533421143 -0.0140404708971 0.0184239074016
0.012502568936 -0.0110551077936 0.0213893776756
0.0148339284654 -0.000236115502252 -0.0218705993737
0.0139080853755 -0.00509258619684 -0.0217718413984
0.0136537686407 -0.00707776326412 -0.021732264691
0.0130758702522 -0.00939161974666 -0.0216840408315
0.0126509105438 -0.0124709949502 -0.0216198625393
0.0129968643161 -0.0142415568304 -0.0215829616649
0.0131807305081 -0.0160099593925 -0.0215461057936
0.0145910228457 -0.00858268877257 -0.0217009000334
0.0148252356643 -0.0149834543574 -0.0214791870672
0.0151685467964 -0.0104889302088 -0.0215601312726
0.0152559204148 -0.0127683938414 -0.021470166292
0.0155672804131 -0.00523647447634 -0.0216546959425
0.0162020171917 -0.0149708503886 0.0172626897662
0.0162026236108 -0.00845176256844 0.0168486417249
0.0162022191001 -0.0131457618083 0.00734005286818
0.0162021512133 -0.0140625328677 -0.00156806523051
0.016202413353 -0.0108694499868 0.0132450714604
0.0162022726888 -0.0125822275422 0.00533193770127
0.0162021265351 -0.0143094323567 6.87445493256e-05
0.0162021190728 -0.0141331916646 0.0147263106854
0.01620266644 -0.00811184741311 0.00918934344492
0.0162023522162 -0.011843866958 -0.00317678464019
0.016202483429 -0.0102050564559 0.00652561300283
0.016202626204 -0.00862585320234 0.00556671319394
0.016202209965 -0.0132070304658 0.00964650732015
0.016202019102 -0.0153557168024 0.00880637674031
0.0162020860456 -0.0148369951276 -0.00415920340733
0.016202355766 -0.0117079873405 0.00225313722066
0.0162026543335 -0.00827860379391 0.00741639151373
0.016202436334 -0.010688868503 0.00893584428083
0.0162024140288 -0.0111060614192 -0.000537532979058
0.0162026149986 -0.00861332769662 0.0133451441152
0.0162025499434 -0.00951096038392 0.00373031514303
0.01620211715 -0.0145335722932 -0.00666080592477
0.0162028609363 -0.00579943139553 0.0169787117067
0.016202068126 -0.0149296718512 0.00191794368434
0.016202630224 -0.00847994036096 0.0112662349185
0.0162020403633 -0.0150466089297 0.0128373608137
0.0162028591472 -0.00584749715998 0.0153945699221
0.0162021872469 -0.013853480437 -0.0125073367905
0.0162022173469 -0.0132319348891 0.00358217278816
0.0162022933653 -0.0125674287709 -0.00688101736535
0.0162024964872 -0.0101554792381 0.00108343047147
0.0162023015252 -0.012443656787 -0.00504386412092
0.0162022295453 -0.0129289638023 0.0129861351418
0.0162023923572 -0.0110655579227 0.0154251264191
0.0162021427778 -0.0139199157612 0.0118056824666
0.0162020034194 -0.0158233280544 -0.00769235057225
0.0162026013882 -0.00873768403533 0.0149146135641
0.016202059401 -0.0153488890566 -0.016239762232
0.0162020244715 -0.0156266992306 -0.00987851129829
0.0162021298622 -0.0144192831714 -0.00823172336383
0.016202279436 -0.0125930299506 0.000464222094773
0.0162023602475 -0.0114887285692 0.0118016211551
0.0162027961184 -0.00659067649705 0.0132195524049
0.0162025044836 -0.00989999821311 0.0104584635056
0.0162020012022 -0.0156552032886 0.00319711965613
0.0162020626701 -0.0152293176934 -0.0115532675155
0.0162022217558 -0.0134260593388 -0.0101580101661
0.0162021540562 -0.0142506446412 -0.0139806422389
-0.000889506175772 -0.0155724378001 -0.0215694891014
-0.00178125788707 -0.0115949995816 0.0175751046963
-0.00442232302157 -0.0115949995816 0.0200263400921
-0.00522403522929 -0.0115949995816 0.0142609181436
-0.00638930745525 -0.0115949995816 0.0153517267609
-0.00765160001956 -0.0115949995816 0.0080554463361
-0.00446979193764 -0.0115949995816 0.0119865343958
-0.010652280451 -0.0115949995816 -0.00350819155734
-0.00256976777335 -0.0115949995816 0.0131145075352
-0.00689674536929 -0.0115949995816 0.0110020887119
-0.0109346868283 -0.0160639993846 0.0165229333375
-0.00336924455434 -0.0160639993846 -0.00852781706351
-0.00469275410177 -0.0160639993846 0.00157914372949
-0.0059629199571 -0.0160639993846 -6.96344393865e-05
-0.00288703798 -0.0160639993846 -0.00473456428519
-0.00318971038795 -0.0160639993846 -0.00661465659821
-0.00843528823588 -0.0160639993846 0.0160296654005
-0.00657645003548 -0.0160639993846 0.00275725245826
-0.0109409575636 -0.0160639993846 0.0143984916991
-0.00347688336697 -0.0160639993846 0.0041080618007
-0.00330558085058 -0.0160639993846 0.0022694306398
-0.00508845429333 -0.0160639993846 0.0170005185452
-0.00409659433161 -0.0160639993846 0.0117589506129
-0.00371419626099 -0.0160639993846 -0.000427278963128
-0.00672317403672 -0.0160639993846 0.00471178667057
-0.00529223905531 -0.0160639993846 0.00696086877068
-0.00480481269591 -0.0160639993846 -0.00684487523747
-0.00505808084747 -0.0160639993846 0.00509062379834
-0.00701342736835 -0.0160639993846 0.0168359660474
-0.0085191431019 -0.0160639993846 0.0124368248833
-0.00494967129493 -0.0160639993846 0.0133588164819
-0.00574099555083 -0.0160639993846 -0.0041691958434
-0.00713739973903 -0.0160639993846 0.006393360401
-0.00710889900805 -0.0160639993846 0.0145833954124
-0.0049277971267 -0.0160639993846 0.00352564172413
-0.00545339561443 -0.0160639993846 -0.0021994195475
-0.00787137731935 -0.0160639993846 0.00836511239293
-0.00870841517427 -0.0160639993846 0.0102474666594
-0.00186080178303 -0.0160639993846 -0.0105138119854
-0.0103631393699 -0.0160639993846 0.0120793342266
-0.00353874402742 -0.0160639993846 -0.0108230115889
-0.00907996692339 -0.0160639993846 0.0142342451302
-0.00295073035062 -0.0160639993846 -0.0031406251029
-0.00667988213725 -0.0160639993846 0.0124329666572
-0.00542688635617 -0.0160639993846 0.0102579499935
-0.0118939997628 -0.0138045859442 -0.00904460112477
-0.0118939997628 -0.014748046658 -0.0106204645992
-0.0118939997628 -0.0145377833741 -0.0137105660885
-0.0118939997628 -0.0157483765791 -0.0119796046057
-0.00735866173693 -0.0160639993846 -0.00154542110202
-0.00483248293866 -0.0160639993846 -0.0167809788285
-0.0105445658414 -0.0160639993846 -0.00413429541126
-0.00289470057846 -0.0160639993846 -0.0195445804856
-0.00501029199246 -0.0160639993846 -0.0190457685475
-0.00759282841587 -0.0160639993846 -0.00579012119767
-0.010378010212 -0.0160639993846 0.00169742864984
-0.00695863565694 -0.0160639993846 -0.00315945814128
-0.00618683965841 -0.0160639993846 -0.00952163776677
-0.0112941229275 -0.0160639993846 1.12444467054e-05
-0.00764170824732 -0.0160639993846 -0.021524881218
-0.010561927709 -0.0160639993846 -0.0189930969008
-0.00608569234782 -0.0160639993846 -0.0125683738067
-0.00601526062104 -0.0160639993846 -0.0207492779209
-0.00880345533236 -0.0160639993846 -0.0070330147958
-0.00951837568813 -0.0160639993846 0.00866155509231
-0.00674807329066 -0.0160639993846 -0.0177639758186
-0.00897428252737 -0.0160639993846 -0.00470448840842
-0.00612346467698 -0.0160639993846 -0.0145395612612
-0.0104419646325 -0.0160639993846 -0.00217841596423
-0.010198067612 -0.0160639993846 -0.0143525186032
-0.0033819326634 -0.0160639993846 -0.0212582671949
-0.0103844349812 -0.0160639993846 -0.00892369134033
-0.00969065362233 -0.0160639993846 -0.000749088307571
-0.010867206298 -0.0160639993846 0.00989823795406
-0.00758500992572 -0.0160639993846 -0.0108503021341
-0.00297783249324 -0.0160639993846 -0.0142447112514
-0.00736326381541 -0.0160639993846 0.000558016331347
-0.00304400839208 -0.0160639993846 -0.0179893342017
-0.00823522599081 -0.0160639993846 -0.0180943794751
-0.00830342752458 -0.0160639993846 -0.0130874198369
-0.00860050569565 -0.0160639993846 -0.0151003860949
-0.00859468437854 -0.0160639993846 0.00351142954572
-0.00420754970377 -0.0160639993846 -0.0124352987439
-0.00889961673841 -0.0160639993846 0.000973153940156
-0.00655677796068 -0.0160639993846 -0.00766493341686
-0.00885593281895 -0.0160639993846 -0.00268222369111
-0.0095210468512 -0.0160639993846 -0.0112804043892
-0.0106334203611 -0.0160639993846 0.00663900112101
-0.0091569676954 -0.0160639993846 -0.0165625147253
-0.00731608458125 -0.0160639993846 -0.0160548693713
-0.00304558856555 -0.0160639993846 -0.015841533204
-0.00899861252916 -0.0160639993846 -0.00943014617603
-0.0104555908689 -0.0160639993846 -0.00701983545562
-0.0112155042521 -0.0160639993846 0.0047084911231
-0.00905706021895 -0.0160639993846 0.00498688703722
-0.00171608718631 -0.0115949995816 0.0146684788341
-0.00590796799401 -0.0115949995816 0.00122099181208
-0.0041497568031 -0.0115949995816 -0.00762577960439
-0.00199462241704 -0.0115949995816 0.00709751426276
-0.00265483987759 -0.0115949995816 0.00870619061026
-0.0016839907862 -0.0115949995816 -0.00668538700444
-0.00215445019688 -0.0115949995816 -0.00484638066582
-0.0037240711397 -0.0115949995816 -0.00388760493974
-0.00856443323672 -0.0115949995816 -0.00132272820009
-0.00736572934286 -0.0115949995816 -0.00272344892318
-0.00502779300727 -0.0115949995816 -0.00174498034791
-0.00507497975376 -0.0115949995816 0.00393362737239
-0.00966071431131 -0.0115949995816 -0.00609554642644
-0.00142560759523 -0.0115949995816 0.00483277457122
-0.0027907568586 -0.0115949995816 -0.00277250806253
-0.00236932144923 -0.0115949995816 0.00122633451624
-0.00628702915727 -0.0115949995816 0.00285699728141
-0.00868500337463 -0.0115949995816 -0.00420596859501
-0.00188451827054 -0.0115949995816 0.01001398085
-0.00548851978557 -0.0115949995816 -0.00363804835607
-0.000870329622591 -0.0115949995816 -0.00292287560021
-0.000719000003301 -0.0146894078105 -0.0168408853122
-0.000719000003301 -0.0123584074253 -0.00560297285452
-0.000719000003301 -0.0125808446282 -0.00410780278807
-0.000719000003301 -0.0133140851876 -0.0122110473826
-0.000719000003301 -0.0122510708327 -0.00998547272424
-0.0108616116451 -0.0115949995816 0.00981432350067
-0.00744253375756 -0.0115949995816 0.0183775221845
-0.00838310887681 -0.0115949995816 0.0118170576771
-0.0104054535297 -0.0115949995816 0.00334542649542
-0.00945988924852 -0.0115949995816 0.02103412667
-0.0113469137786 -0.0115949995816 -0.00575813473549
-0.0111233911454 -0.0115949995816 0.0113365192089
-0.0108104781139 -0.0115949995816 0.0161345690959
-0.00202255117418 -0.0132907725521 0.0186071270404
-0.00297169464645 -0.0116434757702 0.01948897505
-0.000719000003301 -0.0138604642296 -0.000803462592217
-0.000719000003301 -0.0146366338721 0.016243547833
-0.000719000003301 -0.0129965571109 0.00612911901246
-0.000719000003301 -0.0143786660785 0.0134876630245
-0.000719000003301 -0.0128069207829 0.015995749755
-0.000719000003301 -0.0127741259717 0.0139061552482
-0.000719000003301 -0.014602487679 -0.00398645474197
-0.000719000003301 -0.0135122387217 0.000849084366526
-0.00121113059817 -0.0160263934379 -0.0119939938511
-0.002172749018 -0.0159810329505 0.0032357539225
-0.00186989722618 -0.0158511316863 0.0160406061897
-0.00288381288994 -0.0159908351151 0.0092062262166
-0.00176332527329 -0.0159132960748 0.00737785831679
-0.0038529740189 -0.0160221586361 0.0151509766931
-0.00229836376424 -0.0159198220498 0.0119740456129
-0.0014177244703 -0.015986875552 -0.00508761121275
-0.00162625905591 -0.0158500383196 0.0137183663901
-0.00189673951599 -0.0159762463375 0.00103807720583
-0.00152549325243 -0.0160214157261 -0.0082177856465
-0.00215348223854 -0.0159635055055 0.00518117991697
-0.00362408972981 -0.0160625903832 0.00790836406017
-0.00232630478176 -0.0160306876055 -0.00127798358571
-0.00120357478116 -0.0159526462497 -0.00306763421629
-0.00103602554421 -0.0159678919896 -0.00661750699652
-0.000719000003301 -0.0135850521562 -0.0199889152533
-0.000719000003301 -0.0129681309871 -0.0152629414375
-0.000719000003301 -0.0137043020605 -0.0181773530199
-0.0118939997628 -0.0129435870591 -0.0138548858587
-0.0118939997628 -0.015922249953 -0.0212221173912
-0.0118939997628 -0.0146526422757 -0.0183663738232
-0.00386181866661 -0.0131371766723 0.020136983452
-0.00557771400595 -0.0130940534739 0.0208345698126
-0.0118939997628 -0.0145063117749 0.0089556537782
-0.0118939997628 -0.0124362330908 0.00190103075255
-0.0118939997628 -0.0126531075016 0.0102926985885
-0.0118939997628 -0.0143641358763 0.015983776472
-0.0118939997628 -0.0129656772055 0.000286954491807
-0.0118939997628 -0.0117490935734 0.00504278241077
-0.0118939997628 -0.0125707013585 0.00826770820018
-0.00427735139831 -0.0124650974964 -0.0170965232958
-0.00175722698413 -0.0123545646929 -0.0140370010812
-0.00194015164181 -0.012755912752 -0.0168158949359
-0.00155182593957 -0.0119895819175 -0.0114736216344
-0.00645140473771 -0.0125794643178 -0.0198594952335
-0.00216327462981 -0.0130197636422 -0.0187383269012
-0.00342317439441 -0.0122742963932 -0.0150627523079
-0.00422464829744 -0.0128084245744 -0.0192793705773
-0.00354687128467 -0.013182872261 -0.0208174470525
-0.00532207256754 -0.0115949995816 -0.00918377291605
-0.00552812761354 -0.0121406213874 -0.0155121495193
-0.00737111843617 -0.0118276762147 -0.0125973563469
-0.00560452145553 -0.0119979418337 -0.0139646800701
-0.00536274480586 -0.0117587262013 -0.011264387021
-0.00653402565689 -0.0123561701782 -0.0181707456254
-0.00258876475437 -0.0117390765522 -0.0102546316616
-0.00690415162636 -0.012201226767 -0.016572422735
-0.00370847192372 -0.0119133986733 -0.0124923381543
-0.00783180280201 -0.0124305353797 -0.0192430185674
-0.00752532578673 -0.0119748187834 -0.0142306135903
-0.00802154716964 -0.0122782766071 -0.0175683316323
-0.0108968210998 -0.0118739939024 -0.0123988860895
-0.00992122228597 -0.0125143003451 -0.0176220532882
-0.00954562772669 -0.0129714510366 -0.020776118479
-0.011370523971 -0.012587227206 -0.0154210518174
-0.0105330162449 -0.011651224869 -0.0100191458679
-0.00909158283839 -0.0116996804767 -0.0108703561875
-0.00925133092111 -0.0120635858914 -0.0149166232778
-0.00757635194572 -0.0116755974378 -0.0109239701296
-0.00932251411261 -0.0118835577098 -0.0128828033497
-0.00955736574557 -0.0160378831598 0.0171155801566
-0.00676567428959 -0.0151023853668 0.0184259222616
-0.00855113530928 -0.0151448811817 0.0183663988122
-0.0105443108581 -0.0149483459693 0.018641683656
-0.00909856898062 -0.0142114579957 0.0196738350366
-0.0110954068131 -0.0138459702936 0.019590912905
-0.00968249187608 -0.0131647452259 0.021073473715
-0.00735622562592 -0.0140386747571 0.0199088407052
-0.00143889405056 -0.0155154775373 0.0177288024114
-0.00507963753091 -0.0152243101795 0.0182331312332
-0.00338736780904 -0.0158500346513 0.0173339869779
-0.00746146305976 -0.0127698375359 0.0215911122971
-0.0046100786201 -0.014232737281 0.0195510015159
-0.00815999817533 -0.0143883580147 -0.0216872409249
-0.00525860239085 -0.0133237133033 -0.0212390504538
-0.00767758059924 -0.0131520009364 -0.0211692454874
-0.0100819480046 -0.014382195663 -0.021516356886
-0.00967237437833 -0.0160579578264 -0.0215520313317
-0.00234091134672 -0.0147389336703 -0.0217384706715
-0.00434547473494 -0.0145968667244 -0.0217765989012
-0.00453600687264 0.0161819998175 0.017316575856
-0.00447314545578 0.0161819998175 0.00519702355503
-0.00209462425497 0.0161819998175 -0.000407172956566
-0.00236811953378 0.0161819998175 0.00135334902605
-0.00112664849638 0.0161819998175 0.0147541601969
-0.00104170604771 0.0161819998175 0.00580181941299
-0.00195566440426 0.0161819998175 -0.00850004942752
-0.00475097760234 0.0161819998175 0.00321035075594
-0.00382203770173 0.0161819998175 -0.000337807172449
-0.000857020563527 0.0161819998175 -0.00663467798964
-0.00447324663921 0.0161819998175 -0.00370469817659
-0.00461178670232 0.0161819998175 0.0117788362697
-0.00186663756862 0.0161819998175 0.0089124285758
-0.00163323123959 0.0161819998175 0.0108320862514
-0.00415423209702 0.0161819998175 0.0135864466586
-0.00107896465097 0.0161819998175 0.012759397459
-0.00726604502715 0.0161819998175 0.0120176416603
-0.00790533342484 0.0161819998175 0.0103679585813
-0.00363224068922 0.0161819998175 0.00673370090355
-0.00459780575138 0.0161819998175 0.00889185428884
-0.00296193220923 0.0161819998175 -0.00982974255971
-0.00925077259227 0.0161819998175 0.0119997923781
-0.00356178418491 0.0161819998175 -0.00196243443386
-0.00653491203716 0.0161819998175 0.00943738520477
-0.00982822477576 0.0161819998175 0.0140652992998
-0.00349954798288 0.0161819998175 -0.00524476872734
-0.00800789456161 0.0161819998175 0.0145143108111
-0.00657293832367 0.0161819998175 0.0136732940601
-0.00568168860501 0.0161819998175 0.00152292537136
-0.0023579825388 0.0161819998175 0.00305499879534
-0.0028077629116 0.0161819998175 0.0122256812565
-0.00774919138368 0.0161819998175 0.00719425615445
-0.00562634502923 0.0161819998175 -0.00168296520334
-0.00735759424414 0.0161819998175 0.00431852970661
-0.00245645006429 0.0161819998175 0.014093171462
-0.0113118859414 0.0161819998175 0.0155751859099
-0.00691958661812 0.0161819998175 0.0024749261802
-0.00579351773619 0.0161819998175 0.00446007843754
-0.00272673446519 0.0161819998175 0.00531072489146
-0.00258511892582 0.0161819998175 -0.0114996237938
-0.00384256570833 0.0161819998175 -0.00746874316821
-0.00578142345318 0.0161819998175 0.00783933217801
-0.0010754943319 0.0161819998175 -0.0119160282706
-0.0094725962331 0.0161819998175 0.0156872882141
-0.00206695355541 0.0161819998175 -0.00285679832929
-0.00330450203626 0.0161819998175 0.0101637980572
-0.00599986620291 0.0161819998175 0.015410233442
-0.00627500441875 0.0161819998175 0.00633089965865
-0.00373363362222 0.0161819998175 0.0160555713487
-0.00116350740273 0.0161819998175 -0.0102789191934
-0.000719000003301 0.0150704159282 -0.018183502006
-0.000719000003301 0.0147773474791 0.00755289872929
-0.000719000003301 0.0121331587792 -0.00314338929059
-0.000719000003301 0.0154131645711 -0.00181676532004
-0.000719000003301 0.0126570642622 -0.00138912222408
-0.000719000003301 0.0122332917304 -0.00732526907125
-0.000719000003301 0.0149198714215 -0.0034948537918
-0.000719000003301 0.0160816234587 -0.0144873058437
-0.000719000003301 0.0143563285331 0.0046150605016
-0.000719000003301 0.0144666073058 -0.00762954906561
-0.000719000003301 0.0146361956904 -0.0119551128564
-0.000719000003301 0.0135362562446 -0.00432888061299
-0.00327520453406 0.0107559999451 0.000605160389746
-0.00969969035908 0.0107559999451 0.0183392408075
-0.00520540623664 0.0107559999451 0.00831176017419
-0.00227730994661 0.0107559999451 0.00213624353946
-0.00843659169548 0.0107559999451 0.014478505234
-0.00358038177582 0.0107559999451 0.00854092440952
-0.00417066404148 0.0107559999451 0.00680893267172
-0.00471935600759 0.0107559999451 0.0156730197639
-0.00500271247373 0.0107559999451 0.0140345861753
-0.00491389990288 0.0107559999451 0.0117349259789
-0.00669147061378 0.0107559999451 0.0101537425738
-0.0100617481152 0.0107559999451 0.0203011693785
-0.00507386509212 0.0107559999451 0.0171526104491
-0.0077177462815 0.0161819998175 -0.017153966531
-0.0070690886666 0.0161819998175 -0.000113248937286
-0.0107272875392 0.0161819998175 -0.0169487797676
-0.00935271938111 0.0161819998175 0.00203610207152
-0.00993662977598 0.0161819998175 0.00588236523382
-0.0106020155945 0.0161819998175 0.000712101898689
-0.00658032787232 0.0161819998175 -0.00421998898678
-0.00551235285755 0.0161819998175 -0.0059441978354
-0.00733510684547 0.0161819998175 -0.0135702594804
-0.005271287689 0.0161819998175 -0.00943174273068
-0.00467211920535 0.0161819998175 -0.0108957154743
-0.0117471536198 0.0161819998175 0.00610639751077
-0.00852795261916 0.0161819998175 -0.00856556250429
-0.00181710371716 0.0161819998175 -0.0208518289856
-0.00813662429007 0.0161819998175 -0.00613332363947
-0.0108427532545 0.0161819998175 -0.00830116835729
-0.0115005373634 0.0161819998175 -0.00965808269299
-0.00704396811367 0.0161819998175 -0.00715203226477
-0.00992003626418 0.0161819998175 -0.02078771495
-0.00986118462777 0.0161819998175 -0.00679689294872
-0.00980423363662 0.0161819998175 -0.0134207703498
-0.00248013934807 0.0161819998175 -0.0181471162197
-0.00669469997047 0.0161819998175 -0.018998369494
-0.0103190194659 0.0161819998175 -0.0190187547019
-0.00236477707743 0.0161819998175 -0.015830442399
-0.0116570074712 0.0161819998175 0.0139369134985
-0.0107711626906 0.0161819998175 -0.00492977426947
-0.00781226035614 0.0161819998175 -0.00212871621737
-0.00846224241612 0.0161819998175 -0.0150682862148
-0.0116713896324 0.0161819998175 0.00245644219897
-0.00869394857808 0.0161819998175 -0.0191232723926
-0.0097908649537 0.0161819998175 -0.00949473429924
-0.00966888493365 0.0161819998175 -0.0113892231839
-0.00931897899979 0.0161819998175 0.00364318706125
-0.00529982519681 0.0161819998175 -0.0176353356654
-0.00498326922375 0.0161819998175 -0.0204864608394
-0.00416733934572 0.0161819998175 -0.0154792701708
-0.00568626091573 0.0161819998175 -0.0126733901612
-0.0107859379593 0.0161819998175 0.0108094388959
-0.00591561156222 0.0161819998175 -0.0162013668398
-0.00892020124788 0.0161819998175 -0.00417417995208
-0.0107052675088 0.0161819998175 -0.00112454796471
-0.0100354489365 0.0161819998175 0.00897286973537
-0.00900531429039 0.0161819998175 -0.000809062211271
-0.00438737502728 0.0161819998175 -0.018786246615
-0.0108581203857 0.0161819998175 0.00737275240689
-0.00395900833522 0.0161819998175 -0.0133189798018
-0.0111449545783 0.0161819998175 -0.011417196885
-0.0118353500089 0.0161819998175 0.0120054064964
-0.0100975291992 0.0161819998175 -0.0153531966153
-0.00738632735832 0.0161819998175 -0.0120443577366
-0.00968024399854 0.0161819998175 -0.00299032582674
-0.00660697722581 0.0161819998175 -0.00870317449639
-0.0118939997628 0.0133318860366 0.0177953955997
-0.0118939997628 0.0143601008761 0.00755827365876
-0.0118939997628 0.0151086857404 -0.00615101012736
-0.0118939997628 0.0161610595625 0.00428251385408
-0.0118939997628 0.0149767348217 -0.00382074489772
-0.0118939997628 0.0152122426879 0.010035101888
-0.0118939997628 0.0148327670769 0.0030998902271
-0.0118939997628 0.0127834734905 0.00679071216081
-0.0118939997628 0.0140064586685 0.0015802109696
-0.0118939997628 0.0157297395229 -0.0142466404395
-0.0118939997628 0.0117970259349 -0.00178762336255
-0.0118939997628 0.013034107358 -0.0101146677965
-0.0118939997628 0.0117133092083 0.0113282488515
-0.0118939997628 0.0140103152437 -0.00517709102897
-0.0118939997628 0.0108715010601 -0.00488286717271
-0.0118939997628 0.0128289474265 0.00299637400585
-0.0118939997628 0.0120438066762 0.00547725825929
-0.0118939997628 0.0111315100535 0.000366543006196
-0.0118939997628 0.0142163393825 -0.0156205526876
-0.0118939997628 0.0129827020271 -0.000396229641777
-0.0118939997628 0.0125923469731 -0.00600599977483
-0.0118939997628 0.0146284397126 -0.00926921393213
-0.0118939997628 0.0134625313022 -0.0133370704523
-0.0118939997628 0.0123714475002 0.00125630828817
-0.00224245703031 0.0107559999451 -0.0063677636434
-0.00902148472366 0.0107559999451 0.00280958709829
-0.00483565331044 0.0107559999451 -0.00243126508188
-0.00388107654435 0.0107559999451 -0.00627618924929
-0.00490136667804 0.0107559999451 0.00248497545968
-0.00868140278872 0.0107559999451 0.00452226283991
-0.011330433509 0.0107559999451 0.0151151454795
-0.00230397355179 0.0107559999451 -0.0042340341448
-0.00972771436297 0.0107559999451 0.00957422304577
-0.0102703911579 0.0107559999451 0.00196377624384
-0.00674423270434 0.0107559999451 -0.00173798874158
-0.0104078911994 0.0107559999451 0.00380508896773
-0.00669125001033 0.0107559999451 0.000566763320688
-0.00599336383824 0.0107559999451 0.00396418713427
-0.00689978399893 0.0107559999451 -0.00626923853342
-0.00610865778014 0.0107559999451 -0.00385462200959
-0.0103801205441 0.0107559999451 -0.00595105413126
-0.00445552081987 0.0107559999451 -0.00441625463736
-0.00657661303292 0.0107559999451 0.00215012081669
-0.01012844182 0.0107559999451 0.00760206086243
-0.00958865013775 0.0107559999451 -0.00229908758112
-0.0083721632017 0.0107559999451 0.0108299034401
-0.000719000003301 0.012546417521 0.0108606732348
-0.000719000003301 0.0132564961235 0.00881198696999
-0.000719000003301 0.0124710297476 0.0126773302133
-0.000719000003301 0.0127299009978 0.00311492480957
-0.000719000003301 0.0148018583241 0.0138104945051
-0.000719000003301 0.011980050157 0.00163578524401
-0.000719000003301 0.0129762301927 0.00548584296538
-0.00204541419198 0.0107559999451 0.0114190026829
-0.00141031503635 0.0107559999451 0.00602900547698
-0.00184542670373 0.0107559999451 0.00853038395381
-0.00166916126006 0.0107559999451 0.0179167811212
-0.00347004809316 0.0107559999451 0.014368850939
-0.00367298276649 0.0107559999451 0.0184259238524
-0.000719000003301 0.0119313493549 -0.0131505333457
-0.0118939997628 0.0126523620811 -0.0151753666835
-0.0118939997628 0.011435892946 -0.0102666067499
-0.0118939997628 0.0120981638032 -0.0120932666899
-0.0101906934908 0.013038418696 -0.020359022727
-0.00949649497287 0.0121787451302 -0.018306067837
-0.00253016475591 0.0114465545502 0.0197494363567
-0.00360878116539 0.0112183159129 0.0211509962331
-0.000965307336032 0.014301899381 0.0177160523356
-0.00162697514149 0.0126317017623 0.0185758269871
-0.00797910632986 0.0121966246287 0.0217749420403
-0.00965496636041 0.011845051123 -0.0165634990462
-0.0100332993209 0.0115733350467 -0.014472371127
-0.000882266518704 0.0129332981514 -0.0181097276665
-0.00525248690727 0.0127604378959 -0.020660423485
-0.00651101970356 0.0122717340999 -0.0193455402458
-0.00400265842387 0.012552678162 -0.0187300535961
-0.00306107590685 0.0124064115538 -0.0173236465283
-0.00313100831652 0.0116213186108 -0.0137116072675
-0.00247418911914 0.0130209406063 -0.0197420884687
-0.00159972713292 0.0125404813791 -0.0168268341872
-0.0022660278544 0.011482421138 -0.0123984647875
-0.00610228184129 0.0119578567773 -0.0175659282278
-0.00123455428861 0.0114156744344 -0.0112942866459
-0.00430617017754 0.012022115455 -0.0164859403652
-0.00293124058808 0.0120403586943 -0.0155147076632
-0.00826615359876 0.0123644011842 -0.0208278403406
-0.00976821075276 0.0141322570368 -0.0218026681733
-0.00665453081247 0.0129296135365 -0.0212000789651
-0.0117730468141 0.0142124316042 -0.0218436680012
-0.00378450894322 0.0135296215723 -0.0214986773154
-0.00223494704722 0.0160425901684 0.0175774240088
-0.00897223845988 0.0155639684683 0.0180065800877
-0.00712497242985 0.0146958752001 0.0192347812762
-0.00484808599186 0.0151024632106 0.0187635225208
-0.00667118795924 0.0156382614577 0.0179828578401
-0.0105321365594 0.0160505706522 0.0173007656657
-0.00952593149273 0.0129976944643 0.0214365666393
-0.00748812421572 0.0134023850261 0.0209615396764
-0.00898781014512 0.0141948430175 0.019846437371
-0.0104341546468 0.0147521699739 0.019049007585
-0.00429222117886 0.013932705891 0.0201251712235
-0.00472736564502 0.0126433487405 0.0210182686331
-0.00227245965191 0.0141028315832 0.0191906547521
-0.00614028430965 0.0121616617548 0.0216171792335
-0.00828848978746 0.0107559999451 -0.00811277055848
-0.00602080519981 0.0107559999451 -0.00793464808623
-0.00884847740345 0.011325050839 -0.0128072588904
-0.00716775704985 0.0109142046719 -0.00994581312758
-0.00841080171068 0.0111004750693 -0.0111512976112
-0.00710597774464 0.0112445348371 -0.0125162918799
-0.00787105715527 0.0117404588842 -0.0162115609055
-0.0105692599983 0.0112156776412 -0.0116315218132
-0.00959859753587 0.0110074088566 -0.0102036353081
-0.00487610230697 0.0113470378659 -0.0130786590536
-0.00502549281807 0.0115573664717 -0.0145699776294
-0.00497723335699 0.0108001965057 -0.00934147228768
-0.00333087567349 0.0109883729128 -0.0101661234091
-0.0039463150244 0.0111894740058 -0.0117273161796
-0.00519769982799 0.0110221227193 -0.0109330127889
-0.00688931204236 0.016155199341 -0.0212550110447
-0.00697062783226 0.0144844977085 -0.0218692332287
-0.00515082375671 0.0152301590488 -0.0218701125297
-0.00362960860918 0.0153660058082 -0.0217548345583
-0.00118604032988 0.0145884909257 -0.0217773437399
-0.010945651509 0.0123869128177 0.0218257500525
-0.0112781600459 0.0132404781559 0.0205545486272
0.00528723418608 -0.0115474445996 -0.0134484192272
0.00649859331758 -0.0111609152413 -0.0109242248451
0.00629442622166 -0.0117231048642 -0.0147591557788
0.00781679643386 -0.011285767599 -0.0119191065414
0.0049477295212 -0.0113371706476 -0.0119703743411
0.00607645667885 -0.0120552837307 -0.0170148641043
0.00182018937298 -0.0160639993846 0.0119940763681
0.0042696265362 -0.0160639993846 -0.00600773660627
0.00735644767619 -0.0160639993846 -0.0145052793714
0.00186812115985 -0.0160639993846 -0.0108421995487
0.00626103344655 -0.0160639993846 -0.0156591039416
0.00369040967969 -0.0160639993846 -0.0106310070355
0.00685369178983 -0.0160639993846 -0.0124114220087
0.00156026526606 -0.0160639993846 -0.0162582356649
0.000448170980505 -0.0160639993846 -0.00515096261826
0.00373589916629 -0.0160639993846 -0.00215861688247
-4.6137819264e-06 -0.0160639993846 -0.0109026718317
0.00947083184462 -0.0160639993846 -0.0164761866461
0.000649866938971 -0.0160639993846 -0.0190440935854
-0.00054881458438 -0.0160639993846 -0.0161665034248
0.0100073020091 -0.0160639993846 -0.0183333834023
0.00264263725328 -0.0160639993846 0.00342943394208
0.00654823547724 -0.0160639993846 -0.0210626231078
0.0027824636076 -0.0160639993846 -0.0126264191279
0.00236888178825 -0.0160639993846 -0.0188932405566
0.00150330439804 -0.0160639993846 -0.00130762584922
0.0085122307427 -0.0160639993846 -0.0111793085803
0.00548702656427 -0.0160639993846 -0.0014873304025
0.00684960712822 -0.0160639993846 -0.0178173985444
0.00452100011607 -0.0160639993846 2.91314501906e-05
0.00325991414103 -0.0160639993846 -0.0171923145964
0.00536884637763 -0.0160639993846 -0.0171868736587
0.000873943982473 -0.0160639993846 0.00430511923324
0.00283986020215 -0.0160639993846 -0.0204777572039
0.000966812522752 -0.0160639993846 0.0133010980027
0.00034275041608 -0.0160639993846 0.00228275252476
0.007569926573 -0.0160639993846 -0.019665968527
0.00450977276574 -0.0160639993846 -0.00380700309156
0.00038609800247 -0.0160639993846 -0.00340559024224
0.000606722245764 -0.0160639993846 -0.00727938850167
0.000501297213496 -0.0160639993846 -0.0090470979336
0.00460810258742 -0.0160639993846 -0.00780845816022
0.00749467046164 -0.0160639993846 -0.00857306301522
0.00923405534994 -0.0160639993846 -0.0207767978686
0.00218428035854 -0.0160639993846 0.00979109732209
0.00644304616239 -0.0160639993846 -0.00985513350666
0.00495194079528 -0.0160639993846 -0.0113417714243
0.0035462450446 -0.0160639993846 -0.0143528568312
0.00285921079082 -0.0160639993846 2.33387731532e-06
0.00847825047102 -0.0160639993846 -0.0181703733397
0.00203817511703 -0.0160639993846 -0.00313812782647
0.0023700824351 -0.0160639993846 -0.00630676067811
0.00268309599207 -0.0160639993846 0.00156057685162
0.00286379265092 -0.0160639993846 -0.00808129099129
-0.000180072280865 -0.0160639993846 -0.0144785259326
0.00334656798597 -0.0160639993846 0.00706713842046
0.000603008968241 -0.0160639993846 0.0080644294981
0.00505579880283 -0.0160639993846 -0.0133867169801
0.00768011578614 -0.0160639993846 -0.0161176595564
0.00133995134794 -0.0160639993846 -0.0126306037388
0.00471129836061 -0.0160639993846 -0.0191025797303
0.00144408997484 -0.0160639993846 0.0065103566222
0.00291088149615 -0.0160639993846 -0.00481420472902
0.00126062511924 -0.0160639993846 0.00023184319141
0.00443016624146 -0.0160639993846 -0.0160159182903
0.0102432006417 -0.0109559996054 0.0202516192282
0.00787465173446 -0.0109559996054 0.0139334676258
0.0100016715212 -0.0160639993846 0.0107767120365
0.0107082677611 -0.0160639993846 -0.0154609086047
0.0100135266136 -0.0160639993846 0.000547558882664
0.00504623675145 -0.0160639993846 0.00615124890604
0.00279374593637 -0.0160639993846 0.013245289051
0.00507715747707 -0.0160639993846 0.0152841441909
0.00909555831724 -0.0160639993846 -0.00242947316305
0.00777613372362 -0.0160639993846 0.0115787999797
0.00811399980551 -0.0160639993846 0.00431120173605
0.00481177423023 -0.0160639993846 0.00442303559211
0.00972140479551 -0.0160639993846 0.00702929067166
0.00849680986923 -0.0160639993846 0.0149318952095
0.00459885101717 -0.0160639993846 0.0134385216185
0.00990244568377 -0.0160639993846 -0.00882232396605
0.0109637846831 -0.0160639993846 -0.00104359378179
0.00957345979898 -0.0160639993846 -0.0125690591676
0.00766877174915 -0.0160639993846 0.0135447097588
0.00967635690836 -0.0160639993846 -0.014293646298
0.00751165986952 -0.0160639993846 -0.00152351176932
0.00984138546276 -0.0160639993846 0.00902911273535
0.0071574885542 -0.0160639993846 -0.00449753656904
0.00363555572833 -0.0160639993846 0.00847444381216
0.00636357533115 -0.0160639993846 -0.00277587015843
0.00363321430832 -0.0160639993846 0.0163536079887
0.00891779031778 -0.0160639993846 -0.000492032229229
0.00987925270583 -0.0160639993846 -0.00723888344153
0.0105142161097 -0.0160639993846 0.0167442856187
0.00507259417858 -0.0160639993846 0.00165696773424
0.00604284827842 -0.0160639993846 0.0137233675332
0.00987104439114 -0.0160639993846 0.00329358544913
0.00752270589213 -0.0160639993846 -0.00686646560566
0.0063211996069 -0.0160639993846 0.00854850986012
0.00654812990753 -0.0160639993846 -2.98751674596e-05
0.00422343344519 -0.0160639993846 0.0115812279814
0.00810823084398 -0.0160639993846 0.009645687645
0.00175149537754 -0.0160639993846 0.0154141152753
0.00681385275953 -0.0160639993846 0.00268962615874
0.00629836991423 -0.0160639993846 0.011889777949
0.00800784131646 -0.0160639993846 0.000764692520815
0.00795260830841 -0.0160639993846 0.00618540815455
0.00633984101145 -0.0160639993846 0.0101701923605
0.00861636648848 -0.0160639993846 0.00253535185454
0.0106501676822 -0.0160639993846 -0.005725998495
0.00768247464252 -0.0160639993846 0.00759188880155
0.0101678987071 -0.0160639993846 0.014322185543
0.00852894130859 -0.0160639993846 -0.00521435789052
0.0114139998332 -0.0121871912002 0.0206041021794
0.0114139998332 -0.0131259927524 0.0124578354275
0.0114139998332 -0.014959840046 0.00829719985847
0.0114139998332 -0.0118715143505 0.0163199263053
0.0114139998332 -0.0143141501036 0.00510385982449
0.0114139998332 -0.013502231764 0.0101397953406
0.0114139998332 -0.0145881914502 -0.00747174733995
0.0114139998332 -0.0123082799123 0.0184560122303
0.0114139998332 -0.0146737043594 0.0116310577804
0.0114139998332 -0.0146828822188 -0.00909077901065
0.0114139998332 -0.0152384505062 -0.00280600823978
0.0114139998332 -0.014181446051 -0.00527556094315
0.0114139998332 -0.0138772204854 0.017133893103
0.0114139998332 -0.0133456937686 0.00827261646638
0.0114139998332 -0.0152484379071 0.00269157823948
0.0114139998332 -0.0124655187847 0.00302691507913
0.0114139998332 -0.0114712153769 0.000333366495536
0.0114139998332 -0.0125458249136 0.00661827884658
0.0114139998332 -0.0126550459097 -0.0121325000728
0.0114139998332 -0.0158469635109 -0.0201425553629
0.0114139998332 -0.0122143933478 -0.00474512674914
0.0114139998332 -0.0119926696041 -0.00271302055299
0.0114139998332 -0.0126621682213 -0.00852676878274
0.0114139998332 -0.012861970383 0.00149499256508
0.00430895786956 -0.0109559996054 0.00232184807818
0.00814826035316 -0.0109559996054 0.0121908219914
0.00976964955628 -0.0109559996054 -0.00734009221333
0.00767059037351 -0.0109559996054 0.00185020998681
0.00393242677049 -0.0109559996054 -0.00213983058181
0.00957415934871 -0.0109559996054 0.00459740397956
0.00952236442078 -0.0109559996054 -0.00498326439884
0.00595839916746 -0.0109559996054 -0.00164554711271
0.00382757788581 -0.0109559996054 -0.00377854223636
0.00587494075387 -0.0109559996054 0.00741216169474
0.011186941757 -0.0109559996054 -0.00611328349777
0.00256263253135 -0.0109559996054 -0.000871728225263
0.00912723032601 -0.0109559996054 0.00894949850478
0.00717841631422 -0.0109559996054 0.00941469906003
0.00884174357823 -0.0109559996054 0.00612438289257
0.00434733173871 -0.0109559996054 -0.00729830568624
