-0.0196542259017 -0.0111609201578 -0.020356326061
-0.0185805048656 -0.0131552589536 -0.0206159867812
-0.019762816114 -0.0119753274058 0.00698207922822
-0.020533200936 -0.01143176565 0.0249246562109
-0.0193118459131 -0.0133095729283 0.0167086363618
-0.0186891417031 -0.0139054998417 0.00532283085563
-0.0189108643615 -0.0142241912257 0.0199468299682
-0.0196226559183 -0.0124307771584 0.0108168075925
-0.0204320233811 -0.0114220667006 0.0209537314225
-0.0184005228715 -0.01526922321 0.0216982522659
-0.021796414124 -0.00882819003689 0.020253400354
-0.0183234630333 -0.0143935232316 0.00138558862489
-0.0202765265567 -0.0112898419854 0.0125150942594
-0.0187447884281 -0.0134792466764 -0.00108619251958
-0.020269492392 -0.011463501534 0.0157100463837
-0.0199616830222 -0.0124180315711 0.0232217991118
-0.0214397561428 -0.00962917321919 0.0228840705561
-0.0207380113567 -0.0106976295876 0.0179551678496
-0.0194092314949 -0.0124365325784 0.00296245433826
-0.0185858030096 -0.0143333926845 0.00998375464811
-0.0226727301113 -0.00747794917574 0.0260901404397
-0.0188904398329 -0.0145832870167 0.0251922543333
-0.0198438126562 -0.0129743201149 0.0263731417197
-0.0216817262909 -0.00936484361636 0.0260130549049
-0.02056738316 -0.0153819485655 -0.0215896565488
-0.0228095174413 -0.0114030035177 -0.0223803730615
-0.0239072913129 -0.0107746648362 0.0122751103014
-0.0234454925159 -0.010406630489 -0.0186733785681
-0.0233754056455 -0.0112141355237 -0.00423167859883
-0.0240348019291 -0.0107924154398 0.0189613169518
-0.0234158921973 -0.0112531008082 -0.00136987524618
-0.0234760235153 -0.0113712520914 0.0042167787251
-0.0235865698538 -0.0106132368746 -0.00713114985093
-0.0232695739597 -0.0111786152469 -0.0102419311816
-0.0232003310464 -0.0111000444184 -0.0154008398331
-0.0214613196098 -0.0078044085792 -0.0192243366919
-0.0214016764817 -0.00791519024443 -0.0167756952452
-0.0210958184421 -0.00848329362858 -0.0211764179264
-0.0185018327703 -0.013301385188 -0.0160242794254
-0.0195610390804 -0.0113340061706 -0.0164730244928
-0.0187986521885 -0.0131908474175 -0.00495955241952
-0.0221179002394 -0.00796061602464 0.0146077322151
-0.0181009648642 -0.0140900963902 -0.0133620245633
-0.0196774271323 -0.0113366514976 -0.0098426244101
-0.0211828800771 -0.00945272981265 0.00949817821033
-0.0221742703885 -0.00733910904806 0.00352186027008
-0.0195820755447 -0.0118035272344 -0.0036177474172
-0.0215723552486 -0.00887511510634 0.0125678148348
-0.0201312569294 -0.0106281653924 -0.0070252220391
-0.0200332513901 -0.0104809962065 -0.014067821658
-0.0191884196103 -0.012119866356 -0.0124537408316
-0.0184815151386 -0.0135350767799 -0.0101621181274
-0.0227523612605 -0.00720784376039 0.0236417038137
-0.0214408685029 -0.00827158753314 -0.00558516842694
-0.0223893615686 -0.00721855365211 0.00947064819958
-0.019196149851 -0.0123072715438 -0.00813000068125
-0.0206337533454 -0.00980849884864 -0.00466033542429
-0.0209647249639 -0.00933006489955 -0.00178564165653
-0.0213495083617 -0.00804942316103 -0.0139716759965
-0.0201070057384 -0.0109860162502 -0.000316681558837
-0.0216623464739 -0.00812135168587 -1.92161511841e-05
-0.0204794044144 -0.0105479779806 0.00506736276993
-0.0206651222431 -0.0103182303011 0.00751031412446
-0.0215909524179 -0.00769303204541 -0.0120326302601
-0.0202094352441 -0.0102701815831 -0.0115972599657
-0.0207434424596 -0.00993855702517 0.00247898700842
-0.0216377694698 -0.00772240449615 -0.00954573767186
-0.0218199589769 -0.00861946842215 0.0169107015845
-0.0217244408915 -0.0146092730925 0.00897778019538
-0.0206466090264 -0.0154188767272 -0.0176943116693
-0.0217982949503 -0.0143285496208 0.00291112352738
-0.021873152632 -0.0146586965468 0.0183047993557
-0.0232898156185 -0.0123419322745 0.0236943850695
-0.022275230627 -0.0139922785267 0.016017572594
-0.0225540788554 -0.0136956109863 0.0251728104131
-0.0224791329019 -0.013765731063 0.0222804422002
-0.0225312606841 -0.0134503949964 0.012323524301
-0.0224506510382 -0.0137677266692 0.0200743711783
-0.0210452323087 -0.0149423179765 -0.0133948503496
-0.022590777727 -0.0121720903419 -0.0201762670649
-0.0217689392249 -0.0136677501494 -0.0159882319189
-0.021719524263 -0.0140855019959 -0.0072939678635
-0.0222697870893 -0.0130720632293 -0.0104075773846
-0.022459402354 -0.012474713504 -0.0178705910913
-0.022306766752 -0.0132933152303 -0.00316491938149
-0.0222074299501 -0.0135622607453 -0.000388230310301
-0.0227322695813 -0.0124184593671 -0.00645509729105
-0.0239268719919 -0.0111134311297 0.021108057816
-0.0228094538553 -0.0120265418761 -0.0133390927651
-0.0232489561046 -0.0121765707573 0.0145527547407
-0.0228007613278 -0.0127410862499 0.00632115251345
-0.0234489371941 -0.0115896180786 0.00878689752558
-0.0232221096642 -0.0117699278557 0.00165227204984
-0.0251404661443 -0.00719552369882 0.0106048214158
-0.024789914592 -0.00743092204092 -0.00666772429997
-0.0250274897966 -0.0068511680837 0.0023984799387
-0.0248604191925 -0.00683652359877 0.0130903309967
-0.0245600416683 -0.00678899977356 -0.00451387260763
-0.0246445480056 -0.00865609383121 0.00822262358028
-0.0252848748609 -0.00739084373044 0.0220791947546
-0.0249855037479 -0.0074449698582 0.00492563125262
-0.024911954942 -0.00872399540227 0.0258538488363
-0.0247837927225 -0.00882696137558 0.0200953626109
-0.0241727349051 -0.00910436396051 -0.0085212090143
-0.0240877590609 -0.00988985629082 0.00180487655215
-0.0242409103706 -0.00923803424146 -0.00237172952977
-0.0242284155859 -0.00913313472034 -0.00501803386515
-0.0239603688705 -0.00926215478086 -0.0168271988632
-0.0239313142532 -0.00950004932667 -0.0138762357435
-0.0243728988145 -0.00835248339348 -0.0120897261918
-0.024409780042 -0.0101594916419 0.0240158730167
-0.0242323083853 -0.00938201356243 -0.000108300498154
-0.0243406291299 -0.00961064856052 0.00996942509483
-0.0245143382496 -0.00949627348652 0.0170411206517
-0.0245131605088 -0.0093700436065 0.0145932768948
-0.0238856370104 -0.0112547389184 0.026849710741
-0.0260763567233 -0.00155054166588 0.0085660354485
-0.0259176647336 -0.00160014631297 -0.0020739131083
-0.0260078750771 -0.00171872528608 0.00417481468099
-0.0259770577235 -0.00138046021375 0.0016337648907
-0.0260672168085 -0.000167919506558 0.00606231140811
-0.0261297598342 0.000467585149827 0.00941502378839
-0.0242331127783 -0.00678799999878 -0.0171883383145
-0.0235312400766 -0.00678799999878 0.0178311025335
-0.0236000773153 -0.00678799999878 0.000413153840173
-0.0238196731573 -0.00678799999878 -0.00840601776518
-0.0244470317853 0.000485937701136 -0.023166000843
-0.023141132346 0.00496800011024 -0.0203717119913
-0.0237340758083 0.00496800011024 0.00691169051926
-0.0222739822579 0.00122995909674 0.00600530550842
-0.0236529639728 0.00454166116062 0.0268432350769
-0.0228833171547 -0.000296092198437 0.0166392296395
-0.0230036944523 0.00151333874665 0.0177329301105
-0.0233528944361 0.00109749255623 0.0236082162543
-0.0231384772332 -0.00226038775678 0.0217244675376
-0.0226771351548 0.000542685734493 0.0128871902784
-0.0229973716835 -0.00178652128668 0.019204460565
-0.0232901789518 0.00378900937975 0.0213045736665
-0.0231388860316 0.00232904481621 0.0195415568737
-0.0234968104158 0.00145987242188 0.025774950105
-0.0225093164456 0.00214073059872 0.00939658113405
-0.0234978966319 -0.00186194234392 0.0273774016187
-0.022412072199 -0.00030810447594 0.00898400228202
-0.0231226654795 -0.00020409295163 0.0204863876963
-0.0226698413881 -0.00164683093424 0.0138132055101
-0.0233896411251 -0.000650921003592 0.0250397461909
-0.0228379571993 0.00143686716882 0.0150750481145
-0.023324925927 -0.00400363183212 0.0255872141214
-0.0231242145588 -0.00465240830909 0.0226338021608
-0.0248759735359 -0.00678799999878 0.0153493377151
-0.0251717279441 0.00496800011024 0.00959316343369
-0.0226026658867 -0.00349909927441 0.0129043946467
-0.0221538311378 -0.000815576306544 0.0043851060784
-0.0227587553264 -0.0033425387185 0.0159580390937
-0.0223035642269 -0.00222546737808 0.00718423544641
-0.0224110638892 -0.00353105032848 0.00916937138154
-0.0224972248932 -0.00177705207109 0.0109941082424
-0.0229689497316 -0.00441422059615 0.0199631573737
-0.0228286624385 0.00324988749843 -0.0222330045019
-0.0232556366133 0.00409302639872 0.0180421371336
-0.0225217422475 0.00286085588746 0.00139338861985
-0.0231895610181 0.00449999666989 0.00912918419015
-0.0229787869969 0.00357419780274 0.0125348735724
-0.0224097820003 0.00330114563089 -0.0101402775062
-0.0225138661212 0.00343062718902 -0.0071310221364
-0.0221740381837 0.00154810752649 0.00394098422534
-0.0227244681453 0.00370049756699 -0.00115494537584
-0.0236395120073 0.00489755598966 0.024459765136
-0.0226083092458 0.00346756790849 -0.00324744678795
-0.0227661189227 0.00334706278257 0.00585050201116
-0.0228786203334 0.00494555856558 -0.0117763401673
-0.0260405214291 -0.000498156601941 0.0276641357059
-0.0261579994112 0.00248859566166 0.0188526848281
-0.0261579994112 -0.000440031161446 0.0199131829082
-0.0261579994112 -0.000470288424639 0.0171592070595
-0.0261579994112 0.00178367372666 0.0166965145931
-0.0261579994112 0.00170663298737 0.0263420994979
-0.0261579994112 -0.000646661759877 0.0230175249638
-0.0261579994112 0.00188615222005 0.0222678270369
-0.0261579994112 0.00103702882145 0.0242751481378
-0.0222768491259 -0.00561721804279 -0.0194150702306
-0.0221893091009 -0.00425397937 -0.015348092654
-0.0220810895841 -0.00187183094263 -0.0141083461371
-0.0220387858143 -0.00124949963508 -0.0119448217962
-0.0221415574834 -0.00441109666579 -0.00823349797978
-0.0220870833845 -0.00344709088837 -0.00633158944822
-0.0222696931849 -0.00583180519262 -0.0173104545936
-0.0221347655946 -0.00341329873941 -0.0127667302587
-0.0220090001822 -0.0018094156671 -0.0020492615893
-0.0220090001822 -0.0010364754161 -0.00893869860935
-0.0220090001822 -0.00178782454239 0.00128608655538
-0.0220090001822 -0.00185278745359 -0.00473900967538
-0.0220090001822 0.000262343733205 -0.000612719163175
-0.0224618077022 -0.00132737300913 -0.0208753040089
-0.0222184123607 -9.69298318066e-05 -0.0153234427487
-0.0223960842643 0.00249166597072 -0.0166184754153
-0.0225161283846 0.00226841446789 -0.0190532934333
-0.0225920217711 0.00142835960571 -0.0211453804911
-0.0223006640834 -0.00113030050274 -0.0176880338379
-0.0223815558312 -0.00408066982955 -0.0215431816301
-0.022164806236 0.00127812053166 -0.00903864167046
-0.0221234687316 0.000593321132056 -0.0112833225469
-0.0223911636017 0.00281854484171 -0.0139678777344
-0.0220982753185 0.00132478989701 -0.00369716965889
-0.022085565451 0.000891806477049 -0.00612100859913
-0.0226079832687 0.00431434140324 -0.0185313592096
-0.024785323757 -0.00342764250487 -0.0231560494083
-0.0221322458946 -0.00434227851909 -0.00316261830229
-0.0222630244009 -0.00578463642743 -0.0134967087138
-0.0222178549524 -0.00528646197157 -0.0104762852205
-0.0256550654532 0.000516542503617 -0.0157053167876
-0.0254971740421 0.000519623119083 -0.021177212626
-0.0255268467303 -0.00183218655949 -0.0193632405525
-0.0257040832727 -0.000503572309792 -0.0136660131949
-0.025488564258 0.00230987021165 -0.0220737256657
-0.0258358659534 -5.60401181606e-05 -0.0073150865742
-0.0259417176848 0.00143135262175 -0.000473157440278
-0.025724230354 0.00118601077396 -0.0118645298052
-0.0259042678045 -0.000481799239073 -0.00420947842583
-0.0258894356933 0.0018131497817 -0.00279340691312
-0.0257559891693 0.00225485331473 -0.00922113988174
-0.025608986756 0.00146585171524 -0.0175118724824
-0.0255508597041 0.00227352833101 -0.0197280116352
-0.0260125129999 0.00105336463546 0.00280056953238
-0.0256456863384 0.00286174257088 -0.0134385182384
-0.0257106334394 0.0035789921535 -0.00453552878544
-0.0259940388237 0.00223934957355 0.00610773189092
-0.0258757058512 0.00313762507409 0.00380263683005
-0.0259409738867 0.00316989794451 0.00840445937732
-0.0259895085444 0.0029983060765 0.0105921240566
-0.025490732496 0.00365717598336 -0.0178036584471
-0.0253846301945 0.00477798397989 -0.0119578832597
-0.0253553448013 0.00459201801323 -0.0152470470369
-0.0255700235535 0.00430066695526 -0.00751261066584
-0.0256158387407 0.00494545138564 0.00113549169316
-0.0259838066869 0.0044525792335 0.0233407380066
-0.0258535745191 0.00484327643775 0.0259461392484
-0.0260429776385 0.0028101708406 0.0130327518796
-0.0259917334942 0.00406875909116 0.0175676694477
-0.025904878787 0.00455810346474 0.0147727386906
-0.0260079512026 0.00428288860573 0.0200374178811
-0.0258271456141 0.00491889313844 0.0117793395365
-0.0230683365817 -0.00643270998603 0.021436726492
-0.0224180597292 -0.0058733381015 -0.00112625710572
-0.022431310414 -0.00637646385977 -0.0041979020248
-0.0222329024394 -0.00538589974321 -0.0059847022844
-0.0228148647524 -0.00657888792763 0.0117617477916
-0.0225219417423 -0.00490089163811 0.0106978997987
-0.022579201716 -0.00565984608535 0.00775889883249
-0.0221981735015 -0.00388767781845 0.00337714074815
-0.0227314616315 -0.00570286203461 0.0143670944067
-0.0221397087628 -0.00388117091343 0.000766626320065
-0.0224926144217 -0.00545972335816 0.00528370325815
-0.0256346349608 -0.00372185001956 -0.00455783922963
-0.0257544474173 -0.00375805935435 0.0023382499505
-0.0257731837565 -0.00478785529602 0.0135748566347
-0.0255270577013 -0.00320047481715 -0.0155986506036
-0.0256974674025 -0.00385570316912 0.000197946739922
-0.0256481905088 -0.00391964265871 -0.00185638326561
-0.0261059181686 -0.0042431251883 0.0263256787317
-0.0256263532305 -0.0059324825881 0.0180024816431
-0.025469542219 -0.00668335319727 0.0257882184832
-0.0255102503736 -0.00525909289838 0.0042614694652
-0.0250369277224 -0.00584672773381 -0.0149196773701
-0.0251707256409 -0.00563073499052 -0.0100016434814
-0.0250298875221 -0.00534360728526 -0.0203773809183
-0.0251549495719 -0.00497794737061 -0.0174353608958
-0.0252798028154 -0.00596236230345 -0.000861787913278
-0.0257937911466 -0.00570525717637 0.0238175222666
-0.025031641574 -0.00610808181185 -0.0125592057492
-0.0254196346113 -0.00323615906669 -0.0209894509117
-0.025771910882 -0.00553016489514 0.0208870116218
-0.0254489015254 -0.00451230966131 -0.00654063183741
-0.0254931525755 -0.00574169381371 0.00823081661551
-0.0261447908273 -0.00376876725772 0.0241301559046
-0.0259484964756 -0.00296335893274 0.00628615553292
-0.0260926488112 -0.00269822722358 0.0123262316447
-0.0261567221388 -0.0028448999598 0.0171923218305
-0.0258925707798 -0.00361507397971 0.00846899189898
-0.0261579994112 1.27868196513e-05 0.0125501882636
-0.0261579994112 -0.00304428445206 0.0196771679835
-0.0261579994112 -0.00161240232904 0.0153914086813
-0.0257440772067 -0.00228713749774 -0.00883546258716
-0.0256861121755 -0.00223686113287 -0.0122566975408
-0.0258457730981 -0.00167558535955 -0.00594056901169
0.00666239785769 -0.021471773383 -0.019401141583
0.00460973828854 -0.022095309605 -0.0195783379736
0.00456893984196 -0.0221544736164 -0.0149274006345
0.00263198714822 -0.0226971839213 -0.0196402940726
0.0059528131957 -0.0217079774589 -0.0174070197443
0.00236869675068 -0.0228097465234 -0.0164204824172
0.0101469997317 -0.0210825283484 -0.011523804627
0.0101469997317 -0.0221848231553 0.0103603126573
0.0101469997317 -0.0219557098506 0.0147988402412
0.00268119187463 -0.0230329075626 -0.023166000843
0.00566506092853 -0.025153504356 0.0280060004443
0.0101469997317 -0.022974108225 0.000847259776766
0.0101469997317 -0.0226880606841 -0.0174109299632
0.0101469997317 -0.0226678149281 -0.00318953636459
0.0101469997317 -0.0213246403751 -0.0140112966243
0.00185000000056 -0.0245383858495 -0.00525631850107
0.00185000000056 -0.0237336997355 -0.0212067216171
0.00185000000056 -0.0233880821673 -0.00088163149254
0.00847202544241 -0.0223406569468 -0.023166000843
0.00574363408037 -0.0252179196732 -0.000216638665125
0.00590793809558 -0.0253070393215 0.00543486200658
0.00593321484387 -0.0249279233182 -0.0113693588812
0.00645660264068 -0.0248557131291 -0.00938786929145
0.00516191153367 -0.0249760321719 -0.0169126522888
0.00512137828379 -0.0252623668325 -0.00443521932379
0.00551697320861 -0.0248473205547 -0.0191553299555
0.0056343054574 -0.0256735191403 0.0191887071508
0.00494527508528 -0.0252413897685 -0.00713882680766
0.0042010348816 -0.0250868677515 -0.0215282436634
0.00563898996267 -0.0254913910326 0.0110413909022
0.00462974855883 -0.02517580824 -0.0132425146931
0.00441316858237 -0.0225611549278 0.00229252667811
0.00272316475102 -0.0232669278368 0.0120492030417
0.00376989474103 -0.0229259266649 0.0102924063439
0.00811910720894 -0.0213756675028 -0.00295431710529
0.00638470963821 -0.0219036312213 -0.00169593893156
0.00264284454086 -0.0231225706473 0.0045808778901
0.00262687746789 -0.0232075635015 0.00816531986728
0.00388786693817 -0.0225736261779 -0.0039000009574
0.00192861525902 -0.0236492527489 0.0188882775918
0.00660101409751 -0.021785728825 -0.00417397018617
0.0019525660395 -0.0230510025183 -0.00747817700575
0.00571464780343 -0.0221459487424 0.000499934004218
0.00394344829323 -0.0226282071825 -0.000752343462408
0.00475030674178 -0.0225724088798 0.00712554077322
0.00452548817137 -0.022578960383 0.00452939426605
0.00546086675816 -0.0231155433143 0.0272613120919
0.0100971688451 -0.020936344822 -0.00860226309597
0.00607664906696 -0.0228091762758 0.0250775925885
0.00327060140811 -0.0235255788713 0.0246670249992
0.00492567961239 -0.0229864380865 0.0226946795792
0.00793686451165 -0.0222910617174 0.0245294236581
0.00884341218248 -0.0216262136628 0.0118865707777
0.0043893718611 -0.0229076104233 0.0161290956919
0.00617956054371 -0.0225641619682 0.0198757634379
0.00866260150151 -0.0214729485844 0.00553592624477
0.00760559479985 -0.0222739807584 0.0223329602887
0.00585106356484 -0.0223070281672 0.00901529688353
0.00430387105845 -0.0228599626183 0.0139149262081
0.00891627561916 -0.0215061113728 0.00866699495633
0.008768073573 -0.0212799291628 0.000266438840825
0.00575571848249 -0.0224264528867 0.012029242139
0.00659500685417 -0.0220086602003 0.00562676000005
0.00741805963128 -0.0220698942502 0.0143123985874
0.00781677778446 -0.0220650428774 0.0174233238337
0.00389655216733 -0.0230951687453 0.0180530916259
0.00770991041584 -0.0216290794765 0.00269545811307
0.00734087794332 -0.0214764788059 -0.00848156088888
0.00613459149603 -0.0217748819372 -0.0106854452563
0.00348352976261 -0.022559635792 -0.00973096771205
0.00717091835258 -0.0215769784176 -0.00616375667092
0.00391820385352 -0.0223818176402 -0.0120972772563
0.00908268099663 -0.0210348378584 -0.00578331921701
0.00872248181064 -0.0208704971273 -0.0178368375057
0.00774974039196 -0.0212638158715 -0.0127488177236
0.00854389969039 -0.0209780114915 -0.0153152912798
0.00515982525052 -0.0221248547705 -0.00757257619339
0.00908480930703 -0.0246168774356 0.0171060666326
0.0096804019336 -0.0244424262599 0.0201371806892
0.0096454038644 -0.0241962695201 0.00773483816183
0.00997626124323 -0.024212205918 0.0147985634491
0.00906480596036 -0.0239688579235 -0.0122234020542
0.00747898585152 -0.024389793821 -0.017810490496
0.00751622129945 -0.0242626731816 -0.0228092708685
0.00954818478694 -0.0239534421165 -0.00558058508634
0.00856889412973 -0.0239693841589 -0.019707469817
0.0078271292054 -0.0246829765676 0.000288560058166
0.00857613589273 -0.0243386208925 -0.00344106147655
0.00809694263627 -0.0247246455046 0.00619630343755
0.00896406958977 -0.0245490551898 0.0116394894753
0.00956032426961 -0.0238666347184 -0.0091952707847
0.00837627813879 -0.0245799676612 0.00409416954753
0.00691746006468 -0.0246229338273 -0.0150005868601
0.0081895919427 -0.0250724115083 0.0231331292967
0.00774345818795 -0.025098717446 0.0185906454789
0.0063509736159 -0.0252447105845 0.00747974922486
0.00677668652972 -0.0249209253164 -0.00252567743204
0.00609068183077 -0.0255145894146 0.0170496843749
0.00647279501013 -0.0251212448402 0.0031373150941
0.00651552239554 -0.0254987269167 0.0218164805855
0.00773877872158 -0.0252593884139 0.0262436712839
0.00717061520979 -0.0250609078994 0.00932109337682
0.00704866467373 -0.0247754340258 -0.00597161280908
0.00625586731235 -0.025394514853 0.0134343513393
0.00411338836698 -0.0258027125179 0.0128560023642
0.00406069203062 -0.0259828079626 0.0214312547255
0.00428161073418 -0.0260071497482 0.0244156247914
0.00459059201155 -0.025429106132 -0.00198857503269
0.00349272553783 -0.0254279126454 -0.0100846719246
0.00353059657803 -0.0258458909658 0.0106923719826
0.00338388341596 -0.0257588378569 0.00557354979712
0.00208194599712 -0.0255115114304 -0.0140162068958
0.00317716166033 -0.0253394287383 -0.0162366220909
0.00345610160758 -0.0256934463495 0.0027685927965
0.00352870510097 -0.0259826402947 0.0174085351132
0.00314756559235 -0.0259737286346 0.0147969924992
0.00274401407404 -0.0253378800512 -0.0187825037056
0.00258404014514 -0.0260429505147 0.0200113755821
0.00215185272229 -0.025619850047 -0.00758036339478
0.00191757492468 -0.0258662624776 0.0090730603024
0.00256634042805 -0.0261328295909 0.0260042921764
0.00238238089188 -0.0256899302881 -0.00320123160581
0.00573712978408 -0.021738906956 -0.0214698279824
0.00854980980745 -0.0208927107813 -0.0201667047671
0.0182364345493 -0.0182287111475 -0.00976834301181
0.0173495589891 -0.0198498989216 0.0198119938056
0.0178683801395 -0.0191766998566 0.012662443395
0.0179178165316 -0.0189498163589 0.00597604148478
0.0205704667469 -0.0143940001726 -0.0177631231157
0.0164787242459 -0.0189217032038 0.0280060004443
0.0141695101694 -0.0182523022985 0.0243348027995
0.0156455980286 -0.0164336956289 0.00934858331333
0.01204419308 -0.019959761623 0.0241145190644
0.0167225733821 -0.0159659832715 0.0189715506471
0.0162372275304 -0.0160574548907 0.011780295871
0.0118579768451 -0.0198745714144 0.0184773497668
0.0151704444145 -0.0167331897954 0.00733160721356
0.0148636894301 -0.0172606881437 0.0140245275911
0.0121086226439 -0.0195757168504 0.016170755032
0.0118729666193 -0.0199790833902 0.021267675665
0.0175259981918 -0.0156486440411 0.0269057748529
0.0162043836828 -0.0165817700498 0.0236907039412
0.0178216202398 -0.0152359083416 0.0227435938424
0.0158005473957 -0.0169941493556 0.0257529916806
0.0155366952322 -0.0170293014136 0.0214948162161
0.0139265130844 -0.0183379029075 0.0216867454329
0.0170812876759 -0.0155711702005 0.0164575307182
0.0140919789247 -0.0181119374297 0.0194779473767
0.0152696291015 -0.0170296104652 0.0163408474754
0.0137758400378 -0.0179924505166 0.0105092634408
0.0123619168378 -0.0198095837909 0.0266616336603
0.0131743535413 -0.0186437078459 0.0144673040539
0.0191576645877 -0.0143944614548 -0.010486104512
0.0183136170536 -0.0143947876556 -0.019065107607
0.0193073246388 -0.0143943579757 0.0127811759105
0.0156094604006 -0.0180357940491 -0.023166000843
0.0101479999721 -0.0221672517644 0.0192713058986
0.0101479999721 -0.0222000257702 0.0226634561433
0.0101479999721 -0.0217491074162 0.0263713018497
0.0110559571262 -0.020326684397 0.0113490732709
0.0115114073308 -0.0200090453196 0.0137993120078
0.0129316422971 -0.0183901453805 0.00193701182611
0.011364030187 -0.0199375840654 0.007598648371
0.0108330562122 -0.0203145658622 0.00494914759757
0.0105447079635 -0.020295940819 -0.0034214031424
0.0122651368034 -0.0192252114619 0.00984177388085
0.0120712334581 -0.0191882908508 0.00345574814991
0.0113466428023 -0.019685870121 -0.000683351461982
0.0130987568716 -0.0183589635623 0.00548547566981
0.0104701008706 -0.0205188779349 0.0014813700354
0.0105844993885 -0.020921283993 0.0170618928991
0.0101479999721 -0.021128853278 -0.00137356695826
0.0107582463919 -0.0239568598236 0.0263215056455
0.0103966581919 -0.0235877543367 0.00274001508463
0.0101516950889 -0.0231931928177 -0.0154843946251
0.0202710457871 -0.0166281406801 0.00954769024956
0.018805980335 -0.0175594792121 -0.0130902798073
0.0193386158413 -0.0171522451972 -0.00715451639037
0.0200436025887 -0.017016790785 0.0141917996454
0.0195368622335 -0.0171418193402 -0.00022704036843
0.0204032592994 -0.0168022974757 0.020221814293
0.020165627751 -0.0160197197228 -0.0146594365149
0.0196318172918 -0.0165176879682 -0.0176052879295
0.0197864781259 -0.0170460775074 0.00573387074381
0.0204854814154 -0.0167760260166 0.022361315378
0.019500494261 -0.0172430915882 0.00182348793014
0.0198828951657 -0.016425148926 -0.0114836576898
0.018564064131 -0.017406858984 -0.0224340002151
0.0194405068614 -0.0166336471447 -0.0203951317877
0.0150968402951 -0.0205948471573 -0.0197009347257
0.0121410267281 -0.022223946547 -0.0230327023333
0.0216404198124 -0.0146562012354 0.018494290648
0.013896473385 -0.0174641278313 -0.00465541809545
0.0175049471774 -0.0145930786245 -0.0123282227555
0.014131171866 -0.017263330794 -0.0106860972938
0.0144079298138 -0.0170658789031 -0.00232565206972
0.015674684658 -0.0160414229043 -0.0115393198452
0.0127923216089 -0.0183143519803 -0.0134344083014
0.0139553501503 -0.0174119563479 -0.00687610583673
0.0145295284326 -0.0169415580235 -0.0134308662101
0.0153160529931 -0.0163327729715 -0.00841322133671
0.0156842790013 -0.0160281175438 -0.0148774791135
0.0147806633098 -0.0167414620044 -0.0164810528187
0.0166579202324 -0.0152594925792 -0.0209858267135
0.0137037867128 -0.017591584421 -0.0182456482056
0.0173515702819 -0.0147119020216 -0.0166791646894
0.0155120851899 -0.0161640530999 -0.01900450817
0.0127855657874 -0.0183802272338 -0.020692686058
0.0143275018147 -0.017138392633 -0.0211945934246
0.0108726419736 -0.0198924654023 -0.0161129103893
0.0105224911365 -0.0202426454704 -0.0191537143912
0.0136047412918 -0.0177359682086 -0.000253375718656
0.0124639605018 -0.0186755180953 -0.00235426419938
0.0115828099865 -0.0193548200737 -0.00725111281677
0.0114613774015 -0.0194279583512 -0.00937039195749
0.0113364650615 -0.0194945969094 -0.0121567191922
0.0122326949096 -0.0196163214795 -0.023166000843
0.0166635250247 -0.0198401105636 -0.00280159238271
0.0165318857952 -0.020243114415 0.00768938691258
0.0162098263476 -0.019879144756 -0.0157936949432
0.0159731355133 -0.0202191799277 -0.0109326649532
0.0168377488087 -0.0202223202868 0.016649083585
0.0162332771318 -0.0200709007642 -0.00806706315775
0.0167283252471 -0.0199697132995 0.00397571026312
0.0175578537626 -0.0189808188385 -0.0048155936793
0.0178071460962 -0.0184008753699 -0.0175999300323
0.0183588798654 -0.017966762718 -0.0152309644499
0.0175517134273 -0.0189327891884 -0.00675019300069
0.01758552256 -0.0190870360785 -7.65562250409e-05
0.0176584889498 -0.0190851631747 0.00224161770931
0.0170091350607 -0.01905599443 -0.0200432912695
0.0169599002339 -0.0193126984761 -0.0123863309772
0.0184902926334 -0.0143947089956 0.000302726628377
0.0183921073089 -0.0143948134075 0.00297197682993
0.0192639631609 -0.0143947346354 0.024382807502
0.0191571066386 -0.0143945445077 0.0168781960775
0.0171873672142 -0.0150045561369 -0.00125590561868
0.016272369191 -0.0156033100872 -0.00579121484257
0.0170551928272 -0.0149617051766 -0.00984481614513
0.0174548247536 -0.0147658754886 -0.00383521475386
0.0165718568714 -0.0155045307658 0.00165530770602
0.0170919433455 -0.0154820348201 0.0137713533769
0.0179022836503 -0.0147962996939 0.010945339078
0.0148682285561 -0.0167597253954 0.00142389509117
0.0165187658878 -0.0156691573106 0.00585627603651
0.0166185431488 -0.0155368039376 0.00391368719275
0.0185340217834 -0.0145853505244 0.0195123950997
0.0172989967304 -0.0151614738604 0.00821250139231
0.0152367891281 -0.0216956122777 0.0262674384272
0.0145919441916 -0.0214121883673 -0.00215242990256
0.0144607826447 -0.0211089182403 -0.0169716657254
0.0148026494526 -0.0213382891674 0.000305620114799
0.0146546534391 -0.0210979081637 -0.0125418350732
0.0148932820375 -0.0213899163201 0.00453667413037
0.0150733264931 -0.0216404848299 0.018573282211
0.0146445337845 -0.0211874128298 -0.00938944408232
0.0148882979021 -0.0213336145485 0.00226984275395
0.0154923126507 -0.020723684199 -0.00583035014347
0.0142375373918 -0.0218653597471 0.00636043463821
0.0144337779632 -0.0218845178321 0.0121132402884
0.0150227942563 -0.0218118803279 0.0241093320218
0.0144314917324 -0.0219765124841 0.0157812332781
0.0169879120781 -0.0203225510536 0.0252374764969
0.0161526390172 -0.0206135951017 0.0102697138127
0.0167731822829 -0.0204053355947 0.0217061212658
0.0162889216616 -0.0205706685577 0.0128930832441
0.0204702972408 -0.0164754737631 0.0117932261944
0.0207452096256 -0.0156998076286 -0.00146359222476
0.0206056445783 -0.0161712450638 0.00760410526531
0.0209991846814 -0.0161694900423 0.0261711458306
0.0207638589928 -0.0157379946548 0.000688574316441
0.0208016749613 -0.0157537833256 0.00300321741879
0.0206487742424 -0.0147069018313 -0.0200004992303
0.0214884865591 -0.0152525264372 0.0211268799864
0.0213924626803 -0.0152063596259 0.0156356214464
0.0109791150357 -0.0239835996023 0.0234915201815
0.0118769458673 -0.0234679991308 0.0205715213464
0.0133476519174 -0.0227299214063 0.021610531655
0.0118065928697 -0.0233819176328 0.0138863515942
0.0121154233922 -0.0232711960844 0.016524242434
0.0128378394914 -0.0230515016814 0.0248433482802
0.0130923102497 -0.0228071402617 0.0186464179952
0.0112586913018 -0.0234685475568 0.00482883156004
0.0126365738161 -0.0225557066278 -0.00374759974269
0.0127015091336 -0.0222411293778 -0.0161831605002
0.0132021938352 -0.0220731871657 -0.0114761131568
0.0122290369324 -0.0231083105812 0.0109524406773
0.0124055212446 -0.0228227891814 0.00252735643211
0.0118142415896 -0.0232412165857 0.00677541431771
0.0126962009755 -0.0225812223265 -0.00115898334735
0.0130994023942 -0.022253250928 -0.00595569672168
0.0136347812982 -0.0223108983599 0.00964756400424
0.0118961739206 -0.0225959814704 -0.0188014078168
0.01113349844 -0.023176508142 -0.0109931763501
0.0115720316313 -0.0227112728103 -0.0209719815596
0.0116623993126 -0.0229733824284 -0.00807813700712
0.0184976303188 -0.0188363695788 0.0265871716341
0.0194582979525 -0.0178757012745 0.0247848063908
0.0183790045775 -0.0189549948516 0.0234321717675
0.0188969378646 -0.0184370610048 0.0212465913434
0.0187899390743 -0.0180665011542 0.0039459929614
0.0187844695511 -0.0182601724257 0.0105523628618
0.0190697814085 -0.017570209346 -0.00299529420683
0.018761914594 -0.0184701236489 0.0170893891005
0.0226407605186 -0.0115251085834 -0.0225739209072
0.0215601743963 -0.0143940001726 0.00721893530771
0.0212212021605 -0.0143940001726 0.0134684693983
0.0204863014686 -0.0143940001726 0.00456195362387
0.0201015298388 -0.0143940001726 -0.00806943848439
0.0205370070355 -0.0143940001726 -0.0124689026223
0.0208658050172 -0.0143940001726 0.00958120582865
0.0208039165176 -0.0143940001726 -0.0221248925617
0.0198571946433 -0.0143940001726 -0.00452142819199
0.0239137212211 -0.00678799999878 0.000782360074014
0.0230689990902 -0.00678799999878 0.0149856681085
0.0246452700927 -0.00748144427869 -0.0129140568612
0.0246997914773 -0.00704703619609 -0.0151613956463
0.0249995437032 -0.00745414826225 0.00441855486348
0.0252282285617 -0.00765297311659 0.0180795162887
0.0253334241687 -0.00718429136101 0.0256442326839
0.0252612026788 -0.00691474308306 0.0210250834548
0.024799637028 -0.00949024019089 0.0272015022961
0.0245832578319 -0.00894611286272 0.00625692609078
0.0244721142325 -0.00883224738414 -0.00154683702455
0.0246076564729 -0.00817377298391 -0.00625290403106
0.024664182648 -0.00958808653045 0.0219116071473
0.0246871584433 -0.00969926893959 0.0250882136589
0.0246444446581 -0.00854146180228 0.0022166767004
0.0246244563117 -0.0091647303022 0.0122964240681
0.0247511779655 -0.00919808256624 0.0194730858295
0.0221866216603 -0.0131470175022 -0.0122580250578
0.0223345751796 -0.0132909345069 -0.00238145550109
0.0221607336137 -0.012985776839 -0.0173886657327
0.0220212596774 -0.013742706858 -0.00437750114043
0.0217664098356 -0.0139765844352 -0.00934189894265
0.0225516080218 -0.0130392064025 0.000531996630111
0.0226749339677 -0.0129354906169 0.00317095349146
0.0229013885151 -0.0129324066543 0.0127021356069
0.0227341323298 -0.0129433188518 0.00587846238226
0.0228743723268 -0.0121373658954 -0.00832614097488
0.0228944185742 -0.0132800527977 0.0211001744859
0.0237788028868 -0.0116189934243 0.0269449656151
0.0237823513175 -0.0108964498643 0.00690045864915
0.0234080046572 -0.0123917482292 0.0249779648183
0.023027252816 -0.0119411258774 -0.00593768944601
0.0230816318188 -0.0116417105382 -0.0106193812073
0.023066186973 -0.0128118013844 0.0178447406092
0.0238456509985 -0.0110349599844 0.0136305022345
0.0235202034007 -0.0117834491808 0.0155553420912
0.0238881295071 -0.0113370723716 0.0233774654342
0.0238874463357 -0.0111599561652 0.0189129765705
0.0230980243832 -0.0124464287071 0.0103504783679
0.0226418898165 -0.0137162025171 0.023181836839
0.0222698942665 -0.0142940360823 0.0255326123188
0.0228327862694 -0.00678810240005 -0.016669432545
0.0229191154094 -0.00678801916984 -0.00251123350184
0.0205036851684 -0.014201113468 0.0276367771236
0.0182426784332 -0.0143940001726 -0.00717426981502
0.0189485907683 -0.0137559172762 0.00872692476327
0.019539620694 -0.0127224617911 0.0114042712372
0.021560232228 -0.00954329184672 0.0264929977867
0.0209887860398 -0.0102021060665 0.0181970872661
0.0209483487924 -0.0101443489401 0.01586001069
0.0195578836173 -0.0121644641147 0.0026667568561
0.0205976524284 -0.0113519826604 0.0242376670579
0.0199519897263 -0.0121815372617 0.0162924449818
0.0220023023545 -0.0083987433298 0.0222658151439
0.0217572336795 -0.00875499622564 0.0199440123064
0.0205863279979 -0.0111723973929 0.0208433500848
0.0193529297841 -0.0136850862722 0.0212251247472
0.0223822102864 -0.00779990748072 0.0250842981439
0.0207263717224 -0.0103873217585 0.0124204867034
0.0199726386092 -0.0116640467945 0.00831485283054
0.0188717047478 -0.0137201518537 0.00552487908297
0.0201736081712 -0.0116132193197 0.0142649331191
0.0183304409593 -0.0137016794929 -0.0214743405915
0.0201001356642 -0.0101362493001 -0.0174956284533
0.0185842563269 -0.0132184594083 -0.0172398330652
0.0194613529363 -0.0114823420893 -0.0154291283619
0.0188571123952 -0.012776423553 -0.0126133289995
0.0192418704285 -0.0118308969886 -0.0194412923071
0.0206144363923 -0.00904463921589 -0.0194841154238
0.0183685398229 -0.0137121876581 -0.0149194944382
0.0212890550798 -0.0078118387345 -0.0211355015505
0.0202564241818 -0.00978945211903 -0.021502301543
0.0211074722903 -0.00881233051105 -0.00263149153128
0.0198379967817 -0.0111279249674 -0.00619561415814
0.0216342622053 -0.00869727660576 0.0145588411805
0.0223481871517 -0.00719737589523 0.0128916943958
0.0221263175917 -0.00750165032915 0.0104033490504
0.0205889210409 -0.0102508183923 0.005063004395
0.0206465630881 -0.00987109913831 0.000124618149629
0.0208547516713 -0.00901113719747 -0.00821077932054
0.0222365980845 -0.00704566119847 0.00597951924208
0.0191796158907 -0.0126715603953 -0.0016782419817
0.0213220203958 -0.00873336831586 0.00377337261839
0.0196590428294 -0.0118292457004 0.000265641858143
0.0221145040382 -0.00692413814023 -0.000757269450707
0.0219751216563 -0.00733682653738 0.00179453499915
0.0205701629001 -0.0101289227404 0.00211059452905
0.0219456095746 -0.0082697347505 0.0180403741175
0.0200974399498 -0.0107430013907 -0.00382677157593
0.0209144460021 -0.00972578275449 0.00725376986325
0.0213240054582 -0.00817923688104 -0.00644669380116
0.0208828847461 -0.00994007863819 0.0100763256541
0.0208801165493 -0.00859537120641 -0.0164261700201
0.019215742384 -0.0121586922208 -0.00989194455192
0.0210292119225 -0.00847406535801 -0.0121478193612
0.0203434360065 -0.00975702834166 -0.0140081129782
0.0199903493992 -0.0105674039305 -0.0112839783559
0.0219141952237 -0.00678898801662 -0.0127438780645
0.02209259335 -0.00678881602241 -0.00819869571678
0.021713101086 -0.0069784463739 -0.0188527510568
0.0239872901328 -0.00934029853499 -0.0154257761266
0.0238588390857 -0.00943020488146 -0.0199175417312
0.023996560498 -0.00919152245619 -0.0177515118875
0.0240160501845 -0.00950284691252 -0.0110179431568
0.024227242722 -0.00906166829045 -0.00909622726548
0.0242257186616 -0.00934310406959 -0.00392803505552
0.0245382440556 -0.00963595867315 0.0165284058617
0.0230550540874 -0.0115087442784 -0.0153044285837
0.0238932110795 -0.0103490856827 0.000100175526022
0.0232580330297 -0.0109017666701 -0.0185570306204
0.0240418123397 -0.0101714470884 0.00343008008657
0.0241510433905 -0.0102364874524 0.0100662129844
0.0222395982797 -0.0127455789477 -0.0200176287367
0.0241313227519 -0.00852880932704 -0.0221023694891
-0.0225951173765 0.0128926868777 -0.014840379742
-0.0228383728103 0.0123046445781 -0.0185152128286
-0.0223656239462 0.0130636884119 -0.020595328677
-0.024378981358 0.00496800011024 -0.00599356727723
-0.0243227074158 0.00496800011024 -0.00064412423181
-0.0241209540445 0.00496800011024 -0.0137128389372
-0.0206250008196 0.0140335393238 -0.00583107720204
-0.0206250008196 0.0119769307492 3.07515101351e-05
-0.0206250008196 0.0112464370455 -0.00497978520663
-0.0206250008196 0.0157275814933 0.0158057564483
-0.0206250008196 0.0125263807177 -0.0107610511843
-0.0206250008196 0.0156050583499 0.0202813699884
-0.0206250008196 0.015260351294 -0.00264381735616
-0.0227222530024 0.00708242686831 0.0236157121405
-0.0213410781017 0.010654189165 0.0259767223442
-0.0224219552982 0.0079744257475 0.0255158955413
-0.0207122687274 0.0116241038291 0.0191668287943
-0.022935872602 0.00688736910237 0.0275445966711
-0.0217861586874 0.00885951498352 0.0174815926765
-0.0219245195808 0.00817007695477 0.0132602734222
-0.021630448792 0.00940232343531 0.0194316222099
-0.0211738888967 0.00959035072554 0.00828465526912
-0.0214348677849 0.00954293931672 0.0153782574757
-0.0210882535945 0.0109473806893 0.0220757878298
-0.0207924133798 0.00987978278447 0.000560888891551
-0.0208787343547 0.0104880273174 0.01040408234
-0.0223135741719 0.00742988746315 0.0157904128002
-0.0217013372633 0.00959840793527 0.0238692610989
-0.0206250008196 0.0140782453099 0.0222506053566
-0.0206250008196 0.0115991871404 0.0152968908585
-0.0206250008196 0.0119601809441 0.0133977495582
-0.0206250008196 0.0111446978531 0.0041679435155
-0.0206250008196 0.0115453853757 0.00707803496097
-0.0211720388852 0.0119285380055 0.0280060004443
-0.0206250008196 0.0138280849812 -0.0213654767262
-0.0206250008196 0.0113263961407 -0.020498971118
-0.0206250008196 0.0132950839133 -0.018930814838
-0.0214033086707 0.00861191368111 -0.0213712352442
-0.0207477676354 0.0100252314815 -0.0078036269779
-0.0211797486839 0.00914745075703 -0.0184345442067
-0.0206325305098 0.0104123280721 -0.00979491400547
-0.0212830633407 0.00862153850112 -0.0110036303261
-0.0215236141198 0.00812324734017 -0.0166238227549
-0.021936826092 0.00705553165192 -0.0195939805212
-0.020709822431 0.010329972117 -0.0140548687119
-0.0244263415388 0.00907536823596 0.0280060004443
-0.0237376608705 0.0111208157512 0.00163795657424
-0.0236428723503 0.0110208871456 -0.00658019239536
-0.0236234077914 0.0112535594252 -0.00171596362563
-0.0237876762312 0.0110968762951 0.00399038503375
-0.0239199026264 0.0100134783896 -0.0161875947755
-0.0237425038845 0.0105060400889 -0.0139826876015
-0.0241065869539 0.0107666701708 0.0143953362067
-0.0238013421624 0.0101542294322 -0.0195902541566
-0.0234134963275 0.0113890720246 -0.0106822384773
-0.0249481942859 0.00689478621041 -0.0131778352859
-0.0249954604878 0.00645989626811 -0.0174345987653
-0.0247695168747 0.0078068268055 -0.00868946696764
-0.0250396778006 0.00728259768251 -0.00192546954103
-0.0249246135572 0.00747783244204 -0.00525082373014
-0.0251058244046 0.00577559419945 -0.0221244696973
-0.0246228898674 0.00791114465929 -0.0152172145097
-0.0247846779288 0.00838713881122 0.00135590265614
-0.0245465504218 0.0087200194257 -0.00665406292228
-0.0244220350111 0.00846042149838 -0.0177170226059
-0.0245274777526 0.00955591265815 0.0108650621555
-0.0243521955177 0.00912466882566 -0.010924977436
-0.0242994217984 0.0100032717548 0.00634793335307
-0.0248552023064 0.00852581676473 0.0082046934273
-0.0246107944032 0.00969667112716 0.019704623984
-0.0242779137137 0.00965039416356 -0.00341509387438
-0.0247570240626 0.00899269817825 0.0127426871505
-0.0248749500521 0.00879767684138 0.0159364808334
-0.0246145354356 0.00882811878635 -0.000575141185786
-0.0222241250784 0.0131325202768 -0.0226918950622
-0.0242541451899 0.00799084118024 -0.0228309830138
-0.0233370019405 0.0109119568411 -0.0215713153302
-0.0247397827004 0.00941877479452 0.0220490163857
-0.0252561240643 0.00780089990476 0.0267129309909
-0.0248924793647 0.00895069568713 0.0241557685295
-0.0254113053673 0.00724481180521 0.023215160477
-0.0226114641834 0.00532768320426 -0.0161615716139
-0.0221398091146 0.00686392423205 -0.000166475416167
-0.0219938513435 0.0067544746492 -0.0138256443818
-0.0220355042305 0.00674211777641 -0.0113146367469
-0.0219612481172 0.00718240989137 -0.00248270251753
-0.0212519941044 0.00877367864572 -0.00130293112745
-0.0227353963254 0.00561461159236 0.00160896007138
-0.0224434437158 0.00607599053954 -0.00406670364075
-0.0212137684049 0.00870657315984 -0.00610333667856
-0.0219519427725 0.00703709879531 -0.00775504765903
-0.0226939327014 0.00535720906345 -0.00947212342607
-0.0209900104525 0.00926534749317 -0.0039252850495
-0.0231162103319 0.00597882605163 0.0218187843772
-0.0215043606493 0.00858684700607 0.00548362883864
-0.0232377261267 0.00531221296301 0.0153664816191
-0.0211585376781 0.00917800604211 0.00249564751787
-0.0225370642972 0.00649858243204 0.00912688985557
-0.0223847901849 0.00695702797045 0.0110505902232
-0.0227911218843 0.00648133117318 0.0181400480709
-0.0222903684849 0.00673122988015 0.00390450406943
-0.0229551975181 0.00580791963399 0.013133734823
-0.0223235342063 0.0065536379559 -0.0227211583791
-0.0208806019645 0.0154645809997 -0.00801136028475
-0.021418380977 0.0153284704793 0.00606508640528
-0.0214341532871 0.0146271781382 -0.0132255606772
-0.021419671756 0.0151648519377 0.00148476494236
-0.0216079544616 0.0155272498172 0.0262978334626
-0.0210331433747 0.0157420648314 0.0080514305734
-0.0253635214706 0.00514655215817 -0.00966004059989
-0.0251926340104 0.00523752771189 -0.0191376187973
-0.0254038552596 0.0049775197298 -0.00252743259025
-0.0252562819325 0.00722680836239 0.0103104558336
-0.0253933127487 0.00648941535178 0.00730690441217
-0.0251935779135 0.0070304591272 0.00322319058415
-0.0254963185803 0.00595464640149 0.0053587102049
-0.0255026393983 0.00656924327761 0.0155503644728
-0.0254274567123 0.00702587078916 0.0184344394235
-0.0228979103729 0.0124192143531 -0.0125346476055
-0.022665109949 0.0133800142869 0.00714494429171
-0.022210007363 0.0143210245875 0.0158206123394
-0.0218520141299 0.0148153164342 0.0124016216964
-0.0225140571635 0.0139778188085 0.0219151989699
-0.0228092852955 0.0132500275095 0.0113992511742
-0.0220894773979 0.0145749096102 0.0183126640295
-0.0226569612328 0.013251202331 0.00123314323366
-0.0223854380021 0.0136097742517 -0.00204013296906
-0.0228047860747 0.0128378109109 -0.00511820688018
-0.0235768099102 0.0118987861691 0.0162760219351
-0.0228513298831 0.0130206292561 0.00492071301001
-0.0233799598193 0.0121093843999 0.00976731713012
-0.0232362056662 0.0128078299863 0.0249164864455
-0.0240592157274 0.0111214023454 0.0226786619759
-0.0229535667635 0.0130803669512 0.0144807842362
-0.0229935417222 0.0131455918182 0.0197486882975
-0.0238801882213 0.0113539543805 0.0182582148836
-0.024218747516 0.0108883608651 0.0256744583717
-0.022124023042 0.0136045652395 -0.0167626732652
-0.0221548955049 0.013752389355 -0.00989155196094
-0.0117820569016 0.0229880147488 -0.0224790683812
-0.000571999989916 0.0240937126679 -0.0178167686874
-0.000571999989916 0.0252424581936 -0.00336654361582
-0.000571999989916 0.0220935282572 -0.00834106503487
-0.000571999989916 0.021846234345 -0.00475273899178
-0.000571999989916 0.0229049346614 -0.00027407643654
-0.000571999989916 0.0256834877272 -0.00956415026481
-0.0123269995674 0.021931395214 -0.0186709591037
-0.000571999989916 0.023674690889 -0.0203560984965
-0.000571999989916 0.0210126851255 -0.0149938430873
-0.000571999989916 0.0195985253241 -0.0116111024078
-0.0123269995674 0.020935601979 0.00223240914137
-0.0123269995674 0.0209952186339 -0.00135270627843
-0.0123269995674 0.0229608202919 -0.013244126158
-0.00622759774527 0.0237187363165 0.00380300008692
-0.00748206839194 0.0221067948193 -0.023166000843
-0.0123269995674 0.0199096932367 -0.0173507805382
-0.00594146450981 0.0254222872708 0.00259359559734
-0.0068492232073 0.0195529273973 -0.000132066574851
-0.0082667711799 0.020001624223 0.00151145214842
-0.00156135170553 0.0195387839969 -0.00211019980153
-0.00835540169478 0.01882860708 -0.0157334212293
-0.00858149375393 0.0188666844511 -0.0123641525267
-0.00563509529973 0.0183750070058 -0.0118025241008
-0.00782632438264 0.0187408582577 -0.0103402881704
-0.0105839364639 0.0192002920691 -0.0181131078733
-0.00809100140826 0.0194903892828 -0.019648614946
-0.0020904181599 0.0188949226566 -0.016204206131
-0.00136803833615 0.0181563649487 -0.0128988944505
-0.00404070703841 0.0184845592146 -0.0146665385268
-0.0058977473299 0.018902584134 -0.0168389302886
-0.0123014892506 0.0195412011236 -0.0202747423108
-0.0103228181124 0.0197055995267 -0.0208413949896
-0.00392031691258 0.0201572018063 -0.0196529475801
-0.00172163276918 0.0198254844142 -0.0180830280214
-0.00249455235897 0.0212983641939 -0.020679310186
-0.00463136201564 0.0211143219029 -0.0213014520206
-0.00250043795201 0.0225090700779 -0.0223774932442
-0.0073245133685 0.0204586434228 -0.0214920990882
-0.00525919337979 0.0256413055247 0.00035651572538
-0.00866610930726 0.024813506972 0.00309757966852
-0.00792273561814 0.0250325187244 0.000528889521479
-0.0053816247724 0.0255941949894 -0.00573352565905
-0.00439558957354 0.0257101530881 -0.0106246135747
-0.00619672576214 0.0254792426512 -0.00316468275402
-0.00417169254096 0.0258479305131 -0.00313077433662
-0.00497400871547 0.0255155082158 -0.0175315463733
-0.0056604022129 0.0254562693289 -0.0124682951292
-0.0106651139135 0.0192479660931 -0.0145221226542
-0.0102245091178 0.0193095029118 -0.00624033587794
-0.0105525995519 0.0192729328907 -0.0119066260847
-0.0109246255482 0.0195134082381 -0.00307653115479
-0.0115177138866 0.01954139757 -0.00822813534681
-0.00915454328652 0.0190426688983 -0.00865211409138
-0.00784386659582 0.018816333395 -0.00616714711841
-0.0120396420829 0.0231696809453 -0.0152363912963
-0.0115467810916 0.0235410620288 -0.00595607468295
-0.0112654547863 0.0234878044715 -0.0197978933989
-0.01190206919 0.0232935193765 -0.0111902488769
-0.0113508538151 0.023705928595 0.00174758294719
-0.0111653801792 0.0236817195398 -0.00927813646696
-0.0101952367552 0.0240291532971 -0.0179331381295
-0.00952628684218 0.0244820181264 -0.0018469675614
-0.0116505059804 0.0235481922297 -0.000792685874188
-0.0114566479614 0.0236132925226 -0.00296938890498
-0.00554657586724 0.01908761561 -0.00195081328533
-0.00177982418471 0.0184049757877 -0.00527339098671
-0.00439002919855 0.0187503652811 -0.00351928902187
-0.00493039635463 0.0182983133567 -0.00806500236889
-0.00315501477251 0.0182132803706 -0.00680347077379
-0.00535119573959 0.0184328180377 -0.00601264699644
-0.00864990033371 0.0191688209204 -0.0022103941146
-0.0070622368559 0.0188126079905 -0.00405498445288
-0.010648958452 0.0197221536095 0.000885241068679
-0.00311057840647 0.0181070007384 -0.00958671964444
-0.000960346900221 0.0182273524403 -0.00782467917078
-0.00386566334391 0.0257389271768 -0.0148024304694
-0.00502188284303 0.0254349868459 -0.0226224930822
-0.0046710245757 0.0255276680455 -0.0202180219561
-0.00335516177265 0.0260202690546 -0.00105678532788
-0.00309931015524 0.0259611869584 -0.00634993635979
-0.00175218774756 0.0260179335511 -0.00780302198568
-0.00193969103751 0.0259548724257 -0.0114594540894
-0.00251803945882 0.0260583255203 0.000948779270863
-0.000874589710503 0.0260589732366 -0.000459688703278
-0.00135979353966 0.0259086983835 -0.0154292089234
-0.00264140016401 0.0257621396954 -0.0209628161198
-0.00678865488726 0.0251027154177 -0.0196823276173
-0.0080200403909 0.0246556144113 -0.0215173273104
-0.00749630877425 0.0250792145325 -0.0104607181922
-0.00747096447555 0.0251377103774 -0.00515950540871
-0.00748594956993 0.0250482924914 -0.0140463724021
-0.00676639183517 0.0253098907268 -0.00766142304824
-0.0059555134455 0.0253627327687 -0.0155032552612
-0.00871188526801 0.0245922992263 -0.0159677936118
-0.00947951909781 0.024443145252 -0.00643561813121
-0.00987287608943 0.0242060303227 -0.0135925417894
-0.0097737502923 0.0242696537102 -0.0114989477968
-0.00892337638707 0.0246083710297 -0.00905768624613
-0.00914292955144 0.0243707763664 -0.0195775786992
