0.0010060156007932466 -0.002390682411026424 -0.009900880105434016
-0.0011488813803229377 -0.015441124879093899 -0.00949292385341202
-0.004352922945033645 -0.014156421983034687 -0.009511861357741333
0.00494412860022476 -0.008772092816034601 -0.009732408099765801
-0.004223929177350742 -0.010650942575469323 -0.009618647994961517
0.0037999789295108414 -0.005926568585485346 -0.009811332399143537
0.007236877193996907 -0.007090366769010622 -0.00979749692263312
0.008055044339309873 -0.0060635026706153524 -0.009833626006077786
0.003663342839873172 -0.008648405627614741 -0.009728191068879503
0.0033530588377218345 -0.0028816855270371875 -0.009900615540661656
0.005293747612794582 -0.003399080387670691 -0.009897028651767652
0.004891355181999849 -0.005329542474009736 -0.00983616293806615
0.00203252264205887 -0.012489264675076269 -0.009601934723729439
-0.01703900078392347 -0.02345613940319435 -0.009151882456657538
-0.010592365824875077 -0.01808092343298246 -0.009354446056732158
0.0011562791450775382 -0.011764173390369663 -0.009618413785226605
0.005080709164754416 -0.010285033337199882 -0.009687514063725339
-0.016735924910612706 -0.021899376647390608 -0.009200832694871533
0.0034209428561309575 -0.013282548355767249 -0.009586575710994166
-0.008904818362283988 -0.013848460362951695 -0.009492894634027773
-0.01344759552642678 -0.020871306215665505 -0.009252343612801053
0.0033271903918896824 -0.010573035996359802 -0.0096679131742937
0.0071301118271156014 -0.0053052196289979335 -0.009850806122843704
-0.0055270942372448615 -0.014856162517195225 -0.009483410985889947
0.00618762037161381 -0.004330761721514214 -0.009874413027890208
-0.00495376596114698 -0.012557623347029197 -0.009556467110789701
0.0022729349642909525 -0.002292026578237815 -0.009911733352877558
-0.010296417609323531 -0.014855298629436785 -0.00945380868915915
0.003458381088614494 -0.004728739041185424 -0.009845425687022505
-0.013325260921872164 -0.017749947432148652 -0.009347475309806274
-0.004529253859488925 -0.016605888077633763 -0.00943670834363427
-0.015396289556319658 -0.02300688106474614 -0.009175670410596925
-0.011510496778605783 -0.016457497258816522 -0.009397825318767823
-0.003364939976660376 -0.012573686424185292 -0.009565851703213559
0.006950632242329058 -0.009646893774351479 -0.009718424192047992
-0.00021628111996634634 -0.005613344880525132 -0.00979585229200872
-0.004128654421693751 -0.007364921565247446 -0.009718590015540117
-0.0022144314218172766 -0.011852873611175383 -0.009594792178342344
-0.002016656789506639 -0.006138589031981294 -0.009768787512328061
0.0003755232042194998 -0.004336227926355353 -0.009838141333711456
-0.006670854997876897 -0.013383769794861269 -0.009520822197968393
-0.00108495954240711 -0.014202826977756645 -0.009530759874313465
0.0011636323252392706 -0.013359320386705032 -0.009570231506056954
0.006588222451659553 -0.0032724293025572096 -0.009908899495250836
-0.009014714261040672 -0.017492174685774846 -0.009382047219168082
-0.0013926181235171128 -0.007418355787055744 -0.009733971524244139
0.000244845358385027 -0.00742296717551693 -0.009744004499265524
0.003044999755317749 -0.006993714283075476 -0.009774377976577896
0.005479582246930396 -0.007718431600094835 -0.00976759107405955
0.0039037640786022125 0.0011417948656425399 -0.01002568330579796
-0.011915741393698727 -0.021538516437845462 -0.009241687380504186
0.0025171018578384447 0.00023311653992796368 -0.009989595816348869
-0.0017228894613627445 -0.013058520486680969 -0.009561394036096888
-0.009849427642325163 -0.016221251369613846 -0.009415287060899552
0.003675339370038097 -0.0005231604503213756 -0.009973925709010262
0.0009313009420625587 -0.01450433078475932 -0.009534169747410235
-0.007884210581625284 -0.019139813318284057 -0.009339255234113428
-0.006216176998371346 -0.010203483829581486 -0.009619800123168735
0.001480028650919577 -0.003454652477371777 -0.009871656550487612
-0.005326888072693469 -0.010976872081346923 -0.00960194188451623
-0.009177939452057951 -0.018718428021654066 -0.009343958454670887
-0.0024861668843573323 -0.005024325267982151 -0.009799559629574043
-0.0004157635218040882 -0.0023179156942625505 -0.009894247644381546
-0.003426870172711384 -0.016971425304354082 -0.009432504951997862
-0.0005224538930993143 -0.01204046855024153 -0.009599631453025432
-0.014977929368878054 -0.0213487975083933 -0.00922840017948482
0.008329786736251218 -0.007502800384378427 -0.009791816801079694
0.00029791308072277495 -0.008743546114732444 -0.009704407551737517
0.004838139978605617 -0.0005273448047868889 -0.009981022852052712
-0.0057011918249158895 -0.017017157343522944 -0.009416993537713145
0.005922956920149148 -0.006539726430195247 -0.009805982628391016
3.909295835564518e-05 -0.01056619466177262 -0.009647693404532203
-0.001117371691554203 -0.010319841857905987 -0.0096479573864579
0.004734923161361083 -0.006701866374401563 -0.009793700051165238
0.0016666767195334512 -0.006984200451931976 -0.00976610307825689
0.009771588601188956 -0.007893201451828964 -0.009784558734273457
0.01027936552054737 0.0018673242564538365 -0.010044576290368977
0.00696363594603976 0.0018908769913669869 -0.010048722500357522
0.00595176733825033 0.0012938536497466972 -0.010033858458601438
0.005088724176510599 0.0006109946692396339 -0.010016545162711759
0.011553269765652251 0.001595711496999302 -0.010035974201934686
0.010002891961010738 -0.004920165222702274 -0.009863678253320567
0.00827580093513907 0.0025038368758893343 -0.0100636933988402
0.010395585937523441 -0.000863698572572322 -0.009971548625556872
0.007766667997201428 -0.0034847381115148722 -0.009904369117173122
0.009008353387069823 -0.0016920507911376162 -0.009950907485886396
0.007143804920594797 -0.0017655523609035003 -0.009950923364293601
0.009405633153543529 0.00010053305554171498 -0.009998338875103586
0.008615918143714995 -0.004944103767611425 -0.009864510579321382
0.011714015270661272 0.0027524358155406286 -0.010066682312530776
0.010609737335992258 -0.00380060197473276 -0.009892921110551022
0.009082039001176483 -0.002806383434213756 -0.009921082321830036
0.0076153294528591205 0.0034122921110991836 -0.010088645175029486
0.008980804627738781 0.0011967397883543374 -0.010028052677738954
0.007917346692201474 0.00013222865922477532 -0.010000763825890288
0.00547048985204173 0.0024258985844285755 -0.010064588841890225
0.004122937493718769 0.0026439231469309013 -0.010071838528093967
0.006695016064579838 -6.6523970802842385e-06 -0.00999835311263449
0.011248633457433037 7.186001882784917e-05 -0.009995618315343669
0.022048452069576487 -0.025073328582417856 -0.008154364976283196
0.022564977490327036 -0.025330505655151835 0.0006123122579692018
0.022345867023011584 -0.0258330182317067 -0.007223877459539522
0.022240817348706282 -0.026347295162118166 -0.005589809924020924
0.022330130023076003 -0.026042705133066696 -0.004363078546457474
0.022477088056557817 -0.02549514666274106 -0.003259190939846389
0.02239078978105954 -0.02598497181008006 -0.0005886051156980624
0.02217418927079058 0.018243350752698055 -0.001847220263306621
0.02237425120846541 0.02348115613718139 0.0046484219827060014
0.022046218708313484 0.02084394355187525 -0.001814022710969301
0.02223218830089052 0.012500286190254936 -0.005074602020824507
0.022392007968402315 0.010845170713750133 -0.003995149200072387
0.022250346045105594 0.014162144347508362 -0.003650041413440379
0.022179226159774336 0.019296187860953214 -0.0010355260849634678
0.022023465825033457 0.015747374374058702 -0.0057203834924535405
0.022355921459701576 0.022604642891395726 0.0037741540774256
0.022016618068244648 0.018618737613717958 -0.003795742992233197
0.02220970455486357 0.02456290773793973 0.00309906931366221
0.022336208570508553 0.021562889997942807 0.002764171315344609
0.022155252221569055 0.021562300654101425 0.00022265640221176759
0.02239686514187545 0.01909367046942539 0.0018781669286768408
0.02215211235150473 0.020441965474772342 -0.0006099022970183878
0.02192312797864817 0.02175491758381727 -0.0029014152592625694
0.02237932300908159 0.014632772776319521 -0.001507649993240242
0.02185625214623524 0.019541561687724703 -0.005398236882511158
0.022255188578803944 0.015337002208598925 -0.0027552010282927116
0.021963545862071228 0.022468876017448843 -0.001831374629407371
0.022355258248351165 0.02484944650401909 0.0053446831799694484
0.022062157798131917 0.014189647159817976 -0.006273340450603286
0.022239536095944777 0.011036187816576969 -0.006001819296792172
0.02192523032713951 0.01745548247873006 -0.005897738574588952
0.022305895301128028 0.009716836049048477 -0.005998492715134529
0.022273390073616613 0.01781885354324641 -0.0007529332818520221
0.022229409445372227 0.016808528579547125 -0.0020815802638461467
0.021839518752339405 0.021339352799122604 -0.004367972499563857
0.022405242735191438 0.013375235943949949 -0.0020286954418277233
0.02224666650980082 0.022759160729354157 0.002348675177198618
0.022336256819044588 0.01875889174445553 0.0007914579088488839
0.022038167986655435 0.0174520676145105 -0.0043142019286236555
0.022155995651494113 0.012468913855049373 -0.006166625124861885
0.022123870853907435 0.014912725231211977 -0.004897841740783452
0.02216588464633567 0.022679222081107567 0.001158027632319146
0.02226531906940265 0.020328578833954933 0.0009000169675241487
0.022076015082834737 0.01638806162987098 -0.0045315532637223216
0.02214149048279808 0.017013008730117723 -0.00317228377869335
0.022168400147779314 0.01374441585798692 -0.005094763933824476
0.022081699522792597 0.01931204171977749 -0.0023938974064308745
0.022419436448013835 0.01634288208972076 0.0005259316488162706
0.022416362394881796 0.008165029635929862 -0.005336010520381579
0.022539384518308246 0.006341543518072171 -0.002355121979463043
0.022540274359288383 0.00219838911759264 -0.005240137072614416
0.022473290876820037 0.01886460339307035 0.004167375240999238
0.022489416693656887 0.007402132823094877 -0.0033406976502365774
0.022578471846157744 0.0062366119573149855 -0.0010741177937106793
0.02258242434301394 0.007462889158493377 -7.408923917145527e-05
0.02263550227457913 0.00429813448823726 -0.0004615747160150208
0.022452439187285136 0.012731520725527605 -0.0008717158511531093
0.022525272288339553 0.008796940154068823 -0.0011162299156646746
0.02255050732740897 0.009586127300858577 0.0003138841552088787
0.022488652905775584 0.014813764704104362 0.0018489677016738214
0.022576266032290515 0.0012695764110602233 -0.004646264116195492
0.02240943840649213 0.007274339605664897 -0.006202858792441798
0.022643563238829982 0.003194054478118474 -0.0009591906782742397
0.022485689841964893 0.016731532735920474 0.003095943432916201
0.022685431546265587 -0.0013630988401077291 -0.0027151652252709836
0.02243866349466372 0.020526100424696554 0.004136438361292469
0.022599534401087747 0.0016835707805868193 -0.003548371400793441
0.02254418700102382 0.005294450852980873 -0.0029255776582782925
0.02272572624259323 -0.0036376640776843603 -0.0029192504077883773
0.022514688863795346 0.004018638208164705 -0.0048459361645877466
0.022451480174534584 0.005761198098256113 -0.005810513725062283
0.022427041843663023 0.023936331194917223 0.006133650164758769
0.022445879762233285 0.009070732439534202 -0.0036754604426129022
0.02249631991695298 0.008389405181331423 -0.0024065966705087054
0.022509103849157993 0.012634943890586198 0.0010244372181212119
0.022430298467113818 0.014544405684595215 -0.00036329417239958995
0.022644985786204948 0.0021616459337372904 -0.001636467987752011
0.022469580817066348 0.01383556719612402 0.0004994537869110554
0.022559204172609988 0.0034955375604479935 -0.003671084236838768
0.022534993782368267 0.01094842730788348 0.0007349067232109555
0.022457290036437018 0.0069320498449126295 -0.004785112006351703
0.02244530462253304 0.017201140308776994 0.0020266022534710148
0.022583461354922195 0.003964947329124928 -0.002499916960263085
0.022411877666066272 0.011777553582343872 -0.002949047923674739
0.02267266185708974 0.0010435888048477657 -0.0014640180409874865
0.02245501832816858 0.010824406363266377 -0.002124501381388758
0.02248241965196587 0.011648334526259227 -0.000594849176151446
0.022503893227201165 0.010160387738778181 -0.0008977113829815656
0.022679519471486862 -0.0025183745690072583 -0.0037331478156621013
0.0224417561445332 0.0188001727784647 0.003028967318706775
0.02243152201919254 0.021586906259556674 0.004635470432982441
0.02261817411335066 -6.87198129676052e-05 -0.004135500753096189
0.022482259862803874 0.01586350599141086 0.0023661551082715267
0.02250057894697891 0.006004494351450433 -0.00393741596620961
0.02264279559987343 0.0007625428377434206 -0.0026970419676073413
0.022648733460139747 -0.0012333973697311108 -0.0038959205380225464
0.02247412070301454 0.009475820273305947 -0.002411475676984781
0.02192059243256452 0.016473530796022803 -0.006595161521162157
0.02225124346667137 0.007448618807490493 -0.007268451899983874
0.022092880805958403 0.010485774774948201 -0.0073027811740970245
0.02220184861147643 0.009216724028459206 -0.007051302756201457
0.02175952829879548 0.019110285190152853 -0.006755613906871774
0.021969634387367442 0.012109702213176223 -0.007534859043791315
-0.008647059333623641 0.02811195087919966 0.005611048099510459
-0.009075156460192985 0.02833236849195659 0.0040424819985380896
-0.0072716654759158155 0.027948993234254864 0.006806904521561264
-0.012839648053623934 0.02818899711690886 0.00492456631615259
-0.021021687031824915 0.028131625860532295 0.005049354978508201
-0.014567155127771864 0.028330861153763525 0.0038653829451237923
-0.014524230641320775 0.028140226485863902 0.005210814945002067
-0.018199045047232524 0.02800477102674837 0.006040157772015594
-0.002749911260966912 0.028019406798338527 0.0064650535865835215
-0.015884319317801144 0.02810637182278897 0.005402998499193071
-0.00034632921299653126 0.028202595815678366 0.0052557387369638955
0.0009312169721876207 0.0282574638021126 0.004912590875071019
-0.005392563755395517 0.0282787999335069 0.004546014812442125
-0.01672139146231089 0.027970620963657437 0.0063314226640099475
-0.019361303129021717 0.028001878086259584 0.0060208249286035865
0.008909086919874437 0.028139803543847042 0.006014786700921211
-0.010022858787931011 0.02789582268171814 0.007087713833718727
0.0026222670875309575 0.028193509869555582 0.005421265790504619
-0.00885664463857161 0.02792867295359159 0.006895984230707373
-0.007808428848469726 0.028268425985368606 0.004536572307716077
-0.016919795331927407 0.028191655793613726 0.0047663565131633116
0.010967512323091563 0.028051608403597817 0.006706918407355243
-0.02125541782270729 0.02832038629153757 0.003710614174949251
-0.011334684819861007 0.027975317757711733 0.006482437157138013
-0.018762841598494454 0.02818709207575639 0.004735532085499474
-0.018183435222101547 0.028422441355958034 0.003096136640991713
-0.01440719353576201 0.027851763556728658 0.007248464533233691
-0.012619558318682937 0.027994370041914265 0.0063042003890475635
-0.007079470985274267 0.028130775450639044 0.0055319186176046595
0.004760281464910798 0.02802537322099593 0.006679701572618445
-0.02031762189377558 0.027872399931230616 0.006900950797510855
-0.005833238462789595 0.0280238771756633 0.006328144365341041
-0.0045555808663624055 0.028157504356977933 0.005429751970305947
-0.021799534644167742 0.027954414952245283 0.006272094787087993
-0.013836546096514222 0.027993051687835797 0.006271896038401415
-0.021748497941992035 0.027785939215103302 0.0074615847347329085
-0.0008273250397378574 0.027957348482797545 0.00696827878974154
0.013980663196981657 0.028078599772873115 0.0066196251615563435
0.012440076774321207 0.028080222201014027 0.006555527301383111
-0.0039517560163240244 0.02801531993270249 0.0064527847162924885
0.007711010552518058 0.028147572074613006 0.005919066695289157
-0.010890197390258378 0.02813728052957351 0.005355801130021133
0.010018567234155817 0.02814825932479012 0.005993097767945327
-0.019576454990445264 0.028404649267135373 0.003173954219058321
-0.001997362924074089 0.02826956123502694 0.004727200819638801
0.01678133869016525 0.028131766154637333 0.006340536636950175
-0.01176216257860303 0.02838491553283319 0.0035801816486197057
0.0034420511182351645 0.02796496738678907 0.007036361348449484
0.0134651490040477 0.02785956871027443 0.007892550710155717
-0.01651871933685231 0.027813327436151093 0.007444615367456702
0.00913473116652222 0.02796140114812987 0.007193569838522287
0.015649361795606047 0.02785760090093183 0.007956373945831352
0.01575851643715515 0.028041235809681486 0.006885571445693052
0.01871442984132519 0.028060481940659368 0.006843876295461962
-0.005894393767467048 0.027804272599234407 0.00775203946513644
-0.0029204069466217536 0.027845679943439013 0.007581236367911846
-0.019167442352228673 0.027782102988074736 0.007563686859863591
0.00291242753689504 0.02776958741893557 0.008165746357705514
0.0056894815235371664 0.027918016838708436 0.0073646404349633115
0.017154075073265704 0.027928998916936447 0.007575068777473892
-0.004257996980159944 0.02779746992451293 0.007831001979026529
0.00698531927933755 0.027982661797770477 0.007017806097157166
0.009878323552050445 0.02779359975160391 0.008192246025207572
0.0021731315537285613 0.02795165023765413 0.0070838095487931515
-0.004548384569278824 -0.0040062017794712185 0.009191675578227159
-0.011480917829823153 0.003692195098335359 0.009110767219104145
-0.006066432065504206 0.0007944060352717754 0.009239346752067883
-0.0046328491525060534 -0.0022383993225799704 0.009225831085064879
-0.004407180740031224 0.0008870603442614706 0.009299336107123595
-0.010258066822058029 0.0031705598457035665 0.009142594953568216
-0.0031706680473809513 -0.0009509225130229489 0.00930400857356702
-0.005976595081575753 -0.002667246183757142 0.009169821355061268
-0.0007309517686088043 -0.005566358353693662 0.009292466625948041
-0.008322867057040021 -0.0016485371810129974 0.009109128568754038
-0.007771803422324123 -0.0003548989496001867 0.009155562470589115
-0.00800437203053982 0.005414316990536412 0.009268535901676186
-0.003006430300296704 -0.0029769343566766917 0.009267223297683352
-0.010845998499478308 0.005584173447564827 0.009172695125517289
-0.010386923644101086 0.0071510695312818244 0.009221647368954883
-0.012162685448477446 0.002152173570911198 0.0090545888433475
0.0011316768676418237 -0.00820285698507326 0.0093022793348857
-0.0087591128160645 0.008232339466237791 0.009301290196233387
-0.008739694682646532 0.0022628431339310304 0.009176655935077466
-0.004403971183520537 0.002656283761290153 0.009336588480922349
-0.010112395729477627 0.0045022491389346735 0.009175646096471706
-0.007266556004388913 0.003890745076375022 0.009262363055848157
-0.0013819007245665824 -0.004133859630886538 0.009299766439218675
-0.004812839753176376 -0.0008566386481737196 0.009248540966991937
-0.011862916641416065 0.0002093640267237652 0.009024291356335116
-0.00880145530108687 0.009604096098480404 0.009328605309440545
-0.009099343725073131 0.004957734436897044 0.009220646615012524
-0.009642015170931481 0.0006261712289299627 0.009110733210877462
-0.006588870818341448 0.002779003001843902 0.009262731960559902
-0.003348541256626206 -0.004926791178972188 0.009214323480641756
-0.010696350937702572 -0.00014085268547490813 0.009057748576935542
-0.00635861847750815 0.005955108911932873 0.009337460520618249
-0.002210195112462598 -0.004875744443505218 0.009255216966792802
-0.007067436001595663 0.0017353786569638166 0.00922408258729557
-0.009074432207678016 -0.0004590407366108796 0.009107807421728918
-0.008840578713795327 0.00684558075454645 0.009269329060194394
-0.007585580652216331 -0.002440104657555113 0.009118303663756414
-0.0059800085647348095 -0.0006454910992413272 0.009212143264564088
-0.0085052761965765 0.000747493976774315 0.009153045730860496
-0.008639768427520114 0.00369632826968969 0.009210243751592937
-0.010852671137420208 0.0011336375333543306 0.009079034647230505
-0.004406277290325779 -0.011437283520190376 0.009034482102134289
-0.005406966456397025 -0.010616832886189361 0.009016907189221317
-0.0030064553774926854 -0.006219823838956176 0.009198697050341754
-0.004351099214510589 -0.00974989518440929 0.009073459238719588
-0.005129468648167296 -0.007361364574146899 0.009098185847204579
-0.006712884535312659 -0.0069929447172029395 0.009049979918637922
-0.0007917699722364231 -0.015201839995833794 0.009080390125128839
-0.009554420926098343 -0.001964127793404757 0.009059283377184826
-0.007921265673096976 -0.007422757262982274 0.00899759531286582
-0.004051901648625653 -0.007017188033319997 0.009144041658847586
-0.0028604101332165934 -0.014276725307848402 0.009027147292612853
-0.0016926136957414576 -0.008741273520445183 0.009190089798914261
0.0010882399497314018 -0.012361787545197617 0.009209522616181675
-0.006649461545382877 -0.00906975941803027 0.009006676144760167
-0.0015509777800536174 -0.013557447655103003 0.009089473997262393
-0.009006241290091298 -0.002988219538145335 0.00905630511814637
-0.0018790077263897463 -0.010117392027896712 0.009153276368527752
-2.4693957691413696e-05 -0.008047713204088269 0.009264595987246335
-0.005077462399980845 -0.0056004212844742 0.009138663779804011
0.0015381090880500297 -0.009497689312349563 0.009288343442600697
-0.005110018902231416 -0.008629642262091654 0.009071055490209663
-0.0006710275329062214 -0.010764501839653164 0.009182022652832965
-0.0024326009129213436 -0.015498622157778204 0.009015550882310158
-0.0036736033143626888 -0.012640183645591987 0.009034139856087793
-0.002776305617346555 -0.0117806796056027 0.009084891949892622
0.0006851020461371255 -0.010756206503969763 0.009230412796860644
-0.003201159660478779 -0.00970968303674175 0.009115219815005488
-0.007383573906688837 -0.005930379643322556 0.009049447134378783
-0.009965186598492728 -0.0043936595267704175 0.008991385547641078
-0.0005494202021551907 -0.014077322307547038 0.00911367341081357
-0.0039110670002760195 -0.008641277192752116 0.009113421023513245
-0.007167632917155775 -0.004534171316955343 0.00908775161379256
-0.0008490067141671011 -0.007072716106442728 0.009256681196735884
-0.0005394817475046622 -0.009209232329990387 0.009220816291256399
-0.006372609419418995 -0.005398411068825199 0.00909705486451303
-0.008765132236289134 -0.005282593763270637 0.00901454526399812
-0.00011041415179080646 -0.012507041555535878 0.009163726051445605
-0.012696435610775525 -0.007640801521287455 0.008777075621524232
-0.011108505196356448 -0.003938243305171979 0.008953273219052663
-0.013619248475184254 -0.00899803905112886 0.008696995540764169
-0.008183291275225432 -0.01380140062946625 0.008809229507576948
-0.01818846226399377 -0.02214540421676475 0.008119957309727591
-0.006978961106495203 -0.010936716611590186 0.008944451367088518
-0.018344950819770493 -0.025784877494161928 0.00801061435227822
-0.004615073196279763 -0.01670220600092447 0.008889984167830742
-0.014252908491994254 -0.022387101862482658 0.008292104245494696
-0.011523897716165623 -0.01392963887420845 0.008653741743939729
-0.00900168471885681 -0.017170041955055487 0.00867739935350004
-0.015466609744964315 -0.017299158082067737 0.008379835063905895
-0.017400697561283616 -0.025070205167065623 0.008073620450178011
-0.013725752511302581 -0.012359277652559942 0.00859774044742686
-0.01501194288081022 -0.02352839191548836 0.00822553627840763
-0.013901228947065115 -0.003894402825314371 0.008827529232882256
-0.013148661733892598 -0.01063558709810738 0.008672394929450225
-0.012360856991725929 -0.004036389086498216 0.008893576366940655
-0.006939942988416726 -0.013066551392865555 0.00888640115565161
-0.005237659267308004 -0.014775075731346989 0.008915807879719038
-0.011233443134038994 -0.010799758246598009 0.0087548618888375
-0.010245090550627944 -0.011674458349944326 0.008775229669389348
-0.007325253785039275 -0.014836296431612859 0.008819172631089995
-0.011349621429847148 -0.002759819032933635 0.008975410877078914
-0.013763336192831984 -0.014052495038894152 0.008548471421877545
-0.007278222871247255 -0.020186602364469296 0.008671027977819325
-0.008068486778864497 -0.012543472020615176 0.008849782810800658
-0.00571686037846512 -0.0173814627400819 0.008820810328760404
-0.0046957067860947735 -0.01785516329349736 0.008853933001330229
-0.013193678885428453 -0.01649406886103281 0.008505791187874697
-0.00588882851637447 -0.013775127690456457 0.008914288697325187
-0.00929556123980484 -0.0086305354126922 0.008903901205817445
-0.016154583563235122 -0.019464591784788543 0.008287731138707472
-0.00681852357041539 -0.016947876431710657 0.008782900409697123
-0.006221307848759038 -0.015535680441095889 0.008849720434308272
-0.015171555362901514 -0.012037241893066613 0.008541050391808296
-0.014659268997996723 -0.013205712661731366 0.008531521474416742
-0.011269016354948192 -0.016401475501969492 0.00859589970370583
-0.0055528588116419055 -0.012148498741777734 0.00897525391374069
-0.012584585013755398 -0.014631495570571595 0.008585801770481937
-0.007650891260935881 -0.018478977075039874 0.00870204897163994
-0.010746052209241167 -0.019245334016623886 0.008539796852012796
-0.015622944512975691 -0.01592550237378547 0.008411311231061945
-0.01624446664495521 -0.02418852703784198 0.008150955403817746
-0.016660773292707667 -0.02212056241876821 0.008190113771266433
-0.013104065281426464 -0.017836679464941673 0.008472153457869782
-0.009134113349791792 -0.009851450718252868 0.008876947789453363
-0.010814416545285315 -0.008314561850653606 0.008843719430880179
-0.010820457965814406 -0.017919277790760572 0.008573661039306303
-0.011461250526952904 -0.02079328764096874 0.008463799318767003
-0.004560029254250044 -0.013553541481282332 0.008980928626683097
-0.0099415093496141 -0.014126422315436307 0.008720160037668756
-0.01705904809153658 -0.017746764025717295 0.008294859791002805
-0.010619531884694888 -0.013127609213706865 0.008717388051099905
-0.010102994568787247 -0.0072603211152117925 0.008905677527996474
-0.0030840479617862838 -0.01764594535707185 0.008933086159924735
-0.01494586085776163 -0.008920279219881345 0.008638863273733956
-0.008681104649195871 -0.014889456436293089 0.008756033628053963
-0.014746204616893119 -0.010808404565551509 0.008594906014275382
-0.013260856527285432 -0.020381343499070025 0.008393548475161161
-0.009379157905041714 -0.012916085234865699 0.008779724956639829
-0.005643475721954378 -0.018648007772053582 0.00878857130597465
-0.009993943567731742 -0.015620259818126559 0.00867581612604579
-0.012036593135595587 -0.019090554332131714 0.008485468013611514
-0.013340876993851659 -0.0028604151978304207 0.008882049820129202
-0.014264242645983475 -0.01620633883284566 0.008465198342356383
-0.013490371372073057 -0.019139450984829286 0.008417996346451738
-0.015447690289565667 -0.02175673150527474 0.008255487950733036
-0.01873377912031419 -0.023299183095297167 0.008062755538810102
-0.01429889746178099 -0.01831916802634763 0.008404276143977443
-0.00923826078269355 -0.018635954426650062 0.008625467531520242
-0.01690618043093468 -0.016598805820084894 0.008334054771015637
-0.011922800335953505 -0.006639383024181539 0.008840378633803228
-0.012046188048820902 -0.0014183216482623997 0.00898142130189676
-0.012235377262558408 -0.012035626500375056 0.008674593541904373
-0.00893238538510541 -0.006611834524971063 0.008977116170801252
-0.018915941933908782 -0.02447456236568574 0.008021458389106435
-0.003698378006928851 -0.015089471987516874 0.00897696265599919
-0.012887710049743666 -0.02201024671811699 0.008364760416688865
-0.008714529096500254 -0.02076577885383904 0.008589455846016709
-0.017290818157319924 -0.020372254533085832 0.008210575474661579
-0.007939279441707681 -0.009057625714863774 0.008953570208891364
-0.011908496841228619 -0.008991047680725294 0.008774973828197691
-0.011932190853687958 -0.005377585450601513 0.00887539389704799
-0.014886326234723123 -0.020253904194699815 0.00832322363847518
-0.015805873732623214 -0.013164008292550784 0.008480560777188971
-0.013600833384103343 -0.006389778654692848 0.008771095379735477
-0.014802972383346057 -0.014834526365842543 0.008479236569977766
-0.001977020433963918 -0.028277673262899945 -0.0028932618572834372
-0.01569659306803664 -0.028086728260741274 -0.0020594816067542915
-0.018278432130170486 -0.028065392180164597 -0.002375411534968217
-0.016926253342598792 -0.02807967019546993 -0.002310487434045893
-0.010123208481826598 -0.02810282850476521 -0.0004070904572274843
-0.0073316730429495 -0.028095683966756588 0.0009131834024182633
-0.0038511385245365492 -0.028134015194046486 0.0010291409935964967
-0.005476599807189052 -0.028230875806215708 -0.002742407741498093
0.003233523725259222 -0.02833327465805335 -0.0026619287326215906
-0.014511299935836407 -0.02811352042707563 -0.002465013211831848
-0.011576706444479265 -0.02816556406135736 -0.0030061771399301426
-0.004219681432119317 -0.0282576378182122 -0.003119024953361755
-0.006040246500429773 -0.02811719809872245 0.0007200168315589369
-0.009236585890147569 -0.02807963225182551 0.0006901179537537017
-0.010147665976505231 -0.02817873936121468 -0.0028755534927360354
-0.001825894212076486 -0.02822511798377394 -0.00113193099334948
-0.0006506706877784712 -0.028229852400816706 -0.0008268901821259446
-0.013018569055941601 -0.0280847189202382 -0.0009498237901432388
0.004419953369028774 -0.028384737844736815 -0.0038661668585540736
-0.004604916935492925 -0.028150389813089455 0.00020471688698191865
6.0556978816558426e-05 -0.028270538403926734 -0.0018673849612389124
0.0010276398409547229 -0.02832619071129277 -0.0032928749510327065
-0.006433202033834208 -0.028146575069349263 -0.0003848427047599064
-0.008896890312862244 -0.028129741992969293 -0.0008005500200598465
-0.000985138332326562 -0.02830767611427445 -0.0034782352835318916
-0.006923301681871457 -0.028233147736902657 -0.003380290799273229
-0.008252194569449395 -0.028170434776377658 -0.0018672153910947928
-0.011352730546270852 -0.02809140183573491 -0.0005165334769874879
-0.005207010162648344 -0.02817242805542073 -0.0007439994818452958
-0.0029722866137126642 -0.028244462412703317 -0.002205694105336261
-0.003841444090252104 -0.02820421448434309 -0.0012409905166576535
-0.005792165857177934 -0.028087282726291192 0.001785807556579179
0.002066733119830181 -0.028300038994334795 -0.002040460797121422
-0.011780668984741392 -0.028118900878300733 -0.0015742078810196411
-0.014407948930341495 -0.028077196985683357 -0.001248102925221413
-0.022364075424327615 -0.018518244738667568 0.007485575109745055
-0.022321520658238267 -0.020186349400343993 0.007497883671042462
-0.022372402988404205 -0.005491375874562729 0.007741005731565259
-0.022082668873926382 0.006734139867847954 0.008108155170022275
-0.022268957316021368 0.017468031286335832 0.00821143492674816
-0.02163507414023807 0.010059589141836781 0.008305719628824424
-0.022176651569675666 0.02255735556722352 0.008319588735508043
-0.02201622889883813 -0.008457712957290964 0.007897362191567312
-0.022010744497480177 -0.007311418961168939 0.00791670707975606
-0.022247334421208124 0.0031187896829978686 0.007998856348784044
-0.021864532836767543 0.012745359194117945 0.008271650781447837
-0.021933907091747695 0.01982641424033387 0.008357319255195197
-0.021646323317614045 0.02402738608621652 0.008515857926436658
-0.022024330017552284 0.008215328903391899 0.00814994485268235
-0.022211357856382417 0.0044158554629490036 0.008030500258039829
-0.021690411720028807 0.005619815409410442 0.008219622233116605
-0.021732212139467168 0.02522694419858023 0.008506079183627327
-0.022014221244372162 -0.009592283016440526 0.007880651597442289
-0.022105846131044077 0.0008537142947276314 0.008010541281421332
-0.021580935924995263 0.018393356856557564 0.008451034734173917
-0.02170086181634731 0.021453713025125665 0.008458589308695714
-0.0219773162031486 -0.014830956309659684 0.007812548235401529
-0.02185467706527513 -0.0032477037794410644 0.008030052409845004
-0.02246999926865101 0.015209639944648709 0.008016171886928061
-0.02246999926865101 -7.577066752157725e-05 0.007455207575008969
-0.02246999926865101 0.012735985213230546 0.0071659126960503285
-0.02246999926865101 -0.012057666915290801 0.0073771636397694925
-0.022469999268651012 0.007778809080409446 0.00716684313982153
-0.02246999926865101 -0.002374609505073108 0.0075964501399139565
-0.02246999926865101 0.021062300397013727 0.00775423012830284
-0.02246999926865101 0.013988159414779412 0.007033800286717727
-0.02246999926865101 0.018998997533608987 0.007111782133233262
-0.02246999926865101 0.016592997496351836 0.007542093210299416
-0.02246999926865101 0.025247122656788554 0.007350562988840416
-0.02246999926865101 0.01023719226390794 0.007514940424431972
-0.022469999268651012 0.001634329774794832 0.007085643372640325
-0.02246999926865101 -0.0041251351442745995 0.007443790882166579
-0.02246999926865101 -0.016912881284848254 0.007281935341782502
-0.022454476202238623 0.026780107506121878 0.007511124884101843
-0.010528748254262286 0.004012766186714322 -0.009808169233791686
-0.013245110409821575 0.004215695645387402 -0.009693545172287286
-0.017861137024002903 -0.006875072962677995 -0.0093774579388002
-0.010706625860552429 0.005326145617605067 -0.009814453766544573
-0.016629217972769002 -0.011312848590678043 -0.009383345092929667
-0.014401251203060135 0.010016312805313383 -0.009705371898162368
-0.011915350752821739 0.007178821630791075 -0.009782142617773241
-0.01285975731076907 0.01026667257094148 -0.009774296493647933
-0.010572204267029461 0.002857814701275993 -0.009794050056553986
-0.015270189025672778 -0.010539925617823827 -0.009449968529268358
-0.015879305431900317 -0.006294873416624828 -0.009468811417782708
-0.016538551966951316 0.00467727865646327 -0.009556856059120256
-0.015659818013220382 0.01099659745116687 -0.009661664261902963
-0.015354538074647614 0.004280766205402677 -0.009603550948761273
-0.020600761385068802 -0.023944115758320568 -0.009078623598634043
-0.016941982583595763 -0.0013459634517993986 -0.009475621777466841
-0.011614409616968817 0.0013787543426978363 -0.009733556628137484
-0.015364797967010822 -0.0018821327976066993 -0.009537737712959597
-0.015259865240127832 0.0015580916692203104 -0.009578740519294932
-0.015298016161582656 -0.0073517036655467395 -0.0094825908948789
-0.007886969811592067 0.011113223052682461 -0.009997056671511597
-0.015779981976561844 -0.004663883071355795 -0.009490381861772836
-0.013978154740679793 -0.004143131374870594 -0.009573366354727697
-0.011162853275883653 0.00019473663762501622 -0.00974040975236086
-0.014729761377579163 -0.00023307035599234166 -0.009582530201613107
-0.008971324307892822 0.006438269095869294 -0.009900851215937185
-0.013338519184847535 -0.00029918182045472535 -0.009641638537371381
-0.013547839737407714 0.012462820433142388 -0.009768011136611814
-0.01787797343774611 -0.014297021606797949 -0.009298006769959483
-0.016749925572158555 6.817209615823244e-05 -0.009498878584381866
-0.014480007531337585 0.015134851316753605 -0.009756280399834616
-0.011846382690381553 -0.0014973690275996774 -0.009693075978090406
-0.01394167281398077 0.005531735285730246 -0.009677559625089012
-0.01439006481684792 -0.0012966324547674145 -0.00958585218303899
-0.018724944398961166 -0.020307994710179016 -0.009197834798021614
-0.016641903185047616 -0.012437430457378712 -0.009370870896521602
-0.014710574716846843 0.00657372869116654 -0.009655557287140144
-0.009584576048043657 0.01228204926989664 -0.009936474628461645
-0.008901932949697279 0.008110810909631118 -0.009921575628742761
-0.016513062238691457 0.0016562985726041903 -0.009525907204893009
-0.012540607254463362 0.006118888585375106 -0.00974401969047301
-0.019089664088660224 -0.014004933496723252 -0.009249014386591158
-0.012856957855362132 0.014133983914730695 -0.009815438852473218
-0.010527073705302467 0.013378979631190295 -0.00990759213293251
-0.01745224919077836 -0.008302792552377154 -0.00937989170417291
-0.017035986793283803 -0.004719797159494268 -0.009435793020372063
-0.01454862325242633 0.00856076848806054 -0.00968359686284861
-0.013595677842176752 0.006850995090482558 -0.009706427853992464
-0.01584408115298233 -0.0006294031383358954 -0.009530421462884454
-0.016908125502266624 -0.0025366193253034026 -0.009464447566130525
-0.016455633766097138 -0.007412448930965815 -0.009432180480905498
-0.014385920326021862 0.011488840765101097 -0.009721650625536284
-0.009192750734350118 0.010471049971462813 -0.009934109284411746
-0.017388057987660032 -0.00985674311863503 -0.009366167957024912
-0.012647608844792286 0.009074219831320361 -0.009770767982083005
-0.016017081661060893 0.008266005866536478 -0.00961734107059155
-0.01323628687159607 0.0016736604564785923 -0.00966696018398328
-0.013733850213883918 0.003049990161683341 -0.00966016914030289
-0.011094622318652861 0.01437559682283473 -0.009893764665397257
-0.00928812119486641 0.00505676462405939 -0.009872577962519868
-0.01435125245356616 -0.0061736370240406116 -0.009535788527733537
-0.017580715521225827 -0.016363733128147134 -0.009288863531846945
-0.009351459173605933 0.013519492961526436 -0.009959622365672754
-0.018276420982363654 -0.012348059297531702 -0.009301550848789657
-0.011328480701932726 0.011725293628127811 -0.009855598324345377
-0.013406417046098809 0.008199864255794949 -0.009728872146603345
-0.014992085210984283 -0.002974640582812176 -0.009542172025397049
-0.01028776465435617 0.009152320017243087 -0.009873046295906993
-0.01630474432286102 -0.0036999996788470418 -0.009478046559435169
-0.012497382241339706 0.011417892914194996 -0.00980208644708114
-0.015613622135798347 -0.009406227928365834 -0.00944722986760816
-0.016149590355086882 0.006564307875919834 -0.009593593968441574
-0.01187697606366866 0.013420512095772885 -0.009850000281113014
-0.015629485350517495 0.002880905354512021 -0.009576882100275956
-0.011506767423924369 0.00942408562124143 -0.009823523995635736
-0.01571154371332329 0.005547773447207335 -0.009601642867107688
-0.018199480534606523 -0.015327633683797135 -0.009273253070431874
-0.018856687348618544 -0.017475073576102618 -0.009222221007173997
-0.012072693152788425 0.004392805505050597 -0.009745826146953698
-0.012532643709448198 0.0027318031748242515 -0.009708433968944895
-0.007676713507959091 0.009916839932033045 -0.009993405124734072
-0.00766099616574675 0.012444512925278341 -0.010020892782149241
-0.010585544875156016 0.007400508793670225 -0.009841662588906584
-0.011009748356474763 0.010392836839963596 -0.009855166786610876
-0.017203470043212238 0.01343900680471221 -0.009560954185469976
-0.018915906272852074 0.021443779776655802 -0.009478531440208538
-0.01765569018626527 0.005225019607744288 -0.009477815826005813
-0.018851391482773674 0.015091821131889564 -0.009445683014021582
-0.01985797927983843 0.01853921881004813 -0.009389759210856814
-0.018471146654156227 0.003633748207046799 -0.009406459045202917
-0.015646071539119198 0.012888751526415231 -0.009675905627910467
-0.018129646549785557 0.0020478657738932015 -0.009422958225288157
-0.018675890714067243 -0.005555295467754804 -0.009336312309791732
-0.02045971309523906 -0.0008541731756532902 -0.009228839155925006
-0.018198728275607576 0.01940923459725767 -0.009520882001247039
-0.020438779724542847 -0.017340997621670674 -0.00913245733380634
-0.02028817109374672 0.014459749527254531 -0.009332861857961396
-0.016590759051267938 0.012120304446962618 -0.009599628518699877
-0.015391009866170747 0.014064877519022146 -0.009702256198853135
-0.018356152405486662 0.013716221445708804 -0.009475102013606438
-0.020947381283560263 -0.022249983502102444 -0.009064678643096586
-0.0192862106923338 0.001454087160436165 -0.009331635622695008
-0.01949623689618426 -0.006439239416852914 -0.009268787557119906
-0.018256127787155664 0.009432704554358986 -0.009457240571690156
-0.020658292437603126 -0.01365963009164998 -0.009137670303920323
-0.018111448455229072 0.0074980202670143345 -0.009456726484325459
-0.019918324608483317 0.01605754389640467 -0.009370431391766194
-0.016167106561735464 0.00978115294792517 -0.00961788763533274
-0.01760212272203936 0.0008995764141219737 -0.009456178705317878
-0.01890210537245697 -0.004375970142970158 -0.009326148470518035
-0.017224392598649805 0.018708795694964107 -0.009590681017749493
-0.01896125882060773 0.008467245803858634 -0.009397977346274181
-0.01994676704445216 0.01060280982834264 -0.009335858276858594
-0.020454284612888025 0.0006995411084090947 -0.009238483979069186
-0.020381030069549454 -0.01891761334336431 -0.00912747223946257
-0.019996675943219286 -0.0041295400983013385 -0.009244524599256312
-0.0197103163877749 0.012132301176718485 -0.009362895924582636
-0.018936039607028703 -0.0022215887735544454 -0.009336374679406413
-0.01718339675605656 0.008653712779769228 -0.009534041934976919
-0.017982221651297526 -0.00025703521845042883 -0.009420452586567894
-0.019647056574162738 -0.008171552089657225 -0.009247044869942234
-0.019903413765093487 0.00459734183979444 -0.009303462468790998
-0.01806561360122924 0.011197681895943255 -0.00948219055280377
-0.0170014714724099 0.01656093121841281 -0.009594839425765112
-0.01588861453337699 0.015717903167181118 -0.009674306197222798
-0.02043189545972158 -0.020529121745842184 -0.009114034891397045
-0.019111353422741183 0.017195750711611037 -0.009438451780639569
-0.019158794045816545 -8.513809849495374e-05 -0.009332161099476249
-0.01962159537687116 -0.011716880777665863 -0.009227909949462057
-0.0181660926633949 0.006346615874824557 -0.009445736397975822
-0.019255589583407392 0.0058180632752137425 -0.00935989242870357
-0.020182289968870948 0.006498772090639936 -0.009293592137463709
-0.019832886483065464 0.022169798650838197 -0.009413238251406726
-0.0177892119433145 0.017492815093476773 -0.009540580081206807
-0.019608125965175003 -0.01592105650066385 -0.00920394962420162
-0.018313234665596298 0.01637383780773881 -0.00949415242374893
-0.018727711698952283 -0.008755223962419853 -0.009313363438162631
-0.019379340393721755 0.0201047814240173 -0.009435395582910717
-0.02014086431210916 0.01334548240560025 -0.009337422443791066
-0.018087489770877256 0.012313363612483117 -0.009487159741854524
-0.020076320828761377 -0.0027115289662665875 -0.009246905151027163
-0.020327489269461048 -0.015048712267149962 -0.009154526946020028
-0.01732083797194392 0.0037897693671846786 -0.009494705481106133
-0.019012798682070703 -0.010435194039945882 -0.009281739632866423
-0.020176370283404223 0.008129987369360058 -0.00930373478739561
-0.01542480430283432 0.019798080890603212 -0.009639099736357706
-0.017001147133414513 0.02069425002801528 -0.009566294962653911
-0.014325942955806907 0.017893403328175017 -0.009717202194125744
-0.010599997336035288 0.01555091671243217 -0.009894079949835615
-0.01234638436526599 0.015601914893405514 -0.009833547097785871
-0.015516166170323198 0.017088503036342573 -0.00969388898894363
-0.013928990355701783 0.016141648579742457 -0.009768145551064493
-0.015073437696120157 0.017588434822481746 0.009014106827682335
-0.016690459018009474 0.014086098057451063 0.008887229208129059
-0.019745683337421063 0.024132226012092917 0.008733553852049564
-0.017175824678676663 0.016965104097501377 0.008869441210323693
-0.011184657488173936 0.013367088419171759 0.009253941866938706
-0.020935168923174593 0.02246591268328637 0.008644921563741725
-0.018880317999058305 0.019331125329293666 0.008766982338486514
-0.018266311437030273 0.01657191477198655 0.008794043800539903
-0.015929002007340945 0.01643741588446251 0.008950601418486722
-0.018757678589891386 0.015091815200194909 0.008753341912501022
-0.019688105895016825 0.02036917793545885 0.008717995496871956
-0.01965605719063309 0.017587218414215337 0.008705785862586649
-0.015515183728889933 0.014474603568506657 0.008968306930180477
-0.010248423502902646 0.01196246149250526 0.009309677486533214
-0.018390957599398232 0.021530954993497848 0.008811265849516593
-0.0142414559603841 0.015488487022308393 0.009059237857800467
-0.014119238712257938 0.016711677231266337 0.009073776997023128
-0.0198384172587864 0.01603024843078743 0.008685476751053635
-0.015063598702665342 0.013168568819030212 0.00899194490925698
-0.020224411111455814 0.019018749999330203 0.008674939829921477
-0.019503681552191697 0.021754065337578194 0.008737554868667077
-0.016402065803117802 0.015388702474335984 0.008913358612332924
-0.014001155672138985 0.012747831019442234 0.009061252498770437
-0.01997663969395877 0.013199685053995672 0.008661560434591244
-0.012942768463908478 0.014431873912039407 0.009141156155630449
-0.0180019572037913 0.02021198308250883 0.008830626382078446
-0.019049384169413493 0.013878306555103848 0.008727449739568068
-0.016836371568859407 0.019067512546565364 0.0089031360119923
-0.01634435112013713 0.017897914466139656 0.008930199000758754
-0.017394416002316025 0.013050864963128553 0.008834521718972718
-0.021465233301908877 -0.0004599400839983476 0.008168471899361408
-0.02151240352940427 -0.0018431310539993445 0.008134943373281387
-0.02130568645972597 0.0024882601045696003 0.008252967514762035
-0.021436484269395154 0.016156258874360254 0.00845245364377089
-0.021599437989250125 -0.010649852631152017 0.007968574508074503
-0.021538419298901962 0.011540969922258336 0.008352826795011781
-0.021523549124236645 0.01403466261469948 0.008397776821299692
-0.020638258720870762 0.009040387476446476 0.0085098435713664
-0.021582631307583422 -0.01260878356477348 0.00793955531872862
-0.020810115001790988 0.007627801451048737 0.008448287338802995
-0.021117013750750646 0.0013263494848343178 0.008275221499534151
-0.020486524488191007 -0.00643406396319526 0.008225575363651986
-0.020824161530528896 -0.026142336085201414 0.007776389557813809
-0.021890563479374864 -0.02479493919148454 0.007658466377520536
-0.0206178136112702 -0.002897197403605895 0.008280009285589158
-0.020054877122968502 -0.025325227447135255 0.007898052544099352
-0.02121671944560145 -0.02217239234260059 0.00780403835892096
-0.02099512429051299 -0.01888672082042142 0.0079014763343336
-0.021449261552557476 -0.017375129167276532 0.007870439713616884
-0.020549310671980056 -0.013092849852862735 0.008080807330370825
-0.020103279463848458 -0.0077781299669750425 0.0082503671928548
-0.02004432145050839 -0.01829968407924776 0.008043196903146874
-0.020711968546729645 -0.009686283185268069 0.008128296554348652
-0.02022402882060252 0.0005790865375787883 0.008404837072117675
-0.0201049631333916 -0.014296569781744827 0.00811680576748295
-0.02108397278884481 -0.023607600610902054 0.007792791748140498
-0.02079562696818482 -0.015190984882472322 0.008004287301117257
-0.020383081182615462 -0.010924370649991699 0.008147840398678144
-0.019909166669332085 -0.02281138444205544 0.00796935056898136
-0.021006497450369754 -0.020436973615191846 0.007868215036234616
-0.01992056139992918 -0.021672160395520446 0.00799109835760353
-0.020464402695347706 -0.004956487024445164 0.008258816489164687
-0.020576453101623735 -0.016712831360606185 0.008003059351765589
-0.011848710533888833 0.00473369420126586 0.009114535905237413
-0.013739309695782577 0.002090945250299626 0.00895459460386862
-0.012545288035207864 0.009869197845002247 0.009129302225644731
-0.013829724703071217 0.010986091977911004 0.009055772672877119
-0.012910974618669984 0.008496440089420947 0.009087972438321502
-0.01292624407376316 0.003507450330803708 0.009026755810408368
-0.013238915826858993 0.006050580564360164 0.009036254514767871
-0.01480726701434992 0.011837248868645935 0.008999825338575511
-0.014763626655816391 0.004787254519772444 0.008917737068353778
-0.01217430208457971 0.006211911009311018 0.00911031339036206
-0.013160310610345017 0.004590851222944475 0.00902397016308437
-0.018307240914207098 0.012131820259095151 0.008766304316169085
-0.016036055855109636 0.008718758036050857 0.008878973572792942
-0.010595339793228934 0.010657150110616116 0.009270889131112086
-0.014707881868465004 0.008046290127491241 0.008960826846318324
-0.017734870960905376 0.009655056459611953 0.008775197125287418
-0.011377707269611483 0.0096064815223546 0.00920522039277261
-0.015938218288967604 0.0075604614907748505 0.008871628137705756
-0.015850145975525445 0.006301245276879952 0.008862403845833271
-0.011691308077781497 0.00830542589445289 0.009168283635655366
-0.015545853974467304 0.010977710763951407 0.008939427732797631
-0.01250534605870979 0.011040622761529676 0.009146138672196788
-0.016059361202225522 0.009953728902636023 0.008892292451494067
