0.029119215854366415 0.02232791854171267 0.0254898174319343
0.03536207572248212 0.018954770276248555 0.025485425180996606
0.033033963199598206 0.018701679828008546 0.02558130099572289
0.03230553933200944 0.0217149135250115 0.0254184334617234
0.013682975249180069 0.015207689156283474 -0.026096999645233154
0.020171501325268692 0.011964664840123942 -0.026096999645233154
0.022880678409112752 0.011831037044307005 -0.026096999645233154
-0.030803815261937716 0.00248407106415206 -0.026096999645233154
0.03088967039572099 0.013866876552683698 -0.026096999645233154
0.027988505160723855 0.013740117438048843 -0.026096999645233154
0.019799120229557855 0.016377189870822952 -0.026096999645233158
-0.02203923649324145 0.003880549897840959 -0.026096999645233154
0.009213759711533516 0.009990976751486438 -0.026096999645233154
-0.0005258077823225415 0.006539845261798903 -0.026096999645233154
0.0022324360825382184 0.00839227570048869 -0.026096999645233154
0.01512864042542415 0.008594811760802346 -0.026096999645233154
0.024109156435407966 0.01481659275785875 -0.026096999645233154
0.03262301544285117 0.01035310357679891 -0.026096999645233154
0.02696023821427064 0.01594328778221668 -0.026096999645233154
0.01156976551694034 0.010307235736750305 -0.026096999645233154
0.013114690981120804 0.012390264897263546 -0.026096999645233158
0.026776799002848062 0.0184726735280662 -0.026096999645233154
0.031121146555268236 0.008617624237367102 -0.026096999645233158
0.022040436997037303 0.008659613749978845 -0.026096999645233154
-0.005945019753361426 0.007449497732757904 -0.026096999645233158
-0.002075923706430791 0.009075127974866804 -0.026096999645233154
0.003003497862061425 0.010986870812323541 -0.026096999645233154
0.036028616590796536 0.008496468923852392 -0.026096999645233154
-0.004020822733279708 0.007763607475548792 -0.026096999645233158
0.009073058612445051 0.011851347833866488 -0.026096999645233154
0.03528520699192366 0.01647852033163811 -0.026096999645233154
0.02155771503211269 0.01551964061973084 -0.026096999645233154
0.014841968404199013 0.010520534668613109 -0.026096999645233154
0.01932039436571995 0.007331873697263376 -0.026096999645233154
-0.013360172468451231 0.008288381292789106 -0.026096999645233154
0.01853008838181528 0.009937218898451634 -0.026096999645233154
0.0007006026056305143 0.012270074768999502 -0.026096999645233154
-0.02695659648767993 0.0033764456301487284 -0.026096999645233154
-0.007783772299912964 0.005737169005794896 -0.026096999645233154
-0.008195000002193175 0.009064010949243665 -0.026096999645233158
0.011026115257517885 0.013655382483227145 -0.026096999645233154
0.017214382103739365 0.011702773829936761 -0.026096999645233154
-0.011693497874222721 0.004834226630929031 -0.02609699964523315
0.011651047098321007 0.006443276883164881 -0.026096999645233154
-0.005463725812496507 0.005042598086865965 -0.026096999645233154
0.00780299481710575 0.005693157668491871 -0.026096999645233154
-0.010908732773777543 0.007078780545954149 -0.026096999645233154
0.03146822494063803 0.01576563830059472 -0.026096999645233158
-0.01963882879792459 0.0044230733369583905 -0.026096999645233154
0.03248467516076855 0.018140027384733717 -0.026096999645233154
0.02486983232372166 0.012395783802020718 -0.026096999645233154
-0.024213723488053854 0.004554500020845582 -0.026096999645233154
0.006894183509538603 0.013143808228772529 -0.02609699964523315
0.027080417239916582 0.011561232869822136 -0.026096999645233158
-0.014658550332668314 0.004500751949126613 -0.026096999645233154
0.016972158137126374 0.016699211307076463 -0.026096999645233154
0.0096056322729837 0.007007374628862941 -0.026096999645233154
0.03385367639392921 0.013878682073956379 -0.026096999645233154
0.035285683248417965 0.010809754444872489 -0.026096999645233154
0.02658979910070673 0.008289533068321482 -0.026096999645233154
0.031975040416875475 0.020408007375663048 -0.026096999645233154
-0.0028068526282134503 0.006072007163969932 -0.026096999645233154
0.0027012770929558845 0.005432716719648364 -0.026096999645233154
-0.02916859403558044 0.0036365028880458823 -0.026096999645233154
-0.018486039853819167 0.006367607989031559 -0.026096999645233158
0.005766323390368134 0.005726931167110816 -0.026096999645233154
0.034600373622182 0.01901862500355455 -0.026096999645233154
0.005276941554541578 0.009652044433345936 -0.026096999645233154
0.03539666712958252 0.020800389646430488 -0.026096999645233154
-0.004507139163488435 0.010365912255534206 -0.026096999645233154
0.02107404838242121 0.0180364245964223 -0.026096999645233154
-0.0150364892766867 0.006608042909599257 -0.026096999645233154
0.0049739052401331415 0.012339286039896077 -0.026096999645233154
0.002951292703663497 0.013263403333109734 -0.026096999645233154
0.02330511270967473 0.01685575710389592 -0.026096999645233154
0.0007498481193463297 0.010293471143352093 -0.026096999645233158
0.023865787798978445 0.018885043295677775 -0.026096999645233154
0.006731546932355337 0.008046238181121266 -0.026096999645233154
0.01562735439449955 0.012950992406308665 -0.026096999645233154
0.01821338382136338 0.013887545264261478 -0.026096999645233154
0.0284190803458538 0.02031654015087132 -0.026096999645233154
0.013616721521780804 0.007090934118181253 -0.026096999645233154
0.029227910994650375 0.010086289180080163 -0.026096999645233154
0.029945184792099643 0.018729610186279617 -0.02609699964523315
0.038294784187752985 0.006597642390714712 -0.02412912751177655
0.03797610909070995 0.0025732400418442434 -0.023560687888582055
0.03873457989955254 0.010823324667427707 -0.02272643850772316
0.03867074361394393 0.008945240947093574 -0.02084753539807047
0.03834125258850684 0.0018091184723556864 -0.015360941935579667
0.038467567397212424 0.005220134178569642 -0.018576231748286487
0.03824440986737124 0.0050157404422484465 -0.022482000404742228
0.03843973970981336 0.003745090409253768 -0.016676436157354514
0.03872089271177114 0.01171594516817009 -0.02445643014893346
0.03814621266050256 0.0031165688080711214 -0.021221590290009407
0.038529524900827436 0.006963299519419693 -0.020268694256151343
-0.02011162942592653 0.02298565033257229 -0.026096999645233154
-0.026889362126008808 0.023399351109708356 -0.026096999645233154
0.009716313279976201 0.02361963810199815 -0.026096999645233154
-0.03504695693444513 0.023575516064224665 -0.026096999645233154
0.0059065135747896555 0.024044129544667052 -0.026096999645233154
-0.015267369120383019 0.02402106216922162 -0.026096999645233154
-0.031093411697942178 0.023163151547564972 -0.026096999645233154
-0.024394656417220745 0.024460025047855875 -0.026096999645233154
-0.033343869494188154 0.02223654313847924 -0.026096999645233158
-0.0015587808389808978 0.02409054899130151 -0.026096999645233154
-0.0035898996780381904 0.02293297445402286 -0.026096999645233154
0.0020994108282902067 0.023650216358467493 -0.026096999645233154
-0.01083134737845446 0.023102887938902805 -0.026096999645233154
0.021530355250091022 0.023827180030470387 -0.026096999645233154
-0.03734686435578697 0.023271401016712805 -0.02598905698029004
-0.03895195694713385 0.01328153956857971 0.02515410991367574
-0.03910243357833215 0.006010691422920226 0.025112273118481323
-0.039211999624967575 0.014829874051434079 0.0203167242754349
-0.03921199962496758 0.007297827231706593 0.022798103383301623
-0.039211999624967575 0.016138433686312313 0.01871532343853609
-0.03921199962496758 0.02113179674416565 0.014060387934950873
-0.039211999624967575 0.021970077490412857 0.012208503118831482
-0.039211999624967575 0.021263514487326204 0.02269112081105
-0.039211999624967575 0.020369600673225744 0.016795087689362803
-0.039211999624967575 0.02295524499925089 0.01786233548843666
-0.039211999624967575 0.015350408545839129 0.0239352083407305
-0.039211999624967575 0.023338742921746345 0.023205587587113462
-0.039211999624967575 0.023282095444090403 0.013894118926383477
-0.039211999624967575 0.020341515182114966 0.020604790798596714
-0.039211999624967575 0.017703030382720603 0.022134206648096438
-0.039211999624967575 0.009548773507677969 0.02344391025881869
-0.039211999624967575 0.0182192854275938 0.017591218041318704
-0.039211999624967575 0.011696728997823733 0.02302564456903197
-0.03921199962496757 0.01176600895385151 0.019417379617474313
-0.039211999624967575 0.017879273219493428 0.01965459017750421
-0.039211999624967575 0.0232324424656762 0.020474543613049977
0.032721970650199356 0.02664799988269806 0.013878509700667282
0.03428931485272619 0.02664799988269806 0.0007254374455102066
0.034301306519717314 0.02664799988269806 -0.001229497671020062
0.03317145078039675 0.02664799988269806 0.008367497237263264
0.03537852643773468 0.02664799988269806 -0.004999305807215638
0.034460036219137034 0.02664799988269806 0.006164447180115485
-0.031146999623957256 0.02607899172672642 -0.018453730280871418
-0.028087455892598406 0.02613613284872396 -0.016193692576902865
-0.004168975460606607 0.026310504745844936 -0.016587940735117095
-0.023019539095293404 0.026157307865141134 -0.017323244338864188
0.0004201306254321491 0.026363796332922892 -0.015347998832567582
-0.01975460983996413 0.026204496986184014 -0.015825952438198142
-0.02610007996829006 0.026142760787157694 -0.016747790600495013
-0.008223404970153711 0.026286599901172755 -0.016146184406491702
-0.010822479461992697 0.026259689776047375 -0.016631426194953607
-0.0014328606290606033 0.0263399986882857 -0.01599985084064223
-0.015489858899941061 0.02622679236865589 -0.016479614820080896
0.006561884042141806 0.026413537423842032 -0.015119861865073721
-0.035932586233348725 0.025993172701685514 -0.017213737916893925
-0.03580270295000223 0.02574252174912561 -0.019469644556804742
-0.03662972473956868 0.02534044970315461 -0.022570685973396183
-0.03393227470209412 0.02600421007867521 -0.018117414055423886
-0.03771423182625003 0.025291924213473226 -0.020768643499894168
-0.037979952597864866 0.025354860586744344 -0.017925405665349396
-0.03825693580717493 0.024338431858363388 -0.023076498292512414
-0.03854281345859192 0.02379028036912706 -0.0193398622261046
-0.03885050713594974 0.02421148109357471 -0.005286679216954617
-0.038677525683381564 0.025048900031694736 -0.010569400145390583
-0.03889404178081658 0.024475087581274216 -0.002178773636133024
-0.03867692501153505 0.02333579499175724 -0.017021109437059787
-0.038695163348235015 0.023696849013834037 -0.014779512398769257
-0.038732132503623756 0.024968430758722435 -0.00821235270237452
-0.03891704409599038 0.02476818544069229 0.0009072234931510239
-0.03891418807298554 0.02513181125497321 0.004709658729173301
-0.03905427614500514 0.024883035590833456 0.011811130673811475
-0.03906889909277779 0.02439517324482849 0.007467552903129047
-0.03910323282139615 0.02495370202498376 0.016027927978684593
-0.03912748113293857 0.025001086624883945 0.018252839073171923
-0.0038498384408264114 0.026069563515576204 0.025611000135540962
-0.02415486228589908 0.02525952363472538 0.025611000135540962
0.006580552855649653 0.02570250454262941 0.025611000135540962
-0.02840503781038588 0.024335677812071604 0.025611000135540966
0.021716532170463754 0.026544731476358344 0.01757550035484094
-0.03621138731926982 0.02607437510420843 0.024507602411868737
-0.004528145528778171 0.026333156028392368 0.020677307540021787
-0.023322178024355975 0.026134135157767656 0.02410992629809841
-0.01146473474375357 0.026223373797546197 0.02287047733522202
-0.025401507202378194 0.026159169018881306 0.023289963239734732
-0.019847864708135217 0.026152826248953088 0.023936880672325002
0.003237925125009786 0.0263988351353529 0.019681128566343842
0.015630796757513696 0.026483565403432243 0.018603409740173254
-0.027762604460267154 0.026101509987838646 0.024553853237452884
0.005477155602344441 0.026404119939252256 0.01974200839558189
-0.003194843848362397 0.026278142896935745 0.02211515103736421
0.014161523581497401 0.02610226589446835 0.02509772841101954
-0.01825558224730926 0.026093797267265757 0.025241342047401867
0.015560134086307511 0.026360315324311406 0.020721645239615546
0.01957968504982078 0.02633757375868051 0.021107303842733873
0.013149503408451738 0.026398257834736052 0.020078204246736397
0.004549405035415576 0.02626524120400328 0.022333941992875014
0.012277596591668515 0.02627580022724064 0.022154878764858686
0.021902594280837805 0.026365254252821085 0.020637889340797584
0.020545471992722882 0.026448566405373124 0.019225055726020235
0.017552422447929376 0.026262536621742844 0.022379807147170323
0.006107545118841895 0.026188085586005848 0.02364237116360865
-0.009376357450359953 0.026217977929453993 0.023135447427343032
0.010729401265401117 0.026133981408471937 0.024559886776616587
-0.005050447346518829 0.026203445620421265 0.023381890882143312
0.01778875795145786 0.026401291026047678 0.02002676643707905
0.006607424508679065 0.02632478471775765 0.021324184410131217
-0.002072978998804792 0.02614761859679617 0.0243286230595558
-0.021486230721991302 0.026083664850346817 0.025413170751660604
-0.0073277364370297315 0.02615832766390027 0.024147015340584298
0.027389108170415042 0.02656141174452224 0.0173113890695112
0.00014054082246085266 0.026312051713363264 0.021540114692502183
0.015008656017544864 0.026247787480900914 0.022629927703802837
0.025377122021425808 0.02654248962822402 0.017632276252832327
0.019347148313311305 0.026194294919357437 0.023537071341004683
0.00921053940931068 0.026277193555190488 0.022131250272452115
-0.014231254620654023 0.026124304029037582 0.024723998812483994
0.0017401282700379942 0.026211340186722665 0.023248012350584074
0.009995912838323722 0.026407993046646976 0.019913111469591523
0.023256094122387116 0.026451053869121496 0.019182872535554087
-0.010547202851322691 0.026117665166311158 0.02483658272895316
0.03892400115728378 0.024387797328209487 -0.021988652942800394
0.03892400115728378 0.022996997896511384 -0.016130392184342576
0.03892400115728378 0.02408003113400869 -0.018340354715844456
0.03892400115728378 0.02061991217157916 -0.01604116268038682
0.038924001157283776 0.01836885425818926 -0.02318051453130699
0.03892400115728378 0.02302947148845672 -0.011504926617426837
0.03892400115728378 0.01606698781483597 -0.021948573314396203
0.03892400115728378 0.018582127417875467 -0.02019960775362828
0.03892400115728378 0.020626668532390244 -0.018804780569999503
0.03892400115728378 0.021323554984597093 -0.021301250243325128
0.03855393660615711 0.024797855299320364 -0.0036053763029820383
0.038754492568845444 0.02403068456093764 -0.007906026026459083
0.03891139105861166 0.023896033847959835 -0.013713722828255814
0.0386635685802517 0.025144466271115794 -0.009976414395468416
0.03890699675774374 0.02112629853187274 -0.023385761488537524
0.03882708312871365 0.01653323232985044 -0.02447053456201544
0.03851889643062465 0.02409180892773768 -0.024857372507449745
0.03799993205916876 0.025307287896488267 0.006682301324971698
0.03791937892542849 0.02488471158475694 0.00891177326636451
0.037563310506984374 0.02462040207588182 0.014490265651521082
0.032286872329513855 0.026616758375230903 0.016266822265988086
0.03531288976712188 0.02660537202830491 0.013493265625891137
0.03377155216805511 0.026432249538455316 0.01883173283403806
0.035472685413530575 0.026269938671968664 0.020693333928672595
0.0232907136981971 0.02623228620306696 0.02286496681525576
0.02634047729992811 0.026170488077389968 0.02375828112207557
0.03147214654755193 0.026351930800431682 0.020647785154280042
0.02138283908431015 0.026161479385602593 0.024075537682334468
0.030110177750703744 0.026230092342205448 0.02266432861348848
0.02899198311565359 0.02637323945383427 0.020389220075075057
0.03148122315288909 0.02611915793348361 0.024409998735724126
0.034849199069382504 0.026108592314412954 0.0244641766540945
0.026394725203105613 0.0263693573154028 0.02054189154965589
0.03636249181896434 0.02664799988269806 0.0039032471083259024
0.03587307405950861 0.02664799988269806 0.010021738746103261
0.03607967633145419 0.02664799988269806 0.00778079713610326
0.03566942679624452 0.02636730974464573 0.017775545681623556
0.03855036719499949 0.01846772938625445 -0.0028823532984326656
0.03811869804666311 0.012759696784887385 0.0059291615202120675
0.03823556124035645 0.012537760806180503 0.0029545941290382
0.03741782060009608 0.004066497576367252 0.020427473047829638
0.03858592511212819 0.016854755817562097 -0.0043025719868442286
0.0387063899036363 0.019563739412396405 -0.006389559473351144
0.03844121863068317 0.016156064755636287 -0.0009437992400400199
0.03882144972302554 0.020021478669326347 -0.009092808080260157
0.038274734417173224 0.014577064446536702 0.0026620687326239342
0.038682563644567035 0.017458897159295307 -0.006499796589334908
0.03803492047847197 0.011183641487556314 0.007483200885541585
0.038924001157283776 0.018580888407994253 -0.01722082429036596
0.03892400115728378 0.020284608445631784 -0.01264520667690722
0.037601471633807025 0.0033719954849341077 0.013522969085689259
0.03731367153407051 0.0015856343063869406 0.021238075513740656
0.03839727941372166 0.00899395468335971 -0.006958331186379306
0.038082593197068915 0.010135503772901417 0.005341609870258866
0.037707867803457466 0.003338746971022757 0.009804718412411944
0.03842678341906979 0.012977955368758044 -0.003003559310414331
0.03783165498432907 0.0014126780824038356 0.003122148329125164
0.038272551947114056 0.008265187198883523 -0.003558042903664016
0.03837992222331245 0.004687811320023957 -0.011735081963905191
0.038383368975102895 0.013687019129232987 -0.0006179616568065616
0.037950340004637984 0.002919070073653591 0.0009015954548645848
0.03802448655769251 0.008082738519801663 0.004786562229062929
0.03793091657101251 0.008935064903612394 0.009084262071024713
0.03822707420301827 0.004795780948333281 -0.006318297306102517
0.038065064813942055 0.005910031606009849 0.0006714994405175741
0.03859389111099233 0.011767293321542084 -0.010289915660926706
0.03770913020726317 0.004937234436085188 0.011756932764624793
0.037938571733441256 0.007667452007521036 0.007237006310810261
0.037845746519596705 0.00774306339749357 0.01053917828538957
0.038272306774419104 0.011631332780389712 0.0006533312082061555
0.03849295809229626 0.009245034219688792 -0.00995121075104568
0.03833392037066714 0.011571283191312677 -0.0015508293336050664
0.03852288954288538 0.014271743236098602 -0.004709305470066035
0.03879415486487961 0.016188188512309087 -0.011690598447818282
0.03838083708292671 0.010801395499175026 -0.004133398568720762
0.038517116007661355 0.007577987165605399 -0.012867478346634886
0.038602977232364444 0.010348601262880968 -0.012375255537725748
0.038238420558502365 0.009715499569436199 -0.000567732108486413
0.038125398547092126 0.0026973996224631583 -0.0054246837824592
0.03792803167962394 0.006105239686224768 0.005650692544617359
0.038086052849234706 0.00493208061709553 -0.001274834979207155
0.0387001903562517 0.013324190040972225 -0.012019393558739065
0.038727603389384926 0.01665276943296242 -0.00881070970546242
0.03782260812316541 0.0041138957747484505 0.006807467199209551
0.03747175444730783 0.003737670806113401 0.018462186618434445
0.03815649275794975 0.0069888986242499455 -0.0011409284972577157
0.03784923153813774 0.005973567073290741 0.008209388822456611
0.038272463048920714 0.0069959993515508545 -0.005139653263092384
0.03856727492094105 0.013603397269338765 -0.007077616318647159
0.037915913513639994 0.00424298116257942 0.003744282018693229
0.03885723768127288 0.01828566121789895 -0.011251691954942985
0.038169018391548924 0.0054816603971056905 -0.0034556847186683315
0.03809386292981635 0.008006381646748852 0.002293782143379745
0.037652740878926345 0.005676657386756578 0.01462880995858555
0.03869611495814822 0.014795645078859276 -0.010041330677988463
0.03805684174751613 0.0032776786491056763 -0.002331038637072835
0.03795992331340377 0.001578920291690154 -0.0011028594422667366
0.037750841731064425 0.006782148496659508 0.012619028338037932
0.03831480302482875 0.0056948073551061 -0.008227439881021424
0.03846886147601249 0.011482059886442837 -0.006325397639091303
0.038001476263484005 0.006068050174065535 0.003066230660952886
0.03826540948106821 0.0036335529708545334 -0.009094185719970845
0.03834099099388471 0.002486440091077286 -0.013138321546567166
0.03814268208728779 0.010201080286972568 0.0033469928892742194
0.03772461907333571 0.0023167511295237473 0.00794980056972786
0.038664175194944736 0.010810387234417986 -0.01460019227789831
0.03890231162479016 0.01635978370933706 -0.017792382541879502
0.03850528330679978 0.005610381031342231 -0.015766470980829162
0.038844484564411225 0.013979601213188603 -0.01929047777676048
0.03858533987856437 0.008355812406698335 -0.014902688292045125
0.038714639770833364 0.010516813101744689 -0.018511871969284218
0.038854628361916874 0.016520424006127847 -0.01435332083224424
0.03877150341895472 0.014186835912166816 -0.01411190224096039
0.03843009510811582 0.003967271163184485 -0.014518549393132164
0.038785550899645894 0.011694372948827471 -0.020507930284480745
0.03888714378533952 0.013545186906096553 -0.023007154500490786
0.03883263908712084 0.015126858527575171 -0.015998353874483888
0.03879682357111114 0.013412250080624997 -0.017455503085918245
0.03890660859719558 0.01833652718297034 -0.013718697506633985
0.038739252553404546 0.012564565809796887 -0.015596428155839278
0.03858499654860842 0.007111313626553043 -0.01762019034276301
0.03864531322510199 0.009246241364918518 -0.016823108726251344
-0.021347183220037126 0.026194912739664546 -0.014744614774899058
-0.005395330954237179 0.026330516698680348 -0.011104642444529989
0.014445094393472767 0.026501599165086515 -0.005586716622977135
0.007853730544227206 0.026449591006173327 -0.0054452063759118765
0.01852092362790053 0.026539519662586376 -0.0033183645149603516
0.004841467945775795 0.02641805770104496 -0.008556216494278584
-0.008700034821005957 0.026306154595713845 -0.010333100558221769
0.03163244802153002 0.026625602898231515 -0.010703785383673154
0.014259597612407988 0.02648762855824865 -0.010697425279071181
0.012012589862450528 0.026476936566186254 -0.007771143796194479
-0.003361133618021782 0.026338974193305838 -0.014253463527217715
-0.008634018828163524 0.0262982248247901 -0.013790391441193343
-0.002039965772417475 0.026354949538116915 -0.012011815179567443
0.029245949365777884 0.02660442119609788 -0.011614146164739303
-0.025458065077310573 0.026161886808000787 -0.014897489913490394
-0.020143944804630144 0.026209293417636205 -0.012772041981032711
0.0207705916395811 0.026556547550622908 -0.003662240314375316
0.025428067281267286 0.026597700099769694 -0.001961456486810473
0.011081021799108663 0.0264545982907681 -0.013880394534134905
0.03029602531921203 0.02662250213885822 -0.00763085749055688
0.009973332207478374 0.02646183234649825 -0.007324045197649901
0.010096625742551829 0.02645594234515951 -0.010133227261003113
-0.012339049426141366 0.02626647815386333 -0.01473840453686364
0.02162139678986292 0.026549732094133326 -0.009212991390539023
0.02306294976309543 0.02657651489022122 -0.0029427019296588888
0.022430717997469835 0.02656596122556907 -0.005204974997214075
0.00010145875346365477 0.02638067518383342 -0.008447170535123637
-0.011091084080484093 0.026287653097035367 -0.010132618415405458
0.023808118349758354 0.0265646721759566 -0.010206206673582303
0.003018157671696186 0.026393419440834363 -0.01270947815782627
0.01938919095565584 0.026529805784605745 -0.01011113760050425
-0.02312044264134726 0.026184157199622325 -0.01338315266884961
-0.017094563141275405 0.026228205872390543 -0.014942863292641509
0.02253113104149397 0.026549090245412018 -0.01243047680326979
0.030422763551639722 0.02663249758666635 -0.003954919087477228
-0.017796695970419264 0.026227687671658416 -0.012874108770064816
0.032278542235260776 0.026642949924271665 -0.005708414440016306
0.004017969209681663 0.026396914403355627 -0.014527815776970794
0.0019283569322859889 0.026390284799480704 -0.010451484856319655
-0.016154864566807873 0.026243678662503052 -0.011667642939588635
0.012072426247698572 0.026483420918555444 -0.005313747050073928
0.02697957879920585 0.026596848438247278 -0.007349368268935637
0.016414946991495923 0.0265148125612999 -0.006581620298198308
0.0004377375860710039 0.026373716917707735 -0.012385036337517506
0.02079941918713892 0.026549570856923152 -0.006608977271583587
0.028731936510566766 0.026614785619125593 -0.005706025609401597
0.012238165205915835 0.02647087045376335 -0.010984578254057714
0.027699930729164227 0.026613416435512648 -0.002913783214440561
0.013441431952766996 0.026474907339294113 -0.013242162181935002
0.004250893181484652 0.026406782073476215 -0.011249044729885978
-0.01434388047740501 0.02625259920875474 -0.013902058021214083
0.017032596158268618 0.026514906676478368 -0.008549383169523203
-0.014115546221748087 0.026260533663715294 -0.011398961513941389
0.01555694956737394 0.026492659804427766 -0.012853976256642016
0.002785812156774396 0.026405608194619422 -0.006970215908968266
0.009941658792539852 0.026467100352334957 -0.005066827354473657
0.025176594317143496 0.026572017240833842 -0.011647553392330923
0.00745651509540135 0.026437819651399738 -0.008968831514115582
0.01835554656695067 0.0265164307841142 -0.012223317567038119
0.03114944940775498 0.026643182400609325 -0.0019458191210387694
0.02361622121394543 0.02656861941447953 -0.007968673427681159
-0.006864988867787874 0.02631011480309532 -0.014674190069162402
0.008018590825138072 0.026433783315403768 -0.012445216817188706
0.03454162036011241 0.026647142430296544 -0.011344842244953749
0.033141929691592915 0.02663201139244633 -0.012986155433524495
0.025236394243877993 0.026567286148402383 -0.01377656268682884
-0.003226960595629649 0.026350391472304502 -0.010020220996411092
0.018831856495228505 0.02653186917082867 -0.007456985147014042
0.020662538325938326 0.026536020959513445 -0.011705552461411015
0.017845516162434644 0.026507902797557003 -0.014054130352179702
-0.006772488640137752 0.026324911198483292 -0.008923705664409717
0.027543001758812316 0.026619383436248086 3.614231803587603e-05
0.01661537019829627 0.026522621447991446 -0.004039213776034635
0.02546878706929537 0.02659317105867653 -0.003945861258615044
0.027245653645661914 0.02659037849807019 -0.010859497627266634
0.032680530600021795 0.026640436066737702 -0.008042189924988579
-0.012435279616995386 0.0262820723491553 0.017383884479017137
0.01046649827306945 0.02646969997646028 0.017960910329708816
0.029565351013714172 0.02662898723047831 0.013974792661429881
0.006248298251232225 0.026438599414764948 0.012368729009044125
-0.002729420153075252 0.026361214750892648 0.018223184060689932
0.024516668498612684 0.026593853167054187 0.00396652819793084
0.015660223508177553 0.026515502451608497 0.012932901305508018
0.0018290457597784273 0.026400761917416235 0.014846253221152472
0.020312284485430553 0.026552184952615666 0.015319536863022102
-0.009402901523347431 0.02630592660392739 0.019029528490210564
-0.020348052395487128 0.026215816844330386 0.019450712467405613
-0.02177977620451526 0.026202495970491395 0.021938992401739518
0.023914484338510584 0.02658187316219917 0.015130395091664672
0.014909050805897228 0.026511024381787568 0.0102549389413358
0.025375608958741337 0.026595020534139376 0.013300248374111368
0.010496358390804188 0.026474749418796198 0.01033897845232659
0.017903479021184877 0.026536955121211504 0.008112092067361496
-0.006706097130898259 0.026327405001982922 0.02007432731800403
0.0029759798518208926 0.02640861457513195 0.017324408785732187
-0.003291646567143954 0.02635904075718695 0.014350461646422523
0.01784135871475085 0.026532626870952165 0.014169759684446987
0.027222852106883903 0.026614843645383066 0.0059075398364115735
0.007540531973725547 0.02644511247082113 0.018864314708599807
0.02233668493507137 0.026572170185409458 0.009976691525518087
0.030956059476015475 0.026643358359684684 0.009286183601459918
0.02530802801710326 0.026598549309707266 0.006821864830256657
0.01614988532529443 0.026523700519026194 0.006303622909753311
0.029307521696816614 0.026631969536711944 0.00588582133784021
-0.0068831129655881566 0.0263277607962232 0.01720464831776501
-0.01172695032090677 0.026286366742921115 0.01979530716380541
-0.0015168416383707685 0.026370091172222308 0.019932035768611345
0.008034983222750189 0.026450815134792832 0.016256291326525382
0.008649333010722706 0.026459075426560036 0.011152068367947347
0.0020270187578569805 0.026403927275114054 0.012402647447756416
0.015376765463767268 0.026511733711650144 0.015220510106616274
-0.009087164390963718 0.02631081789103583 0.015381392335410167
0.02149055792315619 0.026563474400060166 0.012753449722585764
0.013380519196200275 0.02649727451246582 0.012163109744266223
0.025861782517571257 0.026600331625654387 0.01120564533357929
-0.005085802214229251 0.026343811272353537 0.015146859750026585
-0.02943011116350574 0.026139222239844544 0.02269296968776465
0.004855622901291441 0.026428414871223663 0.010389829613917406
-0.00983157089906996 0.02630121437115446 0.020922918882891533
0.006670406155638204 0.026443988851007745 0.009315527354518656
0.02937572631079175 0.026631239293190154 0.007932538479496163
0.019996138030067057 0.026553618735715646 0.008927805783393663
0.028996829585336323 0.026631581839855544 0.002454844535790513
-0.004941007606475721 0.02634301237691498 0.018299898710060086
0.00013300937385345504 0.026387887795272055 0.013183714618174835
-0.014459713768940032 0.026264988176840802 0.018123844303737757
0.003994908642921263 0.026419857765833804 0.01275661100080985
0.0004372428870120454 0.026387740848821523 0.017378778898388778
0.029061080095951174 0.02662654405371144 0.01128385754876982
-0.0013906273917335468 0.02637395084619217 0.015452425949423127
0.01940498470847143 0.026547224478543227 0.01137370040827198
-0.014092991780941675 0.026266833690531295 0.01997169742396004
0.012396046275003387 0.026491457699317295 0.008570828127651938
0.00806245228971573 0.026452968836011413 0.013197229149122596
0.031002936154556796 0.026641886483227992 0.012231732405771873
0.010424907156228482 0.026472058696308517 0.01367724294357544
-0.016232757733364477 0.026249464643935072 0.01966167182810495
-0.01774226774013 0.026236145685532106 0.02113392760547135
0.01746963116051658 0.02652829197001547 0.01620605985134681
0.0223272533432247 0.026575126347981995 0.005164002389850553
0.02608754908843127 0.026599525746903573 0.015424235714335686
0.01343437737252322 0.026496349417700148 0.014332123439661225
0.005505000648486481 0.026431078547133238 0.014620630309216964
0.02749373148372079 0.026614595310875674 0.00982909276233089
0.013374946035117321 0.026494562781576293 0.016392613032620507
0.005760341235616051 0.026431859341166354 0.016707144445552317
-0.02262403822708965 0.02619693730776154 0.019763085553603458
0.018933211423260883 0.026546597859339265 0.006224056993156186
0.015305755354140242 0.02651551831038145 0.008291613698494918
0.030951586447657838 0.026646781501029032 0.0037972202852185884
-0.03231477904145248 0.026115545629047658 0.0226890828013166
0.025582587141869312 0.026599271792163266 0.009251165575568147
0.03323623710478359 0.026647999882698056 0.004412555236611399
0.032103415628494794 0.026647999882698056 0.00022300496660808964
0.031485487439417 0.02664799988269806 0.006028964525971741
0.032753033907020876 0.02664799988269806 -0.0037722364780952665
-0.039211999624967575 0.0025959206718992062 0.023213475954488347
-0.039211999624967575 0.004905316030436987 0.022254874708842003
-0.039211999624967575 0.009677829728190543 0.019701023871848543
-0.03802923474819795 0.0022847348880270318 -0.020988893053320322
-0.03701810096423107 0.0013689999468624592 -0.024654002570984008
-0.038286484964386996 0.002633957777273083 -0.013623768652105442
-0.03825864664417941 0.0016882622080242392 -0.011785680664014402
-0.03840940099881188 0.0018054945847563479 -0.006739056625493095
0.034599926442583785 0.02617663800459735 -0.022489504162190973
0.03401074382041767 0.02632643973689394 -0.019799063648730953
0.03631694583181846 0.02624996540419793 -0.02117413049112133
0.03695857373726614 0.02612904570429632 -0.023345980838901503
0.03262334552967866 0.026178335408645812 -0.02245745976657067
0.034805276202025906 0.026439390528069286 -0.0177714467635992
0.024559602631671937 0.025745153295936275 -0.024944845581668935
0.01032749738154929 0.025470490651478273 -0.025372424112863914
0.032716508963046904 0.02590982679879832 -0.02468587043790837
0.019135646892341134 0.0254362399718355 -0.025499533948311646
-0.013722453807328375 0.025264633161550754 -0.02559957580374216
-0.021672390479341108 0.02512926342801519 -0.02580378832507053
-0.004507968812012303 0.02516967869763161 -0.0258459510135564
0.028898203842020825 0.025459165489755974 -0.025523632375248427
0.0076146331388706676 0.025570756791873046 -0.025161194130030838
-0.015893724893481963 0.02609098038829478 -0.019708848123959476
0.01157871547320187 0.026229544203996667 -0.019631067345850885
0.02581373289011505 0.0262779647490078 -0.020025260746818086
0.01665471533923308 0.026409556695020067 -0.01674677016413868
-0.019960459104558473 0.026138133873560752 -0.018462716578216853
0.013569381289994461 0.026180973477014938 -0.020714797739333452
0.009711093005859333 0.026393639454219336 -0.016411344946348612
0.0328109870710029 0.026481154756150357 -0.016884846136814985
-0.0179579464931238 0.026134989477139773 -0.018703214688712194
0.02506965932635358 0.026146078714334706 -0.022408893415201893
0.004253746407503957 0.026086411169628333 -0.021625448837177513
0.006784449963362096 0.02616690155057503 -0.02035950202091901
0.027458276183729702 0.026213152105900767 -0.021379401763577437
0.027472103374452106 0.026389369991415057 -0.018105412953890537
0.02905925104313553 0.026331868735782867 -0.019318443989604077
0.024735796808312747 0.026428983616705485 -0.017120373560283307
-0.008533026299012378 0.026207665140195086 -0.018209291749829676
-0.012638896557675678 0.026211723455193302 -0.01776058378511454
0.011681101262751622 0.026374578286973732 -0.01694472252070289
0.022637221981882807 0.02636241547520296 -0.018166843176309053
0.03477517540065168 0.026549769088808024 -0.01578812777527388
0.022877561312771633 0.02610490843167612 -0.022974807227238235
-0.006871456188593328 0.026129576287357858 -0.01981173690737895
0.02999508692072797 0.02624364092898565 -0.02104335622711765
0.018828980158297242 0.026391738053602017 -0.01727562339247966
-0.003044228827312051 0.02619388165025676 -0.018964481793621497
0.014601439246394574 0.0260859177125724 -0.022575364611710485
0.007182090605390962 0.026319648661538672 -0.017556642850090322
0.0018098918590819541 0.02610166510366274 -0.021119754811342976
0.020861744228491387 0.026204802773556614 -0.02093487198657705
0.014693291779995244 0.02642755508503266 -0.016233926195188538
0.02696126442012389 0.026499711083777612 -0.01600813355464893
0.014140762617768912 0.026289485492318465 -0.01874990254599234
0.011269766270437498 0.02610650188593868 -0.021889886319296854
-0.006319006532531065 0.026283827412475282 -0.016994997833040162
0.02316930843220977 0.0264818211716955 -0.0159959018667771
0.029497408433791485 0.026542162225604758 -0.015449691656810288
0.0266769206089121 0.026087405607250324 -0.023645533480338838
0.020645156936784245 0.026503404991862347 -0.015365258341859598
0.003101059152663254 0.02624052144469738 -0.018656307810692316
-0.009161092544036875 0.02608540366520727 -0.020424585683139516
0.005001435080435636 0.026364754982549723 -0.01652003047543187
0.0005621069165009547 0.02625661318410897 -0.018126396390936578
0.031362939475787756 0.026339679598266306 -0.01938270483728798
-0.02620826193995643 0.026083332469782162 -0.018913265046806165
0.01725054653504863 0.026309390421313333 -0.01866266383994263
-0.012057343858316569 0.026108854770749257 -0.01972540728407226
-0.0012976174703817553 0.026161894754391325 -0.019717791603066838
0.01662370460924085 0.026131867881596643 -0.021905170128733647
0.009435688913886119 0.026238113528438828 -0.01927696506333877
0.02911564315773965 0.026100140257250402 -0.023630555543498466
0.007060400768610531 0.02600776483727911 -0.022591924426175167
0.017418238036813895 0.025964644080055943 -0.023831278785138892
0.0031189292837492666 0.025858339696891004 -0.023265161142825043
-0.0324025496012138 0.025072161448691864 -0.025463231390676116
-0.010763174699608377 0.025409330627350513 -0.025102864492015924
0.005125864082777657 0.02585560815911158 -0.02346647586985546
0.0017720494580942443 0.025591802594065433 -0.02498277365083808
-0.004339950494431111 0.025713211001381582 -0.02358895733969605
-0.02783272933402555 0.025375615716222828 -0.023783766598681002
0.014150387326822564 0.02582724181264668 -0.024482755729991985
-0.022385335553905608 0.026026477153015475 -0.0197857295477052
-0.010065686111708426 0.025796295987516753 -0.022494826699277496
-0.0015872419552744148 0.025637873321766466 -0.02435931569981946
-0.025429694412181212 0.025482763061843057 -0.023262533759454963
-0.02727180630277229 0.025682506554641688 -0.02171611455756933
-0.023154227490055246 0.025589849254325402 -0.022730125452238105
-0.02962292309336449 0.025212354485516893 -0.024748101992371617
0.020842187003938212 0.02594061780401245 -0.02430842919513167
-0.034160924493315314 0.02536557275057299 -0.02327778117579582
-0.029431390312740748 0.025803903971198625 -0.020681701798595995
-0.006605347894536515 0.02569403444176431 -0.023515389339309384
-0.01535502425613215 0.025498725233170233 -0.024068260312878002
-0.03123417945331503 0.02547686655278734 -0.02277553519580454
-0.020437153078499123 0.025414659285549483 -0.02418658311589478
-0.014109623674054862 0.025830606529370102 -0.021890312682161114
0.009009374862000125 0.026023138965652327 -0.022662975712842343
-0.005062921308760774 0.026066686442207096 -0.021082981273392937
-0.028445656339033523 0.02606784220259464 -0.0189491978176396
-0.019563042077560967 0.025746673776077526 -0.021973960758534656
-0.0023762797527151214 0.02591966651690447 -0.022342197847585444
-0.012573632550613733 0.025575464003401407 -0.023791353418515338
-0.033276432895268056 0.025714156948210633 -0.02095171214632891
-0.017362469781674196 0.025701968888737072 -0.022482646386973622
-0.03829064622537062 0.010854846032131006 -0.02163315244601268
-0.03857288135513133 0.01793650926442255 -0.0187379625011226
-0.0383813947274797 0.013223594372915723 -0.020741514386199394
-0.03847801102357118 0.015924035149735262 -0.01986863412474619
-0.03861039014635198 0.021172737127463225 -0.019335496178736093
-0.03816577615263279 0.005434371017600413 -0.021488579991628447
-0.038547548697727134 0.0032824756615098295 -0.0044337313813974846
-0.038873652910321466 0.007637397487292828 0.0035713783155370887
-0.038740710204217155 0.013097337776520923 -0.007359452736795874
-0.038363516876452966 0.009233074928648402 -0.017861651287426488
-0.03887272716390524 0.011287389849722369 -0.0003324133662625222
-0.038444677333729506 0.01142529780653264 -0.017043913983973178
-0.03851448085424983 0.009254384930022747 -0.012041988430332934
-0.038729635168653506 0.009751898647130327 -0.004242827308630897
-0.03866632448046682 0.010207109087584982 -0.00717532065937894
-0.038563146741876164 0.011194211037095971 -0.012214308342770609
-0.038418997870632014 0.007894960684428907 -0.014296534165016514
-0.03850816150990088 0.014099468711874704 -0.017420971082262784
-0.03872278818081571 0.0076576106555060145 -0.002288446557488232
-0.03846633176814758 0.006032248930651423 -0.010490780556453161
-0.03806664458062183 0.003350908961427944 -0.023117048128007082
-0.038654442138453815 0.007926477754536204 -0.0052183345484248375
-0.03879276734106696 0.0052286810577140425 0.0029937013635345346
-0.03876868614565969 0.007066798802582117 0.00011388074645545063
-0.03863430468939482 0.002665869400960332 -0.00042287998675929225
-0.03844370920650202 0.0030428021319474576 -0.00819829154104458
-0.038927658687285024 0.00599880664875988 0.00739782583013548
-0.038803457904261936 0.010392063432535613 -0.002064311695533746
-0.0382793005917936 0.005784330742079754 -0.017466088584868086
-0.03879157759213252 0.011623906546429487 -0.003829482369575832
-0.03860391550248379 0.014406397468731555 -0.014040588112489417
-0.03821911436948025 0.005451676203999598 -0.01944275099809243
-0.03883328668933367 0.004435395245900468 0.005402443829037805
-0.038837067465222336 0.002944334065243925 0.007128863963697833
-0.038549187521353646 0.007148440781195116 -0.008467145629304484
-0.038650555594867686 0.012441682359258258 -0.010153589606987663
-0.03900460800596276 0.004528489790548574 0.011933856111306275
-0.03871028680621101 0.003838055448097786 0.0012754098606000525
-0.038593042625248763 0.0055197334040116425 -0.005043998786438573
-0.038921705709312804 0.00741773274803063 0.005663785249642181
-0.038370764664268545 0.00529418529593452 -0.013407049256309343
-0.038900490101953254 0.0028554549449357693 0.009677481477223143
-0.03867771925748384 0.01526149586585518 -0.012090576238667527
-0.03856891361658729 0.009012516470896795 -0.00967914977022184
-0.03857671047651446 0.016015807245460093 -0.01679893357864367
-0.03847749592850089 0.010296456098712738 -0.014577592689621055
-0.038678903939018815 0.004613599543310492 -0.0007609532159401017
-0.03819299672999069 0.003429864740263261 -0.018310941488301223
-0.03880989987541461 0.013494532650622856 -0.0051027550683096536
-0.038286432493893734 0.008060719583160236 -0.019602418968840206
-0.038856223111953365 0.008709130095947768 0.0017611168657140812
-0.039014902643295116 0.0020336463033595632 0.01497608709433217
-0.03840977750758465 0.003754360754344787 -0.010265486773404829
-0.038958033486685306 0.004965197373939003 0.009668653619299729
-0.038365026344430175 0.0108633857858098 -0.01953090660909129
-0.03875998440928033 0.0024377954466025973 0.004682569093505919
-0.03825894466429067 0.00321336248858422 -0.015529351333923552
0.03694205839148813 0.013269863518565567 0.025063993197729614
0.037494098595086456 0.017306567511139695 0.0181106322977096
0.03719345699899781 0.011640195215127424 0.023612983661204567
0.03736956508942156 0.01596856739726788 0.02001952031633144
0.037231832014285184 0.009424711464816828 0.02398907229518358
0.0369370063313124 0.017464221636618076 0.024395594372286528
0.0372602839442433 0.021029821894002265 0.019406433740705893
0.037604801178369944 0.022320824879519613 0.015010150799296955
0.036634759473019016 0.025137669367581033 0.025020943775388695
0.03714522655191815 0.015278824392964158 0.022826856841620523
0.03731537817737326 0.024358243429351716 0.01755773206543052
0.03718914080184355 0.017404291645867147 0.021546890688859267
0.0370192945490693 0.02149817710968434 0.02197836559348522
0.03695814663383853 0.01974796355640715 0.02331684107598797
0.03730746621599898 0.018734561518891375 0.019711522110676796
0.03747325489683477 0.02009621723538705 0.01732423934838885
0.0369102043301914 0.025044935104588443 0.02191887602415079
0.03711191416112652 0.023992141985697386 0.020008634258881178
0.037853195343456075 0.02080206961967907 0.01178314506235567
0.0377015042604723 0.017202930316550184 0.014960423564544962
0.03796492696702132 0.023018553176300246 0.009533010330888578
0.03743324697335215 0.0135039618892182 0.020026114403163167
0.03817078176602348 0.022525953784568675 0.006336881785567518
0.037700999509443625 0.020073206767226275 0.014372956632099976
0.037631497828332625 0.014254836550295639 0.01669381240216705
0.03799582620523493 0.020746706957262877 0.009509308783696175
0.038545264397465334 0.020978520324447303 -0.0022287032149031715
0.037473051416913386 0.006508663464757798 0.0196724911746952
0.03818331244734285 0.014639585949116865 0.004855608555468613
0.03862027303376929 0.022287969142816662 -0.0036977018628315153
0.03821816470219875 0.02009521075053277 0.005202887774746806
0.037581298328952635 0.006687102496091432 0.017188965310125297
0.03777785873378031 0.011997383304299005 0.013738634195499982
0.03809037056819191 0.014426010588569155 0.0069751632819827864
0.038113530271247496 0.017311420973584193 0.007048731888077073
0.0383127654043338 0.018533767916501832 0.0026675717058314207
0.0383880473510387 0.02337451212853658 0.001942468481723261
0.03821675426488336 0.017792193729883277 0.004746440860088213
0.03786320836722908 0.012329275147806417 0.011821066193909872
0.03771149764421715 0.010379867876626137 0.014940750125043801
0.037951528306394616 0.012338808176281284 0.009765821110261495
0.03862656366636561 0.020062887455058076 -0.0043169745743121156
0.03831587706953808 0.021280819206408452 0.003178731125790878
0.03772207272892547 0.008204826428544875 0.014232309602593952
0.03854609457487604 0.023563641680481258 -0.0016988039768866773
0.037297769576541746 0.0028765325952274127 0.022983713496363595
0.03845160260473522 0.021277470787334104 1.6512369424419868e-05
0.03839291517476874 0.01755065535026585 0.000591739269905649
0.03870249253290903 0.023447095759377118 -0.005366603496937879
0.038751934883477966 0.02152357070011828 -0.006926956898742181
0.03794895113802861 0.015324768427924452 0.010460251511942392
0.038374880035404436 0.025284775074946954 0.0009469916827204066
0.038293013613459666 0.02497345740515996 0.0030652906275130836
0.037741508006759336 0.014646628893791907 0.01464937466098699
0.03735854341319739 0.00997782622279126 0.02193971223169131
0.03755388123915614 0.009030312590287453 0.018221147342124176
0.03745927868046882 0.011320330978343295 0.020022056876523156
0.03734652871562313 0.005110652719177251 0.02216843102867343
0.037197732565630345 0.002755465405880849 0.025001001404381062
0.03760949784521214 0.011024601487006333 0.01716239716129456
0.037855501885250886 0.01600979946076022 0.012479320642500336
0.03809629515175214 0.01949811269256488 0.007895439450719447
0.03736867181854632 0.007678780766206429 0.021746901994692973
-0.03878178943631199 0.023257754807196877 -0.012050348596415607
-0.039135643452674715 0.022748165681022454 0.004769066298868821
-0.03889092172218006 0.02311047387111798 -0.006843284248695592
-0.039211999624967575 0.0073688506183260775 0.019151320038082443
-0.039211999624967575 0.020524554392241566 0.010906578030737439
-0.039211999624967575 0.0160875892600909 0.014571057174530052
-0.039211999624967575 0.0126102807170824 0.01645185719347163
-0.039211999624967575 0.014622827226189024 0.01579261799019008
-0.039211999624967575 0.02221820944260756 0.009438586661166216
-0.039211999624967575 0.01933377978016604 0.012786249295490701
-0.038680821254425186 0.019997159724002744 -0.016007450714028804
-0.03878828800256511 0.021243917062285803 -0.011381122561892033
-0.03906844165645103 0.02251383745974482 0.0015267381012901348
-0.038723101768754944 0.019901535329240317 -0.013936452542745772
-0.03891945119450726 0.0212937411173501 -0.0051047344058615125
-0.038829498655790586 0.022694665265892186 -0.010023345239187725
-0.0389913058881287 0.02211029057838621 -0.0020041649695626334
-0.03905214320762063 0.008887717448642187 0.01008890860914507
-0.038890539067198825 0.017675912462276473 -0.004108972700948607
-0.0388699900254158 0.013028813062731974 -0.001863720043820143
-0.039146259761392535 0.006592464799004231 0.016374032405258157
-0.03900461441249901 0.011787454704748165 0.005691828756654514
-0.03876689854210886 0.018212207560874424 -0.01062381132514879
-0.03910248784511959 0.011906115534171726 0.010467268882479015
-0.03919498566803254 0.01032016356261522 0.01617362670448529
-0.03904620409380977 0.013633335287628705 0.006459454198956648
-0.03906767300768717 0.012655378049614637 0.008212438341553408
-0.039128926781437395 0.01417431060880894 0.010186003477885973
-0.03900522567722185 0.013700954808407065 0.004377611057091649
-0.038858114711707546 0.014920663551998229 -0.003782607725953362
-0.038831167688709985 0.016623052156997085 -0.0063165843800844544
-0.038978371427831865 0.009606950615067753 0.0059212039524952405
-0.03918754758276108 0.004257999340044964 0.020064085164046116
-0.03905165356327403 0.020354779849510934 0.0020070151305360312
-0.0391408778365632 0.004055984382962242 0.01788916681622772
-0.03915016954657877 0.02123534321685775 0.006278986274542923
-0.039184495803820836 0.012278165081615906 0.014277035663562658
-0.03903175368249588 0.010665683489061925 0.007827365622526113
-0.03906100949877688 0.007256191994907471 0.011675493491762261
-0.03919121176699533 0.016524369506607454 0.011626752651642543
