0.0119582807809 -0.00729208682084 -0.0257340745614
0.0285366586601 -0.0101024427748 -0.0255954777773
0.0117970670803 -0.00953877856945 -0.0257313555803
-0.017464384422 -0.00190874472081 -0.0259807583106
0.0329069600713 -0.0134696397231 -0.0255542448263
0.0163239805676 -0.00806085443909 -0.0256975255841
-0.0109115767363 -0.00318865823774 -0.0259256738433
0.0191423149055 -0.00975963330814 -0.0256717804424
-0.00521488245355 -0.00449476130942 -0.0258774401886
0.0241763444055 -0.011268578662 -0.0256285230808
0.00830937334686 -0.00679868874157 -0.0257643559337
0.0236971623452 -0.00887219075284 -0.025636669397
-0.01543019038 -0.00211406131259 -0.025964001767
0.0307853844485 -0.0113748206988 -0.0255750844875
0.0213309276989 -0.0101973321819 -0.0256533641764
0.0138758527933 0.00136600004043 -0.00267740844664
-0.000750478641347 0.00136600004043 -0.0140035418904
0.0315457053314 0.00136600004043 0.00130356718724
0.00817991915744 0.00136600004043 -0.0160622650697
0.0259503010925 0.00136600004043 0.0105256707369
0.036034663005 0.00136600004043 0.0073504959773
0.0192428325086 0.00136600004043 0.0106186346393
0.00920456924191 0.00136600004043 0.00456415515409
0.031278274982 0.00136600004043 -0.00963618040172
0.023528844211 0.00136600004043 0.00635709390269
0.0114262150935 0.00136600004043 0.00197066165923
0.0175060271054 0.00136600004043 0.0096081229036
0.0252576013382 0.00136600004043 0.000303499541375
0.0258514405684 0.00136600004043 -0.0108641396835
0.0189394157434 0.00136600004043 0.00610412008445
0.0330208829054 0.00136600004043 0.0109752148051
-0.00136081801819 0.00136600004043 -0.0193211609394
0.0289163366388 0.00136600004043 0.012015114008
-0.0016501967825 0.00136600004043 -0.0105525615219
-0.00705689001758 0.00136600004043 -0.00749837319997
-0.0184598662717 0.00136600004043 -0.0181197563338
0.0354907287772 0.00136600004043 0.0154192716734
-0.026081456357 0.00136600004043 -0.0213727306485
0.00634093561215 0.00136600004043 -0.00468754014312
0.0131392948874 0.00136600004043 -0.00541419029908
0.017884774499 0.00136600004043 -0.00348293130153
0.0152642440148 0.00136600004043 -0.00611234458974
0.0291868010516 0.00136600004043 0.00255635609116
0.025360945498 0.00136600004043 0.00500695205821
0.0288775757672 0.00136600004043 -0.00943104534475
0.0271330386986 0.00136600004043 0.00653016478549
0.00448065055504 0.00136600004043 -0.0146303484228
0.0257466182694 0.00136600004043 -0.0051055125618
0.0184469962707 0.00136600004043 -0.00763207291833
0.000941988019721 0.00136600004043 -0.000973021544798
0.0173245548058 0.00136600004043 -0.0174085862089
-0.00890345110643 0.00136600004043 -0.019681265778
0.0340977120507 0.00136600004043 -0.000194373333605
-0.00307351573559 0.00136600004043 -0.00868419504374
0.0233240117814 0.00136600004043 -0.0140416457525
-0.0239007801165 0.00136600004043 -0.0207657171391
0.0274068893796 0.00136600004043 0.000991575422849
0.032540414164 0.00136600004043 0.0184158939174
0.0232744475951 0.00136600004043 0.0123963147432
0.0357883191517 0.00136600004043 -0.00478544050256
0.0172015024597 0.00136600004043 -0.0052957389088
0.0261547649141 0.00136600004043 -0.00142949473493
0.0140447586492 0.00136600004043 0.00766758348759
0.0366687042405 0.00136600004043 -0.0131742182684
0.0197900418459 0.00136600004043 -0.00437693104966
0.014813147336 0.00136600004043 -0.0117946529073
0.00026383896403 0.00136600004043 -0.0100511683195
0.00441907720349 0.00136600004043 -0.00287908656119
0.0195958774333 0.00136600004043 -0.00137589136489
0.0350853016365 0.00136600004043 -0.0151120208157
0.00861382380689 0.00136600004043 -0.000181325660474
0.0288784611754 0.00136600004043 -0.0145321929907
0.0309562187975 0.00136600004043 0.0100514059785
0.0357115378575 0.00136600004043 -0.00169214657176
0.0235699656297 0.00136600004043 -0.00947486948129
0.00913392215154 0.00136600004043 -0.0103758994757
0.0214378872143 0.00136600004043 0.00113480155546
0.0126383175207 0.00136600004043 -0.0188108264111
0.0317742809252 0.00136600004043 -0.00569133639758
0.00819649624288 0.00136600004043 -0.0186588754583
0.0318136655668 0.00136600004043 0.0124765123215
0.0141119096372 0.00136600004043 -0.0145230151562
-0.00976724641616 0.00136600004043 -0.0169940031717
-0.0143466421717 0.00136600004043 -0.011809181735
-0.0125996977909 0.00136600004043 -0.010308547514
0.0305226188953 0.00136600004043 0.00761817780375
0.0310353239779 0.00136600004043 -0.0158913692894
-0.00630478980511 0.00136600004043 -0.00533339695028
-0.0294476922985 0.00136600004043 -0.0228844426228
-0.0153541473413 0.00136600004043 -0.0155422468522
-0.0080477492649 0.00136600004043 -0.00938971071552
0.0255424270958 0.00136600004043 -0.0141431041351
-0.0166204776139 0.00136600004043 -0.0205399452248
0.00665314359819 0.00136600004043 -0.0133452084503
0.0141577509761 0.00136600004043 -0.00936471661632
-0.00139214072966 0.00136600004043 -0.0160728220948
0.0164882588979 0.00136600004043 0.00737165175613
0.0168155116182 0.00136600004043 0.00525162931283
0.0271838119658 0.00136600004043 -0.0124347922808
0.0197904382242 0.00136600004043 0.00837872027858
0.0289304947028 0.00136600004043 0.00959934699895
0.0344165483666 0.00136600004043 -0.00862742926098
-0.0227290066512 0.00136600004043 -0.017252638587
0.0210747709764 0.00136600004043 -0.0083381610033
0.0359664186442 0.00136600004043 0.00285793356675
0.0033075355308 0.00136600004043 -0.0106434904771
0.00532315635904 0.00136600004043 -0.000553180011749
0.0169674490068 0.00136600004043 0.00149576788957
0.0147426303734 0.00136600004043 -0.0178246646333
0.0329829722623 0.00136600004043 0.00735923887254
-0.00605979502577 0.00136600004043 -0.0188207583813
0.0043789503736 0.00136600004043 -0.00780500347362
0.0349023610665 0.00136600004043 0.0177283029844
0.0239814978561 0.00136600004043 -0.00158018223905
0.0222950672817 0.00136600004043 -0.0114767576145
0.0315984095714 0.00136600004043 -0.0118993038344
0.0272988980395 0.00136600004043 0.0150750258645
-0.00773133715597 0.00136600004043 -0.0176787631532
0.0335466342483 0.00136600004043 -0.00403341855087
0.0135792275362 0.00136600004043 -0.00746327674168
0.0163148229402 0.00136600004043 -0.00205103661928
0.0360330686629 0.00136600004043 0.0200073373359
0.00204194898199 0.00136600004043 -0.00885175909634
0.0278466903236 0.00136600004043 -0.00768048489218
-0.00766675466746 0.00136600004043 -0.0133031441589
0.0217275816434 0.00136600004043 -0.00248520865783
0.0175559314311 0.00136600004043 -0.000383265776122
0.0183410860782 0.00136600004043 -0.0135680139883
0.0295790183875 0.00136600004043 -0.00620634539356
0.000773661355079 0.00136600004043 -0.0163016532848
0.0148846207825 0.00136600004043 0.00148977852227
-0.0134575930484 0.00136600004043 -0.0168802473531
0.032134378903 0.00136600004043 -0.000874757253721
0.00101060331496 0.00136600004043 -0.0128948949496
-0.0109242513672 0.00136600004043 -0.0130689585325
0.0271008419669 0.00136600004043 -0.0161083607997
0.0346844142676 0.00136600004043 0.00872772666724
-0.00477350074988 0.00136600004043 -0.00684423114843
0.00836241226191 0.00136600004043 -0.00382715130943
-0.00356210593461 0.00136600004043 -0.0198595685629
0.0118749100581 0.00136600004043 0.0233461958873
-0.00815021524128 0.00136600004043 7.84612079582e-05
-0.0370889509508 0.00136600004043 0.0166540218081
-0.0223027344156 0.00136600004043 0.0154962024284
-0.0171204503031 0.00136600004043 -0.0100956377877
-0.0203192963979 0.00136600004043 -0.0136699836628
-0.0287548826545 0.00136600004043 -0.0159376145288
-0.0366508689771 0.00136600004043 -0.00243194392458
-0.0310377321999 0.00136600004043 -0.00452853976929
-0.010025824638 0.00136600004043 0.0150889942769
-0.0295643911465 0.00136600004043 -0.000271100796917
-0.0161799172737 0.00136600004043 0.00077983254472
0.0205195265973 0.00136600004043 0.0210061475734
-0.024517786692 0.00136600004043 0.00433135506883
0.0187130681677 0.00136600004043 0.0179009306385
0.00206999559285 0.00136600004043 0.0117192497056
-0.0167175008482 0.00136600004043 -0.00307752634128
-0.00483916563889 0.00136600004043 0.00683472938618
-0.0246844148703 0.00136600004043 -0.00868596922999
-0.0187824479272 0.00136600004043 0.00473045104912
-0.0165332864186 0.00136600004043 -0.0052866949573
-0.0198881386529 0.00136600004043 0.0213944851605
-0.0371762075214 0.00136600004043 0.00426564218402
-0.0160372405386 0.00136600004043 0.0200811946869
-0.0191937480378 0.00136600004043 0.000406228950354
0.0151365569938 0.00136600004043 0.01342655465
-0.032211053986 0.00136600004043 -0.0197314990122
-0.0349344488369 0.00136600004043 -0.00805676372539
-0.000588697067166 0.00136600004043 0.0155575219416
-0.00264863696247 0.00136600004043 0.00449834530148
-0.00123030713875 0.00136600004043 0.0232271070048
0.00284956614885 0.00136600004043 0.00466771542793
-0.0111392862492 0.00136600004043 0.0194409997432
-0.0307468298298 0.00136600004043 0.0209159009751
-0.0238258196901 0.00136600004043 0.0234586124202
-0.0320606158106 0.00136600004043 -0.0092118813756
-0.0125289494115 0.00136600004043 -0.00716922614685
-0.0356330999776 0.00136600004043 -0.00447099188098
-0.0362851161927 0.00136600004043 0.0145470127956
-0.0355639043908 0.00136600004043 0.00928985696634
-0.00538717310794 0.00136600004043 0.0108013689689
0.00561599135747 0.00136600004043 0.0165863922725
0.00722234194595 0.00136600004043 0.0132872700719
0.00417013765239 0.00136600004043 0.015154886677
-0.0249126108975 0.00136600004043 -0.0167790666479
-0.0224357796624 0.00136600004043 0.0179898601277
-0.0080728352322 0.00136600004043 -0.00353619908501
0.0167315068483 0.00136600004043 0.020923816198
-0.00905470972233 0.00136600004043 0.02496354072
-0.0125274972336 0.00136600004043 -0.00185575839128
0.0252933249248 0.00136600004043 0.0226134870341
0.0119350552834 0.00136600004043 0.0136306339739
-0.0345330965812 0.00136600004043 0.0134317049985
0.0106382129259 0.00136600004043 0.0213715583068
-0.00877806548237 0.00136600004043 0.00545912510829
-0.0316729984301 0.00136600004043 0.00412116554611
-0.0198765339436 0.00136600004043 0.00289795800224
-0.0304265770334 0.00136600004043 0.00168400755219
-0.0285656362736 0.00136600004043 0.00574039336243
-0.0265150705171 0.00136600004043 -0.00679640215365
-0.0263450324757 0.00136600004043 -0.00075556264293
-0.014857027479 0.00136600004043 -0.00972053495451
0.0248776903246 0.00136600004043 0.0247309515657
-0.00391004243744 0.00136600004043 0.000747685639479
-0.0170621600128 0.00136600004043 0.0123213382033
-0.0118390173968 0.00136600004043 0.0134761253861
0.0147804015747 0.00136600004043 0.017383306868
-0.027260119824 0.00136600004043 -0.009161237728
-0.0333300953016 0.00136600004043 0.0111223973786
-0.0273523166205 0.00136600004043 0.00882196660931
-0.00728017490729 0.00136600004043 0.0099352953085
-0.0332405895725 0.00136600004043 -0.00281692430409
-0.018536226167 0.00136600004043 -0.00164035864881
-0.00963481178358 0.00136600004043 0.0127461308441
-0.0115766914093 0.00136600004043 0.0168136032717
-0.0340050863583 0.00136600004043 0.00196082845024
-0.0187215189606 0.00136600004043 0.00811034270243
-0.00900245299558 0.00136600004043 0.00771528285173
-0.0141146793827 0.00136600004043 0.000822140459675
-0.0370116996735 0.00136600004043 0.0238335834127
0.00409614335119 0.00136600004043 0.00855926774814
0.00670354283227 0.00136600004043 0.00408013951248
-0.00594318129921 0.00136600004043 0.000126936446084
-0.000630416086774 0.00136600004043 0.0179230904505
0.0128453431956 0.00136600004043 0.0183241050952
-0.0366718934908 0.00136600004043 0.0068215417934
0.00902166635697 0.00136600004043 0.00944727748274
0.0170388479274 0.00136600004043 0.0115685427018
-0.0171112297507 0.00136600004043 0.0095199396806
-0.0294831249486 0.00136600004043 0.0114624421349
-0.0267658269271 0.00136600004043 -0.0179512879388
0.0100747937066 0.00136600004043 0.00652406015413
-0.0130147649223 0.00136600004043 0.0186499274625
-0.0111704154328 0.00136600004043 0.0108620527211
-0.0246118911841 0.00136600004043 0.00670758068618
-0.0154256548469 0.00136600004043 0.0108798898928
-0.0218716819564 0.00136600004043 -0.00522716620558
-0.0188847659749 0.00136600004043 -0.00909007205931
-0.0032069182234 0.00136600004043 0.0096856542781
-0.00776398603672 0.00136600004043 0.00372117924358
-0.0129742883921 0.00136600004043 -0.00517196999139
0.0107460852146 0.00136600004043 0.0187038025084
0.00765436612851 0.00136600004043 0.00652465100063
-0.00487753939299 0.00136600004043 0.0161839439755
-0.0321764439751 0.00136600004043 0.00622465130801
0.0189049935001 0.00136600004043 0.0154931369415
-0.0119265574656 0.00136600004043 0.000307153180338
-0.0293408835307 0.00136600004043 0.018381633205
-0.0192710138253 0.00136600004043 0.0194846320566
0.0160381543009 0.00136600004043 0.0230253156772
-0.0368595363758 0.00136600004043 0.0125074037964
-0.00263959433868 0.00136600004043 0.0215359266389
-0.0264774185149 0.00136600004043 0.0199563863492
0.000864322817192 0.00136600004043 0.00928531309335
0.0168545823241 0.00136600004043 0.0187089267998
0.00669063197305 0.00136600004043 0.0205275238197
-0.0233719888387 0.00136600004043 -0.0124515408272
-0.00122894523535 0.00136600004043 0.00982604279897
-0.0354846863789 0.00136600004043 0.0203028213201
0.0082007565746 0.00136600004043 0.022983780368
-0.0263228718415 0.00136600004043 -0.0125705439898
-0.0345772526426 0.00136600004043 0.0175046943899
-0.0280651452827 0.00136600004043 0.0162941299178
-0.00947620439607 0.00136600004043 -0.00693814687001
0.00184691431478 0.00136600004043 0.0147359873456
-0.0215876462136 0.00136600004043 0.00844968124728
-0.00922353302871 0.00136600004043 -0.00156703017209
-0.00325562571405 0.00136600004043 -0.0238624977754
0.00810826520675 0.00136600004043 -0.0228794668962
0.0104934887523 0.00136600004043 -0.0236472356035
0.000735246981177 0.00136600004043 -0.0239779892785
-0.0112933458795 0.00136600004043 -0.0224756130894
0.0298601018348 0.00136600004043 -0.0211252057522
0.0187844151272 0.00136600004043 -0.0194631679125
-0.00720935216193 0.00136600004043 -0.0245466263905
0.00297814302899 0.00136600004043 -0.0232433684472
0.0338038227921 0.00136600004043 -0.0205812141021
-0.00744013149619 0.00136600004043 -0.022000700604
0.0345977623492 0.00136600004043 -0.0169928332043
0.0321520675392 0.00136600004043 -0.0195074414292
-0.0179971095279 0.00136600004043 -0.0239033669718
-0.00898808839428 0.00136600004043 -0.0230500752195
0.0268151318915 0.00136600004043 -0.0182456786485
-0.00548740052638 0.00136600004043 -0.0233554812368
0.00904925704366 0.00136600004043 -0.0207509662147
-0.00267080120258 0.00136600004043 -0.0217006810304
0.0126651396119 0.00136600004043 -0.0214092294275
0.0165507264003 0.00136600004043 -0.0195059780318
0.0366653687173 0.00136600004043 -0.0233859465196
0.0252633362002 0.00136600004043 -0.0213796654895
0.0375023887202 0.00136600004043 -0.0154862788547
0.0328161146173 0.00136600004043 -0.0226621928563
0.0257267024081 0.00136600004043 -0.0248889026303
0.0363408064591 -0.00713140296655 0.0250423544753
0.0179324062795 -0.00604724625786 0.0251846999095
-0.00942778068989 -0.00850149336597 0.02539709864
0.00872987724149 -0.00608397250532 0.02525597819
0.0122937123009 -0.013833876157 0.0252299641062
-0.019705815377 -0.0117530949846 0.0254773645987
-0.00162381618357 -0.0166753089642 0.0253383328481
-0.00408652008159 -0.0119400273264 0.0253564362264
-0.00850430379751 -0.0104113521963 0.0253903376218
0.0326303771251 -0.00392562428768 0.0250704342561
0.0357690673573 -0.0187841962632 0.0250491682253
-0.0310689640302 -0.0127573327595 0.0255655743039
-0.0172453097467 -0.0133279907935 0.0254586311842
0.00465671831223 -0.00808668209597 0.025287933592
0.0138361834637 -0.0180107046641 0.0252188733094
-0.013122599141 -0.0150981661111 0.0254270644845
0.0353298071328 -0.00890410389066 0.0250505472994
0.00730368208366 -0.00787397707572 0.0252673901211
0.0266243408918 -0.016411388419 0.0251195055118
0.0348653839455 -0.0156941167267 0.0250555343094
0.0280804775025 -0.00854254619489 0.0251066171052
0.0170403023148 -0.0103571251522 0.0251924913903
0.0287657359171 -0.0158000949137 0.0251027959081
-0.0178700478441 -0.0105937424411 0.0254629097758
0.00183317640044 -0.00725481462969 0.0253096307394
0.0222310868241 -0.0106646110692 0.0251523533135
0.0275873087565 -0.010543974865 0.0251108463205
0.0276599496732 -0.0183484382936 0.0251118816337
0.0303455191785 -0.0104297941171 0.0250894614504
0.00610809004383 -0.00527901976173 0.0252761183197
-0.0246116935724 -0.0111532169636 0.0255152362989
0.0247016623029 -0.0106886813973 0.0251332243934
-0.0267296375224 -0.0129105541704 0.0255319989235
0.0161646308912 -0.0179513283079 0.0252008280424
0.026079372461 -0.0126827642765 0.0251229627222
0.0349012988555 -0.00435705348863 0.0250529349961
0.0202787051333 -0.00628101699249 0.025166576408
-0.000156808649773 -0.00722892875574 0.0253250372626
0.0259055566785 -0.00843630019102 0.0251234394461
0.0352896352828 -0.0131486736004 0.0250517274561
0.00167294973779 -0.0160506459014 0.0253126725143
0.015174263879 -0.0159706043935 0.0252080925951
0.0159290179722 -0.0139695488787 0.025201837558
0.0024730149799 -0.00927079435658 0.0253050881401
0.0230052666475 -0.00292889345384 0.0251447737088
0.00560516633824 -0.0112491573209 0.0252812356421
0.0334051061637 -0.00140483640483 0.0250639181086
0.0327092724595 -0.00933506832572 0.0250709307718
0.037604262638 -0.0144369817692 0.0250340651478
0.0314006220265 -0.0150752254066 0.0250822411138
-0.0130443359206 -0.0115174767923 0.0254257252454
0.0290197957029 -0.00328201091659 0.0250982653262
-0.00389981990182 -0.0148512487533 0.0253555863377
0.0354625398727 -0.00051999637353 0.0250478027533
-0.00579987847117 -0.00890770382322 0.0253690848195
0.0213895479715 -0.018134496828 0.0251604001664
-0.00180383757974 -0.0119236722994 0.025338754203
0.0207087558022 -0.00896973402663 0.0251637962887
0.0373602980633 -0.0122514944219 0.0250355071193
0.0255409524933 -0.0180043460545 0.0251282221662
0.00496134538341 -0.0134513472267 0.0252866727166
-0.00895942127143 -0.0156167848587 0.0253949281331
-0.010850402154 -0.012209922812 0.0254088756744
0.0324293002617 -0.0118929093835 0.0250736227658
0.0318508463473 -0.00630524627602 0.0250769586891
-0.00249371977915 -0.00692801090088 0.0253430743113
-0.0204042976762 -0.0144458228669 0.0254833254418
0.0289620337428 -0.0124447087161 0.0251005886561
0.0186960062119 -0.0180377709093 0.0251812410163
0.0233021858379 -0.00898946906662 0.0251437150101
0.0307310066987 -0.00831431970222 0.0250860428433
0.0130805629693 -0.00896161195529 0.0252228726364
0.0175840012864 -0.0154845088792 0.0251893303952
0.0219105345725 -0.0158855002157 0.0251559048231
0.0241479611036 -0.00566922769707 0.0251364849504
-0.0218657602298 -0.0112605730233 0.0254939918687
-7.62644934382e-05 -0.00957183771105 0.0253248931627
0.0194019028733 -0.002221530603 0.0251725358283
0.0110680490558 -0.0102711610286 0.0252387270572
-0.00108610693995 -0.0144496044949 0.0253337127618
-0.016073394801 -0.0116325044732 0.0254492079271
0.0262838020757 -0.00400575287191 0.0251196029363
-0.0046220457815 -0.00715245383353 0.0253596034952
-0.00844259894721 -0.013123179339 0.0253904149593
-0.00623924565372 -0.0126811859172 0.0253732601705
0.0193219340737 -0.0130114264618 0.0251753642978
0.0342793997362 -0.00655923078592 0.0250582022901
0.0251561935432 -0.0146152154626 0.0251305081116
0.0113219403961 -0.00670883171579 0.0252360313913
0.00990338384207 -0.0173249062905 0.0252491912235
0.00843254163834 -0.0115077619015 0.0252593914358
0.0190510194771 -0.00451302790199 0.0251757224762
0.0139740551026 -0.00561160841752 0.0252152669307
0.0101556810137 -0.0135888303894 0.0252464723309
0.0295984623417 -0.000202156681422 0.0250931531579
0.0334541894478 -0.019420737193 0.0250672265699
0.0311701964876 -0.00222304243322 0.0250813943181
0.0238034259785 -0.0168347102495 0.0251414393028
0.0157303133575 -0.00632464058611 0.0252018112369
0.00376502816205 -0.01666791977 0.0252965963908
0.0374192650243 -0.0103096754002 0.0250346528681
0.00105912651364 -0.0138495757138 0.025316975737
0.0210117994489 -0.0035811476435 0.0251603460433
0.00724658338006 -0.0131962987153 0.0252689220312
0.0121720835134 -0.0162221360011 0.0252313950588
0.0284022587916 -0.00515360834799 0.0251034311529
-0.0158166680335 -0.0150587572539 0.025447921152
0.0148219268071 -0.00359565608852 0.0252082876764
0.0150216265428 -0.00963181226171 0.0252079769128
-0.0331838366149 -0.0138794227887 0.0255821830805
0.00291456073447 -0.0126361383454 0.0253023575283
-0.0108226868942 -0.0153824500143 0.0254093105751
0.0222469886166 -0.00681224133499 0.0251514414204
0.033301836918 -0.0143469336501 0.0250673676771
-0.00580349162535 -0.0158811811988 0.0253705405601
0.00123273319159 -0.0113113939183 0.0253151115364
0.0217210130906 -0.0129355411641 0.0251567686308
0.0191548029784 -0.0104653494715 0.02517613739
0.014054177784 -0.0125184984695 0.0252160605297
0.0318076941513 -0.0169580539211 0.0250794739577
0.00798823391557 -0.0167524486113 0.0252639062658
0.0341219084828 -0.0109571366992 0.0250603224437
0.0171948324226 -0.00823645493504 0.0251908604136
0.0378796237293 -0.0110681404519 0.0125575796458
0.0374910159375 -0.00843737573955 0.0237422232497
0.0373673513359 -0.00139456454979 0.0215505376479
0.0376373956003 -0.00632874705556 0.016656769556
0.0381210651609 -0.000377578881151 -0.0058133495335
0.0376515065155 -0.00406688354336 0.0140659874543
0.0380063034575 -0.0085603756137 0.00579281748462
0.0374349810696 0.000352114882996 0.0175610882282
0.0374128564363 -0.00531571785385 0.0235891860885
0.0377235355774 -0.00321786643224 0.0107542053227
0.037984333159 -0.0105713750454 0.00842662821288
0.0378777344841 -0.00931152030858 0.0109959042137
0.038082456949 -0.00161088421916 -0.00331700526584
0.0378286176178 -0.0117626606137 0.0149892266032
0.0379223146829 -0.00761231570248 0.00785845181872
0.0377688661249 -0.00696398213207 0.0126367610813
0.0375828636474 -0.0111152234693 0.0230041308172
0.0374008120742 -0.000381257678459 0.0194385159201
0.0377470490665 -0.00130988569817 0.00816176803072
0.0377624571922 -0.0116333302315 0.0171886252459
0.0375314366423 -0.00143283414259 0.0158339961843
0.0375428001764 -0.00338424006989 0.0172440633794
0.0375081939664 -0.004014744163 0.0190414868916
0.0381778471338 0.00123315959981 -0.00929655113022
0.0382040746012 -0.000639434281121 -0.00848057584335
0.0375474282182 0.000348395530519 0.0136227027075
0.0380541998716 -0.00343207727063 -0.000638709858888
0.0378387047855 -0.00679582161738 0.010032729892
0.0379982360567 -0.00361129719321 0.00148918793803
0.037658960703 8.90644604216e-06 0.010027546732
0.0376799966697 -0.0144575068629 0.0226965106699
0.0372281150345 0.00028454470305 0.0248753915111
0.0378557357409 -0.00256228995509 0.00551239271193
0.0374783786405 -0.00572576593335 0.0216723082431
0.0378692125454 0.000768009374995 0.00195369372532
0.0378998273168 -0.00566942326866 0.0068462199725
0.0382016350365 -0.00382024259172 -0.00544732404254
0.037771205958 -0.00860533309498 0.0140758183934
0.037698875401 -0.0161515890043 0.0236046645393
0.0378474882652 -0.0160472244815 0.018298326673
0.0379421004249 -0.00162826739301 0.00161929903086
0.0379813367327 -0.000295714652538 -0.00099103812039
0.0379176064399 -0.0135744759227 0.0135487789794
0.0373236622497 -0.00349873182176 0.0250320409221
0.0375919708135 -0.00163844531438 0.0139025170416
0.0375659746501 -0.00705443817536 0.0198329451253
0.0378426903796 -0.0136370102118 0.0162329118943
0.0377676549429 -0.0154931309215 0.0205833899804
0.0380431557351 -0.00700223877072 0.00305699814928
0.0377798253659 -0.000184101680885 0.0059695039689
0.0380945377093 -0.00603671926421 0.000361033607794
0.0377896405501 -0.00337160931619 0.00857937424437
0.0376668181859 -0.00849597065577 0.0176337806134
0.0379916816517 -0.0049413608382 0.00295155499504
0.0376938327781 -0.0123450462185 0.020253817209
0.0373658403191 -0.00295793562552 0.0230523205498
0.0377612985302 -0.0184729054703 0.0235676438962
-0.0375716054625 -0.0253184709307 0.00395621536555
-0.0376898827865 -0.0250170270484 -0.0108629674318
-0.0379697709692 -0.0248853826259 0.00171882710225
-0.0377119392492 -0.025045981448 -0.00664980665543
-0.0376645238823 -0.0249791253522 -0.0160847537022
-0.0376687493941 -0.0252690856129 0.00802051962567
-0.0377952406052 -0.02503732799 -0.00040449915429
0.013994590071 -0.0258838863016 -0.0252681139021
0.00716405353631 -0.0261313359615 -0.0250206642422
0.0161773900244 -0.026033837252 -0.0251181629517
-0.0373657506637 -0.00544777799723 -0.0254151082987
-0.0375402024974 -0.0164359124336 -0.0249992248178
-0.0378423848294 -0.0248811669181 0.0239574505196
-0.0370199765352 -0.0100926135338 -0.0257865043921
-0.0370266927478 -0.0236323467892 -0.0252304008419
-0.00997013145123 -0.0258904987522 -0.0251547484718
-0.0192962264817 -0.0254650623464 -0.0253727876631
-0.0028467805746 -0.0257317230213 -0.0253172411042
0.0291797139548 -0.0259186811183 -0.00984792943467
0.0354164023641 -0.0257082632013 0.00037112845604
0.0259702775126 -0.0260186867749 -0.0213443357911
0.0233998759638 -0.0261128107236 -0.019977676307
0.0369849596163 -0.0256405015077 -0.00824320220077
0.0341936220369 -0.0257399480992 -0.00884491006092
0.023783198279 -0.0260961567452 -0.0221540181028
0.0252977482009 -0.0260462421013 -0.0187798009546
0.0335961984364 -0.0257515384169 -0.0162795013699
0.0362452100023 -0.0256542485172 -0.0179045380474
0.0342383043823 -0.0257484068212 -0.00126071696609
0.0284310282794 -0.025937154642 -0.0161890257549
0.0311172113952 -0.0258498986718 -0.00924601031543
0.0279855080032 -0.0259566459317 -0.0135577835895
0.0323193527732 -0.0258111939942 -0.00587897278131
0.0371354535522 -0.0256381090018 -0.005973108459
0.0338199860538 -0.0257340260593 -0.0234206316001
0.032260947663 -0.0258066360586 -0.0108947834803
0.0301544538695 -0.0258689362625 -0.0209559528386
0.0258777718362 -0.026018459693 -0.024019181807
0.03419454354 -0.0257354668004 -0.0121972627009
0.0212379708617 -0.026184830383 -0.0242135908763
0.0352421639775 -0.0256953733063 -0.0140590736831
0.0366169614821 -0.0256356529952 -0.0218572778986
0.0340554022189 -0.025728351534 -0.0213255463035
0.0301419182636 -0.025878137536 -0.0143607714719
0.0330657289436 -0.0257733997151 -0.0141613106965
0.0353356427872 -0.0256845455213 -0.0196892978188
0.0301001901021 -0.0258826162501 -0.0121148173387
0.0354661827088 -0.0256998147493 -0.00464864968909
0.0303330836968 -0.0258599126348 -0.0229218383519
0.0315604516043 -0.0258211057241 -0.0189490805781
0.0273825707106 -0.025971638945 -0.0185771922643
0.0377058677257 -0.0247061430786 -0.0196926339217
0.0376243583518 -0.0254032479196 -0.00341148327802
0.0374813798747 -0.0250850771835 -0.0157191560468
0.0377167482556 -0.0250522244463 -0.0102200606768
0.0374431407218 -0.025231017223 -0.0128837822518
0.0382308329316 -0.000683992001074 -0.0189345527972
0.0382962412373 -0.00606959658861 -0.0223258701762
0.0382476161028 -0.00294266396894 -0.0205501185789
0.0381020149113 -0.00126987524672 -0.0217708011911
0.0381545380217 -0.00414490817201 -0.0232616500899
0.0382161600345 -0.00733827196708 -0.0248579726365
0.0380314288 -0.0019928733057 -0.0236666550813
-0.0378895434362 0.00136600004043 -0.00491104511746
-0.0390204960025 0.00136600004043 0.0185697372471
-0.0373811582432 -0.0255582715517 0.0110296610154
-0.0152784136359 -0.0260867701604 -0.0157337998596
-0.0255063634784 -0.0258711190623 -0.012954243495
-0.0203228154348 -0.0259807452541 -0.0135683399351
-0.0240695844543 -0.025904092845 -0.00696370829697
-0.03282722178 -0.0257263436225 0.0118473564161
-0.0285503511674 -0.0258101612378 -0.0044529931086
-0.0306539426995 -0.0257712829971 0.0091541239894
-0.0168572690597 -0.0260545650465 -0.0127232025667
-0.0121464291263 -0.0261506726154 -0.0216654947302
-0.0235548192936 -0.0259130494805 -0.0116200679123
-0.0169072865103 -0.0260511648376 -0.0182943843361
-0.0329306393848 -0.0257227797006 0.00858163296607
-0.0316667461924 -0.0257452361291 -0.00174301975797
-0.0318003378095 -0.0257432423779 0.000252704014463
-0.0267222651611 -0.0258492130111 -0.00374143535228
-0.0205309061202 -0.0259777945464 -0.0100909050919
-0.0318203560165 -0.0257443326957 0.00385905913058
-0.0314715486142 -0.0257465309127 -0.00851236244678
-0.0299648391417 -0.02577793519 -0.0097883046927
-0.01142403497 -0.0261652246292 -0.0234791816798
-0.0328472935094 -0.0257180687552 -0.00684154057172
-0.0224603655008 -0.0259354495244 -0.0135269072445
-0.0260262053671 -0.0258620757564 -0.00824800507742
-0.0323509509102 -0.0257295710134 -0.0045070864106
-0.0342179429229 -0.0256948126812 0.0069674766456
-0.0285218737876 -0.0258078998453 -0.0112745653182
-0.0139491114764 -0.0261138858197 -0.0182664649998
-0.0353046071949 -0.0256743287914 0.0130434079133
-0.037194330509 -0.0256364992341 0.0183528747961
-0.0289056630356 -0.0258052442824 0.0017735705869
-0.0314126384215 -0.025754090054 0.00651215143185
-0.0261753354509 -0.0258579716478 -0.0104926495016
-0.0149612078284 -0.0260917389559 -0.0199136202034
-0.020600956803 -0.0259736703588 -0.0163747064099
-0.0359195253002 -0.0256544750762 -0.00319054869088
-0.0278875151889 -0.0258232545705 -0.00673365256044
-0.0235920801562 -0.0259151420558 -0.00475711372703
-0.0256997483329 -0.0258701649902 -0.00546517981599
-0.0175177805764 -0.0260395633107 -0.0151036602691
-0.0338449975369 -0.0256992819362 -0.00121504628421
-0.0342722142548 -0.0256915641251 0.00197207588926
-0.0287786894983 -0.0258071384494 -0.000125225197915
-0.0361038787954 -0.0256522157135 0.000734858125089
-0.0359578076105 -0.0256615398803 0.0155625442548
-0.0355285488054 -0.0256679673852 0.00920020956466
-0.0350159840909 -0.0256823157963 0.0174924121217
-0.0222129292336 -0.0259437351912 -0.00628799619974
-0.0353608175332 -0.025669785687 0.00506363102876
-0.0266466742777 -0.0258523566218 -7.19586854844e-05
-0.0255650616875 -0.0258745971351 -0.00171050097401
-0.0231113968845 -0.0259263866226 -0.00224583906695
-0.0269121742093 -0.025848258693 0.00357160932417
-0.0368103398052 -0.0256457635765 0.0210296853845
-0.0292784590749 -0.0257985081548 0.00455126539262
-0.0286583534109 -0.0258087325459 -0.00240346084274
-0.0226377681305 -0.0259335771937 -0.00903082904204
-0.0190571049169 -0.0260084040481 -0.0115981923039
-0.0338797350773 -0.0257051715294 0.0145610247767
-0.03573423265 -0.025657080708 -0.00633891077724
-0.0342993532876 -0.0256881164188 -0.00486692954584
-0.0207916626518 -0.0259732584746 -0.00772994174839
0.00372201941362 -0.0195413349474 0.0252922934918
0.0336971068527 -0.0232081905753 0.0250587828205
-0.0224994685879 -0.0154392155052 0.0254984806059
0.00570131448063 -0.0175237053696 0.025281719117
0.0297504747222 -0.0215488455046 0.0250920500972
0.0317109447737 -0.0214986715245 0.0250773994473
0.0241961743145 -0.0215019420524 0.0251339628546
0.0262958710619 -0.0205433520648 0.025120211655
0.00678312422233 -0.0200049190025 0.0252682559414
0.00852083046525 -0.01896553107 0.0252574029901
0.0234985787596 -0.0197345345428 0.025143003391
0.0167459382785 -0.0214371004554 0.0251901864776
0.000902535417074 -0.0182699818002 0.0253162439053
0.0345876720534 -0.0211876309147 0.0250564105739
0.0193268187971 -0.0212885087376 0.0251710764373
-0.00590575233859 -0.0180237016806 0.02536802399
0.0136595665175 -0.0202705126788 0.0252159213904
-0.0191106656302 -0.0161235717791 0.0254715028685
0.0215891907484 -0.021004015141 0.025154655454
0.0316260501853 -0.023698286716 0.025073322815
0.0367981276632 -0.0209532972258 0.0250402728747
-0.011470478654 -0.0248914951929 0.0250204935676
0.0298561104266 -0.0246525017424 0.0249760123286
-0.00888784515761 -0.0249359974157 0.0249877203375
0.0118951568505 -0.0247965168584 0.0249750857784
0.00269174723057 -0.0251905062385 0.0248130345685
0.0184672021951 -0.0254832952606 0.0246022711642
0.0210200219905 -0.0254521008587 0.0246078150554
-0.0392059981823 -0.00476871972375 0.0243791639403
-0.0387832331598 -0.0202779318215 0.0243554670696
-0.0392049522502 -0.0068042313815 0.0243942661182
-0.0391737589667 -0.00295407222629 0.0255114283421
-0.038525620661 -0.0242272313942 0.017250158731
-0.0379636173821 -0.024797465874 -0.00448855267493
-0.038452655771 -0.0242901333837 0.0143391548912
-0.0385849847349 -0.0243394376401 0.0209199495085
-0.0375408997417 -0.0250045150549 -0.0226067806625
-0.038713972629 -0.0223215704463 0.0240533017844
-0.0390348541019 -0.013502522967 0.0230283901701
-0.0387365447335 -0.0213190417541 0.0209371574701
-0.0388834922617 -0.0174420487653 0.0217556847159
-0.0389551145503 -0.015683272654 0.023197076366
-0.038808285086 -0.0194764570788 0.0217364536265
0.0378419584492 -0.0177834812501 -0.0246905369013
-0.0369880787724 -0.0232522987108 0.0249615048528
-0.0381135621525 -0.0112449476306 0.0256110001355
-0.0385541283653 -0.0158497115258 0.0251452283782
-0.0385381874768 -0.0184393994871 0.0249736331224
-0.00361036902743 -0.0190360856628 0.0253472066898
-0.0312613899857 -0.0150934983242 0.0255633901957
-0.0357174295078 -0.0155365606212 0.0255931120692
0.00991191990492 -0.021034657215 0.025241151054
-0.0273889087375 -0.0150039425891 0.025536158709
-0.0369940509324 -0.0138925205631 0.0256100297671
-0.00156106809899 -0.019303182845 0.0253313037649
-0.0102276830969 -0.0179076512169 0.0253998200652
-0.0144693449509 -0.01698859526 0.0254344736413
-0.0288777435132 -0.0162332904594 0.0255409588397
0.0266725947146 -0.0230405220663 0.0251119329865
-0.0254302034251 -0.0160960790672 0.0255169882959
-0.0242274772514 -0.019964861842 0.0253289130033
-0.0206831862664 -0.0204663467902 0.0252976845157
-0.0367826833174 -0.0198715317418 0.0253402780516
-0.0210434048568 -0.023293506625 0.0251311274723
-0.0263897910501 -0.0209014703665 0.0252746881134
-0.0134071122664 -0.0207788403459 0.0252758592568
0.000443124235474 -0.0216672771086 0.0252170000781
-0.0299412538858 -0.0227166953294 0.0251692973477
-0.0233033821132 -0.0230977429997 0.0251437271994
-0.0162231256877 -0.0194143170777 0.0253576434503
0.00364038275602 -0.0214522730988 0.0252281868718
-0.0307061376845 -0.0206661962583 0.0252905778506
-0.0320644595589 -0.0220693126021 0.0252084664165
-0.0338959622793 -0.016343301225 0.0255469996727
0.000299991888757 -0.0243563296182 0.0250584862524
0.00580877902565 -0.0232196622402 0.0251229469224
-0.00763850852006 -0.0232168500273 0.0251293903366
-0.0284267003093 -0.0210892821133 0.0252645632369
-0.0169238980854 -0.0215103238672 0.0252343634444
0.00208537358411 -0.0232736777997 0.0251214996698
-0.0352599962644 -0.0181011176859 0.0254439732873
-0.0237653032938 -0.0176965708577 0.025462464455
0.0129572159918 -0.0228883237742 0.0251391497505
-0.0103863284562 -0.0228800903803 0.0251505327161
-0.00381295026471 -0.0244914905072 0.0250524354886
0.022353344359 -0.0234570809239 0.025101222239
0.0150363784934 -0.0246058402994 0.0250368925799
-0.0333027200671 -0.0192966022413 0.0253725586431
-0.0316278323454 -0.0241857246924 0.0250834520853
-0.00302522542057 -0.0212593177577 0.0252426776587
-0.020284092535 -0.01849895108 0.025413520813
-0.0163800558046 -0.0242243243217 0.0250740576725
0.00762099358069 -0.0220317813786 0.0251921534526
-0.00544274190503 -0.0233815633554 0.0251186517042
-0.0253235977846 -0.0229542242733 0.0251531339771
-0.00905796575116 -0.0210224966407 0.0252594598878
-0.00634046175763 -0.0209704766985 0.0252612590364
-0.034777842675 -0.0231079360686 0.0251484826863
-0.03451953367 -0.0209639471364 0.0252747988822
-0.0304798153627 -0.0184467375194 0.0254213596358
-0.00795365751016 -0.0190868269896 0.0253730960004
0.0168993637773 -0.0238785404742 0.025078913709
-0.0262658611281 -0.0184987313245 0.0254163262297
0.0108278403375 -0.0226878424896 0.0251519667221
-0.0284601004884 -0.0188536704571 0.0253964188488
-0.0181461654677 -0.0182712069378 0.0254259534521
-0.0190056409874 -0.0236818259402 0.0251072759548
-0.0280487400304 -0.0237438004198 0.0251078427253
0.00789019706423 -0.0245906123532 0.0250411266504
-0.0135042594194 -0.0239175860776 0.0250908043477
-0.00182231936454 -4.37957295235e-05 0.0253316615228
0.00301492735993 -0.00392009745813 0.0252986038262
-0.0373845670043 -0.00399086680062 0.0256054921924
-0.0138429256605 -0.00147106240243 0.0254243090226
-0.0224406720348 -0.00324713803382 0.0254912921127
-0.0170518311839 -0.00379179142014 0.0254508826174
-0.0296295211432 -0.00980819622211 0.0255521172986
0.00891379079633 7.23361512818e-05 0.0252500139736
-0.00660603437338 -0.00254469441908 0.0253703663188
-0.0150037999057 -0.00907214832167 0.0254403409374
-0.036475420763 -0.0058670948638 0.025600368557
0.00548070479412 -0.00205652844618 0.0252781080168
-0.0171780650301 -0.00683959414354 0.0254547344965
-0.0272403016691 -0.0107668785839 0.0255348819879
0.0171946813312 -0.00234909235499 0.0251894218472
0.0110932352099 0.000805296811616 0.0252327660189
-0.0290435053146 -0.00542777414235 0.0255435085136
-0.0341784446332 -0.00697234821862 0.0255839729396
0.00202585071327 0.000368186566639 0.0253020448262
-0.000905789210088 -0.00455443394781 0.0253289825633
-0.0197451674848 -0.00420015544223 0.0254717252876
-0.0111698202918 -0.000741888708674 0.0254033154664
-0.0300796756189 -0.00128793494075 0.0255474480883
-0.00668627285586 -0.00495525385901 0.0253732639649
-0.0194372355835 -0.00943054588721 0.0254743516722
-0.0257536435581 -0.0060251079033 0.0255190900982
-0.0189877706089 -0.00633702077711 0.0254680015538
-0.0155821648286 -0.00531361579108 0.0254411655885
-0.00283325695091 -0.00338071644375 0.0253425068925
-0.00862466857569 -0.00404582292803 0.0253871221667
0.0100174965325 -0.00356172971723 0.0252450813758
-0.0116871907537 -0.00325492687644 0.025409630269
0.00798164752143 -0.00323417773165 0.0252602320616
-0.0327942110143 0.000234408954942 0.0255666190047
-0.0267949281436 -0.00847020591464 0.0255293193671
-0.0268990047906 -0.00428948452959 0.0255261411818
-0.00570586917009 5.73392363007e-05 0.0253610598327
0.000433586173649 -0.00109833852101 0.0253155296856
-0.0353390124539 -0.0107349832295 0.0255963588186
-0.00804737414394 -0.0012186011501 0.0253800540171
0.0214989927004 -0.00148998206035 0.0251559164608
-0.0231012805222 -0.00525655191175 0.025498216689
-0.0329873503507 -0.00224281182957 0.0255704373758
-0.0246484150003 -0.00143130965831 0.0255063355086
-0.0281975386923 -0.000515163119312 0.0255324202972
-0.0158917161553 -0.00211960418241 0.0254404845668
-0.0294490540117 -0.00736401839267 0.0255484265353
0.0136619056016 -0.00165763100426 0.0252155957642
-0.0161772703595 -0.000148892702195 0.0254407825311
0.0260987138928 -0.00074143130981 0.025120272482
-0.012590222907 -0.00612939866399 0.0254192171448
-0.02445261764 -0.00375873244327 0.0255070578324
-0.00137000688107 -0.00214798932303 0.0253302237929
-0.031641617967 -0.00806946850801 0.0255657480139
-0.0265758459123 -0.00216822202772 0.0255216732529
-0.00494155051378 -0.00399182530928 0.0253590988096
0.0181944929586 -0.000319177454656 0.025179901671
0.00081094749647 -0.00354055557779 0.0253149820596
-0.0224145179401 -0.00755379968252 0.0254951816455
-0.0129865330504 0.000445856818585 0.0254159853307
-0.012720531091 -0.00826541972417 0.0254222344444
0.0231419947254 -0.000307980184995 0.0251423163546
-0.0311981448208 -0.00602411940844 0.0255604383987
0.00671621114108 0.000618591381998 0.0252661853442
-0.0339486172935 -0.00927251918219 0.0255844109474
-0.0240996781004 -0.00894517464334 0.0255093006799
-0.0336585789872 -0.00478133321197 0.0255779448722
0.00445673452142 -4.6908011898e-05 0.0252839770792
-0.0211243959451 -0.00172978285177 0.0254798550457
-0.0333398298555 -0.0115747554156 0.0255819728354
-0.018819808908 -0.000489631286041 0.0254611752142
-0.0101164964792 -0.00632887244854 0.0254006193404
-0.0348981453679 -0.00224681303474 0.0255849530486
-0.0374284124587 0.000248941548861 0.0255959379704
0.0133398699374 0.00117905911353 0.0251280402797
-0.0251001375136 0.000508118579196 0.0254655583941
-0.0227685095844 0.000967520671158 0.0252344551593
-0.0374440929397 -0.00935607951188 0.0256110001355
-0.0312420555706 -0.0255422170666 -0.0202667589294
-0.0356321096837 -0.0252914981562 -0.020489746667
-0.0334432939899 -0.0253593140015 -0.0223133916771
-0.034388610014 -0.0255296900902 -0.0147706979425
-0.0323759456166 -0.0256265302182 -0.0152809805194
-0.0334803693265 -0.0254775211957 -0.0182444335965
-0.0363540741744 -0.0254684137003 -0.0131460189037
-0.0317260922576 -0.0254126160815 -0.0237407820314
-0.0352399545545 -0.0255921698184 -0.01105516795
-0.0293315804139 -0.0255860342339 -0.0223786658412
-0.0363690814599 -0.0255973320438 -0.00875619793181
-0.0369118305538 -0.0252932853691 -0.0180216356218
-0.0353800679268 -0.0252106200566 -0.023700214989
-0.024188085538 -0.025790195567 -0.0213126995459
-0.0254261133321 -0.0258376934395 -0.0162249011135
-0.0184278138433 -0.0259599281861 -0.0222922062936
-0.0278480574445 -0.0257341535673 -0.01768170997
-0.0335635253414 -0.025639978538 -0.0123982437302
-0.0217207386267 -0.0258980974985 -0.0196879699962
-0.0201255915273 -0.0259687882501 -0.0185834583063
-0.0236594749828 -0.0258695266111 -0.0176998104989
-0.02505185005 -0.0257933550404 -0.0195041305289
-0.0334003859821 -0.0257047241832 -0.00894485764619
-0.0144674556474 -0.0260892292821 -0.0222335775504
-0.022164655971 -0.025811746659 -0.0238678968865
-0.0306657797706 -0.0256636814031 -0.016473393586
-0.0247700724674 -0.0257129653146 -0.0247031568503
-0.032208551315 -0.0257064758488 -0.0110854220847
-0.0304848214612 -0.025725089357 -0.0132473790541
-0.0265544172182 -0.0257084240907 -0.0216098663684
-0.0211670415918 -0.0258805361315 -0.0217496199463
-0.0268011702317 -0.0256458245225 -0.0247813027008
-0.0286243820191 -0.0256751714625 -0.019646723147
-0.015281773671 -0.0260235537118 -0.0245158552468
-0.0287325218107 -0.0257506791028 -0.0150579190898
-0.0363977900068 -0.00377356403777 -0.0260969996452
-0.0353170632362 -0.00667355344298 -0.0260470684732
-0.0362156248357 -0.0132420688553 -0.0258489111584
-0.0132955453694 -0.0199053820424 -0.0256751931597
-0.0295680235327 -0.0175580853023 -0.0257372699332
-0.0321268285182 -0.0201532299668 -0.0256620097918
-0.0219583719116 -0.0211027181237 -0.0256380563812
-0.0167319635523 -0.0246857038974 -0.0255369740013
0.0019369302103 -0.0236736096527 -0.0255720253329
-0.0341309280462 -0.0112555514329 -0.0259165692532
-0.0220128953382 -0.0128902720386 -0.0258735906823
-0.0342498945662 -0.0207458802713 -0.0256443263647
-0.0265970132164 -0.0200322783956 -0.0256672627469
-0.0323806723293 -0.012629737414 -0.0258777190211
-0.00949488130106 -0.0205834118993 -0.0256569717027
-0.0272102696671 -0.0235207759459 -0.025567006772
-0.0103315960062 -0.0181771412095 -0.0257257191902
-0.0075001199607 -0.025283121843 -0.0255228166474
-0.0180782433836 -0.0155488749889 -0.0257986050436
-0.0113755244839 -0.0215221229648 -0.0256294406548
-0.0162152103312 -0.0162446044165 -0.0257792508891
-0.00825970883536 -0.0191567128163 -0.0256982911588
-0.0297233145711 -0.02004605869 -0.0256658590268
-0.0208769655208 -0.0146232526404 -0.0258242512265
0.000198430079494 -0.0224059863736 -0.025607822893
-0.013861594328 -0.0218732403432 -0.0256185678526
-0.023431369401 -0.0154198301075 -0.025800579559
-0.0325800662304 -0.00619629552524 -0.0260621806483
-0.00221100469253 -0.0208656488032 -0.0256512261005
-0.0193029176354 -0.0173558230336 -0.0257463825571
-0.0161882883427 -0.0141298014732 -0.0258399169979
-0.0350511489527 -0.0229010846502 -0.0255822516685
0.00526080319253 -0.0250760094581 -0.0255328734743
-0.024269327799 -0.0209133981254 -0.0256427410566
-0.0276162001957 -0.0142046004418 -0.0258340852222
-0.0137341283679 -0.0144045995678 -0.0258328268078
-0.0274938463906 -0.018329465371 -0.0257158140538
-0.0299875611808 -0.0123078479333 -0.0258877235136
-0.00325018591605 -0.0232775399221 -0.0255817122874
-0.0339011231066 -0.0086164493712 -0.0259923389148
-0.00743859985454 -0.0230129496885 -0.025587950264
-0.0329707196893 -0.0239597597209 -0.0255525575229
-0.0325909662327 -0.0146123611552 -0.0258207849652
-0.0257321562093 -0.0164973635809 -0.0257689312362
-0.017084957175 -0.0183629466514 -0.0257182113902
-0.00596844358471 -0.0180791384346 -0.0257299375835
-0.0281485418589 -0.00967608663198 -0.025963801719
-0.00657660851178 -0.0210012468778 -0.0256459285965
-0.0152249579513 -0.0191406791409 -0.0256965042201
-0.0255928869159 -0.0104065898381 -0.0259436735954
-0.0242201181267 -0.0128296904988 -0.0258746163037
-0.00517305604807 -0.0241556164945 -0.0255559067551
-0.0123985448772 -0.0180107477181 -0.0257298249913
-0.0188709718489 -0.0198440501352 -0.025675153802
-0.0333523546111 -0.0170336504041 -0.0257510912013
-0.031152773331 -0.0165257195799 -0.0257663693603
-0.013380629033 -0.0237943090103 -0.0255636223217
-2.422591185e-05 -0.0249444476549 -0.0255349421471
-0.0189958344957 -0.0221523881524 -0.0256089050677
-0.0347616344881 -0.0184295308305 -0.0257105995325
0.00946139056198 -0.0243129055353 -0.0255561160625
-0.0305078734896 -0.0220983537067 -0.025606741394
-0.0046750382454 -0.0194540097265 -0.0256909203262
-0.0187589247998 -0.0125790194623 -0.0258835677763
-0.0247976270504 -0.0234186497122 -0.0255707142482
-0.0292755078429 -0.0237179738779 -0.0255606844846
-0.0120147909925 -0.0157511915021 -0.0257947580631
-0.0208633369051 -0.0190002121357 -0.0256987143326
-0.0278500603846 -0.0117712506093 -0.0259038038683
-0.0227753796066 -0.0186023264167 -0.0257095098335
-0.0300966608518 -0.00865345467177 -0.0259925047453
-0.00964282293529 -0.0238016588949 -0.0255646172362
-0.0356310214622 -0.01509974106 -0.0258058251372
-0.0169303691589 -0.0206576646553 -0.0256524434533
-0.0226776402255 -0.0231797808934 -0.0255782494133
-0.0372897210421 -0.00063626214086 -0.0253848539052
-0.0378322826063 -0.00286246120428 -0.0242991971938
-0.0378737651259 -0.00136129463587 -0.0227604481938
0.00207368727478 -0.0261310894647 -0.0174663987139
0.0227314466178 -0.0260962049441 -0.0152531029214
0.0233449786403 -0.0258993984163 0.00177992771815
0.00670772702992 -0.0261568839228 -0.0198837175271
0.00372379098653 -0.0261905838789 -0.0226874511977
0.0191925395493 -0.0260981315934 -0.0152813012306
0.00970740350683 -0.0261427306854 -0.0187747022708
0.0294007796134 -0.0257414498617 0.0152317375424
-0.00289625062232 -0.0261582890472 -0.019628865531
0.0139762301128 -0.0259247816684 -5.26135323928e-05
-0.00456962853732 -0.0261926603062 -0.0225421759169
0.0297091573476 -0.0257687333535 0.0128550019538
0.0146930645042 -0.0261801632502 -0.0222144773739
0.0179201367581 -0.0261200893342 -0.0171344650202
0.0334949463758 -0.0257254940303 0.0164540604723
0.0277680263101 -0.0257781014454 0.012119199772
0.0178696892237 -0.0259413361113 -0.00164006346859
0.0338918413712 -0.0256944448507 0.0191295074763
0.0196467852516 -0.0258951641724 0.00229193656221
0.00303027487296 -0.026156327363 -0.0196912645123
0.0225676526179 -0.0260209574421 -0.00872502846314
-0.00193559000536 -0.0261355742783 -0.0176978652086
0.0162822933826 -0.0259848014753 -0.00534492580969
0.0159962204464 -0.0259215290535 0.0001500717416
0.0120780068108 -0.0261992231891 -0.0237638365429
0.0323711812785 -0.0257511445584 0.0142750162205
0.0263775945054 -0.0259563200084 -0.00327235709376
0.0141416678266 -0.0259840805829 -0.00519849896762
0.0169381470493 -0.0260331625579 -0.00956206894345
0.0138846554845 -0.0261384044054 -0.0185635631413
0.00313379294291 -0.0260639693593 -0.0116907172372
0.0221037081254 -0.0258147240871 0.0091672737545
0.00805393649828 -0.026128043876 -0.0174369632643
0.0159630280562 -0.02613266884 -0.0181479717353
0.0193383381849 -0.0260424430864 -0.0104605329846
0.0220968971893 -0.0259370538588 -0.00143469926197
0.00566735792767 -0.0261972352052 -0.0233401368785
-0.0019763885712 -0.0261880153819 -0.0222413008836
0.0214036208539 -0.0258864201227 0.00298088082539
0.0163708244319 -0.0259600835498 -0.00320611147911
0.0168917101278 -0.026089881819 -0.0144760685649
0.00930169019897 -0.026022663864 -0.00835267994796
0.0280653898512 -0.0258948282993 0.00199089929924
0.0257404062382 -0.0259942993501 -0.00653901322151
0.0211867689106 -0.0258369156681 0.00727990319282
0.026360240048 -0.0258258937675 0.00803227921431
0.0220969762625 -0.0259866649413 -0.00573446195225
0.0204097437434 -0.0260794035081 -0.0137058848456
0.00357513348603 -0.0261017469475 -0.0149821835067
0.011963802576 -0.026073810588 -0.0128899309665
0.0116387527842 -0.025979772114 -0.00472693156906
0.028204391889 -0.0258408426416 0.00666434926548
