-0.012183503666798844 0.013797492115815182 -0.004994984715475742
-0.011428999714553356 0.016042050630969872 -0.002018266500855691
-0.026271000504493713 0.014327317701606238 -0.001892383582717837
-0.026271000504493713 0.014818533998285827 -0.004802370885965093
-0.01891165927367545 0.014846837145976306 -0.01204514902107482
-0.026271000504493713 0.014773163593485414 -0.009829292923551676
-0.026271000504493713 0.014176183272234872 -0.006337599646487519
-0.02398484262776706 0.012684999965131283 -0.005408260596053598
-0.013370663202862856 0.014400515051015042 -0.01192659267274256
-0.018023544429489113 0.016124107226529703 -0.011640893012484922
-0.019807120624360658 0.016146794527458347 -0.011618205711556279
-0.021365211203848475 0.015330750409149507 -0.011968419085787461
-0.024877775159818524 0.014769562876261456 -0.011858570664924697
-0.015322022116412114 0.015453659952082128 -0.012051351607846206
-0.019923070604196128 0.013025457297831226 -0.00412723103204902
-0.015862195957376184 0.013435901732344033 -0.007208654700808828
-0.023036713771323884 0.012716133477620507 -0.0027559974981069767
-0.018526241994108027 0.013179403556547571 -0.00753892053769145
-0.022100603425173882 0.012814740011090885 -0.0042016494763126005
-0.018939689520460427 0.013129282875365479 -0.0056900485982109405
-0.02101557116700898 0.012928232597941573 -0.005729735889718275
-0.023669079741757502 0.012779287734775803 -0.008330923241194913
-0.02487420662978629 0.012958995911353619 -0.00320166183603785
-0.017131989597388153 0.014576947115914314 -0.012038100279675843
-0.022993595309639434 0.014135466288530685 -0.011880314800324207
-0.024679107004923824 0.013000249270720776 -0.010576919082430636
-0.025265648051029554 0.013281543481769896 -0.0077378854643202905
-0.011965212966849714 0.013987597821100674 -0.010672220093353557
-0.018332001910682495 0.013427018313787531 -0.011024508823745689
-0.014933355525589116 0.013782365626801511 -0.011361144714737799
-0.015413044340958096 0.013530418078901173 -0.00888103717224014
-0.013528634943174453 0.013686449234383053 -0.008618477813821725
-0.013800839462467776 0.013749299827356277 -0.01016314851571018
-0.006636193332696607 0.014737176944620792 -0.0017229999648407102
-0.008549275028729132 0.014599209454630047 -0.0017229999648407102
-0.0099767816179678 0.01539070690344761 -0.0017229999648407102
-0.011428999714553356 0.015196923502892147 -0.003983170182125267
-0.002087874768897277 0.01624700054526329 -0.00970130568927516
-0.005340470385937964 0.01624700054526329 -0.006153784650665919
-0.0017954623220566034 0.01624700054526329 -0.0042174737030626075
-0.0036903942237095358 0.01624700054526329 -0.003133319220608226
-0.0043032506221251385 0.01624700054526329 -0.004766022870108284
-0.002279198636847908 0.01624700054526329 -0.007602270390855317
-0.006062532757464365 0.01624700054526329 -0.0020417849620770717
-0.007514292772395187 0.01624700054526329 -0.0025343593662406276
-0.002073971436987454 0.01624700054526329 -0.0026405811249741113
-0.005717356569573824 0.01624700054526329 -0.004012640691080534
-0.0029033440485769224 0.01624700054526329 -0.005869031443651108
-0.009009997966698336 0.01624700054526329 -0.0033603171525376256
-0.004077721806963123 0.01624700054526329 -0.007533578913215723
-0.0007430000114254653 0.01446165586419464 -0.005811440786675487
-0.0023114952462181047 0.013348436689383895 -0.0017229999648407102
-0.005933524432868667 0.012687245659597016 -0.0017229999648407102
-0.005016792104211854 0.012593175961653916 -0.003161450687009758
-0.0019052747646147114 0.012876257513187873 -0.004209171043642847
-0.003594622847223141 0.012722562957088237 -0.0030957910683468755
-0.0007430000114254653 0.01457223343881538 -0.003908068727287786
-0.010520019165362365 0.014843790191988828 -0.011843423884071079
-0.006366718492295364 0.015044371453242417 -0.011973296393766524
-0.011428999714553358 0.014901421012778238 -0.0072632085392008335
-0.0007430000114254653 0.014807090609527363 -0.01000114504870906
-0.007163065669444343 0.01624700054526329 -0.006277752640102171
-0.010007817978934547 0.01624700054526329 -0.01111143886348925
-0.004581131466950549 0.01624700054526329 -0.009345988136215405
-0.00699476198943632 0.01624700054526329 -0.01025332568503902
-0.0036957368833848486 0.01624700054526329 -0.010837561894416618
-0.008726151165872312 0.01624700054526329 -0.005357607151725823
-0.005906373590112552 0.01624700054526329 -0.007758173279765206
-0.008121805702748543 0.01624700054526329 -0.00909937454332754
-0.005465203807488367 0.01624700054526329 -0.010888984295875412
-0.009674000853683322 0.01624700054526329 -0.007509202612706448
-0.010439282055127064 0.01624700054526329 -0.005964116346687878
-0.0032987029411839673 0.012770236943209981 -0.005121306239321674
-0.006934839666850934 0.01245238682222639 -0.0030712721301615273
-0.008550714489959196 0.01271867106290751 -0.0025477289597829545
-0.00920346497966972 0.012861393230952017 -0.003974771572002097
-0.010476900148790439 0.013440227266727693 -0.005886416170462442
-0.010886815128215481 0.013626552214882952 -0.00354911049203402
-0.010241575501551635 0.01347305673067252 -0.010822275176755224
-0.008613630991981518 0.012623061439440957 -0.005842903756764517
-0.010065237006134525 0.013257775250560294 -0.0077834493966919644
-0.0016011599236356359 0.013077377372725638 -0.007365168558603868
-0.004970532309278846 0.013120832980111758 -0.010462925572340468
-0.003236834330981613 0.013036916680200492 -0.008576800873880719
-0.002156175179517896 0.013839280495695104 -0.011457937870374633
-0.007056504590382887 0.01273584429816957 -0.010425642240923244
-0.0014905223789828037 0.013472269586938458 -0.009144630377191357
-0.005883815686797501 0.012593377060727697 -0.005139756383028381
-0.004949682660057032 0.012705564012599814 -0.0064295458904072445
-0.007448172698776929 0.012471566504930441 -0.004730304217020013
-0.005956691997790253 0.012735076970597621 -0.009025650685857393
-0.007991472050507313 0.012605047172812082 -0.008773686153349997
-0.008349615853198683 0.01603449057857731 -0.011730509660437314
-0.0020704139254524323 0.016161865848957947 -0.011428751668423023
-0.003877104835223574 0.014066049364820638 -0.01190277844889229
-0.008219486121415086 0.013703276994576075 -0.011687525141285545
-0.006300533281671162 0.013545750307113642 -0.011618644008280407
-0.00044587351323868794 0.007342000026255846 -0.0014924163281104879
0.0019718938705332836 0.007342000026255846 0.0054818798087932635
0.000729094125276061 0.007342000026255846 0.00688821111079022
0.0021087225255828554 0.008231695780718768 0.0077760000713169575
0.0005860444126621502 0.010705595312535985 0.007776000071316957
0.0016973808995313705 0.012684999965131283 0.006562163250292621
-3.292900470681286e-05 0.012684999965131283 0.007507795531656388
0.0007585257979834093 0.012684999965131281 0.0018774115119375224
0.0008062739485919943 0.012684999965131281 -2.2828931249069712e-05
0.00037856053272314485 0.012684999965131283 0.0034263146475798276
-0.000742000003810972 0.010923592757878423 -5.872987953807604e-05
-0.000742000003810972 0.009672220839574532 0.004129615775138557
-0.000742000003810972 0.010150994825723302 0.0023170748800951635
-0.000742000003810972 0.011244769344560864 -0.002607889051862617
0.002435617380394921 0.012684999965131283 0.004506304701106203
0.0024819087598623537 0.012684999965131283 0.002680028361292299
0.0028200000524520874 0.010152791506621087 0.005957089446526232
0.0028200000524520874 0.00865321209274359 0.006231028995338374
0.0028200000524520874 0.010731951539569152 0.0032527295602775715
0.0028200000524520874 0.008817921682829313 0.002398616889477094
0.0028200000524520874 0.009493961511183816 0.0007710228104235999
0.0015268442448456965 0.007342000026255847 -0.0014292249371825503
0.002132885689408992 0.007342000026255845 0.0015994469731954537
0.0023704651113964693 0.010477813727444362 -0.0013692506887629757
0.002506376920171049 0.008661220388394083 -0.0012684570531341951
0.002023228561644219 0.01003596450229016 -0.0030385517728117265
0.001664812772206879 0.01138438616859168 -0.004260403135912581
-0.000742000003810972 0.010047061230839817 -0.005906544133789575
-0.0007420000038109721 0.011695940644061346 -0.006552908565284255
-0.000742000003810972 0.010673614571324546 -0.004303414500000714
-0.000742000003810972 0.00889294364611164 -0.004858987726736445
0.0012501467737024074 0.011395206368253427 -0.005994716209475549
0.0015559068203164126 0.007799041085684099 -0.004873481605936318
0.0010689976130863234 0.009130885164702385 -0.006658997594614297
0.0015342676373523805 0.009576577882697031 -0.004952833375404807
0.0025123429935519767 0.012684999965131283 0.0003014000679876256
0.000966506418345522 0.012684999965131283 -0.005263673023134113
-0.00029914665645891427 0.010165856184200078 -0.007362999953329563
0.02489261409271796 0.0037899358383370204 0.0038113860785559867
0.024412638161149167 0.006698884745744872 0.004291362010124778
0.025084000080823902 0.004185099308065572 0.0012630364392308894
0.0250840000808239 0.007584458702281589 0.0013227911576144246
0.023005999624729156 0.004447009711459087 0.00041309109151913047
0.023005999624729156 0.008181743106336237 0.0010026118199955134
0.0250840000808239 -0.00013576514889768198 0.0035094943348263053
0.0250840000808239 0.007832176490236618 0.0032149416778990652
0.023005999624729156 0.0014259997729575396 0.0027937373090313965
0.023005999624729156 0.0009166855357285598 0.0009588462463607848
0.023005999624729156 0.004285161846718279 0.0047416991728085455
0.023005999624729156 0.00980248786698336 0.004716472936617856
0.023005999624729156 0.004390606737892296 0.0029129639317016943
0.02432650569022386 -0.0009699999936856328 0.001953172242064737
0.023534198999970106 -0.00024303530004668415 -0.0023708984541323647
0.024057743181773394 0.0010217190036978154 -0.001493590853388646
0.024370300257069454 0.009750252038025098 0.0006810658072542365
0.023625901079139568 0.004931026891283839 -0.00105898976509434
0.02396224438954099 0.00708517845014191 -0.0002825281581014503
0.023500509153202436 0.002635969505498402 -0.001972096142905996
0.024754126408209367 0.002799569276417206 -0.0002421707774965581
0.023651058006510805 0.00808951962732167 0.004860900943435182
0.024502146718845326 0.0018796492082321582 0.004146546300625886
0.023871559866963314 2.060356613107475e-05 0.004611043613633053
0.024495805047353256 0.00909453861614834 0.004179014079794742
0.023245445508336626 0.011529449055533502 -0.002656722301074125
0.023041592313767664 0.011744398520850824 0.005081244859201308
0.02388275366779761 0.010607000440359116 0.0034646843640260714
0.023108312134966114 0.010607000440359116 0.0017858699124876178
0.023005999624729156 0.012155639642444227 0.0024766461130648156
0.02476938309341995 0.01250476370775348 -0.005414829111350388
0.0250840000808239 0.01147522100732654 0.0015780202232539235
0.024838838706717558 0.011166392272981296 -0.0025306178834715275
0.0236801306630592 0.010938935621767759 -0.0011541321425835218
0.023841312014766435 0.012154245261006124 -0.008850639171313459
0.02364213527160526 0.011521577822545932 -0.004843981748593565
0.029310214199810943 0.006106566939243711 -0.004393999930471182
0.029564757353143074 0.010496701160316427 -0.004393999930471182
0.02849087137042327 0.008939971664305005 -0.004393999930471182
0.029412074083112978 0.012684999965131283 -0.006351867875823963
0.030376757316353788 -0.0009699999936856329 -0.010133610072320711
0.02935163066371802 -0.0009699999936856329 -0.007826729030368568
0.02904025050649885 -0.000969999993685633 -0.005687357641353557
0.029115151536748672 0.010153299856664005 -0.010593499380781517
0.028705907108421184 0.008442342153159357 -0.010922180651790033
0.02874210947522357 0.011444224128519455 -0.007505745380384598
0.02863440121349105 0.009551234873180386 -0.00930663262744638
0.029158924444577884 0.011448827992984849 -0.009236301681656681
0.02994157399099739 0.0029082449503361474 -0.004393999930471182
0.029736274488295324 0.0015748369971783614 -0.011602994831067963
0.03218578157224413 0.009620854772009958 -0.011217597849853477
0.03205308609924157 0.0037460081239688685 -0.011386450600523804
0.03211917269474497 0.006954429662177422 -0.011346994952833523
0.02840110123854695 0.007610851424826396 -0.005734926980520865
0.02849284879640732 0.00885742652793754 -0.0076331697644868735
0.028433130605731393 0.009693780380710023 -0.006322677663620088
0.028387723424858964 0.01154132057821762 -0.005271136410592609
0.03178803287796142 0.0005356819538484846 -0.011861460655228563
0.03160608520855618 0.0054599476251045095 -0.011966244605323225
0.031691623528240065 0.0023065613053743924 -0.011905317875500603
0.03125409930784293 0.00451171386263087 -0.005096298624959794
0.031502047183023796 0.012200631079621795 -0.00584013989689112
0.03117339662072982 0.009279729826833684 -0.004854189104109861
0.03168567424563171 0.0105292620212754 -0.006391021596328261
0.031353827425225606 0.006605349887816106 -0.005395482336236631
0.03164966362224663 0.008225822102724161 -0.006282990431266067
0.03152910888782613 0.003057562148302667 -0.005992071033986435
0.031185004703210423 0.0017718999914326636 -0.005032257705183774
0.0311989604183935 -0.0004980578856814119 -0.005347259437221172
0.032207999378442764 0.01185474051451135 -0.010159586024336881
0.0318590497045318 -4.611068352936378e-05 -0.007413005776625905
0.03180804809254119 0.002002915791498747 -0.00711986477170359
0.03180991560759094 0.005576549444987549 -0.006971879868936863
0.03204477119606284 9.971871902684059e-05 -0.010324242492726465
0.03202465414363259 0.009702373171045496 -0.007991175731782454
0.03192907156584045 0.003968197942283997 -0.007572500273164128
0.032052887713327496 0.006845213488541155 -0.008312814291296926
0.03209626819683193 0.012510259047014324 -0.008369608135618581
0.03217968297098139 0.0029365765777674964 -0.00944574494565308
0.03210825187813984 0.001594097182381092 -0.008987233644238188
0.03217649048555567 0.004702881410250401 -0.009329242070540724
0.028564248014080702 0.007372594573400513 -0.009209043136187332
0.028497709806276268 0.0032902684531736417 -0.005449235985577611
0.02847319032388421 0.0050211956129992946 -0.006148958904428526
0.028596850388058544 0.003213546588352811 -0.007155346323099452
0.02857238828511534 0.0016444180243134097 -0.005693874671658419
0.028577292113226294 0.0051504783631806175 -0.008077937345003453
0.029182037907141814 0.003115279669996083 -0.010776457062672929
0.02918607179172433 0.001653700056076195 -0.009840005768334697
0.02894253693949479 0.004841551122334249 -0.010649885964456743
0.028865062898588326 0.001816568338534462 -0.00826108372643496
0.02932069021488967 2.0217245145218903e-06 -0.00946470702186753
0.02880571894823036 0.0002663744146393157 -0.006933771702347309
0.03047134285446798 0.011199313911814456 -0.011938146285854526
0.030340626643740643 0.00929734300282185 -0.011956946720777507
0.030628092429009313 0.0042057847382442805 -0.01208122369000811
0.03027735018764257 0.007246614586029889 -0.01197238766120471
0.02702689897770713 -0.0009699999936856329 0.0008216971104283233
0.028782852770685645 -0.0009699999936856329 -0.002707267145945152
0.026804277175625946 0.012684999965131283 -0.001382530916671264
0.025751324457920596 0.012684999965131283 0.0005851088436355407
0.026768953106832322 0.007856798454990085 -0.002383735635633287
0.025607506483140773 0.011466090364101148 -0.0009060478397701641
0.027272522445041726 0.005224486251771145 -0.0030244179108787905
0.027306733575536014 0.009622827589240452 -0.0030679441211951958
0.02774417117259914 0.007013303582186083 -0.00362448816329449
0.028274823544633565 0.004384566828103262 -0.004299627698772042
0.026942840136258462 0.0113401791712837 -0.0026049689975463823
0.028061054757579227 0.0024727790689019415 -0.004027653488917573
0.02623402227742283 0.010149773283785841 -0.0017031526952507655
0.026070644984262318 0.0024051615312489076 0.002904088425732744
0.0250840000808239 0.0004176774789214552 0.0008516996908447931
0.0250840000808239 0.0018678557203781149 0.001644232114223009
0.028389633984805693 0.012684999965131283 -0.0021058560647808588
0.02897043852718686 0.012684999965131281 -0.00364633274915649
0.02980047706020185 0.008090486554796581 -0.004393999930471182
0.02515946510709617 0.011640293353226345 0.003323999932035804
0.0250840000808239 0.009630211214106513 0.002244346369831807
0.0250840000808239 0.005644188668784337 0.002023501804141882
0.02765753269334055 0.012684999965131283 0.000889858995665104
0.030058664848560644 0.008555970638128421 -0.002267039284509162
0.030132496393592598 0.00533351231327757 -0.0024863142103853414
0.030072618268869252 0.001352244849348246 -0.0024578724869310322
0.030318499035559315 0.007116729025467259 -0.002814427665720483
0.03024008265649424 0.003348020302711395 -0.002744442694806522
0.029822050435985577 0.0010601844746422773 -0.004393999930471182
0.02871657502486031 -0.00021862332013517362 -0.004393999930471182
0.02799013716696803 0.009812864665448139 0.0008653178872943645
0.028810161100729016 0.011164144263451055 -0.00024313720259770384
0.028469113545129186 0.0066399157320887366 0.0002625682125513648
0.028703599670077174 0.008740354438798417 -7.373165116000114e-05
0.029472409337087085 0.0069487692036849765 -0.001240268963103325
0.02932391885807529 0.0055343844857636765 -0.000980535348702793
0.02958550440345841 0.01000976112601426 -0.001438090335591181
0.030203949851891926 0.011296892963413928 -0.002519850410043064
0.030391471099700057 -0.0007510216602152357 -0.0031508585653275776
0.028836044285212702 0.002763462382572449 -0.00023043976175210265
0.028735474123177035 0.0005093497755055284 -0.000140827412025291
0.02628222437077508 0.004562037096641587 -0.0016671771549315068
0.02534220924702179 0.00892770895543488 -0.0004847933299323322
0.02768298929307048 0.0008533911520867627 -0.0035165654422834283
0.02672833084110776 0.003014493024634592 -0.002244699822958077
0.025138498847406703 0.005302272913168319 -8.560905102944215e-05
0.026187246192587006 0.006262887121842615 -0.001587102248717877
0.02676021514623942 0.0010290597539801506 -0.0022263959708095585
0.025647491834586273 0.0014231069248175098 -0.0006364136574619452
0.026384970147118637 -0.0005019580990059693 -0.0015713255663039392
0.0254754982175047 -0.0009074700572826316 -0.00021978869800982345
0.026994973320785418 0.003283755255325276 0.0020057299343382764
0.026691135080340562 0.00624590071688972 0.0023099488927780113
0.02615911992012577 0.004745859845912047 0.002842862397067906
0.0269489839985024 0.009228836684351675 0.0020517029212863266
0.026743261281057733 0.01069091379596407 0.0022577030082974957
0.02817905538961419 0.0045101469018398385 0.0006400193309884607
0.02717992907829938 0.0012720161689860632 0.0018072969864451355
0.0023517971537466657 -0.0129331353501451 0.0077760000713169575
-0.003578712674773461 -0.01254700031131506 0.006417567195042421
0.0037659909426824164 -0.012547000311315058 0.005686260994831927
-0.0007856986263335463 -0.013535028559496079 0.0077760000713169575
0.0024734421309595767 -0.0137339998036623 0.001937403025742765
-5.838135234360778e-05 -0.0137339998036623 0.0036560968547169562
-0.0028369901478606497 -0.0137339998036623 0.0027755703791822062
1.4624669704070494e-05 -0.0137339998036623 -0.0017842892072644178
-0.0007129411319584314 -0.0137339998036623 -0.005294939013545363
0.0016796262929163835 -0.0137339998036623 0.004279002542158497
-0.0027055710536086257 -0.013733999803662298 0.0069911124677685555
0.005267568597952315 -0.013733999803662298 0.006387787092300624
0.0002957956723461312 -0.0137339998036623 -0.006812813903449851
-0.004898000042885542 -0.013278961227715182 0.006950968777906798
0.003392879004893861 -0.01254700031131506 -0.0009070376534100355
0.005392313744345343 -0.01254700031131506 0.00462799568966361
0.003352336387192057 -0.01254700031131506 -0.003283962255440606
-0.0022412939783764078 -0.012547000311315061 -0.0007841068268298622
-0.003961879231479401 -0.012547000311315061 0.002986695125223117
-0.0026536047143340346 -0.012629890132346246 -0.003760700699858825
-0.003378084264601018 -0.013733999803662302 -0.0003460550052983632
-0.003195475961156391 -0.0137339998036623 -0.0026389998922852213
0.0021556651858611834 -0.0137339998036623 -0.005508054933773553
0.005757194578749298 -0.01254700031131506 0.0030939131932368044
0.007906053418004136 -0.01254700031131506 0.00435599196661763
0.008162063783761197 -0.01254700031131506 0.009984083680123995
0.011333244007966117 -0.01254700031131506 0.004860227864902679
0.007797351372467012 -0.01254700031131506 0.007709971609284527
0.009196605023617403 -0.01254700031131506 0.006410302274871018
0.009886588812175523 -0.01254700031131506 -9.068971547776441e-05
0.0073008193080754645 -0.01254700031131506 -0.00042303284074403716
0.011836517645368852 -0.01254700031131506 0.008312310981540113
0.007083135253547431 -0.01254700031131506 0.006091890125606828
0.01081301457293673 -0.013733999803662302 0.0038109496899698054
0.00876822442200228 -0.0137339998036623 -0.011304473006736341
0.009780238654365104 -0.0137339998036623 -0.0076046849293730555
0.010385624656428743 -0.0137339998036623 -0.0048833356390390326
0.008526141063698367 -0.0137339998036623 0.002584295921966566
0.011471638642039286 -0.0137339998036623 0.0008802704398815859
0.006498273482124698 -0.013733999803662302 0.00770773713204746
0.006909048601014947 -0.0137339998036623 0.0035688100039454503
0.011922313340044838 -0.0137339998036623 0.0060537255923816475
0.012346250634014566 -0.01254700031131506 0.0012338902021353738
0.009236019656846213 -0.012547000311315061 -0.005075436349510615
0.010457589600316595 -0.012547000311315061 -0.0021469717810849547
0.006397978910062101 -0.01254700031131506 -0.0031775237938283084
0.007240575208492878 -0.01254700031131506 -0.00536797881153707
0.013719249472324547 -0.0137339998036623 0.001986278157052871
0.01331230515903014 -0.0137339998036623 0.00020846996140878329
0.011743762256301816 -0.0137339998036623 -0.0019306635075202678
0.01325630563434092 -0.012839890169751044 -0.0013341694263984277
0.00696136562385061 -0.0137339998036623 -0.00147041332068941
0.008028319295163924 -0.0137339998036623 -0.007491371592279709
0.013752652813118693 -0.012986691520971054 0.008201937953531723
0.010260528024352388 -0.012769747514927886 0.01049178506343059
0.008956765077981496 -0.013515458666345456 0.00864741020453707
0.011698502634415624 -0.012592541877398961 -0.003184718982011064
0.00805249303803829 -0.012627927623149415 -0.008810648221989608
0.010991682879118165 -0.013187868009403289 -0.00638206946796059
0.00599507332665109 -0.0135411331758152 -0.005338981839407385
0.005590041793180302 -0.013005950626391536 -0.0019023568806374748
0.007253418228992425 -0.013291376700247638 -0.011249080891290907
0.006633879530991768 -0.012749689399492038 -0.0071452407506307925
-0.016547063855363996 -0.011317910612209565 0.007714788261230164
-0.01702910633054804 -0.012546000070869924 0.0031490225607078994
-0.01525884739372013 -0.012546000070869923 0.0022766025995749274
-0.018194340019982314 -0.012546000070869924 0.001580858874496206
-0.0142404530839206 -0.012546000070869923 0.004228588872871809
-0.021436300490059536 -0.012546000070869923 8.994735944231386e-05
-0.0210326785561668 -0.012546000070869923 0.0017896028078880559
-0.013209999538958073 -0.010143506673860419 0.004659384733915193
-0.013209999538958073 -0.009340406707322474 0.006441309324463286
-0.013209999538958073 -0.011303823216575254 0.0031764645447076344
-0.013209999538958073 -0.011251631555553273 0.006215434384245407
-0.017572174189788216 -0.007501000072807074 0.0001235141112103194
-0.016826065421521583 -0.007501000072807074 0.001706066073712473
-0.01800181423322053 -0.007501000072807074 0.0032865165602940453
-0.013956738547807409 -0.0075010000728070745 0.005942074098237366
-0.02015620946891491 -0.007501000072807074 0.002975962640060475
-0.0213295269488129 -0.007501000072807074 0.001103430787186454
-0.01696492903390868 -0.01254600007086992 0.006473919259445144
-0.022717804302546267 -0.012546000070869923 0.0013607932956775392
-0.024475471604752344 -0.012546000070869923 0.002010717564957935
-0.013209999538958073 -0.00907986722210154 0.002281355415025508
-0.014123572952111987 -0.007501000072807074 0.002095285513440531
-0.014992284965774217 -0.007501000072807074 0.0005716785394609455
-0.013416941860066272 -0.007501000072807074 0.00025774097822742746
-0.01855469030304379 -0.0075010000728070745 0.005875380747650008
-0.023137639801900426 -0.007501000072807073 0.0014362886100131303
-0.01803717827550142 -0.008643576115317752 -0.0023379371963924674
-0.023017396577647856 -0.012546000070869923 -0.0006327935206957664
-0.019813085580310693 -0.00845268195517638 -0.0016835400872688112
-0.022936742130246338 -0.009546149479982939 -0.0007524471579447103
-0.02428955543967209 -0.00915728228923959 -0.00017080232520757691
-0.021584981376139165 -0.008586257131330193 -0.0010547004701719968
-0.023974221919610895 -0.011186550152657609 -0.0006858826563493873
-0.02004539652569916 -0.01030876002121058 -0.0018277265034743826
-0.02149749031548951 -0.011133132081381563 -0.0015698931965813432
-0.014785808626846399 -0.00817281656542835 0.007776000071316957
-0.018372566299611565 -0.01128997062019865 0.007334424321351207
-0.018245873026836078 -0.009796325806061476 0.007319968947349374
-0.017415642013663177 -0.007981764920285406 0.00747526407609535
-0.016229007627141915 -0.00863294565104947 -0.0023518596972993866
-0.021912701047595858 -0.012120255785550224 0.005765627278991005
-0.01983892645554696 -0.010228284445838735 0.0067526275700965175
-0.02159888885765383 -0.00963332965610981 0.005954429167461734
-0.020755909492021263 -0.007959764086991665 0.006376202808985101
-0.023079964937104964 -0.011134597829841006 0.005151775660194492
-0.023384192456687436 -0.009707293964429455 0.00494929873492165
-0.02478400059044361 -0.008323174929270346 0.0038676090392386234
-0.02478400059044361 -0.011040315906950449 0.001097083464019192
-0.02465862367573228 -0.01044841005597348 0.004043226724547827
-0.01369058834560451 -0.008563636052816926 -0.0015876413398823019
-0.014960791742805988 -0.011689291031520617 -0.00031067760078929676
-0.01419561810388762 -0.01034849243173182 -0.0009782510462607193
-0.017466127871369856 -0.012334022324839378 -0.00038860974992038696
-0.019754544189757837 -0.011749305936960061 -0.0011691437978851975
-0.016472907858278527 -0.010699774938779792 -0.0011909821232942205
-0.018324998345832882 -0.010811182417017225 -0.0014693336570522804
-0.01566660216770699 -0.00998740441544237 0.0077760000713169575
-0.014389529994549774 -0.011219765980327135 0.007776000071316958
-0.007691624210858242 -0.007501000072807074 0.007113529250641947
-0.0039086784676591445 -0.0075010000728070745 0.008010564730679846
-0.005134267069767062 -0.007501000072807074 0.0030343052852633175
-0.005415801619214513 -0.007501000072807074 0.005791171689510123
-0.007631427589271153 -0.007501000072807074 0.009398386745437047
-0.0035590162189394385 -0.007501000072807074 0.002637656963702881
-0.0039553721984319536 -0.007501000072807074 0.0006412617462512193
-0.01254224359251796 -0.007501000072807073 0.009179090704116695
-0.0096856631667476 -0.007501000072807074 -5.011121257280553e-06
-0.011213649600455403 -0.007501000072807074 0.004314371847048186
-0.010896261450394958 -0.007501000072807074 0.009174999015387058
-0.00899441669450864 -0.007501000072807074 0.0042758518342373665
-0.006997463662616211 -0.007501000072807074 0.0022452187569930913
-0.009464592291861485 -0.007501000072807073 0.007413888320898958
-0.010375148280328463 -0.007501000072807074 0.0025483463486113966
-0.009819548657469531 -0.007501000072807074 0.005497969631534663
-0.012071632351159383 -0.007501000072807074 0.0057842345155556234
-0.008527646446175988 -0.012546000070869923 -0.0013833054989746444
-0.011716432921293348 -0.012546000070869923 -0.00023094186804911162
-0.00946731704205191 -0.012546000070869923 0.0004301001497282836
-0.005636250799424448 -0.012546000070869923 0.0032275485111694724
-0.007280647113305876 -0.012546000070869923 0.0003779524767750875
-0.007470785343031275 -0.012546000070869921 0.0020191551938691273
-0.005177819123492278 -0.012546000070869923 0.005261018558671013
-0.011610863968615975 -0.008085450018850065 -0.0016418689598548953
-0.010650101750569414 -0.009389552436095714 -0.0017792848808421287
-0.007398142151024307 -0.007752655747566601 -0.0010661745495408907
-0.007450572600689891 -0.011017059489475508 -0.0017081691013023448
-0.009221737743420378 -0.010563927339837928 -0.0018347326669890269
-0.006383642707648823 -0.0094385765210292 -0.0012714202078177948
-0.008080383522119587 -0.009135775464616424 -0.0014182301128922363
-0.0069254017309610914 -0.0075010000728070745 0.01181459321585572
-0.0029216014982827113 -0.007501000072807073 0.009783571903879688
-0.0057151314784032545 -0.007501000072807074 0.009687768073652176
-0.008234495034978157 -0.007501000072807074 0.010806330799620496
-0.011711887229234778 -0.007589743428985261 0.01193199958652258
-0.004815263912980709 -0.0077194257724590406 0.01193199958652258
-0.008129440129154092 -0.00878644818281215 0.01193199958652258
-0.00966932678974632 -0.00961476073243186 0.01193199958652258
-0.0016329999780282378 -0.009862743038910982 0.0065067318443138
-0.0016329999780282378 -0.011821019197673668 0.00395385611193058
-0.012325259072807848 -0.012546000070869923 0.006827964636223088
-0.012428515685051175 -0.012546000070869923 0.004012702478678781
-0.008593456204985547 -0.012546000070869923 0.007325786537973139
-0.010234244085126265 -0.012546000070869921 0.007541520807860471
-0.008820806086455331 -0.012546000070869924 0.00428622026677503
-0.006745449453082122 -0.012546000070869923 0.004605214611684819
-0.007837714277936945 -0.012546000070869923 0.005821209458210496
-0.01116228310718122 -0.012546000070869923 0.00207241455409254
-0.013209999538958073 -0.010775225794681056 0.001087324287335896
-0.013209999538958073 -0.009341588119733126 0.00026205856870004985
-0.007838928031074825 -0.01245783451748156 0.011869241206370357
-0.010014952195719667 -0.012316161047862557 0.011568619760000697
-0.007490233880579937 -0.010357024235527756 0.01193199958652258
-0.005785035709441713 -0.009131539489578669 0.011931999586522581
-0.003644927571846982 -0.012546000070869923 0.008166613291432053
-0.003942138308765525 -0.009436141968965205 -0.0007494416087783916
-0.0016329999780282378 -0.008702559456130814 0.004909181019922615
-0.0016329999780282378 -0.010154647910030578 0.0011811356126070318
-0.0016329999780282378 -0.007773331713501035 0.0003196415867480206
-0.0016329999780282378 -0.008999830096407114 0.0025089609491364038
-0.001632999978028238 -0.010198798146113063 0.003438005737657643
-0.0031438469346236875 -0.012467646721329917 0.0008295506430097097
-0.002325254363350097 -0.009283813579903696 0.00023807016483109477
-0.004840713104860714 -0.011282882398517487 -0.0006924904547598545
-0.013209999538958073 -0.00814475387672586 0.004200917883833048
-0.013209999538958073 -0.008887721258259748 0.008310155675271758
-0.011791118360110625 -0.01059446902136387 0.01193199958652258
-0.012104824058350273 -0.011899059204024722 0.010004648996171926
-0.01259624000048482 -0.011169395047417879 -0.0004992363746056242
-0.010900349254571036 -0.011641741181546868 -0.0011029888996963604
-0.01244668254341103 -0.009768884492904709 -0.0011467840202315513
-0.00264133641839851 -0.009495741541062329 0.0099593893740899
-0.0020518251051100944 -0.008540829646679769 0.008681728788473545
-0.002060092048756304 -0.010592497607782005 0.008699645913763907
-0.003389017944919995 -0.008147006954148085 0.011416703233900687
-0.0037726636146438895 -0.009931398965977263 0.011718242682271425
-0.01300527858591779 -0.007611737482047132 0.010610233996080234
-0.013121398780763186 -0.010207537398291094 0.009324549769775318
-0.012757370824872806 -0.009118484370779403 0.01146055820728749
-0.005914885907366161 -0.012172172952630957 0.01181518609590704
-0.004788922642140626 -0.012458830208815129 0.010493770884321362
-0.0033901565368982187 -0.011227395702206378 0.010509463236974622
0.002161083202814952 -0.011182353138777688 0.0005750659390147935
0.0014936020373517416 -0.011185972626990257 -0.0035959050150531063
0.0021770943748858898 -0.008980535603060091 -0.0002308876383736864
0.0017641267531640198 -0.01136225153456137 -0.0018323024317541364
0.00027240548153234804 -0.012546000070869923 0.0016720044550844557
0.0012305554049457372 -0.012546000070869923 0.0030772200248893812
0.0013950216625761643 -0.012546000070869923 -0.0007040978112183903
0.00015852960877603119 -0.0075010000728070745 0.0031584501619940654
-0.00031889928898687456 -0.007501000072807074 0.005090865965063368
-0.00040213201425729514 -0.010396553932886533 0.0077760000713169575
0.0008691029697923511 -0.008725892753532354 0.0077760000713169575
0.00016574598384726247 -0.007501000072807074 -0.005871601087966392
0.00030156523573942126 -0.007501000072807074 -0.003119820166926788
-0.0010569592538994762 -0.011851305491493581 0.0077760000713169575
0.0007615686018232462 -0.012027219744003953 0.0077760000713169575
-6.267678635385685e-05 -0.012546000070869923 0.0056654387216409806
0.002225999953225255 -0.011042412870609919 0.007505631620685281
0.0006177216103283306 -0.012546000070869923 -0.005171490628513842
0.002225999953225255 -0.009429001948293271 0.0013686791683016099
0.0022259999532252546 -0.008516558210879035 0.005567381965801819
0.0019397252233026344 -0.007501000072807074 -0.0011804822072526387
-0.0016329999780282378 -0.010534738086793647 0.005121081285940427
-0.001632999978028238 -0.01194515100724432 0.006227839030308316
-0.0016329999780282378 -0.011755222238664069 0.001991358195177185
-0.0013707164824835014 -0.00911733127070599 -0.003121793904943033
-0.0015022580950277207 -0.00801948530988606 -0.0016755004559399337
-0.0010559725412468267 -0.009502792257932869 -0.006582387792455195
-0.0011836375915221593 -0.007987272370873388 -0.005178716951657225
-0.0011273121850996707 -0.010842557082066686 -0.0057980119773579164
-0.000939814885651749 -0.012185629002240714 -0.0067119992504684235
-0.001218700969438066 -0.011719297386355068 -0.004335140672936722
-0.001509939973286726 -0.01075080285085387 -0.0006332909992099185
-0.0013795105077266216 -0.011135908617970803 -0.0023111502437543285
8.766824153137089e-05 -0.008367686091314028 -0.007115908104259983
0.00016856374328711292 -0.010041095715818165 -0.007360310027588876
0.0011812683340735718 -0.00879330839898025 -0.005793466505002531
0.0017870213493715156 -0.008329651207349218 -0.0026934911987645978
0.0012649805779987146 -0.010196104268467553 -0.0051059995017504415
0.0010437203565252925 -0.011420499515115451 -0.00605198046140402
-0.005656787781560346 0.0013694550825129462 -0.0011289999820291996
-0.004494923291514289 0.0022950000129640102 -0.006141618266952666
-0.004479296645583222 0.0006453476128771386 -0.0018433769260658597
-0.004486081955032495 0.0014120400907206396 -0.004060720954168359
-0.004651846907876133 0.00022694212536846978 -0.005684258342816184
-0.004721012613297921 0.0009680397861889231 -0.009580137787517911
-0.0046041958939153395 -9.201981632453928e-05 -0.003505400678070244
-0.00605258531317584 -0.0009699999936856329 -0.004838617181604273
-0.005758342199553477 -0.0009699999936856329 -0.007634527417312818
-0.006801125819262775 0.0022705583787561976 -0.008835108685354729
-0.00805516163541413 0.0014061773135478355 -0.0033226390443892757
-0.005482722921742755 -0.000571783538014147 -0.009683281334670236
-0.008163000456988811 0.0017417812740922918 -0.006583322104502605
-0.006983781920886866 0.00043506898200719934 -0.009427316192665153
0.00753211816874881 0.005753986816810322 0.00875318912610087
0.004694858304204911 0.005527591916028368 0.007776000071316957
0.006336101427138404 0.005787847423780027 0.0077760000713169575
0.00495918639762461 0.003766759745873678 0.009429167559451444
0.005153148771282276 0.007340999785810709 0.01077014285316126
0.00805045680124582 0.005076962955128908 0.01147233744254522
0.0048731658639907804 0.00575595874937221 0.012051250857407117
0.0053912177665964844 0.007340999785810708 0.008663873355254476
0.0057162184762945285 0.0036148837712680192 0.011283085233613172
0.007219439069050082 0.0031717447563437305 0.010878622359017586
0.006801227414139146 0.0028552192941074203 0.008976708743198855
0.006725166398169332 0.004277813149153086 0.012174445186160713
0.003480190580350562 0.005240220641336165 0.008845927548305925
0.003675762738126271 0.005775348390060981 0.010972934448500216
0.0029001917616950632 0.006997697913871743 0.008725767457552836
0.01137552414418214 0.007340999785810709 0.009274576038263926
0.010952800339809856 0.005232444561675757 0.011836785096238561
0.01238857677535509 0.005879824004222018 0.01084305802570791
0.012913267843906751 0.006599266276448636 0.008912048045748446
0.008163999766111374 0.004511371545182974 0.009986635329605866
0.010708562359333002 0.006977615764573617 0.01087555279313241
0.009428824980263876 0.006077418592063051 0.010604955168722705
0.009412166588344189 0.003029060523925262 0.009766711625066893
0.010045814124020119 0.0035880388565020403 0.01142565787475154
0.012141482631454405 0.004918405398660539 0.0095355466138561
0.01287167992894933 0.011324763971867526 -0.0010121605736333346
0.012155358389051681 0.011752279801800821 -0.003064594099690977
0.010974684779038683 0.011996119227988575 -0.004249229514246455
0.01512873926970558 0.011405035210737283 -0.001354158680981175
0.008441510152201334 0.011466154759488553 -0.0017669995732724332
0.01086920958352786 0.011481912074210591 -0.0017981426493005265
0.013087093926874755 0.011200999841094017 0.0008995179195399267
0.011728885453272744 0.011200999841094017 0.007265670841589274
0.013255133853692251 0.011200999841094017 0.0054166045898684624
0.011212709902791513 0.011200999841094017 0.008866486450806024
0.011471781218683072 0.011200999841094017 0.00039402110327574173
0.014373005012250039 0.011200999841094017 0.0033307992385619876
0.02116545298889934 0.011200999841094017 0.0012310214496458573
0.015297268920591283 0.011200999841094017 0.0075552864269211924
0.018677517961884948 0.011200999841094017 0.000997881232524429
0.009351770894275867 0.011200999841094017 0.006657123657124973
0.0212062098070899 0.012684999965131283 0.002180426999065755
0.015938642651811483 0.012684999965131283 0.003070885256353611
0.012022971058068644 0.012684999965131283 0.0037121984499541493
0.017190060113152807 0.012684999965131283 0.004330783720567786
0.0056890503683149725 0.012684999965131283 0.00695209187643133
0.00885743794354236 0.012684999965131283 0.006877960419722528
0.019539904075521475 0.012684999965131283 0.002510370645862112
0.013545086618682261 0.012684999965131283 0.0029723739658467294
0.010914154039377172 0.012684999965131283 0.006606024113857301
0.0215032248439243 0.012684999965131283 1.7559921743985933e-05
0.016028848756503913 0.012684999965131283 0.005683280117484955
0.006121452477542716 0.011200999841094017 0.005529909794839425
0.007828915706573996 0.011200999841094017 0.005792945282099785
0.008067645540106564 0.011200999841094017 0.004344434891786102
0.003881044136720303 0.012684999965131283 0.0069464534352180075
0.015845716844597707 0.012684999965131283 -0.00026765416515344185
0.005714344012957064 0.012684999965131283 0.002436819993730346
0.015343523445239112 0.012684999965131283 0.001297669336167954
0.010644983860691298 0.012684999965131283 0.00015065870959784817
0.006723092605638359 0.012684999965131283 0.0045349540693305395
0.004346124412806014 0.012684999965131283 0.004768893834870096
0.019202767108740384 0.012684999965131283 -0.0005748215815588003
0.0070924101614342275 0.012684999965131283 0.0004481005659785686
0.007867774352083651 0.012684999965131283 0.0019816474189974743
0.022308953564326828 0.011200999841094017 0.0035682380751746188
0.021119853360965557 0.011200999841094017 0.004813253872132357
0.016878861239926685 0.011200999841094017 0.006333883308332475
0.014869183951725845 0.011200999841094017 0.00937500692622114
0.019076683899813332 0.011200999841094019 0.004790245650898597
0.013265301666920356 0.011200999841094017 0.01065628151370297
0.004695530118488441 0.012684999965131283 0.009545922657837014
0.008649158812762306 0.012684999965131283 0.010643270833075653
0.006387366185010574 0.012684999965131283 0.011303093321259798
0.010737012183622786 0.012684999965131283 0.008467558776316579
0.006609430687044726 0.012684999965131283 0.009148253913754588
0.012849722750722176 0.012684999965131283 0.008729399596260418
0.01846454084169682 0.012684999965131283 0.005779621171450568
0.009496157600536728 0.01177783251140599 0.01193199958652258
0.004420071066582291 0.011433042322459449 -0.0006774198174412067
0.0029674416718028975 0.011200999841094017 0.0014239996248873
0.0033979423691042204 0.01122095471427887 0.00892499038522291
0.004749366934919603 0.011200999841094017 0.009808941051383864
0.007870686816120756 0.011200999841094017 0.010753069409933542
0.009330157604949395 0.012684999965131283 -0.003801960659624417
0.004248337619894871 0.012684999965131283 0.0006427279860413918
0.009497867795577992 0.012684999965131283 -0.0054405047252862
0.021653437104603306 0.012684999965131285 -0.001588616180227868
0.011683221557491717 0.012684999965131283 -0.0012850311050650151
0.013138541210462248 0.012684999965131283 -0.0019903469885580835
0.008678363524768432 0.012684999965131281 -0.00039551239195246093
0.005340133620541265 0.012684999965131283 -0.0015291492513900865
0.017421985153951373 0.012684999965131283 -0.001215106710173041
0.006939844883185359 0.012684999965131283 -0.0014046359526974385
0.007707396336901883 0.012684999965131283 -0.0030581294307603936
0.011886244950814057 0.012684999965131283 0.010116896366733862
0.015505740313616474 0.01186606650247011 -0.003256335811869108
0.01894851765992783 0.011545803157988331 -0.001855584064579292
0.017130264477136475 0.011920510635190767 -0.0028009358343101163
0.011264285268854375 0.01140913113141587 0.01176206611697399
0.01967502309239015 0.012462916473482837 0.007026192453804252
0.01801728416047993 0.011251909402586382 0.007975948674329946
0.021145971152236057 0.012364500280104291 0.006269079137370138
0.014357784349678323 0.012652572069306221 0.009346919095338621
0.009672830079508005 -0.007501000072807074 0.00026867096643542717
0.00837352205369692 -0.0075010000728070745 0.0029792730124568677
0.011703810032870214 -0.007501000072807074 -5.378674335755683e-05
0.005832990060774684 -0.007501000072807074 0.0009166617280868604
0.0068427785246966966 -0.007501000072807073 0.002444018094300308
0.010610724650497864 -0.007501000072807074 0.0016479829624600046
0.005397850133454285 -0.007501000072807074 -0.001014863010338776
0.005742425575789818 -0.00939005058835281 -0.0012759059337223043
0.009168492439742755 -0.007625004053622212 -0.0013972102026990865
0.0037183274368467324 -0.007994934201964142 -0.0009767799292069931
0.0066693029104494175 -0.011376015819289641 -0.0015385701825046498
0.009326277135523862 -0.009496788796288354 -0.0015850221809719086
0.007472430847734928 -0.008733945232574194 -0.0013590999958187453
0.011068334126356447 -0.008448770242020794 -0.0016326559918899489
0.01002590726015386 -0.012546000070869923 0.002414845532960712
0.007649002956461583 -0.012546000070869923 0.0023329548517449566
0.011034396695779597 -0.012546000070869923 0.00663295708903187
0.00964879977916248 -0.012546000070869923 0.004228709953027033
0.013209999538958074 -0.008540937321790345 0.002952808758839404
0.013209999538958073 -0.010193050544406328 0.007184832349458383
0.00502220873027849 -0.012546000070869921 0.007835633189329437
0.010175696548032152 -0.012546000070869923 0.00792988759704636
0.009524795872484323 -0.007501000072807074 0.007255412062976594
0.01115651357399758 -0.007501000072807074 0.008155233136955993
0.012874283179866582 -0.012546000070869923 0.006685726843790499
0.013209999538958073 -0.011566076224675939 0.00015054730970584128
0.013209999538958073 -0.00996639070423998 0.0005800314014540219
0.013209999538958073 -0.01244660267950228 0.003034264817566108
0.003506110288710525 -0.012546000070869923 0.003347449236625466
0.002225999953225255 -0.008337034773896676 0.007183470344732587
0.002225999953225255 -0.011215787145413455 0.005635150474139444
0.0024056233184562297 -0.009954461266768973 0.008552092321962187
0.0030166132282745195 -0.008595127316085725 0.011195376899340203
0.0052246646231302075 -0.007501000072807074 0.006667359203837661
0.007130771231500804 -0.007501000072807074 0.008906391027813978
0.0037819233962485973 -0.007501000072807074 0.007670867560916447
0.011581310957856215 -0.008126699601555598 0.01193199958652258
0.011757895617937763 -0.012273166977069433 0.00978718101327202
0.010841169678856191 -0.011093757098980871 0.01193199958652258
0.002752457650926506 -0.0076780038501999765 0.00983699809024321
0.004643962517951995 -0.007501000072807074 0.009993356965030419
0.00643867040626663 -0.007501000072807074 0.010692488039524144
0.00947917998852026 -0.009317498851178102 0.01193199958652258
0.006574108254632157 -0.008578917105103384 0.01193199958652258
0.004802395718070359 -0.009921124841792684 0.01193199958652258
0.004625471847882862 -0.008095266454390196 0.01193199958652258
0.008371971665878188 -0.007716276392591459 0.01193199958652258
0.00530261301129611 -0.011771767570799712 0.011931999586522581
0.007105437961602865 -0.01056089938495821 0.01193199958652258
0.002225999953225255 -0.010810274984893484 0.002543149502941958
0.002225999953225255 -0.009195658780273282 0.0031142784227800057
0.00852623931975644 -0.012164606142288356 -0.0017229999648407102
0.011366100837389245 -0.012194341535874516 -0.000649787958475765
0.012636470474997379 -0.008544025892229908 -0.0015609453524236272
0.01195875281582976 -0.010116051491743073 -0.0012295377846601762
0.013145512448886877 -0.009391645279854133 0.008680469194691107
0.012897185624370292 -0.01046793781218636 0.00983502334890142
0.012445288210050897 -0.009848178460115027 0.01155443750467896
0.003204528533266061 -0.012222499935158181 0.00923011947729199
0.0037608371871983093 -0.01110835148528745 0.01088928444314832
0.005085568264087152 -0.01157063042494323 -0.0008641199091026036
0.0036468664601557077 -0.009952175953202101 -0.0006599855828814588
0.003055567921109815 -0.012546000070869923 0.0007517411010800891
0.008533476244907726 -0.012546000070869923 0.011784499925519915
0.006980181125250851 -0.012546000070869923 0.011560576483859861
0.004801623564350339 -0.012546000070869923 0.009905455604897537
0.006338151806269553 -0.012546000070869921 0.010168979949761417
0.016826534989134754 -0.012256035345048932 0.007688116195883284
0.023553373444533034 -0.012546000070869923 0.00013994891576831948
0.018428628488346054 -0.012546000070869923 0.00048770326580729764
0.014865967919429504 -0.012546000070869923 0.002005908850472494
0.013209999538958073 -0.009194019018047169 0.005639054626927454
0.013209999538958073 -0.011572751161714856 0.005325027780297262
0.013209999538958073 -0.010240450872927145 0.00405886230619898
0.02329160206864988 -0.007501000072807074 0.0036524590008626045
0.020673232178810265 -0.007501000072807074 0.00450725027268416
0.018491295552342628 -0.007501000072807074 0.005603167530462051
0.023639543261655453 -0.012546000070869923 0.0026819847178960964
0.013209999538958073 -0.008462379081169712 0.0013491565639449873
0.013209999538958073 -0.011104678877237206 0.002057509176566908
0.014451304389752642 -0.007501000072807074 0.006480898917922167
0.018817335670889345 -0.007501000072807074 0.0040803561232462815
0.021124831347083747 -0.0075010000728070745 0.0017524029591850195
0.01545468340939518 -0.007501000072807074 0.003175148996505111
0.014402757062909572 -0.007501000072807074 0.0020179194156571397
0.017644386426481445 -0.012546000070869921 0.00629918242775719
0.015093961158654821 -0.008434329915663865 -0.0025033408805987143
0.015153614743234973 -0.011730948693539666 -0.00029997788099045305
0.016231792549845532 -0.010122572116297355 -0.0016057827339947502
0.014346645697349383 -0.010137040563676454 -0.0012030984396658373
0.017522575821158765 -0.011135080936304692 -0.0011942966223352012
0.025380000472068787 -0.009148293448566712 0.0014262751902687537
0.02507716791562404 -0.00987747883173123 0.003619347702216046
