0.0285001678732 0.00252799296657 -0.00487740585508
0.0317897257223 -0.000171786579247 -0.0118512794097
0.0313313252687 0.00428537505254 -0.0120046684268
0.0314278051917 0.00898070063431 -0.0120507688222
0.0315142252021 0.00714629772024 -0.0120080188681
0.0314172434863 0.0039046165524 -0.00558573134603
0.0313781468947 0.0113616762869 -0.00546843928874
0.0311342118766 0.00894758887851 -0.00473663497336
0.031763174082 0.00931595568736 -0.00663687425158
0.0313836242095 0.000898844490314 -0.00552336856548
0.0311395893424 0.00675784493396 -0.004788194418
0.0322079993784 0.0110311227888 -0.00951803824232
0.0322079993784 0.0119491967122 -0.0113635043514
0.0322079993784 0.0081166615848 -0.0104618633798
0.0322079993784 0.00494899793805 -0.00972366328093
0.0318857735627 -0.000701164625421 -0.0075483968284
0.0317829117746 0.00509630900711 -0.00688475483175
0.0318695425269 0.00105679429775 -0.00740700026867
0.0318623732617 0.00690493323829 -0.00712392589612
0.031983660756 -0.000388961064459 -0.00922416915719
0.0321718235071 0.00111571362482 -0.00978707960303
0.03194319842 0.00247950826017 -0.00773600474689
0.0320562344339 0.0102261273503 -0.00818913604398
0.0319433492334 0.0117595974322 -0.00733337003521
0.032114961919 0.00761367251269 -0.00872047992135
0.0321410107585 0.00343139495584 -0.00913328865269
0.0292068912514 0.00481931955514 -0.011297456905
0.0284969099324 0.00718568204189 -0.0077956267216
0.0285790175861 0.0026707947622 -0.00648380623356
0.0286302972524 0.00536465066382 -0.00915730532584
0.0284497531431 0.00481670027076 -0.00559975854064
0.028448427524 0.00610041680758 -0.00641737056938
0.0290199583018 0.00357408774955 -0.0102259818764
0.0288655798588 0.00148663149057 -0.00804762222893
0.028817849071 0.00638614128359 -0.0110071659167
0.0287413688332 0.000396366291475 -0.00668103722057
0.0292506206123 0.00144332104074 -0.0100411136541
0.0286480297607 0.00355854832633 -0.00826278464962
0.0291030887147 5.68180440787e-05 -0.00835797324313
0.029229803996 0.00893085584735 -0.0114153564936
0.0299056559152 0.00336908912841 -0.0118861980622
0.0304224010961 0.0101477470118 -0.0119588506627
0.0303935008337 0.0119292753505 -0.011898408074
0.030463618911 0.00555935636939 -0.0120311637245
0.0305245131045 0.00135327635502 -0.0120996930333
0.0284023331625 0.00202082436182 0.000333668979244
0.0260520684864 0.00748066526657 0.00294993180691
0.0276750868028 -0.000969999993686 -0.00137070209885
0.0289664904561 -0.000969999993686 -0.00302645957637
0.0264581710352 0.0126849999651 -0.0017601690434
0.0274708296551 0.00353118145028 -0.00327672063248
0.0263894767355 0.00923556701274 -0.00190093462585
0.0269357213446 0.00723082386788 -0.00259591188605
0.0282316420196 0.00625255396891 -0.00424468861565
0.0272755078079 0.0123540501175 -0.00302821613468
0.0275460597401 0.0104541506173 -0.00337243452602
0.0280200149017 0.0085148716397 -0.00397543921331
0.0272125832926 0.00525341685538 -0.00294815839773
0.0258278360431 0.005814723389 0.00309965157515
0.0250840000808 0.0025243912126 0.00165927635645
0.0250840000808 0.000632356414176 0.0015852556678
0.0250840000808 0.00355914585137 0.000300300604708
0.0306432892857 0.0125084019553 -0.00398656574595
0.0292576126927 0.0126849999651 -0.00303615164056
0.0294506540842 0.0083557519747 -0.00439399993047
0.0250840000808 0.00971127230446 0.00124706813114
0.0250840000808 0.0110999173033 0.00229371861095
0.0304599664553 0.00905537056678 -0.00305078683349
0.0300169715716 0.00104740074644 -0.0023545307321
0.0304775777211 0.0033440937592 -0.0032150579871
0.0299946413374 0.00555894046151 -0.0022080884167
0.0303609363964 0.0113694987173 -0.00280216522684
0.0307240001857 0.00493684073035 -0.00434747212968
0.0307240001857 0.000127325936551 -0.00397905628421
0.0300690212059 0.00201049541357 -0.00439399993047
0.0281631306387 0.0126849999651 0.000398427554069
0.0282620789601 0.00727967998226 0.000531357897671
0.0290074384856 0.010360795903 -0.000497073669324
0.0296894740965 0.00873175486413 -0.00161994996952
0.0296038719216 0.0114906484403 -0.00147021806459
0.0294462501933 0.00317435664007 -0.00119451243374
0.0290684991182 0.00557498508077 -0.000576822163772
0.0291086213779 0.000768032193253 -0.000643091546708
0.0255476926778 0.00888065306712 -0.000771627406672
0.0260532162484 0.0059267040655 -0.00138853789061
0.0254741169623 0.0108589175944 -0.000730256110907
0.0265538967173 0.00171723867175 -0.00195939354199
0.0258177238266 0.00419980340411 -0.00100412824922
0.0260686207767 -0.00012097145133 -0.00113850647316
0.0256642504297 0.00219853629818 -0.000716185336785
0.0272986668728 0.000295465193363 -0.00295700658201
0.0264704894554 0.000276287323862 0.00253115239932
0.0264209645519 0.00393717101574 0.00258062922982
0.0268701687577 0.00236028908005 0.0021307650452
0.0264573863637 0.0105846581484 0.002543963362
0.0269001136976 0.012464301372 0.00210063911249
0.0272932240302 0.00539474447213 0.0017069987614
0.0270401954753 0.0081591973903 0.00196036846683
0.0274707639424 0.00983663750384 0.00152627930361
0.0282541252423 0.00436899271851 0.000546087086208
0.0277840782108 -8.34318766357e-05 0.0010460884109
0.000130313219919 -0.0126102106246 0.00777600007132
0.000197988915918 -0.0125470003113 0.00469782969723
0.000312020112751 -0.0125470003113 -0.00219683724445
0.000195274710566 -0.0125470003113 -0.000434405403845
0.00252809484074 -0.0137339998037 0.00436251025209
0.00162803750972 -0.0137339998037 0.00724108482972
-0.00227580952111 -0.0137339998037 0.000720274961455
-0.00306167080554 -0.0137339998037 0.00668126740154
0.0012282454509 -0.0137339998037 0.00549323242724
0.00156985966307 -0.0137339998037 -0.000531096637623
-0.00210635669168 -0.0137339998037 0.00243552085516
-0.00115244505061 -0.0137339998037 0.00376591963108
-0.00163460489176 -0.0137339998037 0.00761238368878
0.00480328016701 -0.0137339998037 0.00545742260312
0.00187595553551 -0.0137339998037 -0.00411339843765
0.00430769426996 -0.0125470003113 -0.00176867025488
0.00549199990928 -0.0129443170546 0.000608227613721
0.00320167487738 -0.0127184823401 -0.00366894715544
-0.0044526325092 -0.0125470003113 0.00293104128003
-0.0037692993751 -0.0125470003113 0.00137416955055
-0.000838072819508 -0.0125470003113 -0.00370054277522
-0.00212589583371 -0.0125470003113 -0.000746437939944
-0.00378919315832 -0.0126523029956 -0.0017641219819
-0.00173740597137 -0.012626994927 -0.00539180677525
0.00903232998162 -0.0125470003113 0.00024477751216
0.00762391170825 -0.0125470003113 -0.00227790479506
0.0117660686831 -0.0125470003113 0.00211779247427
0.00987254618105 -0.0125470003113 -0.0018635013678
0.0113771319645 -0.0125470003113 0.00473059166473
0.00833860997753 -0.0125470003113 0.004758739572
0.0104203740458 -0.0125470003113 0.00117456149053
0.00792958789329 -0.0125470003113 0.00903012933581
0.00887860491408 -0.0125470003113 -0.00429930865612
0.0101069140669 -0.0137339998037 -0.0067498764742
0.00988464214603 -0.0137339998037 0.00520609911951
0.0068913041064 -0.0137339998037 -0.000342642090858
0.00702478652917 -0.0137339998037 0.0062340878163
0.0120287290175 -0.0137339998037 0.000797731713586
0.00643748903608 -0.0137339998037 0.00241903582577
0.0111057933135 -0.0137339998037 -0.00230057412133
0.00888154905131 -0.0137339998037 -0.00131535321703
0.00915057922344 -0.0137339998037 -0.00522001407353
0.00913544636099 -0.0137339998037 0.00151878789527
0.0062712951869 -0.0125470003113 0.00879743326901
0.00750235454097 -0.0125470003113 -0.00496437367368
0.0136708552488 -0.0137339998037 0.000346494317222
0.0123059990297 -0.0137339998037 -0.00094624857636
0.0134492611857 -0.0137339998037 0.00361722761047
0.0127083297613 -0.0131533060918 -0.00257425890378
0.00651625341758 -0.0137339998037 -0.00205613762903
0.0076653714473 -0.0137339998037 -0.00652250370976
0.00731329927322 -0.0137339998037 -0.00385534913177
0.0134676644757 -0.0130147499592 0.00839194798552
0.0077679362309 -0.0127782040839 0.0108818968786
0.011609393434 -0.0136278346862 0.00819777971209
0.0093204220726 -0.0131324546508 0.0101798571127
0.00832498969209 -0.0125841266038 -0.00782180986043
0.00888620948951 -0.0127817152001 -0.00975972943649
0.011486763128 -0.0126523391831 -0.00430885748266
0.0104810440093 -0.0126397959292 -0.00555270197097
0.00594419861993 -0.0136884402596 -0.00506817055423
0.00703602290529 -0.012798445057 -0.00922746604519
0.00707061953935 -0.0133722154712 -0.0109586479083
0.00586459864699 -0.0126552987611 -0.00302703662039
0.00659494946423 -0.0129479205307 -0.00760621481363
-0.0164572917179 -0.0103899603588 0.0077297586949
-0.0203267424478 -0.0125460000709 0.00114931146832
-0.0142395779439 -0.0125460000709 0.00103343101411
-0.017652273436 -0.0125460000709 0.0019056463884
-0.0133916921856 -0.0125460000709 0.00233829683309
-0.013209999539 -0.0090686292448 0.0060364290849
-0.0173890694045 -0.00750100007281 -0.000960901471597
-0.0181532795257 -0.00750100007281 0.00420452441769
-0.0234866187048 -0.00750100007281 0.00101316392054
-0.0215851351041 -0.00750100007281 0.00132573822226
-0.0195174324754 -0.00750100007281 0.000983092067287
-0.0174228015444 -0.00750100007281 0.000643125336823
-0.0197219477423 -0.00750100007281 0.00270964333507
-0.0169852371822 -0.00750100007281 0.00521808502884
-0.0242047550956 -0.0125460000709 0.00237184238828
-0.013209999539 -0.00881263911464 0.00397102575724
-0.013209999539 -0.0108309807152 0.00287855365454
-0.013209999539 -0.00912639607269 0.00186819460248
-0.0155799337447 -0.00750100007281 -0.00155604066043
-0.0142981595767 -0.00750100007281 0.00330303590446
-0.0154378469732 -0.00750100007281 0.000172881155752
-0.01375915051 -0.00750100007281 0.00512322222749
-0.0155534982214 -0.00750100007281 0.00635808598933
-0.0190770100628 -0.00750100007281 0.00571544030793
-0.0240341106499 -0.00750100007281 0.00313486211306
-0.0247840005904 -0.00934843894396 0.00035311184502
-0.021795113092 -0.0109720914515 -0.00147037731379
-0.0233317635813 -0.00843452420415 -0.000376146968207
-0.0189479218459 -0.00800255421951 -0.0019109626232
-0.0218584140992 -0.00934691221025 -0.00111074373085
-0.0195320101076 -0.00941099855665 -0.00198591125608
-0.0239183340978 -0.0115651912222 -0.000772328350451
-0.0160898537558 -0.0125460000709 0.00707448280301
-0.0166625183049 -0.00788567671632 -0.00258557797802
-0.0134562378307 -0.00899144815909 0.00777600007132
-0.015191211019 -0.00879903936525 0.00777600007132
-0.0178852218835 -0.0119241751395 0.00747886884675
-0.016914834842 -0.00844888378305 0.00761791016915
-0.0194344778276 -0.00876696348959 0.00698390204161
-0.018008567785 -0.0101246849515 0.00739091689328
-0.0220558808624 -0.0125460000709 -0.000875703099182
-0.0172570875486 -0.00935795676805 -0.00212510284458
-0.0200520818536 -0.0110717145873 -0.00158910233328
-0.0196087040948 -0.0111437509731 0.00681545604897
-0.0217607236365 -0.0123154719102 0.00582409372545
-0.0233110911839 -0.00785525450654 0.00497473743744
-0.0209966652303 -0.00783761883845 0.00625187613846
-0.0225362958079 -0.0106168664334 0.0054854099256
-0.0211641162472 -0.00978998197578 0.00617196192643
-0.0233829109626 -0.0119311616083 0.00495015162613
-0.0247840005904 -0.0107717686004 0.0020244811136
-0.0247604793232 -0.0111437488591 0.00394068052544
-0.013209999539 -0.00943458771707 -0.000870270981925
-0.0140790708722 -0.00801316357632 -0.00209546380277
-0.0144745400119 -0.0108834653293 -0.000706968520835
-0.0150424444941 -0.00963564032257 -0.00156716298072
-0.0168830060226 -0.0119357901079 -0.000520466944992
-0.0183265654696 -0.0107909089988 -0.00148187959414
-0.014710141898 -0.0108109997797 0.00777600007132
-0.00645053867418 -0.0123741212514 0.0119319995865
-0.00865809693204 -0.00750100007281 0.0101095363349
-0.00484393242237 -0.00750100007281 0.00893801626864
-0.00496599065446 -0.00750100007281 0.00715491323503
-0.00382603834359 -0.00750100007281 0.00234771214191
-0.00303192229587 -0.00750100007281 0.0075424486546
-0.00569009833785 -0.00750100007281 0.00521318480658
-0.0126646841695 -0.00750100007281 0.00649699888754
-0.0103860236251 -0.00750100007281 0.00852372407806
-0.0116211340003 -0.00750100007281 0.00454542406247
-0.0104131477094 -0.00750100007281 0.000593287306351
-0.0125689541343 -0.00750100007281 0.00302041442804
-0.00861700705344 -0.00750100007281 0.0034072607162
-0.0119333429033 -0.00750100007281 0.00776277158457
-0.00790262623415 -0.00750100007281 0.000953894761459
-0.0112054462387 -0.0125460000709 -0.000435161396731
-0.00773763904421 -0.0125460000709 0.00160669696016
-0.00908638528338 -0.0125460000709 0.000249321896208
-0.00859092500151 -0.00885243238904 -0.00142497369778
-0.0103160566294 -0.00799238036467 -0.00146672022878
-0.00860935667309 -0.0107308202449 -0.00179296371791
-0.006956829849 -0.0101844377724 -0.00148616503892
-0.00382844373451 -0.00750100007281 0.0104420785064
-0.00496490506212 -0.00841131391703 0.0119319995865
-0.0114537456272 -0.00928156644388 0.0119319995865
-0.00682395642109 -0.00813361760281 0.0119319995865
-0.00972481270403 -0.00868802338826 0.0119319995865
-0.00940278793117 -0.0106541206247 0.0119319995865
-0.00845867926816 -0.00768074045404 0.0119319995865
-0.00163299997803 -0.0107586494928 0.00440305378904
-0.00163299997803 -0.0105727992758 0.00665096845708
-0.00657306733859 -0.0125460000709 0.00754200887216
-0.0112170923494 -0.0125460000709 0.00561462239076
-0.00438822350082 -0.0125460000709 0.00627605884866
-0.0122942327986 -0.0125460000709 0.00111092461856
-0.0129582215591 -0.0125460000709 0.00653694335292
-0.00665974714412 -0.0125460000709 0.00469607590896
-0.00980318693963 -0.0125460000709 0.00393620348555
-0.0125597768535 -0.0125460000709 0.00415294848781
-0.00876048792632 -0.01242129977 0.0115622266396
-0.0101605511852 -0.012255878369 0.0119319995865
-0.0078250219492 -0.0108981028868 0.0119319995865
-0.0102483510984 -0.0125460000709 0.00788212468476
-0.00935990984504 -0.0125460000709 0.00964377337836
-0.00806224774941 -0.0125460000709 0.00830600965756
-0.0120568614021 -0.0125460000709 0.00811354649665
-0.0029103058225 -0.00750100007281 0.000830657269667
-0.00535621634996 -0.0103674543179 -0.00123932638062
-0.00163299997803 -0.011368741063 0.00247316866197
-0.0023702219851 -0.0114799387014 0.000984101480339
-0.00401588895729 -0.00967631545217 -0.000723106430123
-0.00249401063852 -0.00941073819419 0.000173103397169
-0.00453117120751 -0.0117669539082 -0.000320248666063
-0.013209999539 -0.00834976752975 0.00920000133341
-0.013209999539 -0.0109512545514 0.00698035423616
-0.013209999539 -0.0105247578075 0.00487092189812
-0.0052085133336 -0.0102167915806 0.0119319995865
-0.0122564141564 -0.0119547512723 0.00974075457817
-0.0118701800139 -0.0109212276923 0.0115482724252
-0.0110094486922 -0.0104646154882 -0.00153670948292
-0.011879354546 -0.00918112460214 -0.00165608495494
-0.00941631970205 -0.0124841983163 -0.00145448059237
-0.0128404454389 -0.0110982956358 -0.000413567229951
-0.00263652969144 -0.00974059144201 0.00994897165107
-0.00228146587973 -0.00815717284057 0.00917943419288
-0.00191675220892 -0.0107695377372 0.0083889823869
-0.00336757656908 -0.00888976223808 0.0115220937549
-0.0129502222622 -0.0079106235578 0.0109138740441
-0.0131270887896 -0.00999716621585 0.00937362282643
-0.0128536920132 -0.00960899942591 0.0108454744224
-0.00270527511136 -0.0123398066667 0.0089406499756
-0.0048782243248 -0.0120621969052 0.0111122018309
-0.00343029953568 -0.0117979010169 0.0101043407304
0.00170199987478 -0.011252630332 -0.00226576960575
0.00186067432341 -0.0121939515817 -0.000886536741016
0.00201054145672 -0.00999295053704 -0.000855413583123
-0.00130289036622 -0.0125460000709 0.00669804593627
7.43711568985e-05 -0.0125460000709 0.00265597867868
-0.00123619122496 -0.00750100007281 -0.00024530455556
-0.00122020856816 -0.00750100007281 0.00648725352466
-0.000233025309448 -0.00750100007281 0.00767152600868
0.000152670264597 -0.00750100007281 0.00408028072015
-0.000131939852455 -0.00750100007281 -0.00143259136636
-0.000516485211195 -0.0108075826497 0.00777600007132
0.00072080863391 -0.00917421802214 0.00777600007132
0.000510237217796 -0.00750100007281 -0.00325951333086
0.00181816855998 -0.0104052838626 0.00777600007132
0.00222599995323 -0.0120766614645 0.00737078484927
0.00222599995323 -0.0124282412607 0.00351211526172
0.00222599995323 -0.00852124704327 0.0067243347469
0.00109518928824 -0.0125460000709 -0.0048080007512
0.00222599995323 -0.010924770783 0.00222803118543
0.00222599995323 -0.012274236551 0.00143821011607
0.00222599995323 -0.0089234399505 0.00375138088666
-0.00163299997803 -0.0124031220158 0.00453994746619
-0.00163299997803 -0.00917453103952 0.00767455083944
-0.00163299997803 -0.00856028769835 0.00193620191083
-0.00163299997803 -0.00873101371735 0.00381960334929
-0.00163299997803 -0.00924883938024 0.00535257013118
-0.00129500781532 -0.00765326448283 -0.00395420691281
-0.00118977129113 -0.00913155922841 -0.00511127723136
-0.000928083723491 -0.0115685170137 -0.00687991633692
-0.00144032985908 -0.00902951117925 -0.00232164402058
-0.00120455778195 -0.0110382029149 -0.00481453197881
-0.00134325006751 -0.0112765782919 -0.00276377936983
-0.00149383413959 -0.0106060536917 -0.000919610351341
-0.000813390328452 -0.00815942054655 -0.0068964129202
0.000161362954241 -0.00985476607855 -0.00734835876945
0.000807687727387 -0.0123139632011 -0.00684345044105
0.00179731562738 -0.00878161847132 -0.00255959588094
0.0015118070154 -0.00904353588158 -0.004013040523
0.00116651792745 -0.0086039074537 -0.00590439672816
0.00137215632832 -0.0108834129325 -0.00442164740234
-0.00562080057411 0.00099398094129 -0.00112899998203
-0.00498830527924 0.00229500001296 -0.00337075682514
-0.00630175827825 0.00229500001296 -0.00195019263071
-0.00687089843512 -0.000384045167084 -0.00112899998203
-0.00463934421145 0.000541334997894 -0.00616209143894
-0.00468550147732 0.000905652945821 -0.00841858678974
-0.00816300045699 0.000652954105928 -0.00647810616666
-0.00816300045699 0.000335924551649 -0.0045493144073
-0.00583003175419 0.00229500001296 -0.00509788491065
-0.00692723488347 0.00224531958579 -0.00382009129087
-0.00757928999263 0.00211482076712 -0.00566316017065
-0.00816300045699 0.000896184907467 -0.00295367979384
-0.00714294614923 -0.000969999993686 -0.00496913013732
-0.00801267310379 -0.00092497203157 -0.00316053109847
-0.00596982912063 -0.000589379010537 -0.00984360849598
-0.00585076887278 0.00111413393328 -0.00977326693385
-0.00766489966392 0.000466576160184 -0.00828381605418
-0.00701519926671 0.00175783244311 -0.00902274283925
0.00407450200337 0.00734099978581 0.0091693326827
0.00783024413493 0.00279646125063 0.00909781316178
0.00587430450742 0.00697411906282 0.00976757950779
0.00544190449042 0.00636949713918 0.0120292482886
0.0073157401636 0.00547410133738 0.0117417738338
0.00579974368817 0.00345561365067 0.0102971384161
0.00663128130158 0.00411417494713 0.0120666724106
0.00452313125671 0.00398862671816 0.00893080474011
0.00439785403173 0.0045741366304 0.0112276890583
0.0034826175231 0.00630371591928 0.0112953493164
0.00345410144742 0.00573976259335 0.00993002840458
0.00836592801072 0.00324204551681 0.0116783684295
0.0113892029076 0.00425116718347 0.00777600007132
0.00932449877993 0.00581212814473 0.00777600007132
0.00952069263214 0.00388110498583 0.00777600007132
0.0118355379451 0.00549242831258 0.0116908405291
0.0127616843781 0.00636461094678 0.00971272064541
0.0126603773401 0.00541943245234 0.00807085171457
0.00917927253008 0.0055049664206 0.0119198797808
0.00816399976611 0.00454924623655 0.00988231648099
0.00920380267894 0.00599879813437 0.0100524646436
0.0101653633465 0.00349602872991 0.0104956169818
0.0119562646633 0.00472531489422 0.0098735436848
0.00809393785477 0.0117103736367 -0.00293833681984
0.019832883626 0.011380392364 -0.00115129139035
0.0162794083938 0.0114867555826 -0.00172313422897
0.0175616610559 0.011218645627 -0.000420875320811
0.0147494249648 0.0117708843393 -0.00310630263648
0.0089300651207 0.0120572298136 -0.00457783377068
0.0129423622679 0.0116973126037 -0.00278810347221
0.0120106254362 0.0112245692174 -0.000549801731269
0.0106370922682 0.0117961561432 -0.00330143781156
0.0153237497171 0.0112166297887 -0.000451843461616
0.0078923473878 0.0112009998411 0.000686754326428
0.0175198075393 0.0112009998411 0.0033977399962
0.0123774680607 0.0112009998411 0.00855485342347
0.0110148801811 0.0112009998411 0.00983508678151
0.0120731598393 0.0112009998411 0.00308798627256
0.00894786493265 0.0112009998411 0.00363560067655
0.0149509423073 0.0112009998411 0.00511067689242
0.0141793262768 0.0112009998411 0.00867350514493
0.0109386750349 0.0112009998411 0.00710624989582
0.0160923564359 0.0112009998411 0.00114739341117
0.0121201850547 0.0112009998411 0.00134285985234
0.0230039991438 0.0125682483055 -0.000550637972903
0.0169353579851 0.0126849999651 0.00404487683243
0.0228131203674 0.0126849999651 0.00367798005577
0.0104810346163 0.0126849999651 0.00485532334682
0.0194672252996 0.0126849999651 0.00288596641033
0.0152326869635 0.0126849999651 0.00390266135841
0.0215400910903 0.0126849999651 0.000434684659455
0.0135761489659 0.0126849999651 0.00603997291699
0.00735881256062 0.0112009998411 0.00777233135492
0.005463830126 0.0112009998411 0.00881129145302
0.00600312533475 0.0112009998411 0.00567072733067
0.00596699929625 0.0112009998411 0.00128508113925
0.00870654853701 0.0112009998411 0.00640517631842
0.00984846978551 0.0112009998411 0.00843704525045
0.0131024951759 0.0126849999651 0.000635495785643
0.0150371199858 0.0126849999651 0.00107866266296
0.01935681773 0.0126849999651 -0.000251401404292
0.00831242314716 0.0126849999651 0.00487515864275
0.00528594680685 0.0126849999651 0.00287344759853
0.00366531352803 0.0126849999651 0.00220117568211
0.0112313687578 0.0126849999651 0.0013366700297
0.0171755808722 0.0126849999651 0.000245431090741
0.00440747036362 0.0126849999651 0.00575522006742
0.00395276753822 0.0126849999651 0.00389028844281
0.0203353908527 0.0112009998411 0.00498756650944
0.0106225013314 0.0126849999651 0.00809014488638
0.00433057424294 0.0126849999651 0.00800107815449
0.00870042001346 0.0126849999651 0.00829028705632
0.0127774978391 0.0126849999651 0.0093191265824
0.00933152601304 0.0126849999651 0.0103500870122
0.00966230654578 0.0117870945959 0.0119319995865
0.00642266743919 0.0116091501335 -0.00221690814062
0.00425818999025 0.0113471410405 -0.000239963790895
0.004724281436 0.0121016338632 -0.00173374752515
0.00472663458158 0.0112009998411 0.0103902872412
0.00595033716183 0.0122270785408 0.0117361710124
0.0121724048959 0.0126849999651 -0.00187940228498
0.00730767440888 0.0126849999651 -0.00508829394366
0.00606730484726 0.0126849999651 -0.000643664474047
0.00960572969859 0.0126849999651 -0.00211855686054
0.00495173360096 0.0126849999651 0.000533425910354
0.0137788091283 0.0126849999651 -0.00127830975027
0.00842473158139 0.0126849999651 2.64959154139e-05
0.0176220167948 0.0126849999651 -0.00141276346044
0.00797061738696 0.0126849999651 -0.00152786219721
0.0194396055681 0.0126849999651 -0.00227861538037
0.00757710575114 0.0126849999651 0.0117278218637
0.0168272111768 0.0123041436504 -0.00327967960993
0.0102498345072 0.0123998695974 -0.005427793973
0.0133026832474 0.0115187114863 0.0106873300467
0.0165171343111 0.0119891446316 0.00884344780227
0.0197888020754 0.0116193122373 0.0069875503102
0.0181246876641 0.0120716296286 0.00798265451706
0.0116472749106 0.0125016559504 0.0107931752086
0.0147025247133 0.0125392079816 0.00931810160671
0.02099311634 0.0126750675532 0.00621249718799
0.0131074941539 -0.00750100007281 0.00188538528618
0.00570148839576 -0.00750100007281 -0.000104748996372
0.00997607609846 -0.00750100007281 -0.00010456302481
0.0121797767594 -0.00750100007281 -0.00116495465126
0.0118706828411 -0.00750100007281 0.000410423332344
0.0106306057706 -0.00750100007281 0.00512842767422
0.0103988678392 -0.00797659955428 -0.00153271873011
0.00400968481261 -0.00869747763448 -0.00106664925803
0.00803981077423 -0.0110559875141 -0.00162311229717
0.0065021506266 -0.00860744576875 -0.00126630446838
0.00825574405823 -0.00750882501927 -0.00131017998693
0.00822635233088 -0.00938064780982 -0.00148237120562
0.00626181757285 -0.0103161329585 -0.0014056667687
0.00984792971817 -0.0125460000709 0.00672890665074
0.00674378298792 -0.0125460000709 0.00367771089552
0.00843294030531 -0.0125460000709 0.00303474221246
0.00508639938797 -0.0125460000709 0.00290395932765
0.0098033707953 -0.0125460000709 0.0040492182596
0.0116038153096 -0.0125460000709 0.00717118520807
0.00469870695517 -0.0125460000709 0.00679860651603
0.00782748126774 -0.0125460000709 0.00693601153784
0.00610589471752 -0.0125460000709 0.00574394298793
0.00749545788198 -0.0125460000709 0.00121933464526
0.013209999539 -0.0100529769085 0.00419010904569
0.013209999539 -0.00930204272242 0.00193432741986
0.00966476610221 -0.0125460000709 0.00818032370626
0.00442096206495 -0.0125460000709 0.00838932095317
0.00914759828205 -0.00750100007281 0.00617390473161
0.00793209478942 -0.00750100007281 0.00516447007355
0.0112231391475 -0.00750100007281 0.0078128941078
0.013209999539 -0.0116460966669 0.00373743176025
0.00371331613482 -0.0125460000709 0.00469298974811
0.00367352623633 -0.0125460000709 0.00053884261489
0.00222599995323 -0.0119879721798 0.00536091123281
0.00222599995323 -0.0101093264653 0.00592128160876
0.00257243588104 -0.00967044966022 0.00927376229866
0.00300313357126 -0.00750100007281 0.0033725021956
0.00674197836574 -0.00750100007281 0.00849827771566
0.00507499057129 -0.00750100007281 0.00470893610571
0.00336239933705 -0.00750100007281 0.00795089713125
0.00960967932711 -0.0121745202364 0.0119319995865
0.006304698371 -0.0121950991365 0.0119319995865
0.00795800286976 -0.0114037943784 0.0119319995865
0.0122301220078 -0.0121950112849 0.00932761062844
0.0112717623981 -0.0113216030173 0.0114649224656
0.0113078612978 -0.00968081411129 0.0119319995865
0.00723883159457 -0.00825509781768 0.0119319995865
0.008306355102 -0.0095787557497 0.0119319995865
0.00616874369622 -0.00964259807471 0.0119319995865
0.00988410367235 -0.00865338791521 0.0119319995865
0.00222599995323 -0.00956768066104 0.00149668468996
0.0129638213975 -0.01207335743 4.62934063714e-05
0.0108063486938 -0.0106622114218 -0.00154250025889
0.0110655600851 -0.0120797305254 -0.000837333495553
0.0123589759354 -0.0101699511894 -0.00102047150991
0.0131668147785 -0.0083694120979 0.00850139826442
0.0131509898702 -0.0103933881106 0.00853701304437
0.0126528578692 -0.0108475507796 0.0103876867859
0.012568039222 -0.00865969313152 0.0114934387309
0.00324248021249 -0.00855788784058 0.0116539669974
0.00310369342674 -0.00980905406483 0.010786312969
0.00485013000141 -0.0114815611603 0.0118533011912
0.00399846854933 -0.0119464574063 0.0104228799889
0.00281453377085 -0.0116768751823 0.00925343338327
0.00441890129724 -0.00985427334061 0.0119319995865
0.00600157190683 -0.0123351542275 -0.00106803210848
0.00456198784994 -0.0114921557404 -0.000647876329501
0.00259871878758 -0.0107642450419 0.000321537030696
0.00619363125966 -0.0125460000709 0.0104252761814
0.0165767306073 -0.00827442719615 0.00775056729135
0.0167160224285 -0.0107244303051 0.00771574433605
0.0149069497938 -0.0125460000709 0.000568876913192
0.014646503369 -0.0125460000709 0.00447810764995
0.0188003107371 -0.0125460000709 0.00126240169154
0.0169369769105 -0.0125460000709 0.005076641091
0.0167096018593 -0.0125460000709 0.00200756895624
0.013209999539 -0.0118350344613 0.00705343124794
0.013209999539 -0.0118296247731 0.00542750162833
0.013209999539 -0.00932055330892 0.00702690107573
0.020062895507 -0.00750100007281 0.00516536627854
0.0238860757883 -0.00750100007281 0.00264956104489
0.0175106823504 -0.00750100007281 0.00637559972928
0.0188578784282 -0.0125460000709 0.00582569049273
0.024317875029 -0.0125460000709 0.00376712770498
0.021263749734 -0.0125460000709 0.00447735590514
0.013209999539 -0.00861269050228 0.00542276604561
0.013209999539 -0.00878465978552 -0.000139797270112
0.013209999539 -0.00826947446029 0.00340383533348
0.013209999539 -0.0112947424654 0.00194898259224
0.0233065311267 -0.00750100007281 0.000861800088769
0.0185839577751 -0.00750100007281 -0.000516455016742
0.0183521455488 -0.00750100007281 0.00266922676053
0.0182691656647 -0.00750100007281 0.00445169751832
0.0171591189606 -0.00750100007281 0.00100043800746
0.0148623041073 -0.00750100007281 0.00598561157731
0.0147703535889 -0.00750100007281 0.00114363617958
0.0152824823498 -0.00871799815864 -0.00235197267927
0.0144352574159 -0.0113407790295 -0.000412485717032
0.0170429420294 -0.00965637028851 -0.00208822118303
0.0184840711951 -0.0114262716055 -0.00119899898171
0.0161313497932 -0.0111162394149 -0.000916959322085
0.0144298872456 -0.00960911882335 -0.00157528883939
0.0196997154049 -0.0125460000709 -0.000259102604582
0.0253800004721 -0.0101134601588 0.00135628899839
0.0245143318713 -0.0087698989423 0.0040282428586
0.0191419343749 -0.00750100007281 0.00633675022584
0.0199609319102 -0.00750100007281 -0.0015245755433
0.0222229913445 -0.00773518341776 0.00564237846585
0.0209591685296 -0.00905177169008 0.00627407266858
0.0196167777905 -0.0095449765512 0.00688479392707
0.0181145665388 -0.0122274416311 0.00733438161849
0.0195228566519 -0.0111041887991 0.00688588360217
0.0219385556089 -0.012083518329 -0.00103440879895
0.019428680301 -0.0101342752371 -0.00187618177693
0.0208224478802 -0.0108501093003 -0.00155747583809
0.0253800004721 -0.0118610749326 0.00123800212967
0.0252457460187 -0.0104168745289 0.00345602883566
0.0186723785069 -0.00847823485163 -0.00231145708293
0.0237782805361 -0.00945701747365 -0.000592105736408
0.0245877861263 -0.0111524451514 -0.000422635976943
0.0216232490135 -0.00940805351353 -0.00134216692595
0.0247749740378 -0.00785035800328 -4.82614735886e-05
0.0215474795469 -0.00756953771217 -0.0011325517728
0.0228678439907 -0.0120521985336 0.00528579332043
0.0237120064117 -0.0104730210745 0.00468264598896
0.0205512503996 -0.0123092555908 0.00647837482483
0.0218812742271 -0.0108547786535 0.00581336317198
0.0155962591199 -0.0095332616063 0.00777600007132
0.00193000002764 -0.00365296469157 0.00609482603203
0.00193000002764 -0.00519685176983 0.00731318729999
0.00193000002764 -0.00420968843381 0.000907688581566
0.00193000002764 -0.00504181301928 0.00245753541816
-0.00479277607857 -0.00578934993657 -0.0017015604834
-0.00634305069063 -0.00567831458216 -0.00115220873618
-0.00707669692127 -0.00381723607922 -0.00124288285949
-0.00734280290441 -0.0021437217282 -0.00146936015418
-0.0078659998253 -0.00419025946413 0.00807315038016
-0.0078659998253 -0.00437198025789 0.0105305473046
-0.0078659998253 -0.00523207778379 0.00358251552107
-0.0078659998253 -0.00326667859596 0.00643339377588
0.00193000002764 -0.00263219448557 0.00494315140365
0.00193000002764 -0.00274429241328 -0.000250074746271
-0.00623387518533 -0.000969999993686 0.000417272838734
-0.00545106283724 -0.000969999993686 0.00328685546918
-0.00737770294708 -0.000969999993686 0.00549876836266
-0.0075543280696 -0.000969999993686 0.00347272176814
-0.00244504448648 -0.000969999993686 0.00116315315715
-0.00582657624433 -0.000969999993686 0.00499973926978
-0.0038923023475 -0.00750100007281 0.00404871512859
-0.00252988372557 -0.00750100007281 0.00489896894194
-0.00402790248476 -0.00750100007281 0.0056289764524
0.00142594215515 -0.00750100007281 0.00780086941069
-0.00561567815634 -0.00750100007281 0.00314009516387
-0.000809051009947 -0.00750100007281 0.00932055289458
-0.0012805604725 -0.00579367803916 -0.00172299996484
-0.00409091878247 -0.00722093953653 -0.0011329765979
-0.00217298282211 -0.00705506779019 -0.00161173201066
-0.000636245291636 -0.00750100007281 0.00270003272192
-0.00541938297104 -0.00750100007281 0.00131268029515
0.00106917411633 -0.00750100007281 0.00224494783445
0.00115200193531 -0.00750100007281 0.000154508886835
0.000370432831518 -0.00750100007281 0.00585564325306
-0.00669198571433 -0.00750100007281 -0.000172299254998
-0.00160137543495 -0.000969999993686 0.0030820691001
0.000561836556239 -0.000969999993686 0.00586035127854
-0.000445394487435 -0.000969999993686 0.00703853807483
-0.00610259499026 -0.000969999993686 0.00691096955579
0.00062423694585 -0.000969999993686 0.00210982557071
-0.00704850313704 -0.00514184498647 0.0119319995865
-0.0078659998253 -0.00672787105536 0.00472667372091
-0.0078659998253 -0.00664381991006 0.00780199807045
-0.00704229549896 -0.00644711037802 0.0102945421783
-0.00569883390023 -0.00741723998959 0.0108549672702
-0.00697743533968 -0.00750100007281 0.00634294042127
-0.00654540236262 -0.00750100007281 0.00869774844966
-0.00137941342212 -0.00558922102533 0.0102146576895
0.000318474608599 -0.00527435921424 0.00896299604609
-7.56902325107e-05 -0.00298657929552 0.00908609377392
-0.00532734966693 -0.00547657667682 0.0119319995865
-0.00775734827327 -0.00177821384517 0.000107438775119
-0.00747609658741 -0.000969999993686 0.00152492482993
-0.0078659998253 -0.00323519048746 0.00410702859048
-0.0078659998253 -0.00590872718101 0.000259582129124
0.000556185738442 -0.00183498700499 -0.00071544132704
-0.000661432387851 -0.00296209001885 -0.00156832829657
-0.00237853460769 -0.00184327696554 -0.00152013896081
0.00193000002764 -0.00612237759983 -0.000117395339289
-0.00774255327377 -0.00252893258863 0.0106663230359
-0.00330978618061 -0.00112819099187 0.00793109982432
-0.0066573782292 -0.00155129297304 0.00881798375347
-0.00572241635909 -0.00234886258516 0.010270878419
-0.00294516591665 -0.00221730584203 0.00986997054187
-0.000928260982811 -0.00164543103382 0.00879612506533
-0.00509193304395 -0.00369736754151 0.0116470971878
0.00107862265012 -0.00172768589356 0.00813822122936
-0.0025644661113 -0.00498096335141 0.0109620391075
-0.00158713765003 -0.00345488778044 0.0100293845737
-0.00351107950431 -0.00658514591144 0.0117860950418
0.00564992955933 -0.001628433475 -0.0100339995697
0.00665227104826 -0.000969999993686 -0.00334792358682
0.0052101617077 -0.000969999993686 -0.00460679329275
0.00464731169388 -0.00127187315833 -0.00822719025175
0.00383009015429 -0.00225204357187 -0.00696359902717
0.00385135926057 -0.00222653353856 -0.00922193410391
0.00204620374489 -0.0056926542017 -0.00202100002207
0.00278337943224 -0.00350746187838 -0.00625828552731
0.00343180867578 -0.00272973989114 -0.00203618760487
0.0023424758711 -0.00403627885752 -0.00325196458603
0.00339555369964 -0.00277322388322 -0.00375305747183
0.00692716508233 -0.00316967703963 -0.00356772601586
0.00563898941881 -0.00468024017135 -0.00222997111084
0.00741461250791 -0.00290603674364 -0.00523505259684
0.00193000002764 -0.00534999760186 -0.00849097576495
0.00193000002764 -0.00667723276547 -0.0075286739485
0.004842049027 -0.00518696919391 -0.00930633144419
0.00566698259625 -0.00446781424949 -0.00794944882627
0.00613148726961 -0.00417174736975 -0.0046620663795
0.00421876031905 -0.00609093353262 -0.00272509656044
0.004150537806 -0.00603187909922 -0.00547439602069
0.00558251417109 -0.00462716953322 -0.00621493649131
0.00326915542202 -0.00662874842345 -0.00412567349845
0.00349756620086 -0.00625324373988 -0.00779339155038
0.00322294571886 -0.00583865412898 -0.00998861018545
0.00575053961766 -0.00376002288285 -0.00998987228586
0.00689695300199 -0.0023354727376 -0.0087182941492
0.00770309705382 -0.002329986123 -0.00703752153822
0.00270131848077 -0.00386411934384 -0.00982394452836
0.00325980536632 -0.00172175077597 0.00879250780997
0.00656022417767 -0.00750100007281 0.00134508823129
0.00442713083072 -0.00750100007281 0.00110397454017
0.00655836823102 -0.00750100007281 0.00350853984874
0.00382098268862 -0.00750100007281 0.00591901056689
0.00485686374137 -0.00750100007281 0.00275937430119
0.00296079658247 -0.00750100007281 0.00166305017704
0.00193000002764 -0.00236050997056 0.00185085757046
0.00193000002764 -0.00312500133516 0.00346158555173
0.00353521782876 -0.000969999993686 0.00169377508369
0.00263770756358 -0.000969999993686 0.00538490458925
0.00409634963472 -0.000969999993686 0.0039615285356
0.00738648575237 -0.000969999993686 0.00545647854942
0.00668075972895 -0.000969999993686 0.000817935878853
0.00511750636594 -0.000969999993686 0.00225462684221
0.00816300045699 -0.00586884944053 0.00432303721399
0.00816300045699 -0.00576592061616 0.00264459013407
0.00816300045699 -0.00376529412731 0.00997235223377
0.00816300045699 -0.00295446216064 0.00829003447113
0.00816300045699 -0.00569561084498 0.00704728720882
0.00816300045699 -0.00732750027543 0.003058423802
0.00556012072066 -0.00750100007281 0.00679904592646
0.0075594145161 -0.00750100007281 0.00696773987947
0.00486529138069 -0.00750100007281 0.00989215002426
0.00193000002764 -0.00193533821093 0.00680091868471
0.00193000002764 -0.00707011195839 0.00481585665911
0.00193000002764 -0.00514319278939 0.0051691260963
0.00276732893387 -0.0072523518391 0.0101072896428
0.00219846749133 -0.00310307701034 0.00832705818564
0.00255290854976 -0.00502263421403 0.00940619799802
0.007916928037 -0.00169599821189 -0.00018415090548
0.00687939637395 -0.00416674838582 0.0119319995865
0.00527877113484 -0.00513419254581 0.0119319995865
0.00290233078528 -0.007087293132 -0.00167586788564
0.00659243314994 -0.00214010319346 -0.00202000001445
0.00385461670975 -0.00442213791154 -0.00202000001445
0.00489203211396 -0.00159778913562 -0.00202000001445
0.00435080200797 -0.00745224356197 0.0119319995865
0.00612668521483 -0.00668174134307 0.01139021233
0.0074529118949 -0.00615714650866 0.0106057096184
0.00322063949498 -0.00587306942709 0.0111266502404
0.00312056572832 -0.00421090051992 0.0104748257185
0.00424000111968 -0.00259682924101 0.0101636407432
0.0072649778264 -0.00516218091753 -0.00116124126308
0.0062529853839 -0.00618625977069 -0.0013375237969
0.00808218301213 -0.00216429513193 0.00986489623233
0.00627747596282 -0.00175713416352 0.00915206463426
0.00646612693313 -0.0028159208611 0.0109066022364
-0.0231884891361 -0.000477828191175 -0.0052870274861
-0.0215574454032 -0.000969999993686 -0.00408128546382
-0.022644257158 -0.000969999993686 -0.0092605585681
-0.0203081625159 0.00348299997859 -0.00845573714242
-0.0202188816451 0.00156446101114 -0.00576803525833
-0.0201300811059 0.00201145896098 -0.00841679596892
-0.0198405793739 0.00295158572206 -0.00464929169942
-0.0206022828854 0.000249120287288 -0.00907186551861
-0.0205203091919 0.000572886899701 -0.00158918287085
-0.020922634793 -0.00095123369096 -0.00234911033799
-0.0203279723923 0.00112908571493 -0.00378954053249
-0.0206614334369 -3.74677470807e-05 -0.00488774400216
-0.020009365339 0.0022436751608 -0.00249729923138
-0.020600679535 0.000175068846844 -0.0066137766458
-0.0225209205773 0.000607604572315 -0.00983851979609
-0.0222273182899 0.00271504378868 -0.00964967457162
-0.0228966854292 0.00217141962152 -0.00344829505981
-0.022406944862 0.00290035740244 -0.0016345681377
-0.0224472103315 0.00304436601107 -0.00627636884654
-0.023114180159 0.00125804078387 -0.0046775816938
-0.0230555740247 0.00082789553473 -0.00834777958217
-0.0229598106905 0.00160356182823 -0.00663596508362
-0.0198647130679 0.00348299997859 -0.00678001140573
-0.0232571958557 -9.30187273257e-05 -0.00350781901522
-0.0183324710354 0.00407172506597 -0.00968147791171
-0.0152879999951 0.00679886689694 -0.0027105139837
-0.0181504674785 0.00513279855091 -0.00112899998203
-0.0200835174168 0.00429127710745 -0.00112899998203
-0.0152879999951 0.00530609655403 -0.00423240916058
-0.0167890667712 0.00443087879359 -0.00546582156798
-0.0162145564626 0.00463607092083 -0.00709125866605
-0.01563230772 0.00484402690752 -0.00243313637178
-0.0175871865913 0.00414582228331 -0.002566445022
-0.0190496446334 0.00720272396282 -0.00112899998203
-0.0173889795631 0.0061981691775 -0.0100080711153
-0.0160301581265 0.00779450734202 -0.00588478213366
-0.0220777354561 0.00352101344788 -0.00320589870693
-0.0204189818549 0.00597249462847 -0.00112899998203
-0.0216352658867 0.00543405352304 -0.00212544449019
-0.0219197633439 0.00445697118335 -0.00645488518281
-0.0218626535796 0.00462103406652 -0.00472018373975
-0.0162561385337 0.00876778802203 -0.00152747553281
-0.0169527786243 0.00838604916055 -0.00336293188889
-0.0166990891131 0.00744787182685 -0.007592999948
-0.0176180241573 0.00786354289188 -0.00515865095065
-0.0183279405496 0.0069963711804 -0.00802366057671
-0.020946630457 0.00563481700316 -0.00703791616144
-0.0210916561063 0.00595567602959 -0.00445826898027
-0.0215854789738 0.00440445198646 -0.00926910721545
-0.0186101245984 0.00384081805168 -0.00780576141957
-0.0167575582779 0.0044713710679 -0.0087656983732
-0.0182014304947 0.00395315734291 -0.00576872831356
-0.0191543329609 0.00783784616166 -0.0028189949316
-0.0196888383946 0.00654666188735 -0.00747828164041
-0.0201569426818 0.00666088496437 -0.00563886060077
-0.0200962797049 0.00594404252548 -0.00914680709533
-0.0199447229785 0.00711520152667 -0.0041157462262
-0.0158924964756 0.0054612064734 -0.0100339995697
-0.00844760606398 -0.000969999993686 -0.00611200316819
-0.0104618502609 -0.000969999993686 -0.00176350789892
-0.0106651397407 0.00292568040717 -0.00995774982832
-0.00905485202857 -0.000969999993686 -0.00759935235346
-0.0102283865992 -0.000969999993686 -0.00653510052045
-0.0117080412965 0.00133687070725 -0.0027282627709
-0.0113694994638 -1.65366371888e-05 -0.00350119846088
-0.0111028846008 -0.000565938519123 -0.00952615673562
-0.0114365853329 0.00119717989649 -0.0094449499926
-0.0118394037035 0.00216932397453 -0.00697866561728
-0.0117103933054 0.00137630325073 -0.00444077848608
-0.0115299983253 0.000646694729238 -0.00600965628815
-0.0116524130238 0.00318600004539 -0.00860359013696
-0.0107516282622 0.00318600004539 -0.00624407306637
-0.00955212814741 0.00106842687276 -0.0100339995697
-0.00926485206235 -0.000599080760556 -0.00937395388679
-0.00928257446057 0.0022434632553 -0.00898970700513
-0.00867812243707 0.00187635691675 -0.00186675020749
-0.00933087316194 0.00293229857332 -0.00294586076019
-0.00893328912276 0.00261423122977 -0.00756452987097
-0.0109118735866 0.00318600004539 -0.00242048733338
-0.0119549237204 0.00397246136953 -0.00112899998203
-0.0152879999951 0.00674882280528 -0.007004337843
-0.0140217066875 0.00640598099316 -0.00112899998203
-0.0152879999951 0.00537292983382 -0.00866657209685
-0.0148468051072 0.00470310480933 -0.00603182921098
-0.0142569547981 0.00434895615662 -0.00312678799817
-0.0112783992975 0.0068647059256 -0.00369394783079
-0.0138365598147 0.00423606261696 -0.00949249990873
-0.0128042303506 0.00347673417441 -0.00376111298041
-0.0133221083397 0.00378767033782 -0.00733882152069
-0.0135517239446 0.00392553253077 -0.00526022382275
-0.00993566646059 0.00327471478069 -0.00475651176594
-0.0133500389111 0.00847499799664 -0.00285293627903
-0.0150576495755 0.00837866294968 -0.00324939515268
-0.0142737315717 0.00802614046894 -0.00500642260123
-0.0110185799988 0.00536573934548 -0.0083837283046
-0.0116117809947 0.00669776578913 -0.00538700933444
-0.0115057305926 0.00615418623018 -0.00701492781216
-0.0124782146453 0.00760200736149 -0.00441541770762
-0.0134650764716 0.00733036420441 -0.00713056813612
-0.00992305256621 0.00378069911516 -0.00868250650897
-0.00991743699434 0.00450617377449 -0.00269639798359
-0.0106650100047 0.00653562686215 -0.00196010207839
-0.0104114950035 0.00557903890946 -0.00438179248653
-0.0101324573893 0.00448965148522 -0.0073426570509
-0.0121458713423 0.00502738284943 -0.0100339995697
-0.0140612178122 0.00636290433156 -0.00992976074235
-0.00253548768208 0.00699324918309 -0.00112899998203
-0.00467267238171 0.00229600002058 -0.00736957350493
-0.00163399998564 0.00617739501161 -0.00435731887547
-0.00332858152694 0.00297541837884 -0.00284639761117
-0.00200691346395 0.00429708663626 -0.00279071779115
-0.00203517317526 0.0042688269208 -0.00741048451512
-0.00263267774395 0.0036713222642 -0.00479806080487
-0.00279451220967 0.00695894680529 -0.00360244190795
-0.00466297547685 0.00229600002058 -0.00965550874837
-0.00648795060345 0.0023196697687 -0.0071392941165
-0.00357917048511 0.00523031626621 -0.00999388992364
-0.0050405622541 0.00458076719234 -0.00978352760028
-0.00326213836597 0.00664743628883 -0.0067486050197
-0.00249480788131 0.00659611912769 -0.0092245256028
-0.00611513709555 0.00345551729558 -0.00932872152497
-0.00569666486884 0.00509904763744 -0.00500809200555
-0.00575113239133 0.0045128011695 -0.00744967830888
-0.00571603550458 0.00544530386257 -0.00289641882225
-0.00622662399516 0.00384951488326 -0.00608914261188
-0.00248338262307 0.00390665272454 -0.00929877738314
-0.0040006785859 0.00243926241541 -0.00532943165002
-0.00333001590926 0.00312273703824 -0.00815458962486
-0.00640324709968 0.0035389131576 -0.00336263060161
-0.00464444533924 0.00614747024948 -0.00538700469572
-0.004720937613 0.00550440624607 -0.0083888497795
-0.00485244918283 0.00670110221908 -0.0018270604569
-0.00452353390166 0.0065431493147 -0.00380302261236
-0.000742000003811 0.00871831144518 -0.00400377088868
-0.00102388778307 0.00468917101666 -0.0042213410597
-0.00163199997041 0.00595652281969 -0.00618926654085
-0.00148112878061 0.0078666703357 -0.00666942281651
-0.00145651405692 0.00831812466363 -0.00226917692206
-0.00163199997041 0.00509365041883 -0.00116066669021
-0.00126353990235 0.00754575794767 -0.00882659285359
-0.00115231859237 0.00997733196529 -0.00325129170056
-0.000895561887454 0.00952300731407 -0.00575356566562
-0.013015341593 0.00702897876964 0.00932579310117
-0.0113113443454 0.00412351477102 0.0100240722265
-0.0106026004651 0.006269041399 0.0119319995865
-0.00896128244248 0.00554704212234 0.0117853232386
-0.00839258156995 0.00587268809147 0.00855064427844
-0.00972457091628 0.00679014347891 0.00911175759626
-0.010588082182 0.00725456427951 0.0105860538461
-0.0109111504405 0.00401242099564 0.00777600007132
-0.00993148461755 0.0033653351752 0.00948687721049
-0.00940037159293 0.00298142654548 0.00789326859418
-0.00958935687291 0.00343493910994 0.0114063184886
-0.00832942229909 0.00302826262781 0.0101700067233
-0.0123712202324 0.0054293520833 0.00903965349138
-0.01167731089 0.00485868969423 0.0113811667344
-0.0125015070857 0.00605799058402 0.0106820882071
-0.00836818651156 0.0102356263355 0.0087330730116
-0.00953923294114 0.0114979995415 0.00788129540665
-0.00992870327492 0.0097953278445 0.00777600007132
-0.0112053460294 0.0114979995415 0.0100228789679
-0.0111111932371 0.0112339059994 0.0119055767769
-0.0102758776566 0.00944932174136 0.0118359085788
-0.0128509896808 0.00841917619651 0.00777600007132
-0.0115604553567 0.00931336570734 0.00777600007132
-0.011416005091 0.00734200002626 0.00920048547937
-0.00786700006574 0.0114407157011 0.00958995974633
-0.0121582256883 0.00889120892721 0.0117492895756
-0.00817594316722 0.0108978023369 0.0112379819851
-0.00959689986433 0.00876578955844 0.0102347521859
-0.012563679233 0.0101971749089 0.00967010701082
-0.00642886014567 0.0052379810486 0.0119319995865
-0.0078659998253 0.00414583108762 0.00916012280965
-0.0078659998253 0.00492059076885 0.0105497407633
-0.00427397978587 0.00727145201088 0.0119223075035
-0.0064155692681 0.00324293352552 0.0094993134341
-0.00748808883625 0.00289839516046 0.00788829929836
-0.00730340699363 0.00332169276547 0.0115776979921
-0.00702058828308 0.00632001301443 0.00970071828575
-0.00592962794212 0.00755353184361 0.0103979357033
-0.00291711324524 0.00646658698074 0.00796660979401
-0.00331010746598 0.00629221163335 0.0104463149781
-0.00304282660521 0.00788313908449 0.0108129066308
-0.00454231312624 0.00532710455515 0.0118965561854
-0.00396142529353 0.00477666134054 0.00992193964446
-0.00500035921021 0.00410635450638 0.0108976060342
-0.00528054683329 0.0114979995415 0.00871372265408
-0.00596254058688 0.0114979995415 0.0103071336077
-0.00618237382919 0.00950579016791 0.00777600007132
-0.00413953210608 0.00853000022471 0.0078185414308
-0.00693071564465 0.00997706673243 0.00915199102263
-0.00659403401764 0.00996017712542 0.0110130837421
-0.00525531670251 0.00949312690107 0.0118333324597
-0.00300067327399 0.00975379998668 0.00799650412584
-0.00311343386308 0.00912805379503 0.00965223703709
-0.00424007576154 0.0114491863414 0.0111598271925
-0.00345300661966 0.00956230191524 0.0117952063424
0.00550896066546 -0.000969999993686 0.00553718860995
0.00502522186059 -0.000969999993686 0.000326131936084
0.00407638423493 -0.000969999993686 0.00642855497259
0.00221015751544 -0.000969999993686 0.00330057855356
-0.000742000003811 0.00290062817457 0.00517538947719
