-0.0303347812675 -0.00224238396686 0.0236859506747
-0.0291207508634 -0.0005335987393 0.00601544718892
-0.029402779239 4.56948759489e-05 0.010050540007
-0.0299332388713 0.000802509344384 0.0176638633159
-0.0307166438559 -0.00199410284076 0.0291877932309
-0.0305308240558 -0.00107182366427 0.0264358346061
-0.0303787886556 0.000143249788369 0.0241512479632
-0.0301825555299 -0.000877220481552 0.021387866705
-0.029728952603 -0.00095805070143 0.0148370669314
-0.0309922293028 0.0018230000278 -0.00235735755408
-0.0325213192501 0.0018230000278 0.0232574593472
-0.0302390563268 0.0018230000278 -0.0197389758501
-0.0321582828346 0.0018230000278 0.0260391037775
-0.0309112346023 0.0018230000278 0.0206797490941
-0.0314224336195 0.0018230000278 -0.00548356024496
-0.0307686364807 0.0018230000278 -0.011853327711
-0.0302988598456 0.0018230000278 0.00200384828581
-0.0299382396832 -0.00258975179599 0.0178810497492
-0.0287286275124 0.0012692751934 -0.00354001666236
-0.0293283585098 -0.000811899560822 -0.0198001399787
-0.0288415692848 0.000700408160385 -0.00645052434555
-0.0290392899199 -0.000333539480809 -0.0115131658754
-0.0297266567278 0.000917210906615 -0.0237500278532
-0.0292456321385 -0.00101626371256 -0.0166653410826
-0.0292403274563 -0.00164885816825 -0.0140875885851
-0.0297530734743 -0.00241033706359 -0.025830080942
-0.0295939202481 -0.00203686427499 -0.0227111291374
-0.0289835070456 -0.00123819165403 -0.00831832117699
-0.0333399996161 0.000443574172073 0.0130196223499
-0.0333399996161 -5.07087674886e-05 0.0206846982113
-0.0333399996161 0.00133377723034 0.0282802464448
-0.0333399996161 -0.000224032311996 0.0245122488395
-0.0333399996161 -0.000922061593334 0.017651643856
-0.0333399996161 -0.00190107835898 0.0271451209803
-0.0333399996161 -0.00160637505275 0.0300740722847
-0.0328405807405 -0.00296689298604 -0.0202431233404
-0.0331300301329 -0.00374664785306 0.0112828405582
-0.0326873332837 -0.0039378646846 -0.0156612910667
-0.0327981216135 -0.00296795645299 -0.0230929234101
-0.0331499517335 0.000379876271776 -0.00717125674715
-0.0329181125297 -0.000457340100129 -0.0249333823867
-0.0330801864 -0.000820885002706 -0.0119466925706
-0.03304587188 -0.00111235774742 -0.0144750833533
-0.0331364520491 -0.00200843272056 -0.00138715868577
-0.0332913547709 -0.000942558129794 0.010865857721
-0.0333037524042 0.000521234937889 0.00552558618018
-0.0330908678672 -0.00141733512935 -0.0091416331526
-0.0330613226961 -0.00268094961106 -0.00661669741606
-0.0332206641286 -0.000465802051254 0.000857573941677
-0.0333047474606 -0.00276231913785 0.0206921782245
-0.0333027667912 -0.000169444891082 0.00858358427628
-0.0332458067714 -0.00327435895149 0.0165181137685
-0.0331342933381 -0.00153181646091 -0.00381151461281
-0.0331750472863 -0.00278256960171 0.00643327839479
-0.030203411071 -0.00408500013873 0.00267261874425
-0.0289792046485 -0.0015360164169 0.0034221766596
-0.0297989761962 -0.00328341980758 0.00537196870783
-0.0301568036367 -0.00394717239021 0.0079020319766
-0.0295955339139 -0.00240575631714 0.0124195757968
-0.0303314118863 -0.00388599186455 0.0156683293322
-0.0288301082027 -0.00139965095649 -1.01740604128e-05
-0.0293545362945 -0.00266219145283 -0.00309882248284
-0.0294232338086 -0.00282230479366 -0.0105686268939
-0.0299385984465 -0.00402346549158 -0.0162309370655
-0.0330080609762 5.52210527206e-05 -0.0181292741052
-0.0329800373441 0.00108896286132 -0.0205673352069
-0.0250319892461 0.0151731889629 -0.00092169578368
-0.0223680008203 0.022315483763 -0.012050194695
-0.0223680008203 0.0220413642645 -0.00495582103006
-0.0223680008203 0.0218683924732 -0.00252457021812
-0.0223680008203 0.0187494097317 -0.0135043364095
-0.0223680008203 0.0218651335122 -0.0150432564517
-0.0223680008203 0.0202065317385 -0.017234499584
-0.0223680008203 0.0238253834671 -0.00873013924828
-0.0282749999315 0.0119863628021 -0.0119439032009
-0.0223680008203 0.0180915886395 -0.0236870036698
-0.0223680008203 0.0181188936845 -0.0160378842137
-0.0223680008203 0.0163855729055 -0.0131649701047
-0.0223680008203 0.0201746506098 -0.0204387142729
-0.0265025870955 0.0175134935712 0.00027200000477
-0.0282749999315 0.0171772742123 -0.00796274038232
-0.0282749999315 0.016928262597 -0.0106439222081
-0.0259979903618 0.0112813614344 -0.0232286161551
-0.0226005078554 0.0138661423827 -0.0213038057538
-0.0255967279004 0.0113293245927 -0.0206543900177
-0.0282255808935 0.011403804733 -0.0244006339189
-0.0248517578881 0.0132073309597 -0.02467531291
-0.0223680008203 0.0188638285664 -0.0017667577677
-0.0242453141141 0.0227328126705 -0.0102228305684
-0.0248983659849 0.0220793065649 -0.00653697768992
-0.0246691415753 0.0221905089531 -0.0170823487282
-0.0248821201918 0.0218505157702 -0.0210147617184
-0.0227489241965 0.0238604600015 -0.0206531475554
-0.0260405177328 0.0123684951382 -0.00715311037882
-0.027087290805 0.0104048043451 -0.0138171021864
-0.0277135213068 0.010769891816 -0.00923433728054
-0.0240899895997 0.0138172493873 -0.00703633440201
-0.024018030682 0.0143111449852 -0.00458088879565
-0.0260766001465 0.0128508053695 -0.00432202056328
-0.0267401265464 0.0129234156951 -0.00121499113023
-0.0281553438663 0.0173444346706 -0.0191978995566
-0.0272139235483 0.0190143309971 -0.0151512989776
-0.0267811194106 0.0196767589888 -0.0102755268596
-0.0269218343144 0.0194657487895 -0.0074773975247
-0.0262811356744 0.0204267968277 -0.00333750219865
-0.0274843109635 0.0186220338039 -0.0126390479539
-0.0276956949428 0.0183049573732 -0.00224859746891
-0.0257189822236 0.0209735034264 -0.0145906089095
-0.0253291385234 0.0212731378087 -0.02404873511
-0.0265995528672 0.0197007330693 -0.0203876324188
-0.0273360326229 0.018540649973 -0.0225861005221
-0.0265478232149 0.019485485712 -0.0262326678394
-0.0229588761431 0.0143944386072 -0.00925565326466
-0.0243274865429 0.0130266447592 -0.0109968993146
-0.0240478314072 0.0129455112628 -0.0136451441376
-0.0262984754049 0.0107351741209 -0.0169420409276
-0.0237293627169 0.0129103717611 -0.0188297601039
-0.0237151000706 0.0129224475547 -0.016266277374
-0.0226326135075 0.0212465316282 -0.0263149999082
-0.023674355101 0.0164108608607 -0.0263149999082
-0.0265841265771 0.0143111993142 0.0133079682233
-0.0239368001174 0.0183878161093 0.0217431229813
-0.0228580529 0.0199544550396 0.0191164413684
-0.0237665108535 0.018495592124 0.012377256218
-0.0229089659329 0.0198325662584 0.0161643778112
-0.022872430515 0.0197426435178 0.00690278951345
-0.0247142646543 0.0171934653679 0.0194497889507
-0.0239395063482 0.018190287909 0.00932997402378
-0.0256276941345 0.0156750521779 0.0093656087294
-0.0227009927673 0.0199149349149 0.00156592966763
-0.0230133279865 0.0197948686197 0.0237231763203
-0.0241870799305 0.017909777101 0.0150030321186
-0.0223680008203 0.0225227768267 0.0128329649297
-0.0223680008203 0.0218443992654 0.00795457640551
-0.0223680008203 0.0225671884887 0.0280283597106
-0.0223680008203 0.0224219247011 0.0159220803533
-0.0260054608998 0.0205174477586 0.00042507821665
-0.0282749999315 0.0170284329499 0.0267336243254
-0.0260753848046 0.0195500903442 0.0306579992175
-0.0258230827797 0.017010045509 0.0306579992175
-0.0273860419396 0.0191376633297 0.0219606562771
-0.0276230367168 0.0187021369184 0.0107752242106
-0.0281442537234 0.0180123626717 0.0242129918882
-0.0274046200096 0.0190502294397 0.0135218306793
-0.026936354657 0.0198520648176 0.0272935659539
-0.0277708479728 0.0184220845565 0.00260437895148
-0.0264232084931 0.0203482347072 0.00489652218291
-0.0260322710036 0.0210202118935 0.0132077377034
-0.0259440681681 0.0213197299059 0.0248217280577
-0.026122468299 0.0209562195992 0.0172850515378
-0.025905276274 0.0211433586384 0.00964301829713
-0.0271134100049 0.0194171791608 0.00703452131323
-0.0252942564311 0.0220302979798 0.0214086882612
-0.0228208390499 0.0243162955152 0.0180897918697
-0.0224575740132 0.0242037068176 0.00310170892098
-0.0246888986454 0.022297507635 0.0036004750184
-0.0246910130498 0.0224460483032 0.00684306207344
-0.0239908378453 0.0227735969607 0.000604749592883
-0.023713357729 0.0236868095502 0.0204381091715
-0.0254242011655 0.0219759122279 0.0281727427997
-0.0282749999315 0.0176531676163 0.0290504086187
-0.0282749999315 0.0175358880686 0.0155358057855
-0.0282749999315 0.017477231723 0.0190742573097
-0.0282749999315 0.0156411172407 0.00309968369028
-0.0278556453234 0.0127479836337 0.0271220158122
-0.0237612292453 0.0187567431842 0.0269437460154
-0.0273258242924 0.0133423858723 0.0190661977369
-0.0264005340379 0.014846238621 0.0255387950599
-0.0255870554035 0.0160901902621 0.0277116843759
-0.0248096743261 0.0171626603699 0.0245560122641
-0.0274562063217 0.0132372332002 0.0229575825018
-0.026100219783 0.0150745572258 0.0159509024491
-0.0253365232964 0.01605268188 0.00490928413912
-0.0252373680511 0.0161975913573 0.00184441776529
-0.0277946709125 0.0124602457441 0.0026249940661
-0.0238770094386 0.018185674337 0.00267622142501
-0.0267737036453 0.0139523285142 0.00645800639399
-0.0104532916798 0.0254167167135 -0.0263149999082
-0.0125756219862 0.0236977447315 -0.0263149999082
-0.0114850044312 0.0208905045331 -0.0263149999082
-0.0127648196188 0.0265955638512 -0.0263149999082
-0.00978824322296 0.0229344728943 -0.0263149999082
-0.0148752683479 0.0219501873701 -0.0263149999082
-0.0223670005798 0.0174419808643 -0.0184939898788
-0.0223670005798 0.0217169159397 -0.0234371954494
-0.0223670005798 0.0170762648155 -0.00506478058905
-0.0223670005798 0.019178715919 -0.0107864286465
-0.0223670005798 0.0177584012534 -0.00809506443646
-0.0223670005798 0.0149777947196 -0.0173988938678
-0.0223670005798 0.016478708971 -0.010543650604
-0.0223670005798 0.0199025028989 -0.00647975430802
-0.00656630178333 0.0294764267609 -0.0263149999082
-0.00548799987882 0.0268159735088 -0.00613610620026
-0.00548799987882 0.0236731527906 -0.0132282456438
-0.00548799987882 0.029224584566 -0.0109996657709
-0.00548799987882 0.0246059076341 -0.00787061992404
-0.00548799987882 0.0263313029084 -0.0126959104905
-0.0132954060675 0.0295672840994 -0.0263149999082
-0.0223670005798 0.017071091381 -0.0215212569398
-0.0198088073403 0.0226876496326 -0.0263149999082
-0.00732239794212 0.0311253451464 0.00027200000477
-0.0121842705734 0.0186649981816 -0.021543264834
-0.0125511485589 0.0182768861023 -0.0187302711141
-0.00579446759756 0.0211129050634 -0.0159457739009
-0.00977839968673 0.0196505371675 -0.0202442402839
-0.0134298357896 0.0183018865594 -0.0240784834646
-0.017296186076 0.0161705315949 -0.0192336169376
-0.00767275095135 0.0205634278424 -0.0197445997844
-0.0102986830075 0.0191397626712 -0.016756677671
-0.0100554781349 0.0198220543265 -0.0240024636779
-0.0148229760425 0.0175161019794 -0.0221073261271
-0.0204941776982 0.0148239783409 -0.0146688950064
-0.00548799987882 0.0298150440005 -0.0214508014776
-0.00548799987882 0.0263852181264 -0.025769968022
-0.0185259286205 0.0220768383101 0.000111681652847
-0.0155744965739 0.0228674284699 -0.000263776390797
-0.00763841400364 0.0281758892228 -3.71880279213e-05
-0.00756798511735 0.0261043818577 -0.00182158875453
-0.00673655370567 0.0240088715313 -0.00408834350883
-0.0108879672697 0.0258870830797 1.20141041123e-05
-0.00830808137493 0.0200072422486 -0.0145719313173
-0.0131011358415 0.0179171254077 -0.0153805320256
-0.0158313021127 0.0167265763451 -0.0174669549229
-0.00630763301563 0.0208795817629 -0.0129050058309
-0.00684904192537 0.0213980983076 -0.00853107459
-0.0091290887157 0.0203082112006 -0.0089144901467
-0.0198073997608 0.014994732486 -0.0180804765461
-0.0104594250801 0.0191037851706 -0.0125750452574
-0.0152657962847 0.0170477537264 -0.0133357352893
-0.0180050295951 0.0158182807253 -0.0158764716551
-0.0148791798773 0.0177263508056 -0.00937897855854
-0.0121528922812 0.0188274629681 -0.00958444180001
-0.0177930819747 0.0167197183613 -0.0082781675379
-0.0182626335794 0.0158951553869 -0.011528998726
-0.00846940142801 0.02000571685 -0.0114637546511
-0.0206677885653 0.0154935265046 -0.00839864703767
-0.0192548267205 0.018809796156 -0.00244533785855
-0.0147363878572 0.0186790440775 -0.00614610012141
-0.0123363822078 0.0195315477471 -0.00675528863175
-0.0188389320157 0.0169935535438 -0.00573097280435
-0.00962279683423 0.0212346922943 -0.00596427305323
-0.016375633298 0.0188677093258 -0.0041084521558
-0.0071881107277 0.022362589427 -0.00614520308579
-0.0109170596327 0.0229253992663 -0.0028075854065
-0.0164276439029 0.0207941419452 -0.00192683082042
-0.0136044397572 0.0204143948048 -0.00397253936121
-0.0129179645156 0.0239625882074 -0.000525562699672
-0.0171429088191 0.016570497171 -0.0225393702672
-0.020095008521 0.0151415510397 -0.0209612454224
-0.0195642312863 0.0159067628563 -0.0235262954911
-0.0172669941053 0.0172830828934 -0.024841317422
-0.0116956045415 0.0309785432095 -0.0127443281445
-0.0117200034072 0.030940683682 -0.0154794120816
-0.0102107226211 0.0315123326764 -0.00932321519568
-0.0108593039587 0.031155637235 -0.0221949157821
-0.0143587348827 0.0298217987901 -0.00541416171068
-0.0128372817267 0.030404021811 -0.000323436118232
-0.0123877393536 0.0307303385006 -0.00714340318763
-0.0156717553654 0.02915417371 -0.000896559169142
-0.0127702694335 0.0304787527228 -0.00274754920231
-0.0131592572986 0.0303178403725 -0.0214557668002
-0.0110806340154 0.0310155111111 -0.0252723405039
-0.011970787786 0.0308217787348 -0.0181114961115
-0.0135350690739 0.0301197688623 -0.0238116096616
-0.0156152641092 0.028741596552 -0.02623853576
-0.0174838198242 0.0281514601534 -0.0139434815124
-0.0173063418603 0.0283308822057 -0.00703503297667
-0.0178503055012 0.0278591370288 -0.0204707369121
-0.0187352858571 0.0271804296074 -0.0234617727819
-0.016185407096 0.0289118668113 -0.00939102065019
-0.0169848077895 0.028535270738 -0.00427260978351
-0.0153204417447 0.0292802350507 -0.0194744506231
-0.0165439252934 0.0285994231388 -0.0237757178612
-0.0151831619016 0.0293869346971 -0.0154698094301
-0.0155753031844 0.0292096731709 -0.0120903495476
-0.0198995176368 0.0264911623933 -0.000798033708813
-0.0218149313427 0.0250524235912 -0.0112683147165
-0.0220512852334 0.0248990592237 -0.00404572727376
-0.0219780556856 0.0248157001219 -0.0145682564913
-0.0211299507792 0.0257258273541 -0.00667790622473
-0.0194797007797 0.0268497185845 -0.011086833673
-0.0197601257228 0.0266399266913 -0.0146756931663
-0.01869351148 0.0273668874716 -0.0173983569031
-0.0180728825 0.0278654634371 -0.00155220772046
-0.0188870817371 0.0272872394521 -0.00484707309668
-0.0222290568532 0.0243335511112 -0.0253271998107
-0.0202749199791 0.0261419917318 -0.0191713234512
-0.0206435847642 0.0257587607439 -0.021796610545
-0.0217446411419 0.0249650934032 -0.0174222303115
-0.00682153767784 0.0322070010006 -0.00880986045235
-0.00694122128344 0.0322070010006 -0.0169250957956
-0.00704133582992 0.0322070010006 -0.00510471677679
-0.00890219556022 0.03184743055 -0.0121758362184
-0.00909226160456 0.0317572561082 -0.0152201778081
-0.00839561880273 0.0317548722215 -0.0254692314742
-0.00940839479747 0.0316339660966 -0.0185670912558
-0.0075445631685 0.0319850353821 -0.0230018076502
-0.00940572519803 0.0318240609878 -0.00313067863787
-0.00876830419468 0.0319457270707 -0.00707725490727
-0.0059858041036 0.0237980542982 -0.0241736196513
-0.00742043977301 0.0214030156071 -0.02277263643
0.00295399990864 0.0319430160272 -0.00281682896501
-0.00419512283885 0.0217499979239 -0.0174270839757
-0.00548599986359 0.0295693986711 -0.00640577251874
-0.00548599986359 0.0315229520191 -0.0195865219282
-0.00548599986359 0.0270758239531 -0.0155727713017
-0.00548599986359 0.0282846675178 -0.00415674984269
-0.00548599986359 0.0298861066264 -0.0165602806219
-0.00548599986359 0.0275398313445 -0.0193084452982
-0.00548599986359 0.024090723106 -0.0161884179219
-0.00548599986359 0.02653698319 -0.0100744898384
-0.00548599986359 0.028687453838 -0.0139210636925
0.00295399990864 0.0246553219353 -0.0160720332954
0.00295399990864 0.0267343621277 -0.0205728632606
0.00295399990864 0.0245854520919 -0.0184842332354
0.00295399990864 0.0267290874931 -0.0141990417453
-0.00548599986359 0.0235251054761 -0.0103791869251
-0.00548599986359 0.0322989550523 -0.0138051152315
-0.00548599986359 0.0304375128278 -0.00228707013305
0.00295399990864 0.029363183072 -0.0234220627351
0.00295399990864 0.0278511277018 -0.00603675799928
0.00295399990864 0.0283030621547 -0.0109750581539
0.00295399990864 0.0312882709357 -0.017157277989
0.00295399990864 0.0311531282108 -0.0209065382588
0.00295399990864 0.0306386893424 -0.0123934055208
0.00295399990864 0.0308336922126 -0.0047917869276
-0.00512985799958 0.032363419659 -0.0220696334179
-0.00521274164054 0.0322964276318 -0.0249848516845
-0.00293110888973 0.0224387861503 -0.0080608194428
0.00207055340421 0.0226104195346 -0.00875787386178
-0.00148668123923 0.0240841985257 -0.0054087680842
-0.00392080165953 0.0271453571712 -0.00224402725088
-0.000151592153366 0.0294864222331 -0.000456506942374
-0.00100806277021 0.0261666512856 -0.00335453167689
-0.00440288050354 0.0250247287097 -0.00403477309115
0.00236385270697 0.0250716498795 -0.004770053496
0.0018330475369 0.0284141973484 -0.00157336520392
-0.00548599986359 0.0284492497126 -0.0242658038142
-0.00548599986359 0.0265481831398 -0.0227107137267
0.00209602361619 0.0303950555584 -0.0263149999082
0.000823317949516 0.0226238258358 -0.0186022515418
-0.00523756873827 0.0228467761971 -0.0206207435975
-0.00361325941939 0.0243720771996 -0.0233480972339
-0.000503223171539 0.0235780115993 -0.0211366496816
0.00138695006638 0.0256709178553 -0.0237815996337
-0.00101320740284 0.021881228414 -0.0163115115146
-0.00255009674766 0.0217963870836 -0.0136753530563
0.00105255933092 0.0219816863144 -0.0140362193237
-0.00125135291541 0.0218780139693 -0.0100064108598
0.00122422458763 0.0328493589821 -0.012851935471
0.000263004616743 0.0328904612085 -0.0105325427706
0.00165474606953 0.0328046375707 -0.0155603489728
0.00276112305743 0.0326466387772 -0.0252535743532
0.00102263385256 0.032967313061 -0.00542794812038
-7.52338248443e-05 0.0330106640212 -0.0030069031902
-0.000248061308179 0.0327106881562 -0.0214252219527
-0.00277414030839 0.0326841484466 -0.0230138288046
0.00190522187233 0.032689065417 -0.0227195101014
0.00138191881528 0.0327426913463 -0.0195095835457
-0.00280164496044 0.0328212186226 -0.0148091188097
-0.0021204763766 0.0326298652029 -0.0262631007074
-0.00213907886487 0.0328620659756 -0.0123640888663
-0.00300693922981 0.0327279348825 -0.0203928720152
-0.00145661954609 0.0329795007197 -0.00533471131504
-0.00190169892885 0.0329230788457 -0.00871199678163
-0.0016715230628 0.0327714320815 -0.0177892282923
-0.00494260086151 0.0326927946212 -0.000458347128173
-0.00267351228457 0.0329699407781 -0.00218903433837
-0.00417872420132 0.032654882037 -0.0171421390464
-0.00447001810745 0.0326676941612 -0.0109819019125
-0.00720446647967 0.032439397744 0.0084258678711
-0.00730008416978 0.032387509478 0.0058635223741
-0.00917277527963 0.0320468253705 0.0121749472064
-0.00919260170432 0.0319463564408 0.00414139773281
-0.00931499975992 0.0321541346754 0.0237920989019
0.00238714586357 0.0330520011485 0.0111573768174
0.000690779589429 0.0330520011485 0.0247512592534
-0.00162203689953 0.0330520011485 0.0233523205474
-0.000930021913658 0.0330520011485 0.0270942918966
-0.000113578880169 0.0330520011485 0.0190598402758
-0.00408505960327 0.0330520011485 0.0303932918349
0.0016905787178 0.0330520011485 0.0221790899969
0.000896198050608 0.0330520011485 0.0154484845267
0.00102889615402 0.0330520011485 0.00654133210167
0.000484420976771 0.0330520011485 0.00914251914327
0.000223410015061 0.0319661282792 0.00027200000477
-0.00688873054931 0.032013288079 0.0306579992175
0.0018658309628 0.0306867176687 0.029064067159
-0.000706541663639 0.03023287045 0.0275777737934
-0.00489789794077 0.0294547379191 0.00130119839258
-0.000339787656593 0.0300666471858 0.0183967610949
-0.00603680426251 0.0292807876365 0.00650796065974
-0.00662050059249 0.0292002712247 0.00392878314279
0.00237895795175 0.0304416771965 0.0013220254876
0.00289792197233 0.0305132642849 0.0226043277958
-0.00279729727641 0.0297276526671 0.0137979985976
0.00165167898582 0.0303413546663 0.00426640833466
0.00248867552285 0.0304568118901 0.016152229659
0.000771656899216 0.0302199623994 0.0115600637044
-0.00496644787577 0.0294284350537 0.00918653523935
0.00167988846033 0.030345245946 0.00806315973378
-0.000338891712498 0.0300667707744 0.00582572699734
-0.00342917429931 0.0296404901 0.00402036698419
-0.00134569224923 0.029927890397 0.00864650182393
-3.57572782983e-05 0.0301085858342 0.0152140745828
-0.00677135536085 0.0292975276888 0.0147973661742
-0.00454677540506 0.0295018286033 0.0119139954958
-0.0083483415213 0.0291905568884 0.0193777378229
0.000504279193745 0.0302393846623 0.0237034630195
-0.000464611667379 0.0300925454959 0.021082792076
-0.00802739537503 0.0290573346652 0.0080610524526
-0.00291988456227 0.0297976139893 0.0196124206095
-0.00566189428414 0.0295448686339 0.0231044961069
-0.00228923646357 0.0298193484476 0.0163707565194
-0.00657061991667 0.0294779551991 0.0253906506073
-0.00260445863562 0.0298909712586 0.0235176506007
-0.00576429660436 0.029465780225 0.0185684067891
-0.00700272604698 0.0294738630855 0.0283353560045
-0.0040870701549 0.0297877114774 0.0276436375659
-0.0101290000603 0.0304576036808 0.0172663044958
-0.00936625994594 0.0292033311207 0.027196133076
-0.00994957567245 0.0290064389493 0.0132083250973
-0.0100722320472 0.0315203858744 0.00745460286157
-0.0039214132212 0.0330520011485 0.0218160792258
-0.00270567837914 0.0330520011485 0.00699002179788
-0.00243026383588 0.0330520011485 0.00340284001149
-0.00327738039474 0.0330520011485 0.00932708614091
-0.00223151246675 0.0330520011485 0.000988232608506
-0.001280209296 0.0330520011485 0.0134506918641
0.000410319839924 0.0330520011485 0.00279828600609
-0.00436026071026 0.0330520011485 0.0249461612354
-0.00384690041753 0.0330464094459 0.0133361281622
-0.00481927459773 0.0328248604701 0.00510670197335
-0.00485671949043 0.0327844935463 0.00216903731829
-0.00456710517114 0.0329864525606 0.0158136654832
-0.0048583461147 0.0329905343069 0.0191475320632
0.00295399990864 0.0330291620973 0.019919673231
0.00290719096105 0.0330520011485 0.0270335389332
-0.00867316630516 0.0323294056929 0.0283946222563
-0.00636956120598 0.0326544619299 0.0115534249584
-0.00794950023404 0.0324094820725 0.0200480573738
-0.00759045442151 0.0324512739674 0.0168456691359
-0.00713795706723 0.0326414919494 0.0254142170453
-0.00627498753442 0.0328520756141 0.0278097535908
-0.00654556607591 0.0327340881176 0.0222971944191
0.0181592958371 -0.0213219396208 -0.0215257231339
0.0289467754767 -0.0104160001501 -0.00980477287592
0.0207605210976 -0.0211808059414 -0.00732799991965
0.0255465067196 -0.0178845968843 -0.0263119991869
0.0235049357341 -0.0150722048736 -0.0263119991869
0.0268429169032 -0.0127544201276 -0.0263119991869
0.0231686577845 -0.020332526755 -0.0263119991869
0.0237254831072 -0.0190506882429 -0.00732799991965
0.0292496747601 -0.0130851247423 -0.00732799991965
0.0235331596971 -0.0231763072333 -0.00942128175002
0.0232493476778 -0.0233476078105 -0.0134319876494
0.0237115084024 -0.0228692984437 -0.0170922951949
0.0191923816185 -0.0234990008175 -0.0239856832093
0.021006940228 -0.0234990008175 -0.0222406788674
0.0204699814617 -0.0208588884502 -0.0263119991869
0.0282444184381 -0.0104160001501 -0.0238137900469
0.0289043066339 -0.0104160001501 -0.0163943982099
0.0260286789329 -0.0201917286808 -0.0081454968233
0.0259830883071 -0.0203269808315 -0.0109619520275
0.0247442204242 -0.0218967309754 -0.0145709159325
0.030754442074 -0.0110017917823 -0.0234152651002
0.0309208427081 -0.010480438805 -0.0206246841217
0.026247385577 -0.0111479816476 -0.0149979501525
0.0253824392275 -0.0114814461911 -0.0172943984535
0.0235035099054 -0.0129178779811 -0.0233572589488
0.0250326156947 -0.0117608128309 -0.0207093773032
0.0253268504212 -0.0117630601784 -0.0240546417876
0.0206469613853 -0.0149390589417 -0.0258981069832
0.0238044905187 -0.0165727372748 -0.00740380880634
0.0268879907621 -0.0119456619445 -0.00779216797471
0.0250265752919 -0.0140425163775 -0.00832447783412
0.0226495339111 -0.0155785588958 -0.0114498755383
0.0214271066111 -0.0175183472001 -0.0105939548003
0.0208358001421 -0.0166955903308 -0.0139524457254
0.0231301413957 -0.0141038035024 -0.0138098262313
0.0254392741328 -0.0125976812181 -0.0104647531826
0.0206421381192 -0.0154078765263 -0.0194038333575
0.0195850850084 -0.0162526502802 -0.0214618816707
0.021022646781 -0.0157387796671 -0.0161932638027
0.0250014482517 -0.012325002704 -0.012941028291
0.0231039291044 -0.0131271400074 -0.0187486917353
0.0306921082379 -0.0120571816715 -0.0149421714417
0.0194211382974 -0.0182735920276 -0.0165477968366
0.0193362781784 -0.0173935309557 -0.0192355098174
0.0189346325724 -0.0206593250015 -0.0133814133884
0.018939087922 -0.0226896315255 -0.00875981562583
0.0197268388394 -0.0202918775812 -0.0101973727259
0.0287052642826 -0.0162816348102 -0.0192855864054
0.0281073262246 -0.0173587733017 -0.0167469555714
0.0283700467052 -0.0167853323962 -0.0221887831663
0.0289682100415 -0.0155985500787 -0.0244168014504
0.0294151794177 -0.014887730373 -0.00949644148848
0.0295640902873 -0.0145908937027 -0.0130972156912
0.0299787653167 -0.0136933994712 -0.01764526176
0.0303416381564 -0.0128097435779 -0.019778596541
0.0298139337437 -0.0139349629532 -0.0223408473587
0.030746999589 -0.0121761714058 -0.00963123478231
0.0302043739251 -0.0129671576042 -0.0252394139663
0.0243326300508 -0.0220291055238 -0.0248159577955
0.0243250330104 -0.0222281327794 -0.0209911844281
0.0252465667277 -0.0213400044931 -0.018008307485
0.0268384375635 -0.0192449034209 -0.0153164848943
0.0269424902245 -0.0189622502139 -0.021548461221
0.0277880657326 -0.0180619011763 -0.00903366696389
0.0277231982235 -0.0180830638369 -0.0120628404747
0.0267532693445 -0.0191710751823 -0.0240316721493
0.027914902306 -0.0168332964435 -0.0262600016638
0.0184414195401 -0.0222358994827 -0.0262676371684
0.0181588387569 -0.0226693602099 -0.0190399085035
0.0184257038698 -0.0203531498334 -0.0187611015012
0.0182662108186 -0.0194986514372 -0.0236801976415
0.028079088398 -0.000288000010187 -0.00550828177026
0.0322039460282 -0.000288000010187 -0.00886337710856
0.0291962368851 -0.000288000010187 -0.00268476434504
0.0315465334295 -0.000288000010187 -0.0167154466412
0.0288596160223 -0.0104160001501 -0.0132670123473
0.030510624915 -0.0104160001501 -0.0053811213688
0.0279667497301 -0.000658216306776 -0.0263149999082
0.0269857394686 -0.00334621176413 -0.0263149999082
0.029437450606 -0.00500053963136 -0.0263149999082
0.0273559979349 -0.000288000010187 -0.00896180419979
0.0292977517783 -0.000288000010187 -0.0157455530899
0.0251345276632 -0.000288000010187 -0.0127046966063
0.0300641337901 -0.000288000010187 -0.0199543004946
0.0273984251312 -0.00246028111771 -0.00146511386637
0.029755367457 -0.00536328514513 0.00111599999946
0.0319892064922 -0.00781904989603 -0.0163398999646
0.0321062926561 -0.00701289935187 -0.0205915868844
0.0324864024784 -0.00586877571921 -0.0113018302366
0.0324360124162 -0.00650729478435 -0.00490083486109
0.0251162816836 -0.0028695786922 -0.0238558984102
0.0258141819709 -0.00538233572367 -0.0238606118311
0.0258049109971 -0.00626681310976 -0.0210189531149
0.0327044446878 -0.00112857332258 -0.0188177398817
0.0328772569068 -0.000881832887609 -0.00580792950324
0.0327220902213 -0.00404487254227 -0.00477856358159
0.0328998060465 -0.00254939825684 -0.0132015541342
0.0326265338673 -0.00502769607329 -0.00153636803166
0.0328013774758 -0.00226476452067 -0.000523514128841
0.0326009030393 -0.00520962279644 -0.00828248097371
0.0328036029941 -0.00352022595747 -0.0102942907327
0.0250394225017 -0.00400235171254 -0.019260890431
0.0250491514826 -0.00416114918139 -0.0168350321516
0.0241503246918 -0.00105515685179 -0.0182024929742
0.0282206346587 -0.0104160001501 -0.0210832131764
0.0265984700166 -0.00840160321109 -0.0226877491977
0.0247664678902 -0.000689257661196 -0.00852310070456
0.0274288083613 -0.00507705858378 -0.00137856048605
0.0246738488217 -0.00192525820609 -0.0108286567554
0.0257739436956 -0.00415999153 -0.00719173561776
0.0254942381767 -0.00439511398103 -0.010121403402
0.0267775286248 -0.00863250265366 -0.0147549823354
0.0264272123058 -0.00672792450142 -0.00888077660441
0.0245712190499 -0.00264731326177 -0.0136733731255
0.0263766102706 -0.00824306198101 -0.0187304996075
0.0274980437237 -0.00901798753685 -0.00573151325791
0.025714717109 -0.00572869012181 -0.0141104977186
0.0267193763008 -0.0080645852774 -0.0122753993206
0.0263802316725 -0.00509359821631 -0.00469304296566
0.0283631011165 -0.0096780559985 0.000221322073888
0.0274219285089 -0.00795762315156 -0.0030097797126
0.0314613915187 -0.0101840418324 0.000418388995829
0.0314541032099 -0.00951730357765 -0.0181411735733
0.0317245790338 -0.00861895084552 -0.0223813493727
0.0316777026186 -0.00936415188982 -0.0109224906874
0.0319648115996 -0.00830754060784 -0.00861535548354
0.0318295296621 -0.00861126773384 -0.0137145515358
0.0323054047532 -0.00378210946733 -0.0261552445013
0.0322452546426 -0.00601462784437 -0.0238577327143
0.0325684541799 -0.00256247438376 -0.0240216070586
0.032649581871 -0.0041355484155 -0.0182306752925
0.0328279752975 -0.00296041456246 -0.0156425084688
0.032577757875 -0.00442589884044 -0.0208283762353
0.0300755219673 -0.000288000010187 -0.0246750522394
0.032247569399 -0.00925312394466 0.0218675172476
0.0318190548492 -0.00999103422232 0.0101458747519
0.0327859657747 -0.00784390574953 0.0290424284476
0.0319184611408 -0.00948969400006 0.00769272138166
0.0291097449106 -0.0104160001501 0.0131408703301
0.0316984522488 -0.0104160001501 0.024833619319
0.0308439898725 -0.00795423339203 0.0306550003588
0.0332733575338 -0.0019372177055 0.0118116401438
0.0330734270562 -0.000862274311972 0.00705846589884
0.0332431096187 -0.000765093001329 0.0197713013227
0.0329927016363 -0.000288000010187 0.0248879688169
0.0328220558755 -0.000288000010187 0.00982137716969
0.0327923662097 -0.0046575175358 0.00462980983863
0.0330266885052 -0.0038005573788 0.0081555579533
0.0333399996161 -0.0022948214512 0.0150659199426
0.0333399996161 -0.00100196505622 0.0278133723378
0.0333399996161 -0.00318530028173 0.021281266051
0.0333399996161 -0.00284226492292 0.0183501943418
0.033269508455 -0.00505911359728 0.0279217687123
0.0330191811933 -0.0045031558298 0.010947624773
0.0332936058972 -0.00443511662588 0.0247018402874
0.0329332689344 -0.00545564699903 0.0133130137835
0.0288820277903 -0.00903055485828 0.00618094649664
0.0292778846195 -0.00684274472903 0.00280770107099
0.0300475328661 -0.00225111918879 0.00233484488641
0.0297608240537 -0.00638655936776 0.0281167458191
0.0291922275965 -0.00819572129441 0.0168099078831
0.0294056301172 -0.00766009944563 0.0221543207547
0.0301001142574 -0.0037737088134 0.023092153983
0.029668384724 -0.00653203508197 0.0251373276769
0.0297528832045 -0.00540033892975 0.0201933632981
0.0305027792859 -0.00173929315621 0.0253167111698
0.0303125486067 -0.00317785411788 0.0279312392095
0.0299640418297 -0.00330921872723 0.00999955158232
0.0305769939209 -0.00109846348143 0.0226614325163
0.0296461865161 -0.0051730099067 0.0118545216652
0.0291283823845 -0.00796525880869 0.0120124761822
0.0297870213611 -0.00484781023899 0.0169090643787
0.0296240701329 -0.005495719788 0.0142494698527
0.0294578541773 -0.00584094011377 0.00783104930517
0.0296008685917 -0.00487882498636 0.00554636649435
0.0302805952269 -0.00241268712639 0.0194168894933
0.0302474110548 -0.00238850267676 0.0170425462958
0.0303491134019 -0.00137038824188 0.0114980367248
0.0303797813307 -0.000897532987441 0.00787929247115
0.0307171192289 -0.00246822688266 0.030244189762
0.0318780774772 -0.00727249738375 0.00111599999946
0.0325317249167 -0.00495782986597 0.00152807293217
0.0323974142128 -0.00805423984918 0.0116824536737
0.0319666585431 -0.00901090597142 0.00316955466105
0.0324337269082 -0.00747798348779 0.00513866608568
0.0324858524348 -0.00818033157346 0.0181554071531
0.0328840404626 -0.00727016915835 0.0264711899621
0.0330036040474 -0.00581027153181 0.0195934465549
0.0328214017489 -0.00648059790883 0.0154260758207
0.0330665259804 -0.00573633778613 0.0225173944337
0.0326301471508 -0.00694256711156 0.00877430574795
0.0298853081939 -0.000288000010187 -0.00995982066637
0.0277044268628 -0.000288000010187 -0.0232723946641
0.0303101376943 -0.000288000010187 -0.000360951791326
0.0302301329621 -0.000288000010187 -0.00720527942465
0.0282587818139 -0.000288000010187 -0.0135128499163
0.0229003204952 0.0077309999615 -0.0105044994772
0.0266291418254 0.0077309999615 -0.0147698341278
0.0288006602735 0.0077309999615 -0.00239462287196
0.0251191133577 0.0077309999615 -0.00875124048256
0.0237712591377 0.0077309999615 -0.017809925942
0.0248172966895 0.0077309999615 -0.0122711636384
0.0267815804265 -0.000288000010187 -0.0185083176403
0.0318319698354 -0.000288000010187 -0.0117621843903
0.0258474508067 0.00496415074761 -0.024418878892
0.0243295603749 0.00591265922514 -0.0223308167346
0.0252035569658 0.00179550823702 -0.0239653418184
0.0296576247757 0.0077309999615 -0.00481388808907
0.0291964519326 0.0077309999615 -0.016752041805
0.027314773183 0.0077309999615 -0.0247611323102
0.028274959118 0.0077309999615 -0.0197034737334
0.0260747928685 -0.000288000010187 -0.0155423745143
0.0329170003533 0.0032437258654 0.00171198019558
0.0329170003533 0.000781328483769 -0.0144162868287
0.0329170003533 0.00163570112365 -0.00248116590781
0.0329170003533 0.00168248817056 -0.00533480967375
0.0329170003533 0.000425777459318 0.000465664644112
0.0308256523514 0.0024616969496 -0.0263149999082
0.0321223421368 0.0069492924033 -0.0208019031415
0.0321558073646 0.00727640905866 -0.00741114050701
0.0317093571956 0.00767098663166 -0.0243260990659
0.0315730097456 0.0077309999615 -0.0119923638828
0.0281569061722 0.00194376958398 -2.50106630368e-05
0.0288470088873 0.00701257338149 0.00142498317152
0.0252400371695 0.00423972872315 -0.00415697545001
0.026302619374 0.0053423577673 -0.00225953968357
0.026584629974 0.00252518541068 -0.00233733766448
0.0286101648562 0.00393016963051 0.0011493434469
0.0326249438096 0.00603476997393 0.00147953927572
0.0325352715182 0.00508726164361 -0.018407583843
0.0325606402406 0.0061171802283 -0.00257352674614
0.0326005488369 0.00491825570478 -0.0154366807368
0.0326343568387 0.00546672211547 -0.00537655552693
0.0324552808945 0.00507123664049 -0.0245716443256
0.0323971980785 0.00647483198054 -0.0097247259323
0.0327091770746 0.00437576014625 -0.0124348977677
0.0328802311721 0.00427218056752 -0.000667119894217
0.032667842296 0.0033679152646 -0.020444283693
0.0328847391149 0.00230108062092 -0.0102014356557
0.0327532293165 0.00268748753052 -0.0177144695375
0.0326017755005 0.00226397567216 -0.0236445038917
0.0327119528968 0.000183493000438 -0.0213098754642
0.023999305781 0.00227179113079 -0.0211963585463
0.0254248848078 -0.000288000010187 -0.0210615025414
0.0224072022487 0.00452547628699 -0.0161999928316
0.0234616848923 0.00135737392782 -0.0141470525327
0.0232104134643 0.00191688452179 -0.0171799244666
0.0218840772563 0.00649784973973 -0.0130702122202
0.022623498607 0.00404109273614 -0.0137374693171
0.0225775983785 0.00591515364424 -0.0189678198956
0.0233468508027 0.00665068013791 -0.00722279007428
0.0231651875763 0.00258547308676 -0.0114665737565
0.0257801946022 -6.24129712083e-05 -0.00466990946624
0.0228020856865 0.00495914768982 -0.00981298675441
0.024691958214 0.00196479152923 -0.00633567478373
0.0238648092286 0.00256834594568 -0.0086429639275
0.0175467182988 0.0130681730733 -0.0161729502061
0.0190563247801 0.0111301161544 -0.0171542614358
0.0272657132912 0.0157500002533 -0.0151275636112
0.0245794875637 0.0157500002533 -0.0210114733339
0.0229070397688 0.0157500002533 -0.019345049564
0.0186474690371 0.0157500002533 -0.0155165169714
0.0263415961485 0.0157500002533 -0.00642410140176
0.0255947990119 0.0157500002533 -0.0100685274456
0.022687186479 0.0157500002533 -0.010177239765
0.0191222301903 0.0157500002533 -0.0103256261538
0.0243977155472 0.0157500002533 -0.0128295739189
0.0224566901006 0.0157500002533 -0.0065466887144
0.0239946053662 0.0157500002533 -0.00429120883377
0.027231169492 0.00773200020194 -0.0105981203687
0.0297081910911 0.00773200020194 -0.00793825191622
0.0317030149821 0.00773200020194 -0.0145317132093
0.0241766938263 0.00773200020194 -0.0147529252205
0.0293797155009 0.00773200020194 -0.02238230837
0.0251932166812 0.00773200020194 -0.0200525575028
0.0291213589993 0.00773200020194 -0.0121687759648
0.0267358685323 0.00773200020194 -0.0175898471166
0.0252124948068 0.00773200020194 -0.00591327982021
0.0205895636484 0.0130715834757 -0.00513760605342
0.0223348743645 0.010441463215 -0.00515103571271
0.0237867454349 0.0106985555058 -0.00282494739979
0.0262051972907 0.00783799628415 -0.00274589345348
0.0294712208891 0.0102925220867 -0.0263149999082
0.0313808241197 0.0100230136977 -0.0220103333734
0.0317682101699 0.00798309967324 -0.0182622062281
0.0264436534808 0.0157500002533 0.000399880946808
0.0240758043416 0.0157201318249 -0.000557803342016
0.0223099291881 0.0128858647166 -0.00299979871669
0.0271470044184 0.00968463307256 0.000891570786779
0.0254655173188 0.0109860494943 -0.000381716319855
0.0240216749514 0.0128601858891 -0.00115628652557
0.0252777109238 0.0157500002533 -0.023554782248
0.0269647574762 0.0130036802148 -0.0263149999082
0.0266875674576 0.0101717214548 -0.0261023675084
0.024561488466 0.0126224113117 -0.0255135476059
0.0310607073131 0.0114356393913 0.00150260330838
0.0308261126703 0.0121713193722 -0.00789560438381
0.0318068096294 0.00934389831508 6.51586290476e-05
0.0312667783862 0.0107031748844 -0.0164178257081
0.030448244674 0.0134154390324 -0.00149403269199
0.0313035364011 0.010651041163 -0.0128238261179
0.0314520195929 0.010250724858 -0.00991865755568
0.0315687107322 0.00996352559756 -0.00595812925498
0.0311937260215 0.0111356855185 -0.00342890303485
0.0228052546523 0.0112844515149 -0.0233850097474
0.0252359300192 0.00866987164379 -0.0240898630629
0.0207255193251 0.013696359735 -0.0227939146052
0.023209603246 0.00847468130179 -0.0221114432532
0.0206433773488 0.0112957584642 -0.00686840149129
0.0187679285505 0.0134083975943 -0.00780106953019
0.0221484551954 0.00878484170497 -0.00726218298604
0.0173842654873 0.0138697546713 -0.0099767105328
0.0209677602226 0.00932193970282 -0.00941055620983
0.0224624219663 0.015696011229 -0.0242790157968
0.0212816985964 0.00928708229468 -0.0192985838647
0.0188257059831 0.0133054358184 -0.0199709007812
0.0205975216124 0.0116571132927 -0.0213257189679
0.0290152019559 0.0155333927078 -0.0191526178298
0.0299000976216 0.0143013755986 -0.00858139080705
0.029182566862 0.0155441323999 -0.00438915711732
0.030488466111 0.0131617018357 -0.00538527612275
0.0303325888121 0.0127814122824 -0.0222619538449
0.0298152600875 0.0138090989261 -0.0251406411236
0.0304999786269 0.0128931761999 -0.0110213530378
0.0307306419497 0.0119903149966 -0.0200552068462
0.0299437854087 0.0139940409446 -0.014209748923
0.0301743014908 0.0133204747026 -0.0179307020226
0.0196078918469 0.0101956945284 -0.0139919783453
0.0204734778203 0.00908332116687 -0.0166486305768
0.0169117450172 0.0136605403141 -0.0131441735447
0.0182969437893 0.011964928517 -0.0120736356288
0.0305952110646 0.00283461099138 0.00238499999978
0.0326444514698 -0.000288000010187 0.0026337761217
0.0302263198356 0.0077309999615 0.0142049835221
0.0295755657735 0.00581710113022 0.00486886491358
0.0298088996444 0.00711497960373 0.0203017269841
0.0297699987323 0.00741418079352 0.0176640601659
0.029622260606 0.00560614823157 0.00801639003932
0.0299284805405 0.00624238815271 0.0234378363301
0.0300226279731 0.0030555099161 0.0137914292062
0.0302409010106 0.00306123714201 0.0211744150777
0.0297173076884 0.00544303887695 0.0131014822066
0.0299407600413 0.00711740320525 0.0273721158308
0.0303863670897 0.00296465314785 0.0256908214032
0.030770902322 7.10133495818e-05 0.027015707927
0.0305289853729 0.00118933910527 0.023357592046
0.0299354269625 0.00459950424495 0.0170626624493
0.029820330059 0.00364784823383 0.00935315441154
0.0303542994586 0.00422273611587 0.0291757559344
0.0305513127241 -7.77923446502e-05 0.0141513190241
0.0297518128734 0.00354596270809 0.0063724228734
0.0301692528559 0.0010915555197 0.00444659747886
0.0301734750858 0.00169869216259 0.0111556878661
0.030419257838 0.0011099302715 0.0191395316897
0.0332897717183 0.00480870626477 0.0248670410009
0.0332014215326 0.00481716233576 0.0202042622274
0.0331690424953 0.0043013007195 0.0154667848456
0.0333399996161 0.00218243097171 0.0260764598204
0.0333399996161 0.00330641335472 0.0285611895637
0.0333399996161 0.00158997450035 0.0232925967101
0.0333399996161 0.00242467896296 0.0198959312
0.0328965829708 0.00569246949828 0.0117357564471
0.0328658214564 0.00489377559218 0.00400259149929
0.032697146935 0.00659129344688 0.00886296389808
0.0326871919745 0.00723902294789 0.0154546925508
0.0332051758142 0.00578876261173 0.0290209977747
0.0333399996161 0.000621240631555 0.015894006347
0.0330491998699 0.00103554592199 0.00500932817907
0.0332276746666 0.00252270713914 0.0108292041852
0.0331353389339 0.00253304646642 0.00754620390432
0.0324339069839 0.00771636310241 0.0255171915372
0.0321431835537 0.00771054095572 0.00564938540385
0.0301012966978 0.0141769012818 0.00343813986344
0.0298252898482 0.0148268116404 0.00650243674283
0.0293590310902 0.0137785177047 0.0306579992175
0.0309323436551 0.0115047024915 0.0306579992175
0.0272844882478 0.0157500002533 0.0093708605781
0.0323283605524 0.00835425011101 0.023250868471
0.0322077542698 0.00875189006377 0.0172617125837
0.0320793133019 0.00989129543134 0.0203321343063
0.0323643610486 0.00848569092969 0.0283397941448
0.0312932469403 0.0124879816432 0.0273050614601
0.0313467097792 0.0119882400529 0.0189779013132
0.031277599695 0.0122800796421 0.0217136933983
0.0308896386312 0.012883448305 0.0136109407979
0.0318197401766 0.0109939757849 0.0242732666747
0.0316873119596 0.0104225477741 0.0114906185495
0.0307988767295 0.0129000577499 0.00902601046468
0.0319530844877 0.00984836683877 0.0144313504533
0.031660811868 0.0101595442453 0.00697079272068
0.0311005053944 0.0116063876564 0.00389027889387
0.0305047040826 0.00773200020194 0.003800178085
0.026531889929 0.0146631385375 0.00472091749265
0.0276373831693 0.0119316983534 0.00296012625702
0.0276225883331 0.0118022300912 0.00563417328677
0.0261763752662 0.0154375803422 0.00694683846738
0.0262228908618 0.015378853929 0.012032325003
0.0296052845469 0.00773200020194 0.0108758205674
0.0275000831728 0.013131166456 0.0285967919211
0.0293503983403 0.00902176150739 0.0293891901159
0.0285517413115 0.0106957050007 0.0276278593494
0.0291851488765 0.00903150219575 0.0242381405707
0.0277956957518 0.0122666262361 0.0257655355638
0.0282162251362 0.0106264164811 0.0117202767483
0.0284488038253 0.00979995711176 0.00429644248887
0.0286380268587 0.00975161424064 0.0146797913513
0.027933775482 0.0111547774226 0.00822711858855
0.0289026589558 0.00884010156408 0.00699199850778
0.0275832854167 0.0125349660446 0.0210670496819
0.0287990876379 0.00962331660681 0.0201677143455
0.0285527015274 0.0100569020251 0.016977691385
0.0271881624857 0.013583119389 0.0235554586705
0.0269082778645 0.0138023816892 0.0140420570189
0.0273968538051 0.01285190328 0.0184131490674
0.0299554438088 0.0150244792725 0.0282053686506
0.0297680729681 0.015352489272 0.0250578378183
0.0302365585373 0.0145323619204 0.0226283352841
0.0297416226106 0.0152641151137 0.0115752753988
0.0303606911047 0.0142280844108 0.0192568096708
0.0299385108207 0.0150118967218 0.0164339678897
0.0196773566228 0.0271429996938 0.0221816607084
0.023032755561 0.0211481617645 0.0306579992175
0.0193000578736 0.023871681365 -0.000571999989916
0.0272133711427 0.0190331957038 -0.000265918335024
0.0232184906394 0.0190684326728 0.0178675486504
0.0255268324919 0.0167275212062 0.0246367499057
0.0211373325822 0.0217434412006 0.0288015560419
0.0230768634186 0.019408174694 0.0233713003738
0.0242254085411 0.0178343241047 0.0143921870941
0.0258016993817 0.0161816747367 0.0173813005353
0.0261906505951 0.0158316816484 0.019863342362
0.0204347204857 0.0224513259259 0.0266010806878
0.0245766655192 0.0176920569965 0.0218794367711
0.02166494252 0.0208606544927 0.0198537139215
0.0240679388565 0.0185004319991 0.0292147689992
0.0245205023174 0.017353647843 0.00978207128165
0.0224863535672 0.0201524544579 0.0260291600587
0.0231233988393 0.0189262634139 -0.000282450796282
0.0204908205835 0.0220245440436 0.0136177478067
0.0217758602168 0.0206225406336 0.0157970345857
0.0223815697636 0.0198669033515 0.0133165636571
0.0193469423445 0.0233934610228 0.0161523086176
0.023302706304 0.0185215428877 0.0022837520391
0.0240472972863 0.01780767971 0.007191236918
0.0196732578047 0.0228633215928 0.0102627445729
0.0203729216854 0.0224285910345 0.0236088860683
0.0212065516294 0.0210326367508 0.00702291270637
0.0230187419424 0.018915399211 0.00491206771978
0.0250503388803 0.0165618096788 0.00328524208724
0.0224476124111 0.0196898185495 0.00954216929572
0.0199722665131 0.0222836689923 0.00139238434767
0.0205635409636 0.0216840337996 0.00407713117795
0.0233661078391 0.0239218326261 0.0299267906726
0.0189919993281 0.0245050267796 0.0255413060292
0.0189919993281 0.0244111255182 0.0283359989808
0.0231254420109 0.024217136737 0.0119403492857
0.022318487056 0.0248775374508 0.00886595974719
0.0223639047957 0.0247891014494 0.00627038162811
0.0247433537848 0.022294150838 0.0014162268586
0.0253593336048 0.0220173581615 0.023478410748
0.0243109025806 0.0229298370502 0.00873520350588
0.0228040113929 0.0245976957333 0.0269749978609
0.0246006705354 0.0228006854617 0.028062831875
0.0235045847071 0.0238972197765 0.0194833528778
0.0232365063784 0.0241652418337 0.0229926398074
0.0238239275848 0.023577927521 0.0158574627716
0.0215005356794 0.0259014639559 0.0249097416638
0.0228131063068 0.0242513067624 0.0019774290578
0.0240557152876 0.0230996038477 0.00473241027803
0.0264270380879 0.0208535972062 0.0282540687989
0.0273069693912 0.0196934408507 0.0254350588448
0.0259707096202 0.0211556595791 0.0169360251654
0.0253125438861 0.0217292431867 0.00649522856311
0.0259233047047 0.0208755329869 0.00366600641209
0.0268859724187 0.0199204167915 0.0139381605174
0.0265547189483 0.0202189497084 0.00931926530146
0.0274906373744 0.0192923794938 0.0193782162657
0.0276535099355 0.0186097181669 0.00236022677321
0.0280123607402 0.0186226949891 0.0216938662597
0.0281272737222 0.0180150002367 0.00675191756721
0.0288964471674 0.0165756476295 0.00134282153418
0.0285682240714 0.0173828276668 0.0105972541146
0.0286850224096 0.0175584157312 0.0258283628405
0.029118286064 0.0162742993802 0.00437665424298
0.0290317921957 0.0166611019505 0.0140072639398
0.0281982792269 0.0184832410365 0.0286996348294
0.0192880641655 0.0267853068016 0.00158447079153
0.0189919993281 0.0267997715929 0.0121049711496
0.0195568597327 0.0271429996938 0.0262606832155
0.0285992478362 0.0157500002533 0.0214324556714
0.0270057944918 0.0157500002533 0.0269416452409
0.0197689183603 0.0270407432435 0.0178460873893
0.0204764743804 0.0263354200516 0.00730428800523
0.0199153270187 0.0268215738292 0.00982184515257
0.0214685476049 0.0255046479132 0.00414566158366
0.0211516212349 0.0259835918659 0.0147641943157
0.0211774160292 0.0260740202787 0.0197233222814
-0.0154136957301 0.0271486180326 0.00364900007844
-0.0184107956812 0.0243777900881 0.00027200000477
-0.021620520575 0.0248011220635 0.000557320021432
-0.0203462074273 0.0219257868305 0.00225907230252
-0.0148976143509 0.0245156946845 0.00160610372781
-0.0170893161226 0.0239379411652 0.00278522057183
-0.0109000630355 0.028064115078 0.00321375648089
-0.0104231149972 0.0312602663289 0.00154540287117
-0.0121074795605 0.0305594276577 0.00355705870663
-0.0139310741241 0.0266398203981 0.00027200000477
-0.0187061471325 0.0274625454049 0.00122286209019
-0.020943314809 0.0259811905472 0.00345113091399
-0.0141146059418 0.0299319960592 0.00217991723673
-0.0164136636787 0.0289548150823 0.00191002342419
-0.0128510975301 0.0306792889958 0.00818039041818
-0.0139698212897 0.0301612488029 0.00576587055218
-0.0124928579594 0.0309594170737 0.0142677955359
-0.0101300003007 0.0315467610138 0.0210220361842
-0.0123931321145 0.0298068727076 0.0306579992175
-0.0101300003007 0.0296252680546 0.0229011627421
