0.0060588597010609695 -0.048935175330242046 -0.012989999726414679
0.011876971385752328 -0.04881209040528789 -0.01298999972641468
0.04773918496176729 -0.04924386141098236 -0.01298999972641468
0.025417562042737117 -0.054492129785566445 -0.01298999972641468
0.015932328709063574 -0.04776331715120652 -0.01298999972641468
0.04158088127780036 -0.05248865045435365 -0.01298999972641468
0.03184867848811654 -0.04907925952164727 -0.01298999972641468
0.051628268920875596 -0.04579661121036163 -0.01298999972641468
0.04959347406517453 -0.05978273857843931 -0.012989999726414679
0.0216220817540411 -0.04724450618125564 -0.01298999972641468
0.027135533267831323 -0.049252237485470446 -0.01298999972641468
0.04711401341318867 -0.055954693153134664 -0.012989999726414682
-0.008049255135794044 -0.05043093685006322 -0.01298999972641468
0.05408287084730132 -0.05424209154294071 -0.01298999972641468
0.018646672394192418 -0.055271225596662824 -0.01298999972641468
0.04150806790239637 -0.058910086954000795 -0.01298999972641468
0.0375050320184886 -0.04811178572402957 -0.01298999972641468
0.035554090784456455 -0.052453757098902515 -0.01298999972641468
0.005949044835097199 -0.05376876200006179 -0.01298999972641468
0.033886885697785994 -0.03517167204873495 -0.012735197007656499
0.017982620007934755 -0.02129036392187746 -0.012326547878127155
-0.012506843869439137 -0.03843930963527017 -0.012680893606116973
-0.009231011274183168 -0.015720723446246053 -0.01210005162419117
-0.017060329025506894 -0.042750397772734636 -0.012779312083158792
-0.01096189488274687 -0.04395045333580231 -0.01282881886621923
0.023053340343760956 -0.03620039563692236 -0.012729424224153355
-0.004835144883857629 -0.04446418305623348 -0.012860566419422351
-0.008981340059169625 -0.007356073009554769 -0.011883323151740477
0.003364270339745701 -0.010390644344173219 -0.011999278937582108
0.020775366259556442 -0.023991958198501945 -0.01240517139300109
-0.016125268523324753 -0.018097957559009628 -0.012141164255991745
0.029223868659375696 -0.026660467245251656 -0.0124999116784198
-0.012683708660071704 -0.03397854539980695 -0.012564384436239398
-0.009338895495100205 -0.019888388187668533 -0.01220808557652007
0.02842205223721507 -0.04001470186309092 -0.01284471016878055
0.0008919009551657704 -0.014202981794445992 -0.01209097699430023
0.0393663539352989 -0.03716559833242236 -0.012803486185070366
-0.01797602483591149 -0.005953418612689547 -0.011819855149233359
0.019768739711626626 -0.03246555283861881 -0.012622460210648988
0.04260121536064641 -0.0415226237071922 -0.01292647741967403
0.0007218314574385324 -0.0481332121970119 -0.012972640328314241
-0.002828163689741453 -0.03772310654749569 -0.012691325233200186
-0.0003696662555260459 -0.041977559278425704 -0.012809319191468571
0.004608939063083496 -0.04463517779152766 -0.012893360680746743
-0.01725601255190889 -0.037613637499409616 -0.012645170769980672
-0.006835542510813253 -0.03177520997081073 -0.012524653039347612
0.011502175802342777 -0.01937621355729035 -0.012257328200282362
-0.008569885199008186 -0.002428552846547428 -0.011756444463577449
0.010815356071605406 -0.04448977378691316 -0.01290821013099555
-0.016534692889203943 -0.0496142957649298 -0.01295934878233415
0.025607266850931086 -0.03138853045447311 -0.012611983615830174
-0.0067281788621747895 -0.024629390915343392 -0.012339186579218606
-0.009401927507060938 -0.028191695861833833 -0.012423779397035442
-0.020410086546586464 -0.02755086552620819 -0.012374074668936934
0.009253470278999339 -0.013376647557948632 -0.012094591658022904
0.010085918832567209 -0.03324303971608407 -0.01261360951093754
0.014660850959356254 -0.030484841185739867 -0.012555629985050047
0.03026328660423238 -0.04474402047961484 -0.012973197621417194
0.03470377553567322 -0.041717207429717296 -0.012907830653944056
-0.011616036625231734 -0.024142623225369916 -0.012311858832001569
-0.01396286060307031 -0.029310845658645012 -0.012439186264185649
0.007455406530291638 -0.01816154824655701 -0.012213600084629031
0.03138202353787907 -0.031077944316708885 -0.012621242668030405
0.01736149836066771 -0.03575076723336473 -0.012700648752645826
-0.014065832936972384 0.0014663222534203788 -0.01163868183120514
0.02325128931192874 -0.04341358745007924 -0.012917558813662768
0.01588208565491947 -0.04165892094909322 -0.01284981785551962
0.00047353981888484387 -0.0195560098789231 -0.012228898005295221
-0.004495171044152854 -0.006724121271365013 -0.011880358839016654
0.011547780252950677 -0.02657486962336434 -0.012444627570573949
0.05552283621798462 -0.041939898244442816 -0.012976113446381495
0.007141278480153524 -0.03828105702102153 -0.012735757181356463
0.0028535718912887885 -0.0326690819666632 -0.012576977362341965
-0.0009924993665219352 -0.030208576510457205 -0.012501460287724208
-0.014108172232123756 -0.014022360675364817 -0.012041254947718278
0.006712981252971541 -0.025597504353278407 -0.012404703729385999
-0.01952368058492437 -0.0021157729070171937 -0.01171543211250564
-0.02066200123506443 -0.032321391256656326 -0.012497350452412065
0.028751976626424265 -0.03559053333786508 -0.012730673711532628
0.002844161317275006 -0.02801230217736516 -0.012455874508319947
0.04701804202296498 -0.04297982995234077 -0.012977622319978854
-0.0017677087589007094 -0.010417145019973035 -0.011984563201028092
0.041077764960142454 -0.033038362392842746 -0.012701316699437058
-0.01235365293819847 -0.06248600035905838 -0.012905302830914268
0.005243923150564274 -0.059494847558404486 -0.01298999972641468
-0.007498612008243566 -0.060166595139192626 -0.012989999726414679
-0.009270322087552702 -0.05480410967876988 -0.01298999972641468
-0.020132712495729562 -0.05315932878929168 -0.01298999972641468
0.02737793209790391 -0.05955671883434989 -0.01298999972641468
0.021869208796740817 -0.060738239335404974 -0.01298999972641468
-0.015750169866426838 -0.057470437325856175 -0.01298999972641468
0.014588328335381382 -0.05698391827866496 -0.012989999726414679
-0.01749661685367213 -0.06236340360850624 -0.01298999972641468
-0.003916700969957409 -0.058356670674316644 -0.01298999972641468
0.0101567283503094 -0.05831559415014564 -0.01298999972641468
0.00593641651382262 -0.012269741578957025 -0.009270999580621721
0.01388939151120579 -0.015075919543370574 -0.00927099958062172
0.042047685223579455 -0.02457110009387007 -0.00927099958062172
0.03746960872687939 -0.01485275830347433 -0.00927099958062172
0.04931220515804064 -0.008922311066979228 -0.00927099958062172
0.03190285926392718 -0.010882425655629786 -0.00927099958062172
0.03658915586877806 -0.006498641042668653 -0.00927099958062172
0.03565888869758513 -0.02369696008801709 -0.00927099958062172
0.04660679009690351 -0.01278209980310099 -0.00927099958062172
0.01441468396838875 -0.02014481570485202 -0.00927099958062172
0.04369514738468222 -0.019846501983553116 -0.00927099958062172
-0.002980941397422043 -0.014255094030688632 -0.00927099958062172
0.027526266997541154 -0.016253050366467285 -0.00927099958062172
0.044658711630493245 -0.0076736136856168655 -0.00927099958062172
0.003000106028649613 -0.017395999688529326 -0.00927099958062172
0.03501518130881413 -0.019577916918423015 -0.00927099958062172
0.029985071006818027 -0.01959810935766918 -0.00927099958062172
0.021677189077006595 -0.02092386100871941 -0.00927099958062172
0.0230593930636802 -0.02744756353361284 -0.009307904075789918
0.04346752332908806 -0.038921408022643975 -0.009536399705501295
0.034166349323921076 -0.031394547030228134 -0.009385197876659222
0.0341556565850577 -0.038057108124796485 -0.0095216766405155
0.04630753839893393 -0.028641426419754888 -0.009324916200813176
0.011002503453701296 -0.029579905715869145 -0.009355442790212925
0.037619158299475874 -0.03403311821355136 -0.009438140734600593
0.040933416361951705 -0.029785440505744165 -0.00935007060684191
0.02595247568017857 -0.03407065249429226 -0.009442644656082237
0.045049630727557625 -0.04711451537918011 -0.009703720117363873
0.05086782467692459 -0.05194282763654602 -0.009800760172374004
0.03881655845699688 -0.05043208527508776 -0.009773672449366638
0.05430228217626052 -0.05910741902948859 -0.009946419522477804
0.03999361019995069 -0.0462826885405195 -0.009688299724461343
0.03141582213257696 -0.04297504341679818 -0.009623292367274244
0.04608283592569864 -0.0339623910338617 -0.009433982330225374
0.049041441505800566 -0.03861166346182745 -0.00952827044173534
0.04557017358316894 -0.051836805756687726 -0.009800284464841815
0.02817473157392163 -0.02908865674802133 -0.0093398824224365
0.02950999395500336 -0.03793404579312952 -0.009520643144590796
0.01862673095992189 -0.026932658995301492 -0.009298775925264267
-0.015652741925123902 -0.021715987245350454 -0.009431495248884541
-0.012760849676083829 -0.01809765281691794 -0.009287943653002102
-0.017330470976245904 -0.028948078287944063 -0.009653086505973964
-0.016184000917750022 -0.03330790953548634 -0.009752307658252947
-0.0052961355953074244 -0.02867178777858018 -0.009453995908713094
-0.003624429446599848 -0.024417982242416328 -0.009312752475191895
-0.010947920846632802 -0.030466648712563403 -0.009592363843262897
0.007445120515133666 -0.042224498410343585 -0.009797330613442654
0.00709969545697749 -0.03425526137544742 -0.009519724043996636
-0.0067445573432134255 -0.03543118231214577 -0.00970218409513944
0.0008525869816373533 -0.025697586788972864 -0.009281457372925654
0.008402115871838076 -0.04639933592353397 -0.009934857625844448
0.013492048146991472 -0.0426088539937818 -0.009749312443486067
-0.0021959475892673456 -0.044750212641504514 -0.009984604537421164
0.013793398837635402 -0.034890395765738755 -0.009473966174267786
0.020567409641000584 -0.04179520885139762 -0.009648560713508648
0.02448953299840464 -0.05236080735108096 -0.009981334898233418
0.012040357551826484 -0.03836179976772739 -0.009614275457577794
-0.013167809154756654 -0.0419265106292112 -0.009996723262729674
0.03823857949834703 -0.05578687406597492 -0.009962184801516156
0.03480349292043528 -0.0493943667689576 -0.00977166168382027
0.04308061579277147 -0.05555729411584369 -0.009904778930042192
0.02669906857531024 -0.0456105491034824 -0.009720711677673511
0.020204246288793134 -0.04945410899445787 -0.009922435449650198
-0.002102152802128381 -0.0341238246831326 -0.009608791245079521
-0.009259392159191143 -0.03918026887212182 -0.00986004640918858
0.003075826545790206 -0.03968721766329137 -0.00975231825807192
0.002947609015129314 -0.03516896518549007 -0.00959423731701094
0.029574034928321415 -0.052355870345401366 -0.009929384503844535
0.00907236131030014 -0.023389748166332165 -0.00927099958062172
0.02616071856584194 -0.024132146823101296 -0.00927099958062172
-0.003997734212175513 -0.019124675281887875 -0.00927099958062172
0.030760549885064475 -0.024097009282670327 -0.00927099958062172
0.0037215336230506236 -0.022087041999022027 -0.00927099958062172
0.05521255392918672 0.0031742135035840355 -0.00965685381331564
-0.0065051677165888205 0.005108724276196563 -0.00927099958062172
0.03209126486353354 0.0022721418656537987 -0.00927099958062172
0.04456558498996618 0.005665452584218632 -0.00927099958062172
0.023110845094529747 0.004372599668191568 -0.00927099958062172
0.00423109498122916 0.005950999911874534 -0.00937806504686916
0.027281903266200447 -0.06240040029487237 -0.010563941360790483
-0.012245890054436758 -0.057836384060868384 -0.010909447068755912
0.03658509524368623 -0.06113392364759946 -0.010270356394140362
0.04126737125927615 -0.062104378892764996 -0.010268408871866643
0.0003899286288408608 -0.058013006109667024 -0.01068270656501256
0.015990730396138665 -0.05977745562768026 -0.010542998688310611
-0.01988938018952393 -0.04300045065200264 -0.010146209189129372
-0.019891075965102385 -0.04931603282861472 -0.010478211052020292
-0.0157222729564249 -0.045729988721499464 -0.010226455469148998
-0.004454394580278584 -0.0502192508563792 -0.010291455316305091
-0.012896153375907524 -0.050785904901513954 -0.010449334785687096
-0.0082623234297182 -0.046785191390534976 -0.010168726042670549
0.002108600756839038 -0.05215326211527482 -0.010293530322211527
0.012033521358691037 -0.0545801649349513 -0.010270500816771035
0.022734303711139228 -0.05720967707703639 -0.010246348624615258
0.04506740921503318 -0.05933647480322676 -0.01001926495488534
0.008137344350279501 -0.051637540211082085 -0.010174942679540082
-0.002777767822579843 -0.0545690898799949 -0.010494662129184722
0.030626358923735934 -0.0578885570065894 -0.010162281255885013
-0.016036698441583074 -0.010604551470248932 -0.00927099958062172
-0.019280211474814166 -0.02481538336868849 -0.009623262878095009
-0.019587596422861356 -0.017963822100589083 -0.009504919784090467
-0.017601167571568203 0.0013175706126483714 -0.009309825510564943
0.055075224514496944 -0.019476056751438084 -0.00927099958062172
0.05220002870271945 -0.016361235741329437 -0.00927099958062172
-0.08858084529672565 0.0014734778638984373 -0.008733026246388054
-0.08874784266639026 0.005950999911874533 -0.0064463753139098
-0.08464119728244966 -0.02603599987924099 -0.004168356080231388
-0.09316567304228797 0.0020186477804652846 -0.003099203249752719
-0.0919590377244671 0.00036200916756362904 0.0006255303306197074
-0.08043172431613622 -0.02434246168376479 -0.009382020278255254
-0.08705490071049238 -0.020589647492887934 -0.007972811103354004
-0.09190524067305766 -0.02364659463141196 -0.0013990883100407437
-0.08858103185425578 -0.01976201386438186 -0.0004572085106043306
-0.08282953984529891 -0.022125029490708274 -0.006251723726215769
-0.08730665410850004 -0.013657408792515795 -0.002379778377647952
-0.08573026156324612 -0.01878271622929724 -0.0035365193885188327
-0.0866369119553666 -0.009574894521052939 -0.003474414927536391
-0.08301476233267838 -0.01686490391779412 -0.006564622895712066
-0.09014441193196258 -0.004655931783373798 -0.00027579059742236856
-0.08623166482602743 0.0021058503887217963 -0.005556537161430773
-0.08698139754415402 -0.00269104997059664 -0.003943526672410594
-0.08437096390710996 -0.007765270623918118 -0.006259064836896715
-0.08229680084658907 -0.011279635155483088 -0.008177343812119063
-0.08905624257282779 0.0020001199257202893 -0.0022028134687472984
-0.09255997910363206 -0.002471740689304853 -0.004111354536682016
-0.09131801987957108 -0.017097271716736646 -0.003939091718588425
-0.08908996654145579 -0.011260619907900641 -0.007317938313590349
-0.09031849125215552 -0.004442561488964626 -0.006885976092176627
-0.09221158209291277 -0.007736717673642245 -0.00418885285590994
-0.0938561823958535 -0.011675495236702662 -0.0017043367777832001
-0.09484023584440551 -0.01626462184838631 5.446711421564686e-05
-0.08632524089141363 -0.014121223846409571 -0.00997427595347378
-0.08790718441251674 -0.007672985964362031 -0.00904517918730392
-0.08524480859438335 0.013603209557688874 -0.004649410396425831
-0.08502942478639319 0.009483055648493364 -0.006157127418042847
-0.08340807849752971 0.018392305650576094 -0.005264374302767041
-0.08835429156055923 0.008527365744341167 -0.0026786340262115334
-0.07829087542455046 0.024449509444559685 -0.009211674430526742
-0.09146667062080605 0.028924036814914872 0.0010091278028036721
-0.0820010642250875 0.03550787566156188 -0.0026682060692589955
-0.08380898835069704 0.03173876331632074 -0.001490358103759211
-0.07968868988465427 0.03317142319249582 -0.005336343701583598
-0.08376058584386155 0.024692386459227465 -0.003234022071227474
-0.0854892189537953 0.027718755200400198 -0.0007481895803102166
-0.08762419272105343 0.016441402440795713 -0.0012886984944065832
-0.08548816158376045 0.02024901637156149 -0.002545507317089046
-0.08027795837103008 0.027907678673457937 -0.006002804412649624
-0.08825437055018082 0.01105024652208263 -0.00831478169148685
-0.08668664481902683 0.007501543045150711 -0.00980361723592337
-0.07898378894222363 0.035260521338879434 -0.010014000348746775
-0.08028365292851274 0.018432705022778568 -0.010014000348746777
-0.09294986314039413 0.007865495262035898 -0.0027220244257758117
-0.09500524512101825 0.010871385724123439 0.00013374408465099947
-0.09242075018034042 0.021629295784154998 -0.0015199950134750346
-0.08910706143289503 0.021683101998073464 -0.005144400113274328
-0.09360525336250317 0.017774354544399597 -0.0011493683920074187
-0.09218134601315289 0.013708275239182896 -0.00326727416420758
-0.08771144763177642 0.01753175046669048 -0.007689572607624842
-0.08515909982018825 0.021733741584942887 -0.009435721315630983
-0.09080568943322209 0.018123321095055572 -0.004179179600192447
-0.08487335668377438 0.02826578585764021 -0.007659857148348133
-0.09161192320286307 0.025533191744159238 -0.0012936830542841704
-0.08831559214996337 0.025850605401348425 -0.0047533168264624025
-0.08297308553708546 0.033119405435887296 -0.007896944906576327
-0.08596963972747629 0.03509956889168231 -0.0035660504741619383
-0.08823482102295419 0.03137189790995401 -0.0027119031320118818
-0.0912782188709392 0.009031205851924552 0.0006426456956599652
-0.045630958917544026 0.08185776362466794 0.0011419999646022916
-0.052844530992468934 0.06997678849113917 -0.010014000348746777
-0.0580031210223393 0.0655011819009969 -0.010014000348746777
-0.06294302164394303 0.061497181263155135 -0.009451477197054086
-0.061269066738625304 0.07151158468737634 -0.002577811482340778
-0.05956147822293289 0.0689363648205964 -0.006105620403467416
-0.04211816789344892 0.07376577110509283 -0.009694412138829095
-0.047807107288358706 0.08028324200518183 -0.00335402784856152
-0.05629991991581208 0.0773764196931061 -0.0007256454551660908
-0.05218787473698435 0.07916896411576976 -0.0019162533847159242
-0.049509423029852784 0.07368593544526506 -0.008625119582494852
-0.0539299323220202 0.07298574633469632 -0.006617850228332475
-0.0630346809013884 0.05955138182745212 -0.0057668715903740776
-0.06096696740725088 0.06271026115329853 -0.0042717185969552065
-0.05677260800647535 0.06875216254914014 -0.0018316304843015272
-0.052970628894113754 0.07293478201262088 -0.0006256518084905011
-0.061654343990023744 0.06710361715421238 -0.000487152005143461
-0.046041799607723866 0.07181860181622672 -0.0063566316477695175
-0.05890845737309904 0.05940661604234983 -0.008118601335898508
-0.05521129136449726 0.06128189483043095 -0.009228752452528974
-0.04752006684318834 0.07460453655097612 -0.002533378603070625
-0.05364611594506343 0.06528569757102554 -0.00663077536489121
-0.04458516792716145 0.07851193204448899 -0.0011028593810085714
-0.04855379078726557 0.0686230834944119 -0.0074387644766470435
-0.05113092745157197 0.07018152513228482 -0.003926040334922745
-0.04241339285688969 0.07633662093965621 -0.005197908412251639
-0.04192499816417694 0.08354512049067908 -0.0008403816798093323
-0.038728837025045586 0.0863701420222446 -0.002094950519194481
-0.03810404450354464 0.08310866790499706 -0.005635094438166228
-0.02795210264893581 0.08400223043211028 -0.0092539527841377
-0.036991830492096124 0.07960070128048567 -0.009638467571123365
-0.03323886654999823 0.08277159441245519 -0.008134904101799324
-0.03411764096761214 0.08764115129399801 -0.002787979130679268
-0.030558036476880095 0.08688296218482791 -0.005117931967846138
-0.029652559437809596 0.09234211498213157 0.00020694621254103954
-0.03308935027985792 0.08243213839499929 -0.0024537640703121665
-0.021850796518521343 0.08659483764829838 -0.0019790732999073876
-0.036366996730357995 0.08396280482439218 2.8623402830718368e-05
-0.037942217939515605 0.07899079399595912 -0.004228422889174988
-0.027602557570292115 0.08492347408232565 -0.0017836731796220713
-0.024326699501715433 0.08877052948935152 0.0006395650037632256
-0.031410095948578645 0.08659528795477314 0.0008552886920119942
-0.016635999083518982 0.08626907945202858 -0.004989197299299374
-0.019812343298428715 0.08293754610827989 -0.007280838020003164
-0.0274091000599292 0.0785235496513291 -0.008872823681925105
-0.03206456706230723 0.07787870873139657 -0.007375631482560235
-0.016871070598910985 0.08970755248255775 -0.0005897443347116748
-0.03672205115373692 0.07538720690440603 -0.00809399385668004
-0.025241353481590185 0.08264395464277599 -0.004984665977830941
-0.02146955278056232 0.09178164332874719 -0.00281298619591124
-0.02429420638420335 0.08659288558308295 -0.007434366513443994
-0.017422309024094997 0.08615939693080864 -0.009241683845817852
-0.026696873587168653 0.0894710911067066 -0.003853684355343164
-0.04125169863457533 0.07950336005504041 -0.007728593554118772
-0.018152443434699912 0.0947524960830939 0.001129959346369036
0.018151797370748617 0.045360574442797987 -0.01319306606156433
0.0072369419906522965 0.032892637507350386 -0.012715362013451397
0.017281359747336023 0.03944197968707071 -0.013034027168776255
0.05141632148390531 0.03933649116499489 -0.013567739767472248
0.047736540409038096 0.03732736474726585 -0.013460580747190375
0.01773117094231439 0.03444935799252233 -0.012918473349579497
0.023766020758192313 0.03807686381975928 -0.013102381569647034
-0.004173776469461663 0.03643463538298043 -0.012623078169159547
-0.011017001703437468 0.03338455003979778 -0.012440651042217374
0.01406240694303446 0.04462822278209612 -0.013110829693664417
0.010699791103666315 0.0360560030605954 -0.012847461364508192
0.00343941659640621 0.03601950403827877 -0.012732495262431557
0.03452220068512989 0.03884532758575421 -0.013290248565201543
0.02700549150952654 0.04028478159207492 -0.013207505158210682
0.006625678071271533 0.041846882744410084 -0.012925678373119247
0.030308608322713114 0.03630390635747992 -0.01316162930612435
0.03807664863467002 0.041799640203687746 -0.013418652620462806
0.01301230502853699 0.04001479172623602 -0.012981023425708905
0.04939645122772594 0.005950999911874533 -0.010641340479122033
0.059646658846319055 0.046068197150541765 -0.011171665480483258
0.045040823670427506 0.0346196182943802 -0.010351395527079735
0.04619329697366974 0.040142344942394215 -0.010603011034436203
0.04294971509400457 0.017178310842160358 -0.009594627003428644
0.0508039874230833 0.04229041149983146 -0.010802639201129444
0.043348820726570994 0.021329806054837083 -0.009772346669955082
0.050179136104629304 0.033802332964960616 -0.010443949780570463
0.047910152367165344 0.02389256212085792 -0.009987545755835363
0.05652840085856084 0.043467260688558905 -0.010990201598334802
0.055225283751398534 0.0357726227985163 -0.010647031356511717
-0.0001311682833043861 0.048577885132508436 -0.012245984222203039
0.06452762676059674 0.04274720412018712 -0.01329602608487129
0.06422232103830079 0.04912243206987062 -0.012480709948112494
0.007572068654360288 0.048361693776523315 -0.013058337384744182
0.039975852714112595 0.008892180873713976 -0.012216723392952647
0.04012534015625134 0.013389352162038213 -0.012517770375486898
0.04612446811072058 0.013861732087927977 -0.012604221030448334
0.027959486647113764 0.009871356644205522 -0.012171861068914248
0.05443996956329573 0.0071714068926492895 -0.012234597839636912
0.05217900433622396 0.014741442940576095 -0.012718322651467967
0.024264580426405242 0.00732389166505959 -0.011968248001184524
-0.009761458298616292 0.006043272441524743 -0.011571115411098204
0.0607300372589711 0.007405022859936564 -0.012307804039782409
0.05729488780067198 0.011841934740864162 -0.012571987854626047
0.019968011754320055 0.00721531865900191 -0.011921641611754855
0.030284518836935 0.006001693311059196 -0.011935304375317722
0.013071487159482835 0.00896527367510428 -0.011975057016707268
0.034254118218139666 0.007628420162317884 -0.01208007952842012
-0.013307669647977267 0.025109379211750583 -0.009598100959416768
-0.004291936661856441 0.021740969007266412 -0.009390227040067308
-0.009262452897450594 0.025447906432508743 -0.009540620126945173
-0.012886099016445964 0.037459783523704195 -0.009830366584150665
-0.009715151659713173 0.016915634712976687 -0.009382715154937282
-0.001299819754300541 0.018851010532318472 -0.009286955055463626
-0.01421475918307261 0.031775156776539526 -0.009741419158085738
-0.009207759579344277 0.037471339663699255 -0.012567686060685748
-0.0048445519714203095 0.04694666080652389 -0.012757302109308567
-0.015456074531956767 0.03490663908393631 -0.012296147115412182
0.019399701476868866 0.04146926900793385 -0.010211118352213415
0.024399886016155777 0.032254856281325635 -0.009912929134305297
0.031935706302862625 0.027056051739167322 -0.009821132834322139
0.03465561645625034 0.04167467474006102 -0.01046692893802929
0.03324831853849905 0.03514392610900282 -0.010175308582674325
0.030754842994566805 0.039810451645765105 -0.010326952024758205
0.03351263295089605 0.018961191746931557 -0.009513519932765502
0.039676421977753396 0.03834378912567273 -0.010411237437702354
0.03800581121463421 0.019665009442822103 -0.009615340199232814
0.028305325864412846 0.02888188499532399 -0.009837421103379318
0.04194702228795696 0.04183239430822836 -0.010591641916703568
0.014192171267038542 0.03601598964032695 -0.009902229993009732
0.04247264441308311 0.02600810649531376 -0.009948843556149455
0.034822328985639396 0.030913334325317 -0.01002669996854464
0.020082238383843477 0.037228646675076096 -0.010047642721806345
0.02664948406373824 0.036122200311557544 -0.010108581810499121
0.040071564929961695 0.03319945053238255 -0.010205905501018922
-0.004072437211055673 0.04021476830794138 -0.009938872691511625
0.0011340525780686155 0.02558665568094337 -0.009458829201696174
0.0038260534183739 0.032122168064482155 -0.009693523244195238
-0.013454239248115105 0.04204697799972186 -0.00996382182683145
0.0033579602169731197 0.03920688505956374 -0.009934293869291701
-0.0014921748838304496 0.03353479107881139 -0.009720476019748896
-0.007145732899737962 0.03131798598553674 -0.009621766893244102
0.010924882826930287 0.023988301312869782 -0.009479278709109123
0.015313090787874092 0.02361628654364699 -0.009503669567398142
0.006357445247253216 0.022833294205224966 -0.009403439706556597
0.027487230913087017 0.01534765916309188 -0.009334600777781452
0.009782807613954142 0.03252262236952 -0.00974895444830418
0.023253969621471818 0.02347352050627312 -0.009565159584553253
0.03559450549816395 0.01232189044170556 -0.009303162826940364
0.022638739233321863 0.01803550509453042 -0.009382134918985232
0.022089064046353166 0.027829269900807887 -0.009697947655733737
0.018476712244531276 0.031287911692586844 -0.009780996608537667
0.013286538353670508 0.02016586993511814 -0.00937390843640658
0.046148153238161294 0.045621194511632934 -0.01083982275620744
0.05354552702583659 0.04801651224748182 -0.011132250094137094
0.0037938354541391835 0.04847140135191152 -0.01082228039925644
-0.009881421539513182 0.04608375196199496 -0.010380128529086926
-0.01440038729586702 0.0472881862910707 -0.010580777665760415
0.03482902526415602 0.04604751015759338 -0.010669614132474924
0.03020767114271998 0.044842046970085585 -0.010539152230372464
0.025516859160545344 0.043510851967980706 -0.010401432697298246
0.010901699416501844 0.043630171761842265 -0.010228911551245144
-0.006285113027028671 0.04385913192260953 -0.010099756599362577
0.00021114991283863703 0.044636603549401035 -0.01021080862222512
0.021877522834466007 0.045244109966700696 -0.010438174743351649
0.006182898793043105 0.04505664017149092 -0.010291670036096191
0.0034448649225992676 0.01708798712157629 -0.00927099958062172
0.000181210279257063 0.010839923739989854 -0.00927099958062172
-0.010131011758177561 0.00968053603980912 -0.00927099958062172
0.017738827441018953 0.009596036248492496 -0.00927099958062172
0.008954080920928767 0.010123349534740284 -0.00927099958062172
-0.0013357749973694896 0.014873552424981708 -0.009270999580621718
0.010778210064860362 0.01528428190793786 -0.00927099958062172
-0.007156898740752242 0.012163404770561465 -0.00927099958062172
0.030381725917956615 0.012508595733768418 -0.00927099958062172
0.023579130977515114 0.011036379979581623 -0.00927099958062172
0.05692753074904266 0.02525941928434957 -0.010319629629282536
0.05294851612381424 0.010922017981270259 -0.009697163082029902
0.05417662569659581 0.01670938012549079 -0.009934995189937233
0.06108239339332322 0.02403837761520524 -0.010426253960966622
0.048055316030360735 0.010846813102633263 -0.009520812184545008
0.06443411956263778 0.012765735939914473 -0.010167049537298956
0.06251674791645992 0.03330713351002516 -0.010788236646695653
0.06174034241534358 0.04080106691898162 -0.01101212665473157
0.0534466721098661 0.02273372140186681 -0.010111220791923708
0.04244824032927796 0.010023575163111502 -0.009293999913046101
0.050221574372513435 0.018665279041901156 -0.009860128346806532
0.058629984629353205 0.014697140242835784 -0.010025673424674357
0.05771913881063805 0.03066038468356918 -0.010528989170558035
-0.01607682194173088 0.02082740362994263 -0.009737029276139885
0.0445475104121495 0.04269719406798245 -0.013514823268853296
0.05719389056920106 0.048111213433576196 -0.013672290119095367
0.03891049802812165 0.04561763858188771 -0.013449593473317078
0.05821066121284499 0.04101044940081319 -0.013677942897999859
0.05249487398811421 0.044886906927247616 -0.01361265256534792
0.0469783131809571 0.01951611859936586 -0.012838857166273697
0.03033344284739072 0.021555101506510643 -0.012687048408253212
0.013784440219788361 0.016699861766101783 -0.012292268079104104
0.015002045082978302 0.012714256438894931 -0.012167447940507566
0.0326787991711945 0.013810501155058729 -0.012444227444072059
0.004704939098686457 0.009452296436374153 -0.0119132716822026
0.029595288604966623 0.016880466746484087 -0.012511490308639978
0.022866817578756287 0.021146262327111764 -0.012572058046439008
0.0615109056618363 0.03669964746592329 -0.013643286163504756
0.008038479854289465 0.012682112142282737 -0.012072575348643777
0.02025634831478757 0.011810760202454154 -0.012206163148221375
0.05413223598624464 0.027886118991037268 -0.013231701961448471
0.058668551065266444 0.02170950976270543 -0.013073926459463281
0.06026419884842975 0.027287698630177 -0.013293039813626024
0.017966386900839 0.01614678347544523 -0.012328964023720695
0.05833670683753693 0.03316458682260528 -0.013475312519224927
0.04502085715867005 0.023416614472895655 -0.012950703044941541
0.040215848507622 0.02620560002457454 -0.012984838413044058
0.06342525838689914 0.020509635766897343 -0.0130954430798318
0.02414021984022212 0.015515304080737199 -0.012389694191861512
0.04060984617932324 0.02011677209999639 -0.012774414948059034
0.03598339923517761 0.01654288925328596 -0.012585517713209152
0.048948852170666246 0.026680548004478645 -0.013119217211554833
0.03531123002635539 0.027172844893609955 -0.01295308878087874
-0.002931346502435187 0.009587513004145447 -0.011815273462984683
0.05447817721628815 0.019814807322648034 -0.012950392315764572
0.05876826943107056 0.017445231989340556 -0.012924185552550399
0.03671543301671096 0.022097777947812185 -0.012792180786246998
0.002568086596443085 0.013601087340390096 -0.01203149985986648
0.04430241867940646 0.02903975542378659 -0.013140260074959612
0.0638002605564443 0.03021435736054199 -0.013440876840994351
0.036624105346581455 0.03375225462264931 -0.013184932878053812
0.02780582456568738 0.031302741473919225 -0.012975669978121229
-0.012484557142571767 0.01304706120013073 -0.011791953144406526
0.01665262715855154 0.02917986890429253 -0.012742420261074604
0.009356100890046683 0.02032105341049775 -0.012349139860639919
0.012855899448454267 0.030985451302144015 -0.012744479105535698
-0.007986115229903558 0.028024858523064883 -0.01234103200325658
0.02655337661903539 0.024137745418989522 -0.01272629962116628
0.006121122325358615 0.0286494654902181 -0.012569669362796389
-0.006923561950944624 0.015773467542134285 -0.01196199325648731
0.04312360396362157 0.03606679383546001 -0.01335557406547984
-0.0035631511178124357 0.02592374808928382 -0.012338707248667091
-0.012048429622809291 0.02113869889809717 -0.012059114558122645
8.060787338657303e-05 0.022615756689740744 -0.012285979335835896
0.00374576027544812 0.021421038667567734 -0.01230165799043276
0.04759029701265265 0.033016649172379016 -0.013323317453065708
0.031991742005840554 0.030447361386884943 -0.013009979390816247
-0.002570756027778792 0.03019966652741686 -0.012491146860123445
0.0222437269517267 0.030661306042805182 -0.012872792018580817
0.016591015925774125 0.020425071028165903 -0.012459427154576314
-0.008344037937263314 0.022057432498266697 -0.012143469294550529
-0.01568354528211975 0.010257341654626157 -0.011654784754493155
0.01882110413511358 0.024868209496059966 -0.01263554839915591
0.010980946646236861 0.027193171819762947 -0.012594577837315206
0.06530579919574958 0.03545475157616276 -0.012989000417292116
0.0726444388678847 0.03468588972578118 -0.012989000417292118
0.07148758815879107 0.029893719402036386 -0.012989000417292118
0.06776592545965195 0.027129547889465627 -0.012989000417292118
0.07153586788843247 0.023786616761876836 -0.012989000417292118
0.07550782924975258 0.010699867598198996 -0.012989000417292118
0.07156634881604383 0.008962067637611983 -0.012989000417292118
0.07890992004145621 0.007934944202666005 -0.012989000417292118
0.0718389690486537 0.01853262548483359 -0.012989000417292118
0.0750141013459126 0.021699010718365802 -0.01298900041729212
0.08664786964217899 0.005950999911874533 -0.009365829363682573
0.0768371056957778 0.028402883530675688 -0.01271125412965413
0.07911462154704677 0.01814413966979685 -0.012718681219348856
0.08118141972764545 0.011972986731010833 -0.01254268301894691
0.0790544933909299 0.023650115012155228 -0.012413665527760201
0.06655782866984798 0.023544500921158344 -0.009969284697620123
0.06776351787698848 0.03106888541072204 -0.009517278043602063
0.06802039956481144 0.03563577798599608 -0.009420974426132718
0.08200994099487682 0.016660992256763 -0.008527000434696674
0.08182801393954593 0.006505901013559646 -0.008806819465100637
0.07496230356902116 0.029971165754083887 -0.008701053028897471
0.07304405464276925 0.014595981793605304 -0.009483412011801801
0.07787654313954004 0.018801663998878355 -0.008790718478265203
0.07253424450673149 0.03481797028673232 -0.008791432405959665
0.07629144714309727 0.024584248023624543 -0.008752782837246918
0.07717387585253085 0.013123468067594752 -0.009079010783854003
0.07065384398175284 0.02686752444418989 -0.009294717091629042
0.06869704806876924 0.015773997591546192 -0.00992284984423831
0.0699455559658896 0.011975023293191268 -0.009924753392215126
0.08184791892300282 0.01090277724232194 -0.0086418324413923
0.07064936113322173 0.020138216413312968 -0.00954433847516252
0.07502474797650331 0.007960824575541866 -0.009508950824525783
0.06907136282993871 0.006489174221751071 -0.010224985216733448
0.07178303164735769 0.039929098059118436 -0.008685691611957824
0.07977373528150594 0.028089114781233472 -0.008527000434696674
0.08383934085903413 0.025813931780014402 -0.009511642999908618
0.08504898689145418 0.013500151493106863 -0.010707650615554754
0.08295539188594532 0.02028456453193811 -0.011576607339045183
0.07089435465500553 0.04306026288539409 -0.012381240081329407
0.07483438647504284 0.03963700532447886 -0.011994090370073061
0.07844105801729656 0.03593831101977425 -0.010912607336389202
0.07174047656886699 0.04746343685549489 -0.01085561422228452
0.06478359717936784 0.015652643095840156 -0.012984688899842367
0.0662812591452115 0.00976010901531885 -0.012778110670982494
-0.00995255242799334 0.0747501637104745 -0.010758000425994396
-0.009075161445324756 0.06425627613588203 -0.010758000425994396
-0.007881142603025566 0.06996056804423825 -0.010758000425994396
-0.004188783302498413 0.07662821761802435 -0.010758000425994396
-0.01238253996654248 0.06082716250696667 -0.010758000425994396
0.04249485589996004 0.04841779535696465 -0.010758000425994396
-0.004004446382634528 0.05386866746348461 -0.010758000425994396
0.010783540361994364 0.06970523331312353 -0.010758000425994398
0.026794613559659064 0.06533722487584584 -0.010758000425994396
0.001832082979203223 0.06734603465763823 -0.010758000425994396
0.02531103195693392 0.07243836694041621 -0.010758000425994396
-0.007436357136858708 0.04966123145746155 -0.010758000425994396
0.028762665261735283 0.050639052679532406 -0.010758000425994396
0.0355918330375368 0.051477483665894636 -0.010758000425994396
0.011342712171494504 0.06087625141533619 -0.010758000425994396
0.008953041386968329 0.06524273745986936 -0.010758000425994396
0.027528459398021784 0.05534080525321945 -0.010758000425994396
0.016283821336512877 0.06981440954620649 -0.010758000425994396
0.0321506947005946 0.05433014118595692 -0.010758000425994396
0.057772533617548555 0.051852666483001866 -0.010758000425994396
0.030467305692606243 0.06051821270049661 -0.010758000425994396
0.020640166815879196 0.07487799802932374 -0.010758000425994398
0.005807216475666231 0.053726571290832296 -0.010758000425994396
0.008805990792305542 0.07513009432058167 -0.010758000425994396
0.04488809272799806 0.05571501039013797 -0.010758000425994396
0.004045537448674228 0.061320179219291504 -0.010758000425994396
0.023032950844409084 0.0559554632392448 -0.010758000425994396
0.01540976706014915 0.05743761851593191 -0.010758000425994396
-0.0005934494559656379 0.05669110042294537 -0.010758000425994398
0.010460810358476928 0.05596125186723622 -0.010758000425994396
0.020456671161501586 0.06219988938319252 -0.010758000425994396
-0.006338617618845263 0.05806360643501295 -0.010758000425994396
0.023615864218631096 0.05124437865312766 -0.010758000425994396
0.04929117517911189 0.0521304667264195 -0.010758000425994396
0.02110128504870168 0.07036997772215645 -0.010758000425994396
-0.0009524587958494875 0.07316370064984834 -0.010758000425994396
-0.004534934687336758 0.062044728419405976 -0.010758000425994396
0.013420964938973497 0.053307079490619566 -0.010758000425994396
0.04060287088046509 0.05319871519905108 -0.010758000425994396
0.0023778521094016966 0.07548092820981926 -0.010758000425994396
0.03384341793103683 0.06241954143244653 -0.010758000425994396
0.038458790411315294 0.0632403423840707 -0.010758000425994396
0.001550492593381336 0.05255888456507538 -0.010758000425994396
0.02598207697798496 0.06089618307810472 -0.010758000425994396
0.04435426630220845 0.060768095074924644 -0.010758000425994396
0.012996704454880277 0.04835199937224388 -0.011459836204074487
0.029422033073988503 0.07348951270173065 -0.010758000425994396
0.045692722932920614 0.06701342993714579 -0.010758000425994396
0.047730617752947915 0.06317900608627813 -0.010758000425994396
0.03645037317805156 0.06794072031907468 -0.010758000425994396
-0.0012107553103541 0.07635081444765376 -0.013732999563217163
-0.013331814166202896 0.07632569996092121 -0.013732999563217163
0.026384735540467125 0.0696924036695135 -0.013732999563217163
0.04909930269527347 0.05506479873913821 -0.013732999563217163
0.018043982628778283 0.07243647224754683 -0.013732999563217163
0.020375313335383 0.06676406916244484 -0.013732999563217163
0.0031085832716270154 0.07266600084161616 -0.013732999563217163
0.00807915082734802 0.07229047859828913 -0.013732999563217161
0.006521876153288994 0.07837484999521072 -0.013732999563217163
0.011911466653092905 0.0767407724741486 -0.013732999563217163
0.013376781523296653 0.07218403188002485 -0.013732999563217163
0.013649393934347664 0.06804488022888694 -0.013732999563217163
0.03270699255069641 0.06631536482777903 -0.013732999563217163
-0.015156463275502186 0.07007083636881742 -0.010758000425994396
-0.013879802279488093 0.06466751519261758 -0.010758000425994396
-0.004493157593465249 0.06891056735258586 -0.013732999563217163
0.053849476560300806 0.05237595591486667 -0.013732999563217165
0.040642931457240676 0.05663803730737023 -0.013732999563217163
-0.011970446207837639 0.07088359307103397 -0.013732999563217163
-0.00021245115272601608 0.0696740123746397 -0.013732999563217161
0.016192136065699855 0.06437254669771472 -0.013732999563217163
0.0029719816223186136 0.06457402342285255 -0.013732999563217161
-0.015747867203101777 0.07314658403449273 -0.013732999563217163
0.00639508229859689 0.0682896414636459 -0.013732999563217161
-0.004537647691382506 0.07309979189302969 -0.013732999563217163
0.03658768504593394 0.058654774241549884 -0.013732999563217165
0.0001568017884003431 0.060190769770964284 -0.013574046055417923
0.009796515202961797 0.052095131254225144 -0.013323939923922792
0.04658519627484454 0.048511399409365386 -0.013658870513372551
0.015763955757095938 0.05079630579646438 -0.013344394252867747
0.006887688661316005 0.057091121771584236 -0.013519943945900165
0.038569663810685995 0.0501242336777547 -0.013625175432910563
0.02032698649606047 0.05323823257857095 -0.013522207203769114
0.025235627321869278 0.049082685124015674 -0.013393284838887418
0.020436315678219064 0.04878305326714885 -0.013313373300536686
-0.0090145723007467 0.0599281246794835 -0.013435969635971146
-0.006390543042974379 0.06491661301484955 -0.013707437058196695
0.014023875597644602 0.060595625649272865 -0.013732999563217163
0.02975476827668448 0.05703966833459144 -0.013732999563217163
-0.0020453264029109126 0.06487740071980434 -0.013732999563217165
0.00661506429682699 0.06252099825515353 -0.013732999563217163
-0.010391843765276116 0.06663258931092618 -0.013732999563217163
0.020695915516048588 0.05933823925498546 -0.013732999563217163
0.04338801126282205 0.05218586513089536 -0.013732999563217163
0.049255464248305875 0.0685759494841707 -0.01193864474173019
0.043341343952337345 0.07109835618094942 -0.0125773677562746
0.03756088861673937 0.07648776954237163 -0.010758000425994396
-0.0034991126076893454 0.07972207776102709 -0.013441837741589026
-0.008309495869763938 0.07846206006389025 -0.01361295831726766
0.04170086470584793 0.0639523690216366 -0.013732999563217163
0.031178136430950267 0.07010917752453427 -0.013732999563217163
0.05016524542772786 0.05928953608270432 -0.013732999563217163
0.04055586104631684 0.06826694440451316 -0.013732999563217163
0.03655739698748591 0.07094631736703305 -0.013647376917801438
0.027850255165401388 0.07629369493041017 -0.013344474265408017
0.05521278306589356 0.06032742420473913 -0.013202120085904663
0.022359761177065327 0.07822118758048352 -0.013352835451808126
0.032568744959439365 0.0777907369542651 -0.011929636143134977
0.060045256192639604 0.05733860939928292 -0.012744010253151673
0.06081405907687423 0.051704449860417806 -0.013528857605425567
0.052922024045144025 0.06507031457673078 -0.01247701773951545
0.006125945779439977 0.08445772837490165 -0.011843354841288341
0.011466164027373943 0.08386152170249103 -0.012098464208331995
-0.0002637912921703237 0.0825553383115445 -0.012958700855500023
0.017222586952704066 0.08089699023988425 -0.012915753488662349
0.026221258734467748 0.08115633057870424 -0.011612611232236086
-0.012275911488671166 0.08092637237492294 -0.012958698734553171
-0.006307817181469996 0.08419566266488293 -0.01177102133327261
-0.008826223594603257 0.055587312162250956 -0.013227054186888298
-0.013106794530680277 0.05403832932221492 -0.01307447016138102
-0.012314074507839586 0.04971847835596384 -0.012656337127596439
-0.0094809549390908 0.09034442301478948 -0.0066582784537788054
-0.0124651156075504 0.0927752752596941 -0.003572436181130189
-0.012514042139664408 0.08790920916680367 -0.0085249999538064
0.01614434602726718 0.0869624233257976 -0.0047581523152646875
-0.009455217030516787 0.08486558534551802 -0.007692034082868183
0.005768872288153623 0.08620022245789853 -0.005824618704471568
0.011870738715477513 0.08565388057036764 -0.006589056642824444
0.01448230927567728 0.08989638577177435 -0.001200876050068932
0.00841439180210695 0.09038778177604907 -0.0007092153465775681
0.001164779242393324 0.09146011406670784 0.0003636945749834377
0.005165311223692332 0.0930474446281466 0.001205745806629864
0.007418041847569992 0.08981352298219408 -0.00746054560344614
0.010547643612927912 0.09339413967075166 -0.003710997022560893
0.011574097097731445 0.0897955778354592 -0.0073033971153467145
0.006371555614748595 0.0929882252572768 -0.004297223117391647
0.012608893151179974 0.09573975138414034 -0.001036274650694452
0.01546808568336636 0.09266764695899873 -0.0036674514244725803
-0.00023750120059244043 0.0880984147132887 -0.0032698543252950717
-0.005091512142668163 0.08700687393522077 -0.0047594577414765945
-0.009923102329736885 0.08984849765216357 -0.001249572593640731
-0.003579258666321449 0.09033102950842842 -0.0007662289427306664
-0.002231868232475292 0.09497117672676789 -0.002302768106795878
0.007748105386510428 0.09640573232739225 -0.000737925563845751
-0.00022042405204721055 0.09208563514719605 -0.005450375784881183
-0.0037113873248205815 0.09008888538148617 -0.007628471203175574
0.0024584127207901447 0.0959053876021102 -0.0012837118072797874
-0.010687497057112683 0.09539635961702064 -0.0009110125132530747
-0.006381571244391293 0.09670452683260529 -1.7720406772104105e-05
-0.005608757436982354 0.09266540930425313 -0.00462143845170226
-0.07620378073909936 -0.08616890584068782 0.005835406927996686
-0.08616848274695202 -0.06542156751518423 0.006351000163704157
-0.07203392839311407 -0.0799446579229396 0.006351000163704157
-0.08109283672290546 -0.06820626982920744 0.006351000163704157
-0.08201812628772254 -0.049750457433114084 0.0011439999798312783
-0.068575265983057 -0.09121522624250471 0.006351000163704157
-0.08892694954896958 -0.052767529971968576 0.005418342140799396
-0.08525740231788423 -0.05091974219972188 0.004005936359148055
-0.07801248123680812 -0.0635405782658021 0.004674717134077897
-0.07669141452516169 -0.06986433087492262 0.005651475252751811
-0.0840962244936723 -0.05657267215075905 0.0048845685538954735
-0.07953737328157601 -0.05852391969866065 0.004032372314025957
-0.07292374688590672 -0.07299776923395916 0.00527036985070306
-0.08233040240363856 -0.06272446757040868 0.005701190814899022
-0.069808927617676 -0.07054250958855984 0.0037228108808948796
-0.06745030121916142 -0.08127881635280648 0.00544106391098403
-0.0690731086534967 -0.07696147799444786 0.004967606525029111
-0.07071905371600759 -0.0639236686969859 0.0024880843543865455
-0.06738431318584229 -0.06654647432553441 0.0020181328126546634
-0.0726959301894619 -0.05919914219511803 0.0018247524873719818
-0.07825531066175408 -0.052324471875297554 0.0019216008914625595
-0.0927465783055948 -0.04864552932948471 0.0028560278575425627
-0.08338567537173372 -0.0745809741673885 0.004622729580955876
-0.0686011799488644 -0.07429553005532492 0.0012677851454519489
-0.0776064209201934 -0.07334112654655253 0.0030789045431025954
-0.07482993150019905 -0.07050470304342818 0.0018757047543010855
-0.07510278378159219 -0.06589967289437075 0.0011439999798312783
-0.09768623275947538 -0.05716208594200155 0.00536912052561768
-0.0963191305253028 -0.05140442615295039 0.004155716463619485
-0.08110091513612772 -0.06595317641065788 0.002438485174081422
-0.09073097372628569 -0.06990009252684942 0.0055932762175089825
-0.08981935749142765 -0.06354885758163825 0.004268507736517601
-0.08555175120049127 -0.06205954207466106 0.002921723837106021
-0.08388879040689073 -0.054496840780921346 0.0012350228085150777
-0.0890574188797624 -0.05741165441178829 0.003046322306760811
-0.09470680747196361 -0.06393439188281343 0.005770036838727133
-0.07063725997370707 -0.08648595978071107 0.004426980733444747
-0.07378303773632655 -0.07618347755145355 0.0028374705357661232
-0.07622843815664965 -0.08067630260379477 0.004379254805304796
-0.08033319270807576 -0.07737321702852057 0.004558026910881607
-0.11743499724566654 -0.026712660153880803 0.007966256505869825
-0.11720943479280993 -0.04423556234713589 0.008924776185108774
-0.11705700308084487 -0.007376773207622888 0.01049119537144756
-0.12513846054098282 -0.02139655795037935 0.007838999852538109
-0.11970302758510665 -0.0028809739206367476 0.007838999852538109
-0.12455401508505873 -0.011411042780519028 0.007838999852538109
-0.12311827305290844 -0.016708200783912983 0.007838999852538109
-0.12170752212790732 -0.028734512337669712 0.007838999852538109
-0.1195190725904619 -0.012743188751380915 0.007838999852538109
-0.1206499098231501 -0.03834703248587984 0.007838999852538107
-0.12108039323022235 -0.007563160611096489 0.007838999852538109
-0.12079653766737915 -0.023196880271974203 0.007838999852538109
-0.12491713922820923 -0.003647470547637065 0.007838999852538109
-0.1214460743502572 0.0008749477088841833 0.007838999852538109
-0.12831675011233526 -0.007912597118450751 0.007838999852538109
-0.12108032180109266 -0.043572816932567524 0.007838999852538109
-0.12304333439935383 -0.03265170072754907 0.007838999852538109
