0.0120775522032 0.0222642550766 -0.0240044247001
0.00853554926084 0.0245909212031 -0.0249464001738
0.0146615669401 0.0216005811782 -0.0244316283053
0.00859318091495 0.0228314952091 -0.0230376137947
0.0148495843936 0.0178040239052 -0.0203521155275
0.0166792452551 0.0257778378294 -0.00153448757057
0.0174981689664 0.0248715303626 -0.0212708274132
0.0145488028769 0.0270014685296 -0.00106444590327
0.0143614802836 0.0269981469263 -0.0129752908437
0.013694285621 0.0273642925312 -0.00999953641218
0.0128509106598 0.0278150743731 -0.00768517584418
0.0158317488829 0.0263688792778 0.00179790368062
0.0155489411426 0.0264634388209 -0.00422436669775
0.0126111135448 0.0279705655176 -0.00374567951828
0.0151754480312 0.0263440564839 -0.0240349422535
0.0148925653234 0.0266687666121 -0.0167474062731
0.0152279179679 0.026362617003 -0.0212605272712
0.0162495311776 0.0257430188586 -0.0186148759172
0.0165869370554 0.0255919210722 -0.014937474152
0.0162263636596 0.0259203114883 -0.0101259774503
0.015631056852 0.026367152943 -0.0071746472743
0.0130110935768 0.027779189073 0.00193549938588
0.0155203097245 0.0151287430283 -0.016551196135
0.0121166091075 0.0168479653463 -0.016112647787
0.0107232690393 0.020716506753 -0.0215993481255
0.012744670433 0.0190224793298 -0.0206532867039
0.0167591418948 0.0155881943509 -0.0186694190573
0.00976419809885 0.0191768426738 -0.0182836813657
0.00762413186036 0.0204495386141 -0.0184148940218
0.00409137856945 0.0218786752021 -0.0172872251757
0.0118270827904 0.0179579786143 -0.0181730731994
0.00525862570802 0.0225209361831 -0.0198898786379
0.00355872873004 0.0260991310303 -0.0240012618326
0.00786210231761 0.0217452324669 -0.0208532201796
0.00558444191507 0.0249449568628 -0.0238847635731
0.0041853766427 0.0242580159837 -0.0217020050773
-0.0214639378084 0.0196560271175 -0.0279115502863
-0.0196119993925 0.0190553316499 -0.0267256966836
-0.0212737144494 0.0154114081345 -0.0292199999094
-0.0221573228305 0.012944932046 -0.0292199999094
-0.0235776395664 0.00886214806253 -0.0292199999094
-0.0208823199761 0.00589054941714 -0.0287261062396
-0.0222430902771 0.000584999972489 -0.0285423615478
-0.0282259437171 0.00963201071402 -0.0270442666155
-0.0196951211864 0.00585562743516 -0.0263893318713
-0.0225646808279 0.00751123988919 -0.0261129997671
-0.0221196681012 0.00279331927791 -0.0261129997671
-0.0205702602948 0.012441779718 -0.0261129997671
-0.0238262018152 0.00523464639192 -0.0261129997671
-0.0211244652613 0.00962258641445 -0.0261129997671
-0.0221780796975 0.0173437946912 -0.0284093211691
-0.0265864317018 0.0119631681428 -0.0279102087258
-0.0246749798063 0.0162103729712 -0.0276823010934
-0.0242887899779 0.0016909503993 -0.0261129997671
-0.0267869057121 0.00155505299201 -0.0261129997671
-0.0265005076384 0.00245903422446 -0.0291475576876
-0.0275182381375 0.00701228853843 -0.0283579536065
-0.0293231997784 0.00651500351107 -0.0267681775698
-0.0285837209562 0.0015809570821 -0.0280877967289
-0.0238378732758 0.0185761612357 -0.0265693635802
-0.0258007461917 0.0140295617739 -0.0261129997671
-0.0229147520197 0.0147531362799 -0.0261129997671
-0.0278734830274 0.00641343829464 -0.024559000507
-0.0263102368281 0.0121561237538 -0.024559000507
-0.0239528172048 0.0100874961035 -0.0251583454814
-0.021056826657 0.0219242569573 -0.0258181705485
-0.0299724365582 0.00273198666313 -0.0253823392275
-0.026202649726 0.0052842762087 -0.0261129997671
-0.0250462198521 0.00751190221917 -0.0259074986004
-0.0224865466885 0.0194046458926 -0.024559000507
-0.0215113771636 0.0161764816294 -0.024559000507
-0.0228172234035 0.012777874723 -0.0247969806372
-0.00990364433517 0.0105426474386 -0.0292253056928
-0.00105816391656 0.00626410789685 -0.0292210291813
0.000327397855494 0.00426681997652 -0.0292202159614
-0.0133787418525 0.0115199080331 -0.0292269097908
-0.0143888335314 0.0184530001134 -0.0289075605941
-0.0171478678579 0.0184530001134 -0.0278908189246
-0.0156272947412 0.000583000015467 -0.028093815125
-0.00275842551759 0.0178156769537 -0.0287405937562
-0.00796444284743 0.0181027673029 -0.0288288058404
-0.00810316390215 0.0164533921904 -0.0261501669767
-0.00387876157765 0.018070986087 -0.0263614742641
-0.0126130029947 0.0172784896588 -0.0261390867313
-0.0101221766095 0.0179545461618 -0.0262403357957
-0.00282337952257 0.014474942246 -0.0262853168422
0.000413728349652 0.0142115479742 -0.0264258717175
0.000254562997442 0.00431411355029 -0.0264189607751
-0.00553883642577 0.0151010927104 -0.0261674119958
-0.00297373801169 0.0104701733636 -0.0262787882928
0.000182399381526 0.0109111702132 -0.0264158274387
-0.000616249604985 0.00875406587384 -0.0263811501856
-0.000378176715958 0.0171983901299 -0.0263914872849
-0.0130314870434 0.00585392117893 -0.0262816372588
-0.01476174817 0.00440479775983 -0.0263419461822
-0.0153075118517 0.00728045356338 -0.0262222685183
-0.00861259702928 0.000711293626439 -0.0264956606656
-0.00586884863307 0.00378773394984 -0.0263676268478
-0.0116773836429 0.0028481878074 -0.0264067284285
-0.0176208639143 0.00386832620025 -0.0263642727982
-0.0138748866727 0.00177550216804 -0.0264513709449
-0.0101196667858 0.0046026679239 -0.0263337113166
-0.0176837970288 0.00785023001941 -0.0261985558351
-0.0040415410411 0.00153286480628 -0.0264614689103
-0.0136760510412 0.0151880416986 -0.0261129997671
-0.018058067362 0.0135660537177 -0.0261129997671
-0.01397912279 0.0128379736186 -0.0261129997671
-0.0155731952892 0.0171619890887 -0.0261129997671
-0.0182272156779 0.0112563238706 -0.0261129997671
-0.00850570619818 0.0135952656249 -0.0261404408329
-0.00739047134561 0.00603197574376 -0.0263034254147
-0.00779654791278 0.0109865790402 -0.026199635491
-0.00362184412649 0.0048857970913 -0.026361170079
-0.012194430742 0.00961096247047 -0.026187043759
-0.00130078971416 0.00592374909076 -0.0263615155403
-0.0151259583761 0.00951959147937 -0.026161977101
-0.00313464721082 0.00782482774596 -0.0263062866277
-0.0102821968661 0.00761152820451 -0.0262449785493
-0.0108856157036 0.0124238916012 -0.0261422496324
-0.00472429701996 0.012031173496 -0.0262067429255
-0.000921017123559 0.00222223241134 -0.0264397569302
-0.0057593048121 0.00931448179145 -0.0262521070636
-0.00785495301386 0.00839277111324 -0.0262514832891
-0.00305294570377 0.0018605879752 -0.0291999608223
-0.0196519553377 0.0114630758695 -0.0281136891388
-0.0196124190969 0.00276949835922 -0.0264816135506
-0.0196149213647 0.0166457275876 -0.026298232495
-0.0108121900358 0.00467558218414 -0.0292198800113
-0.0171960540331 0.00281794731296 -0.0289218877092
-0.0139041449988 0.00723516769286 -0.0291892927114
-0.0179264062258 0.00690313638319 -0.0290291042932
-0.00949115874488 0.00284518518605 -0.0292087217717
-0.0124119703082 0.00235110370067 -0.0290840813495
-0.0141583040985 0.00403740977184 -0.0290747183664
-0.017820846387 0.00938038331003 -0.0291144735522
-0.00555707435439 0.00681891702603 -0.0292230175531
-0.00744323214059 0.00411465046567 -0.0292219290904
-0.0115221332668 0.00821031235008 -0.0292248704781
-0.00446223495652 0.00445240226936 -0.0292215532446
-0.0060835952969 0.0017680890648 -0.029220426045
-0.00895901515394 0.00750328384765 -0.0292240161666
-0.0160524973333 0.0127706981763 -0.0292281434998
-0.000474233139963 0.00845978628796 -0.0291859528441
-0.00154210648931 0.011203936041 -0.0291126993324
-0.00672207714456 0.0140094316777 -0.0291184603514
-0.00265015702203 0.00923924289955 -0.0292020882129
-0.00517018459837 0.0170241596695 -0.0289842241711
-0.00386881356774 0.0147817778397 -0.0290356247685
-0.00971595685934 0.0130588503167 -0.0292101961996
0.00193323444694 0.0164470394256 -0.0288639250351
-0.00878066948994 0.0153577028358 -0.029112730031
-0.0128844406564 0.0162645930645 -0.0291625177151
-0.00479414254038 0.0115468931373 -0.0291650672666
-0.0152868230406 0.0148361585281 -0.029223240996
-0.0182546411598 0.0148129307423 -0.0292281718758
-0.00779394021768 0.0114886872665 -0.0292205190022
-0.0193618665943 0.0182230842219 -0.0292202481416
-0.01222043351 0.0136668371902 -0.0292215541842
-0.0238066296953 0.0128870400651 -0.00639275552376
-0.0208572289639 0.0136333799337 -0.00927771474617
-0.0222578164703 0.0127557455772 -0.0120887668034
-0.0242554707971 0.0134907472633 -0.000221894120361
-0.0175169692994 0.0215396026052 0.00380000006407
-0.0246600005776 0.0137397971534 -0.0125622584556
-0.0222229320302 0.0189403837792 0.00380000006407
-0.0242815142862 0.01762137346 0.00380000006407
-0.0160998927434 0.0257740389623 0.00380000006407
-0.0141719998792 0.0248357865732 -0.00574369611167
-0.0141719998792 0.0247236087885 -0.00845800021277
-0.0246600005776 0.0133045152384 -0.0195698799793
-0.0141719998792 0.0244711734736 -0.0188325266874
-0.0170146428037 0.016606411139 -0.00796373720733
-0.0173126910028 0.016128764497 -0.0103023313394
-0.0241730801728 0.0175763268333 -0.024559000507
-0.0246600005776 0.0157231238901 -0.023165743296
-0.0246600005776 0.0181439075721 -0.004591788847
-0.0156111847864 0.0207625551949 -0.020319626959
-0.0148281735252 0.0227401071694 -0.0227885681836
-0.0237902166802 0.019580291075 -0.00680585961276
-0.0236368267756 0.0194747471484 -0.0221487906035
-0.0243336835948 0.0187563017208 -0.010922841483
-0.024449121303 0.0186998857742 -0.00205683419142
-0.014968495157 0.0192902121569 -0.00665706995244
-0.0147184327661 0.0192029839595 -0.00948975376316
-0.0145356260059 0.0220029223013 -0.000966556617121
-0.0143480096754 0.0218395829539 -0.00538608276695
-0.014194802556 0.0235835607401 -0.00335522383024
-0.0142021349487 0.0237971356733 0.00122850111668
-0.0143363755271 0.0215242477566 -0.0122880316873
-0.0143420012296 0.0216789003719 -0.0089163606821
-0.0246600005776 0.0120433992546 -0.0168493618686
-0.0246600005776 0.0173550622858 0.000677665549818
-0.0246600005776 0.0158168052484 -0.00243685400595
-0.0188483843577 0.015046082524 -0.00830026596834
-0.0183623178237 0.0174689137744 -0.00102652368636
-0.0176091851333 0.0193415475998 0.000967020032564
-0.0204276619844 0.0166632592077 0.00102095530333
-0.0155280178897 0.0195750727544 -0.00334948759669
-0.0157006523552 0.0210631319854 0.000670515862684
-0.0170109853276 0.0172207589939 -0.0045793107538
-0.0216496973012 0.0215042345352 -0.0228096537834
-0.0206642679711 0.0225719363326 -0.0194624731789
-0.0216497254993 0.0216481918632 -0.0169020377848
-0.0208171974893 0.0225536480342 -0.0139338409898
-0.0200856411675 0.0230554865228 -0.0233800665994
-0.0228108198742 0.0205056912684 -0.0137470805943
-0.0230568503309 0.0203972246152 -0.00433898871826
-0.0223646417595 0.0210509656542 -0.00893123919056
-0.0234556930175 0.0197907368667 -0.016116681664
-0.0233013859629 0.0199139219751 -0.0185555035763
-0.0217549223483 0.0216473322652 -0.011687662261
-0.020157979765 0.0181112107108 -0.0243032482512
-0.0199499630156 0.0145071158221 -0.0161540985771
-0.0192195521893 0.0161937872389 -0.0188481744871
-0.0193924364911 0.0175322986784 -0.0220519234072
-0.0212625977654 0.0140276564477 -0.0188641241121
-0.0180066867205 0.0163205595177 -0.0163994389498
-0.0171963216482 0.0189777384936 -0.0201766896933
-0.0179036693132 0.0194417673951 -0.0227368551356
-0.0228469473306 0.013692631848 -0.0217063497761
-0.0141719998792 0.0265189032935 -0.0105481613851
-0.0147827624589 0.026963272139 0.00191437999924
-0.0212649059296 0.0132863547393 -0.0146050116138
-0.0198239694525 0.0141315502534 -0.0113098350624
-0.0188097941931 0.0242969315113 -0.0150170462863
-0.0184147316389 0.0246331731647 -0.0103981507973
-0.0185270420184 0.0244548291326 -0.0187311622415
-0.0182864270325 0.0245673809995 -0.0237422915686
-0.0171633651792 0.0253976321417 -0.0212660825875
-0.0154290870671 0.0266660782458 -0.00307790320089
-0.0170585777889 0.0256105582977 -0.00664743041024
-0.0170722966536 0.0255517857605 -0.0135424000898
-0.0163931242778 0.0259963373683 -0.011420162261
-0.0163582721948 0.025975547222 -0.0173114965785
-0.0160152430364 0.0262551219401 -0.00866471628857
-0.0170824460402 0.0256449882671 0.000165874162848
-0.0191346821059 0.024159392061 -0.00471362136602
-0.0189846128368 0.0243457206636 0.0024752160522
-0.0188445927492 0.0244026264381 -0.00223129247007
-0.0189203974515 0.0242401004273 -0.0125390231428
-0.023781184475 0.0196192074104 0.00197093513407
-0.0200355592692 0.0233677714362 -0.00885246621732
-0.0211931901401 0.022306648127 -0.00620461335534
-0.0214759728774 0.0220236080582 0.0018371525673
-0.0215023780463 0.0219973051324 -0.00284050350204
-0.0231558684692 0.0203433458471 -0.000349211488848
-0.0204336328664 0.0230662618258 -0.000515402312969
-0.0156685668615 0.01938782511 -0.0170455015535
-0.0162556140477 0.017796588188 -0.0149077160107
-0.017830730149 0.0157078443016 -0.0134942111822
-0.0154830230438 0.0179931016335 -0.012152821718
-0.0191012995853 0.0152202088459 -0.00506521996405
-0.0215802820915 0.0138603577729 -0.00544559745314
-0.0225927944659 0.0147790197315 0.00127764310927
-0.0191844780723 0.0158499620015 -0.00274673970193
-0.0215772151715 0.014716314277 -0.000928295477369
-0.0167465209263 0.0260922043742 0.0149075210215
-0.0171377275494 0.0257685253892 0.0125302467752
-0.0168083186601 0.0258300647502 0.00653241812094
-0.0156023948713 0.0228895111235 0.00644387805447
-0.0179824776174 0.0205058075076 0.00620398367866
-0.0151215658006 0.0234250423774 0.0100680752107
-0.0203549085544 0.0181272233208 0.0057963109154
-0.0227497778186 0.0157339220055 0.00590019261584
-0.0204705500734 0.0181049953314 0.0119852603961
-0.0169677399575 0.0215972954018 0.0112889357708
-0.0146041803075 0.0241285078598 0.0223964783649
-0.0191440327693 0.0193110190548 0.00400216965119
-0.0181817320718 0.0204316694928 0.0144933538304
-0.0170938122083 0.0215748283333 0.0181531153183
-0.0186999948405 0.0198601540683 0.0109651925701
-0.0166985213732 0.0219277470119 0.0153458224447
-0.0176718497086 0.0208562147702 0.00883949496316
-0.0154105069468 0.0233616803666 0.0250134249781
-0.020990542199 0.0175486855848 0.0095791001445
-0.0193217496603 0.0192011893029 0.00849991292309
-0.0152590013076 0.0233959226198 0.0172443451198
-0.0168715794602 0.0218626045884 0.0224955853604
-0.0153332978571 0.0237255343775 0.00380000006407
-0.0201022520201 0.0223006081691 0.00380000006407
-0.0246600005776 0.0172101152177 0.00777445745893
-0.0246600005776 0.0168946598196 0.0104121507873
-0.0141730001196 0.0249497257259 0.015666910649
-0.019437276634 0.022440620194 0.0294400006533
-0.0169460775975 0.0245800400189 0.0294400006533
-0.0163311453846 0.0263586817943 0.0264955752179
-0.020196869539 0.0184817175142 0.0174512278747
-0.021878795638 0.016766333005 0.0146356506699
-0.0221318912073 0.0165673739122 0.0169892152298
-0.0239157271741 0.0149133521326 0.0217615208451
-0.0229299386016 0.0158328465472 0.0193797602639
-0.0226528211232 0.0158692632448 0.00828743524361
-0.0173829952259 0.0214109739634 0.024949975559
-0.0228803721448 0.0157401020134 0.0127369758077
-0.0152521284762 0.0235718977389 0.0279382702136
-0.0204390933666 0.0183850547872 0.0241039288441
-0.0183485098733 0.0203681736981 0.0206077141131
-0.0239965937985 0.0146862840394 0.0148395701961
-0.0214051834486 0.0173796044218 0.0215412972421
-0.0242952639862 0.0192577438987 0.0206902710064
-0.024100850548 0.0196213280892 0.0254332807975
-0.0246600005776 0.0173131928745 0.0259375214976
-0.0246600005776 0.0173200743094 0.0220784834483
-0.0144144876271 0.0272781972702 0.0254575032892
-0.0155530170924 0.0268228492273 0.0229367260967
-0.0150134484082 0.0270004101529 0.0123833062043
-0.0201294131837 0.0236853687174 0.023064548358
-0.0200154025435 0.023724374275 0.0184150925023
-0.0210984342565 0.022709413882 0.0149227367574
-0.0200327294092 0.0235671619759 0.0079333571258
-0.0224720640131 0.0214179791653 0.0251774257002
-0.0218889917757 0.0220002206044 0.0227420800158
-0.0207812707599 0.023106662847 0.0272119890899
-0.0215234035207 0.022365241597 0.0198077373098
-0.0219993770629 0.0218898018854 0.0174121150305
-0.0230295384053 0.0208613055841 0.0277028040205
-0.0240164895639 0.0195396828131 0.0121362362626
-0.0243500612782 0.018952420961 0.00622109557907
-0.0211937667617 0.0225480175814 0.0103526197159
-0.0220022394893 0.021647335904 0.00809501686695
-0.0214571609993 0.0221018405107 0.00565797284247
-0.0234840053782 0.0202594730568 0.0168987954678
-0.0230039248785 0.0206940319049 0.0102991376474
-0.0222738886193 0.0215541860966 0.0129710301984
-0.0234075243889 0.0155055462336 0.0240636875873
-0.0193696088825 0.0196211795854 0.0285094023115
-0.0173414084927 0.0215506499315 0.0281213158551
-0.0218701604197 0.0171064101118 0.0264014819083
-0.0176341162611 0.025564390017 0.0230038079653
-0.018718862261 0.0247955553023 0.0259625451386
-0.0183271912734 0.0250158332826 0.0168459561369
-0.019057352236 0.0244268584073 0.0139696065478
-0.0189064082783 0.0245050158491 0.0107794603598
-0.0179655059971 0.0253319316776 0.0203844875062
-0.0157653838796 0.0265957583554 0.00938682477915
-0.0163911159151 0.026351203256 0.0182627533195
-0.00722282707137 0.0277759991586 0.0149611878725
-0.00727494618628 0.0277759991586 0.00794545544015
-0.0126957624882 0.0277759991586 0.00238824155599
-0.0115751342044 0.0257100542138 0.0277575186415
-0.00991026477257 0.0255525838162 0.00923066789017
-0.0105334383272 0.0260307938236 0.0256002088996
-0.00898375872382 0.0262728972046 0.017101655132
-0.00934370313265 0.0259960389212 0.0141108849771
-0.0109563451112 0.0255928145087 0.0195503663991
-0.0121665912354 0.0252028592365 0.0216670109908
-0.0107071617251 0.0250727940904 0.00560575478554
-0.00876529158243 0.0266816766652 0.024334302895
-0.00729061803293 0.0268693481336 0.010701891885
-0.00693622374409 0.0272914328102 0.0177275616622
-0.00929207951002 0.0256262377185 0.00360536356502
-0.00791662291774 0.0263821794773 0.00567282015236
-0.00726539816452 0.0272555913194 0.0213765987179
-0.0141719998792 0.0273566431218 0.0196583525317
-0.0141719998792 0.0262257063889 0.00671994145804
-0.0130808459694 0.0277759991586 0.0112561322943
-0.00988169103621 0.0277759991586 0.022438849865
-0.0135509513207 0.0277759991586 0.0174098117154
-0.0141104040004 0.0274485963517 0.014599200399
-0.0139389921948 0.0275249962767 0.00454218902831
-0.0141719998792 0.0248072510496 0.0130918139313
-0.0141719998792 0.0246544707274 0.0192440683017
-0.0139098301031 0.025829867903 0.0276754155439
-0.0126751331847 0.0248948581829 0.0174395238747
-0.0117536035063 0.0250340156027 0.0138852264643
-0.012842246597 0.025048434289 0.0241737086341
-0.0114359793239 0.0250400217133 0.0112312565832
-0.0114381444664 0.0247913176951 0.00229328690156
-0.0130049015348 0.0244730689566 0.00503193470319
-0.0132592431451 0.0244948653745 0.00821590775892
-0.00203100754525 0.0286660712342 0.00146900000982
-0.00596223118774 0.0293798931807 0.0294400006533
0.000500724696242 0.0284724082744 0.0294400006533
0.00214400002733 0.0287014636184 0.0189465521174
0.00214400002733 0.0295996508637 0.0254126646988
0.00214400002733 0.0285926328507 0.0159534949538
-0.0120290471573 0.0285037698229 0.0154775134735
-0.0123584963702 0.0284036365294 0.0237824659194
-0.012679519333 0.0282856971141 0.0266322040996
-0.0105825215649 0.0291262780313 0.0260804922056
-0.00861162094754 0.0296599653052 0.00717868903976
-0.0106764883572 0.0289920468577 0.0115893771685
-0.0113400434241 0.0287339485268 0.00932665324353
-0.00967353830152 0.0293927552917 0.0159068717044
-0.00771283699146 0.0277759991586 0.003913311365
-0.00455371313183 0.0277759991586 0.00838960162506
-0.00504117460941 0.0277759991586 0.0143773184204
-0.00974718826759 0.0277759991586 0.0186680146787
-0.00707935389109 0.0277759991586 0.0266532474619
-0.000957026073864 0.0308839995414 0.0229736183744
-0.000808491789983 0.0308839995414 0.0258020258287
0.00136987625882 0.0308839995414 0.0272663621154
-0.00236359810803 0.0306670535456 0.0102632567798
-0.00290411785212 0.0307520320366 0.0183204486673
-0.00295583046112 0.0308610870466 0.026662408852
-0.00114534198998 0.0308514180421 0.0203020181573
0.00145543298208 0.0308154669019 0.0206611548225
0.000801594388548 0.0308001190231 0.0159007785651
-0.000915031173838 0.0307694480535 0.0135285128634
-0.000483444130534 0.0306532208376 0.00842139260182
0.000844673064043 0.0307116507492 0.0109888513785
-0.000216024755727 0.0305637790744 0.00449124734888
-0.00455416776362 0.0305518073261 0.0166841954335
-0.0038291831513 0.0305253005718 0.00574515864011
-0.0036345190315 0.0308319120807 0.0291376267271
-0.00482026420304 0.0306106653799 0.0248223887743
-0.00461218827742 0.0305147507616 0.014271641463
-0.0106655011847 0.0289411192689 0.0294400006533
-0.00597087212829 0.0302483516675 0.0120326041978
-0.00636168178434 0.030098071979 0.0064252836
-0.00650321785251 0.0303095069577 0.0226250249851
-0.0055634652707 0.0304387503217 0.020191447729
-0.00430287767344 0.0304849600104 0.00820761255926
-0.004916642393 0.0303111403181 0.00366607824409
-0.00860136477113 0.0297253552617 0.0126810040054
-0.00822261830848 0.0298805917189 0.0202991819548
-0.00631918987046 0.0304007617949 0.0270968656794
-0.00738247423921 0.0300592776517 0.0171337159617
-0.00744520791563 0.0301068313184 0.0247455188135
-0.00299321308487 0.0280399968585 0.0283152777728
-0.00414845521797 0.0278739670934 0.0256949444441
-0.000642536167154 0.0280865775401 0.0199775923777
-0.00167307588815 0.0280728720412 0.02394802492
-5.4418151131e-05 0.0282653392406 0.0257344611318
0.00199129833667 0.0283954194302 0.0226809601792
-0.001563748322 0.0279745736873 0.0160115129578
-0.00109871899209 0.0279853761372 0.0120634798697
-0.003618353795 0.0278394970473 0.0111354601488
0.000400392779132 0.0280777434488 0.014039727682
-0.00156160486396 0.0279485735426 0.00933704846032
-0.00453036369101 0.0278305474004 0.0220048282915
-0.00354095129108 0.0278740394431 0.0188451480049
-0.00422022552601 0.0277808112245 0.00482237440047
-0.00053453678468 0.0279974023452 0.00667142980977
0.00104517927881 0.028096245867 0.00861099951935
0.00185295537574 0.028146788769 0.0057008357814
0.000439005745153 0.0280583173251 0.00320252606667
-0.0125801798422 0.028208304901 0.00698594006508
-0.0127005601679 0.0282487338491 0.0212570974213
-0.00692456151238 0.0297538655769 0.00248577121267
-0.00975818341923 0.0292306935727 0.00520714831381
0.0301082234805 -0.00360058135922 -0.0179272377875
0.0299262706005 -0.00451999339187 -0.0209051806803
0.0301668766927 0.00174800003879 -0.00834737787179
0.0269712556799 0.00174800003879 -0.00364712014673
0.0267497813704 0.00174800003879 -0.00104060496657
0.0270900496475 0.00174800003879 -0.0129121920933
0.026338807066 0.00174800003879 -0.0151536041102
0.0249704491893 0.00174800003879 -0.0112651175014
0.0288520980895 -0.00757500017062 -0.0221957384892
0.0273014197729 -0.00757500017062 -0.000856078151647
0.0243072908735 0.000346018336682 -0.0164432086128
0.02550809686 -0.00333450210034 -0.0214923353119
0.0260955630996 -0.00648141305524 -0.0228076307743
0.0245126194473 -0.00141902605151 -0.0143694235973
0.0249140463028 -0.00251551455335 -0.0176422447099
0.02399337871 0.00105246932523 -0.01399389151
0.0254292243864 -0.00463299023398 -0.0192407625809
0.0254301656696 -0.000111953902775 -0.0216584178433
0.0265365814575 -0.000939201986308 -0.0238891679555
0.0269923940925 -0.00262124582177 0.00263869282405
0.0277804889154 0.0016453269813 0.00310718773883
0.0303453716337 0.00075227869169 -0.0134612147211
0.0301734423985 0.000764974754846 -0.0226983540432
0.0302500686154 -0.000312839921534 -0.0188794506875
0.0303009980342 -0.000141671071926 -0.0164302993885
0.0304600710039 -0.00020743882609 -0.002685535951
0.0302124156586 -0.00363211003193 0.00285544920143
0.030309074773 -0.00223668089956 0.00101008930148
0.02620306831 -0.00574808725275 -0.00222858724635
0.0257088161412 -0.00548545811033 -0.0129390149337
0.0244212950686 -0.00123853184141 -0.0118415915781
0.0257002728817 -0.00445164563273 -0.00474675326997
0.0254776595164 -0.00409989767874 -0.00767062538798
0.0252037324363 -0.00360862470531 -0.0107927755782
0.0247581255373 -0.00196163040952 -0.00897113879202
0.0259764581691 -0.00668738609301 -0.0159290588237
0.0252026099921 -0.00397825267949 -0.0152272217467
0.0286733075912 -0.00757500017062 -0.0116829836798
0.0251677916839 -0.0005999441513 -0.00385034930736
0.0260751588289 -0.00377187798245 -4.44357576458e-05
0.0258073662477 -0.000750135604164 -0.000922532091909
0.0267368626383 -0.00569042333632 0.00277743682073
0.0247961197457 -0.00160089131141 -0.00625980597814
0.0242837320644 8.44826361084e-05 -0.00829144030996
0.0294678467759 -0.00735018655818 -0.0166580854555
0.0299023559307 -0.00520998975455 -0.0147301683795
0.0299794054732 -0.00498912409325 -0.0119462789931
0.0297533165232 -0.00628730861501 -0.0101083350188
0.029763959846 -0.00568306417134 -0.0185552322006
0.0299074772751 -0.00588154642131 -0.00383424304792
0.0300579734094 -0.00533343206218 0.000428270021115
0.0302237753959 -0.00259879149578 -0.014749693934
0.0301597778209 -0.00199692128406 -0.0226111251361
0.0303768274553 -0.00157828643229 -0.00727016550025
0.030285891699 -0.0029124913346 -0.00229925223651
0.030256317343 -0.00265682594846 -0.0119490770945
0.0301472521954 -0.00414164647086 -0.00787220598008
0.0296060262094 -0.00597397846376 -0.0249464049665
0.0298697148865 -0.00706859247903 0.0271144820823
0.0297870091452 -0.00735800914142 0.0247975386229
0.0298146979275 -0.00726111629175 0.0213276974024
0.0289032276196 0.00174800003879 0.0140525573772
0.0298352047828 -0.00454440934275 0.0294400006533
0.0305560522742 0.00137005530722 0.00931924293807
0.0307666147092 -0.000102263421422 0.0231826924663
0.0306608586901 0.00063721590498 0.0204168925696
0.0304351029759 0.00174800003879 0.00675571708909
0.0279534859394 -0.00144370737993 0.0271509757376
0.0305069207888 0.00152569564002 0.00412428897064
0.0308250833912 -0.00108423633453 0.0250952914533
0.0306973558364 -0.000741955611605 0.0166764048548
0.030628538975 -0.000209243465476 0.0121404896955
0.0305220431736 -0.0011216806341 0.00512104838141
0.0296416516479 -0.00606794036131 0.00382422914399
0.0302923212572 -0.00410329409332 0.00701684510617
0.0304920213299 -0.00462846546027 0.0247118324081
0.030428025798 -0.00445196419781 0.0189797755321
0.030347243953 -0.0040805875135 0.0106296696248
0.0306256689324 -0.0035021980761 0.026955199147
0.0305644392569 -0.00170176272 0.00849667841438
0.0305374637446 -0.00297696332304 0.0158799114294
0.0305081288871 -0.00410894641604 0.0219979905488
0.0306705494186 -0.00193828249936 0.018854717162
0.0273432008465 -0.00468991383307 0.00758338048732
0.0273631417104 -0.00465233862788 0.00514291414296
0.0270217083654 -0.00727720443031 0.0072484031281
0.0279366006351 -7.63845948796e-05 0.00495743706597
0.0272458374985 -0.00755538356983 0.0200011153353
0.027902671817 -0.000789554505619 0.023900480879
0.0274562084774 -0.00623629885776 0.0267115517831
0.0280994074902 0.00089117019163 0.0255091741646
0.0271325712362 -0.00717303526496 0.0168294959764
0.0274650882485 -0.00545936778934 0.0240093178686
0.0273855979978 -0.00510275883671 0.0192600272658
0.0277095549951 -0.00302054258956 0.0246216915286
0.0276583671311 -0.00288844248196 0.021949438003
0.0273900846905 -0.00424377799212 0.0113262008273
0.0272960333422 -0.00496448935616 0.0147779202629
0.0281208571194 0.00135609913493 0.0116231586717
0.0275831788911 -0.00276410558733 0.00892117683677
0.0277481944578 -0.00149959852461 0.0168956151648
0.0281494893141 0.00157550638943 0.020829870944
0.0278471394798 -0.000741387152657 0.0207750798197
0.0280392908171 0.000731060131877 0.00808092555716
0.0278773891395 -0.000509585334739 0.0128043912971
0.0297336302383 -0.00689289630657 0.00636508243203
0.0299614971732 -0.00650394853056 0.00967409479047
0.0302562464327 -0.00548705929078 0.0167499775753
0.0301466207225 -0.00585420536661 0.0138908251342
0.0163599992005 0.0264625510036 0.0251858966023
0.0117522530393 0.0255049201242 0.00341199990362
0.0163674147979 0.0243846731755 0.0294400006533
0.0141549513672 0.0269990004599 0.0144627081417
0.0137875981386 0.0269990004599 0.0210305367248
0.0151872454975 0.0269990004599 0.0281805949
0.0141419052944 0.0269990004599 0.00903534219632
0.0120979540556 0.0269990004599 0.019142673961
0.00914101468027 0.0269990004599 0.0115676413753
0.0101314509914 0.0258404278902 0.00589444328582
0.00999608311116 0.0264675919038 0.0260178051767
0.0100000148812 0.0261388854092 0.0139735738719
0.0160480168588 0.0227589074191 0.0123358566138
0.0122595403512 0.0246751694481 0.00728415942822
0.0141247437619 0.0236661540573 0.00589804727172
0.0138374351741 0.0239371472769 0.0129381699404
0.0140698822734 0.0237428961376 0.00871886685863
0.0162423993805 0.0225773818824 0.00768019064435
0.012381514579 0.0248018984978 0.0149667610744
0.0168082112938 0.0226042192362 0.0260240432643
0.0145667101058 0.0236444976524 0.0178577604633
0.010733961711 0.0256016180439 0.0102063637642
0.010769861589 0.0258776824092 0.0206975191725
0.013983748955 0.024250859204 0.027619145405
0.0128309388511 0.0246817478811 0.0197337794373
0.0106765146732 0.0260008283352 0.0231826180684
0.0127176986948 0.0248876570518 0.0247488618128
0.0147925299016 0.0236076132838 0.021084290771
0.0147246647168 0.0237695812817 0.025454802273
0.0103783693897 0.0259899559796 0.0168143472418
0.0176810007542 0.0229771280267 0.00532677102062
0.0173628289242 0.022068177015 0.0103926451199
0.0176742458713 0.0224359367993 0.0198626754089
0.0174066071313 0.0256146453515 0.022155855615
0.017380680287 0.0257189329138 0.0273729661533
0.0169514655981 0.0259535509417 0.0192515423675
0.0159576528205 0.0264801106391 0.0130638997888
0.0163056968643 0.0260429166324 0.0051485039221
0.0168420594677 0.0259465826349 0.0159804058574
0.00653816012493 0.027297078114 0.0132987710652
0.00837709161965 0.0270047960937 0.0215359760838
0.00783726630749 0.0271358068908 0.0241143227805
0.0076044022088 0.0270490877417 0.00939714861573
0.00357241261898 0.0278942995193 0.0139215652502
0.00402814671936 0.0277679620794 0.0100059277199
0.00443088161162 0.0277546349752 0.0174112577738
0.00569756989701 0.0275209957436 0.0195144272698
0.00656230247294 0.027319322266 0.0162892910567
0.00739637170804 0.0286335882235 0.0294400006533
0.0131247005147 0.0269990004599 0.0263595391674
0.014410378556 0.0269990004599 0.0237781099205
0.00868925739534 0.0269990004599 0.0191228408054
0.0121501920011 0.0269990004599 0.0119797160476
0.00789844283023 0.0269990004599 0.00643929460652
0.0109352740967 0.0269990004599 0.00789473275811
0.00239700933926 0.0305748495213 0.00900779489498
0.00259620885208 0.0307862771398 0.0233536076245
0.00272131210536 0.0306465106595 0.014126941454
0.00214400002733 0.0303959019989 0.0065500681064
0.00388201876993 0.0307024260932 0.0284993766107
0.00342889619711 0.0306610403108 0.0177526733027
0.004351008827 0.0306294708734 0.0252772897159
0.00478478791686 0.0305067134519 0.0154485921823
0.00928993807392 0.0295159869841 0.016055810392
0.00963632328831 0.0292899079177 0.00721163911763
0.00887620182721 0.0294724423004 0.00456317632819
0.00923554017788 0.0272503318665 0.00360220897298
0.00421980632521 0.0295232828949 0.00341199990362
0.00480140742401 0.0303734040339 0.00636123467149
0.00660184345428 0.0300524955135 0.00799283154904
0.00637890709296 0.0300461219676 0.00481699550984
0.00567173334214 0.0302798119533 0.011118553024
0.00712707550007 0.0300397210754 0.0136826962246
0.00635396517516 0.0302920222403 0.0203668469519
0.00660094553139 0.0302025611367 0.0176600770489
0.00818920512087 0.0299231928165 0.0251603454978
0.00684949375645 0.0302237730644 0.0232395608041
0.00825142714286 0.0297453181343 0.0114115168038
0.00623236928629 0.0304192972789 0.0271723284473
0.00972789553757 0.0295164924189 0.0273182702507
0.0106951677552 0.0290105449332 0.0108807974677
0.0108033168692 0.0290463541414 0.017791039633
0.00978825527207 0.0294470568509 0.0227069306555
0.0141510332888 0.0274086425318 0.00472938412608
0.0136985268679 0.0277278982302 0.0168212156882
0.0114384044534 0.0287357257212 0.0134787036661
0.0118926384298 0.0286625287347 0.0229026373555
0.00503172987739 0.0277889685148 0.0255360415501
0.00364055722743 0.0280156132239 0.0211818054075
0.00416875655503 0.0280380592886 0.0276019679513
0.00550195001214 0.0276142697295 0.0226980343003
0.00803696448731 0.0271296941351 0.0274874507898
0.00606662037675 0.0273242326821 0.00460539613291
0.00403973969816 0.0277586703761 0.00689622964072
0.029285846643 0.00865258064957 -0.0041540412545
0.025484110726 0.00912899989635 -0.00940463953256
0.0288189756262 0.00912899989635 -0.0198288963683
0.0231189814245 0.00912899989635 -0.0171170309409
0.0261192136921 0.00912899989635 -0.0211146691484
0.0261205291173 0.00912899989635 -0.00484000161575
0.0283914002751 0.00174800003879 -0.0187026306639
0.0270559406538 0.00174800003879 -0.00691268493902
0.0263420948083 0.00174800003879 -0.00915391116403
0.0286876627257 0.00174800003879 -0.0102886442559
0.027616733431 0.00174800003879 -0.0219858225082
0.0260634376629 0.00912899989635 0.00174873561761
0.0240858540438 0.00587369632258 -0.00436300818947
0.0259305785841 0.00690244245821 0.0010031845393
0.0249506083225 0.00746103488416 -0.00160231411668
0.0262451291424 0.00308294567379 0.00103188113672
0.0254642200989 0.00497540876526 -0.000723256339991
0.0252562238585 0.00174800003879 -0.00541841183106
0.0224735233096 0.00576273374866 -0.0102735969232
0.022844416285 0.00661266917825 -0.00773407847841
0.0252104497117 0.00273082732828 -0.00240584672023
0.0239755062528 0.00358177182788 -0.00656015838423
0.0235190458784 0.00294148610863 -0.009211433556
0.0258722029948 0.00174800003879 -0.0183025115473
0.0243537317054 0.00465082230998 -0.0208267559681
0.0272442191031 0.00628724339422 -0.0257239993662
0.0274666119484 0.0037510787703 -0.0257239993662
0.025776490727 0.00685028392323 -0.0241135168723
0.0255559412416 0.00471496938524 -0.0229546528245
0.024055995941 0.00737135150154 -0.0213279190906
0.0214335089005 0.00895407952027 -0.0154724846814
0.0220354894956 0.00660194140559 -0.0127101505246
0.0268137743565 0.00522401253552 0.00267433042704
0.0301822005313 0.00191859122924 -0.0205414681309
0.0302449636113 0.00174800003879 -0.00451345465175
0.0289386039884 0.00174800003879 -0.0151155373769
0.0300265670215 0.0038800295917 -0.0186053796979
0.0304135608015 0.00236995509949 -0.00166488334196
0.0300939548304 0.00290657486139 -0.0232738668293
0.0304707271808 0.0021825326173 0.00121974829541
0.0297975180561 0.00508896748602 -0.0252524545945
0.0300377914791 0.00409503427642 -0.0153390192497
0.0299514549291 0.00425429982616 -0.0210229506739
0.0298731047231 0.00604458912202 -0.00390866032618
0.0300054617719 0.00482017292467 -0.00839745345786
0.0300421586675 0.00439005444964 -0.0110012630879
0.0302110027638 0.00351289259574 -0.00645826807337
0.0297061673605 0.00658969994776 -0.0125404499984
0.029541867431 0.00751411278034 -0.00953357884015
0.0291336340941 0.00829703006315 -0.0247659549604
0.0295785696274 0.00753954814339 -0.00672713014357
0.0295814066145 0.00652959591548 -0.021685068731
0.0295883219156 0.0068872438934 -0.0158648159303
0.029615114375 0.00654099490017 -0.0192869622691
0.0230245137755 0.00399626561541 -0.0128993775525
0.022311414396 0.00582961243059 -0.0149940319415
0.0233649014237 0.00335104371879 -0.0158141840007
0.0238661954626 0.00326011096313 -0.0188423935948
0.0229825620776 0.00504160557454 -0.0176029510281
0.0301149980709 0.00447409493479 0.00208267285829
0.0295252384905 0.00792727310299 0.00103869212447
0.0298871710613 0.00598847205474 5.24509506194e-05
0.0176829993725 0.0189631115522 -0.00564443839954
0.0176829993725 0.0173075867351 -0.0116226283953
0.0176829993725 0.0167691868811 -0.00801827482376
0.0176829993725 0.0205942049156 -0.0108546842961
0.0176829993725 0.0222207733099 -0.0150603018576
0.0176829993725 0.0190874730394 -0.00903192826188
0.0176829993725 0.0154523024093 -0.0103017589423
0.0176829993725 0.0205974172355 -0.0177236600568
0.0176829993725 0.0181170854265 -0.018777603713
0.0250893492959 0.00912899989635 -0.0234655507288
0.0266722611326 0.00912899989635 -0.00713253585432
0.0257097409897 0.00912899989635 -0.0165053111124
0.0238193721633 0.00912899989635 -0.0194299022643
0.0271127755172 0.00912899989635 -0.0122175836936
0.0236056002719 0.00912899989635 -0.0144120538939
0.0238837395797 0.0150686606949 0.00340900011361
0.0269104893746 0.00912899989635 -0.00182473753066
0.0231454719363 0.00912899989635 -0.0110288844145
0.0176829993725 0.0221323155908 0.00106802984361
0.0176829993725 0.017107236104 -0.00438912280602
0.0189236175837 0.016246035302 -0.0223320340719
0.0192912172538 0.0143410379234 -0.0208506421683
0.02078450347 0.0137275809561 -0.0224425356854
0.0183689413017 0.0184211655571 -0.0238204201569
0.0206614511671 0.0117077273605 -0.0195627038267
0.0205943637678 0.0102877907805 -0.0174090530266
0.0230361857831 0.0101250794203 -0.0214988870886
0.0176829993725 0.0235579569619 -0.0114166251366
0.0176829993725 0.0241494519047 -0.00922490521476
0.0238465058288 0.0188467960368 -0.0194148789264
0.0223975324497 0.0205259938091 -0.0253047227401
0.0235369984572 0.0193713698373 -0.0137421248684
0.0236209413809 0.0193914431879 -0.00849787535155
0.0238911336806 0.0188630712187 -0.0163926940865
0.0230255345479 0.0198259318837 -0.0215937660402
0.020652285903 0.0224721481646 -0.0182750536993
0.0213156050058 0.0218277166121 -0.0227900537423
0.0204053237694 0.0227476048103 -0.0148314215495
0.0199918142661 0.0229010700586 -0.0243346247296
0.0198589212954 0.010597346329 -0.013744506922
0.023769701963 0.00912899989635 -0.00683266325068
0.0283074104353 0.00912899989635 -0.01734153038
0.0253658064095 0.0161126664996 -0.0251013891931
0.0230728566117 0.0178754719861 -0.0257239993662
0.0267514982493 0.00949008768298 -0.0257239993662
0.0276769463763 0.0125727261082 -0.0155276964873
0.028459028499 0.010624470269 -0.0217934982574
0.0275353716774 0.0132190207408 -0.00714626985773
0.0283428993726 0.0112943139574 -0.0114701143911
0.0264361842231 0.0149545491493 -0.0230883914681
0.0274421377111 0.0129009331717 -0.0199831728303
0.027003169758 0.0139545429577 -0.0174513623292
0.0276737396645 0.0121239554956 -0.0246451347299
0.0196504228766 0.0235729753947 -0.00388101968134
0.0202218484863 0.0231891410903 0.000292453598257
0.0192918728234 0.023551016608 -0.0207201152301
0.0200182051882 0.0231444577298 -0.0110145266766
0.0183427532736 0.0246300964037 0.000570277969366
0.0178307556248 0.0245532153001 -0.00518749797802
0.0184687685495 0.0201692927778 0.00261660728879
0.0177656374121 0.0149537714412 -0.00654687837277
0.0224625816578 0.0135086509311 0.00116288686393
0.0212879073449 0.0133310013464 -0.00156013096789
0.0203340146117 0.0155563664543 -0.000277313156509
0.0211337408846 0.0163383007315 0.00255117249335
0.0190818314601 0.0181242244066 0.000885563362429
0.024128023688 0.0116284531387 0.00187979614286
0.0195333524382 0.0150080345653 -0.00276331009173
0.0182043879581 0.0178370323344 -0.00137624506977
0.0231421077616 0.00957383305265 -0.00449922580534
0.0246043884842 0.00977780350533 -0.000264290556862
0.0213600987167 0.0102131393561 -0.00760127698172
0.0212954177821 0.01123873767 -0.00538946416204
0.0201096741548 0.0107146312634 -0.00965531164283
0.0187844217501 0.0128599162522 -0.00809013322386
0.019754910164 0.0128950953532 -0.00551181727096
0.0229486402181 0.0110579567664 -0.00155548314377
0.0253739980936 0.0171097078117 -0.00293397621891
0.0247657464407 0.0175840910495 -0.0228581672645
0.0248898286164 0.0175935059746 -0.0137435473017
0.024732806437 0.018011979155 -0.00480935115494
0.0260757949768 0.0161287689614 -0.000566749134018
0.0252646128476 0.0171074480008 -0.0106817638923
0.0251794940208 0.0174868976251 0.00141882946462
0.0263752433357 0.0154125324462 0.00219226654214
0.0256508674555 0.0163230821041 -0.0199877661603
0.0259372945784 0.0159611980061 -0.0170887528432
0.0262223534105 0.0157802782832 -0.00669328855869
0.0263176020779 0.0155056128916 -0.0121957150722
0.0269930634055 0.0145174380494 -0.00172773386601
0.0265647095697 0.0151678499509 -0.00878819111924
0.0269989265594 0.0144123879663 -0.00458055477335
0.0274828823586 0.0135938222251 0.000827903506395
0.0265437094909 0.0150152693395 -0.0147931237946
0.0271941674253 0.0138069517323 -0.0108409344676
0.0181552407895 0.0124895123809 -0.012386781597
0.0187541153733 0.0118332671594 -0.0157251174548
0.0182937455746 0.0136377782322 -0.0178886145241
0.0233550270991 0.019901541582 -0.00100443046741
0.0233586241776 0.0197822791053 -0.00592091158765
0.0220927859565 0.0211930968214 -0.0132581343063
0.0220249464418 0.0211965685327 -0.0167416523192
0.0225359035475 0.0206928437404 -0.0109631669548
0.0211186865227 0.0223647443593 -0.00163669841165
0.0209838617607 0.0224408295314 -0.00596333758009
0.0212304606898 0.0221546052245 -0.00828648062788
0.0221059663951 0.0213875158227 0.000804933544339
0.0286184823655 0.010713687688 -0.000220777853059
0.0284261086059 0.0112189949906 0.00287983181989
0.0287459602616 0.0103821637638 -0.00783654664571
0.0284931428342 0.0112078201952 -0.00295350700187
0.028692772053 0.0105974302369 -0.00559651553807
0.0287119873489 0.00916300559682 -0.0147209039511
0.0277108513787 0.0126259997487 0.0195013761347
0.0305020008236 0.00253889348371 0.0118625414871
0.0305020008236 0.00407110436093 0.027624240665
0.0305020008236 0.00268827434852 0.0218032249724
0.0305020008236 0.00377275824466 0.0248878806364
0.0288298890814 0.010869427691 0.0112641821173
0.028023180399 0.0124186298831 0.00951118333817
0.0284653029291 0.011853607313 0.0167616682389
0.0284717274686 0.0121155562872 0.0228496307508
0.0285149384074 0.0113207766054 0.00718097191807
0.0278634366845 0.0070338888197 0.0294400006533
0.0259338209907 0.0120684636466 0.029254133045
0.0255139787739 0.0124531587091 0.018260105963
0.0274836724826 0.0126259997487 0.00506249457202
0.0278849878767 0.00323062770518 0.0277537860292
0.0276599128832 0.00364924904016 0.025211341369
0.0268244116724 0.00682558329796 0.0240216829448
0.0270386430693 0.00609453981747 0.0266616677736
0.0256499291649 0.0110788918745 0.0164216052039
0.026346427947 0.0083396257765 0.0148550848273
0.0258530800554 0.0106460279767 0.0262143505818
0.0255568184221 0.0112614966348 0.0114911802982
0.0263614209204 0.00849605908947 0.0208517083546
0.0260181345856 0.00990248587611 0.0232003510054
0.0264551801301 0.00802504917825 0.0177778499105
0.0271673692125 0.0053714448329 0.0203018356203
0.0258278144045 0.0105034146439 0.019496652217
0.0258841944167 0.00992999020654 0.00952397467931
0.025858838798 0.0101348069701 0.00486967775895
0.0265682881933 0.00750821317851 0.00397793170161
0.0254519991577 0.0123476142525 0.0137214016546
0.0254519991577 0.0120854527465 0.0212039916207
0.0259300629895 0.00968185988922 0.00708839758022
0.027291556478 0.00481749411141 0.0177439971404
0.0277639361506 0.00296951672181 0.0159638316505
0.0274556220083 0.00406114591643 0.013211769533
0.0276288399602 0.00324612531901 0.00786346598167
0.026693723032 0.00677767271198 0.00705750390681
0.0264348220591 0.00788054954946 0.0111106547423
0.027282125445 0.00449196778654 0.00539244557396
0.0276649854364 0.00352425015499 0.022066188831
0.0269762763408 0.00595231617561 0.0155630460594
0.027203354759 0.0049291764352 0.0101001622773
0.0303456114472 0.00405773912982 0.00769659679054
0.0303443828137 0.00539957669339 0.0188411296248
0.0304682110737 0.00391545485382 0.0157560292495
0.0302881023756 0.00529407286999 0.0137108355159
0.0302592749222 0.00521849867544 0.0109027062527
0.0302549677685 0.00459428193047 0.00535018767424
0.0290891517069 0.0101855941629 0.0136038549007
0.0291259883356 0.0102994107656 0.0207129058578
0.0295463461619 0.00926107203728 0.0269933766994
0.0290449308334 0.01067286772 0.0250494290951
0.0294258945863 0.00918359389633 0.0157882209787
0.0290949037012 0.00980320965329 0.00521648845907
0.0295243631377 0.00898249425982 0.0186786860613
0.0295108036182 0.00853890128644 0.0111244693147
0.0295507835157 0.00789941660924 0.00382765424489
0.030015125905 0.006369520124 0.00862706126282
0.0291506549203 0.00982566714478 0.00892290909743
0.0297771459604 0.00716629380618 0.00635996366178
0.0299547578318 0.00749655975709 0.0239510180992
0.029960790178 0.00703218073668 0.0159592221005
0.0300218921961 0.00705731270265 0.0216378155341
0.0302746759217 0.00611215731444 0.0259115930858
0.0298982140427 0.00174800003879 0.0178854479906
0.0284263144918 0.0123540997805 0.0283715660487
0.0245914277477 0.0187001648665 0.0131864092781
0.0249210916748 0.0184106947832 0.0197484367157
0.0246790589217 0.0186540825918 0.0161929433466
0.0257142002077 0.0129277749328 0.00341199990362
0.0208312501717 0.0211857380136 0.00341199990362
0.0235818825383 0.017423397083 0.00341199990362
0.025804493318 0.0126269999892 0.00722035364014
0.0277992445449 0.0126269999892 0.0127334096697
0.0234860746553 0.0187171959706 0.0294400006533
0.0218947760027 0.0166286058966 0.00507918156454
0.0194439201279 0.0197241437872 0.00887696840751
0.0202565385517 0.0186977712667 0.0121970019297
0.0182370807736 0.0212484345411 0.0125323429543
0.0203391156881 0.018593472741 0.00368887199762
0.0195148153784 0.019634599993 0.0144955893313
0.0195379989091 0.0196053181823 0.00595328444566
0.0208530822226 0.0179443105857 0.00883783825679
0.0227372019491 0.0155645851748 0.00804148374615
0.0176839996129 0.0219626372912 0.016845236732
0.0224000231759 0.0163452053291 0.0273389410003
0.0196084038411 0.0196701779749 0.0237210733739
0.0204360024656 0.018745664295 0.0261384882837
0.0191675831575 0.0203835889827 0.027289058284
0.0212512958649 0.0178625517232 0.0291276557857
0.0176856005596 0.0223142915594 0.0290069364707
0.0185999200509 0.0247600588065 0.0166457742718
0.0194998073295 0.0241571509033 0.0214708219996
0.0195571617054 0.024206468245 0.0276342179794
0.0204622729287 0.0232260804086 0.0149536223963
0.0212784482718 0.0224681565738 0.0172467793793
0.0217662041898 0.021935404602 0.0135625761426
0.0211978814874 0.0226827145893 0.0258709216214
0.0227190052668 0.021176185883 0.024193178082
0.0204780262845 0.0233475804171 0.0236196007781
0.0216872004323 0.0221409748713 0.0217138007967
0.0197638369059 0.0237234179109 0.0105955390344
0.0191434420523 0.0240994328368 0.00352387803153
0.0196446775269 0.0237681519726 0.00785937930535
0.0196207658282 0.0240114316426 0.0190556659801
0.02367409167 0.0143812525846 0.0122254880212
0.0187109947907 0.0206498604627 0.018932814949
0.0244798513105 0.0133635430068 0.00524776733448
0.0215099996371 0.0171145952326 0.0160644903001
0.0235145818896 0.0145827203961 0.0147450042925
0.0219920619432 0.0165057295096 0.0133645661268
0.0248305830722 0.0129205534907 0.00953631635261
0.0198421215064 0.0192211980744 0.0172351396007
0.0215510669105 0.0172804409303 0.0243826755364
0.0187675271691 0.0206216833726 0.021352395938
0.022735082464 0.0157427186392 0.0222796601652
0.0238607612683 0.0144969073187 0.0265745969286
0.024768422843 0.0133180922972 0.0249623382555
0.0242052881984 0.0139257621476 0.0223605518903
0.0228021756468 0.0155138629465 0.0180335323714
0.0204908484714 0.0184390340241 0.0199073297539
0.0176839996129 0.0243585020656 0.0141949721094
0.0176839996129 0.0236383677697 0.0237521828038
0.0177716225743 0.0250560007989 0.0114027673618
0.0274172016349 0.0142920217518 0.0278233144847
0.0274601607128 0.013997380604 0.017213456761
0.0272964081525 0.0143154169588 0.0145226882577
0.0275093002478 0.0139652227483 0.0214112302194
0.0272288015101 0.0146647478492 0.0250929223611
0.0257942458121 0.0167945609955 0.00704711842386
0.0268096356299 0.0151254149272 0.0121865608818
0.0260665153719 0.0165969361125 0.0151245118929
0.0261329206873 0.0162675447789 0.00955775411964
0.0264251726069 0.015550244969 0.00468782898019
0.0259304982467 0.0169941153282 0.0223806873595
0.0256206937282 0.0176103424644 0.0291307053751
0.026382214531 0.0164240393902 0.0271792511847
0.026012253951 0.0167641074176 0.0175953298037
0.0233025066417 0.0204460364183 0.0272287374071
0.0217878863468 0.0218101345497 0.00832472973476
0.0213273955158 0.0222290347255 0.0059032378731
0.0234270502126 0.0201461107557 0.00882693478316
0.0220162495462 0.0216366983853 0.011135924129
0.0234315070769 0.0198507437171 0.00465893708458
0.0236115192282 0.0201287698951 0.0214108832422
0.0238352825724 0.019680940571 0.0111234155156
0.0232852712687 0.0204808907489 0.0181284632702
0.0245569667455 0.0189943651281 0.0239962597425
-0.0140979305379 0.0242706394099 -0.0285738918172
