-0.0468532185858 -0.0017862171507 0.00930903399405
-0.00971194388333 -0.0018827057596 0.00879434758772
-0.00628079330313 -0.00298313164564 0.00849202512381
-0.0157691105829 -0.0022589849163 0.00878678284486
-0.017239555563 -0.00282528807716 0.0086740843428
0.0154799870877 -0.00198510668956 0.00843662368026
-0.0032762455748 -0.00196234416255 0.00869047840826
0.0289489891005 0.00369168819823 0.00750684808409
0.0285102280849 0.00169272388886 0.00819330733564
0.027965687193 0.00277041790773 0.00801399802465
0.0306973882758 0.00310215150975 0.00725518578389
0.0202785236892 0.00328116181068 0.00817267613359
0.0151727064792 0.00479808346938 0.00749888484051
0.0262876436926 0.00458501704899 0.00745612892929
0.00206158319852 0.00476188320824 0.00768982518322
0.0127489874755 0.00365474282335 0.00808961732793
0.0238003173871 0.00454045281318 0.0075107733017
0.00480430929037 0.0041528946163 0.00795117139945
0.0222068436205 0.00385544977288 0.0078665634273
-0.0135549753274 0.00426738510647 0.00813782445804
0.0250386817881 0.00476887332775 0.00738278944258
0.0115273428363 0.00476185969324 0.00756475589361
0.000821856744053 0.00394588723386 0.00810495195503
0.0064024727946 0.00432818729205 0.0078443946221
-0.0365907829381 0.00478817526953 0.00818773060751
-0.0157925930875 0.00457591755049 0.00801662477759
-0.00552540765315 0.00454457931382 0.00789626769517
0.0249499813836 0.00377835219272 0.00786799007911
-0.0218460995119 0.00464631141899 0.00806221725768
0.0212960441408 0.00476627458909 0.00743351464934
0.0138848178944 0.00429196040742 0.00776322537742
0.00276529827486 0.0038141872157 0.00814362786682
0.023371351943 0.00366017616088 0.00794659808543
0.0213682254721 0.00324491754449 0.00817598792847
0.0114007202988 0.00349218373124 0.00818686956979
0.00915301450497 0.00358953567227 0.00816899876179
-0.00991824043034 0.00418605957728 0.00812950912702
0.0169688077913 0.00462821793134 0.00755815769138
0.0199024032434 0.00450045655891 0.00758182502435
0.0127735710365 0.00467372761762 0.00759135486717
-0.0301924011024 0.00489794554288 0.00804954183669
-0.00262007651723 0.00469986376962 0.00778199519927
-0.0264276831403 0.00484863317439 0.00802389176738
-0.0182326388099 0.00487164025734 0.0079043595977
-0.0376514140483 0.00487874572101 0.0081574876115
0.0103816542719 0.00442461528382 0.00774469307017
-0.0507678997871 0.00285151480643 0.00891309327327
-0.0211971593247 0.003615678829 0.00842447717185
-0.0364527987663 0.00298777000837 0.0087495684785
-0.0247786617482 0.00288263097014 0.0086837825951
-0.0331322126512 0.00351975159981 0.00855529178393
-0.0353686468914 0.00335228106889 0.00862651489733
-0.0238715454412 0.00381524073045 0.00838471944756
-0.00690613410359 0.00394449431502 0.0082009893422
-0.00872558559173 0.00331049359608 0.0084144590537
-0.0232089727068 0.00284769503379 0.00868143589224
-0.0106816086363 0.00326672746143 0.00844466083876
-0.00567607715578 0.00319321829889 0.00842533641961
-0.0307546977047 0.00375166429568 0.00846274136386
0.013943813937 0.00308716548443 0.0082927007844
-0.029159024771 0.0043930598382 0.00824885185128
-0.0429900953834 0.00303446040737 0.00879021474904
-0.0120331162879 0.00353190129179 0.0083732250633
-0.0163794411517 0.00317924610066 0.00852013696904
-0.0198162766113 0.00324290370265 0.00852928533267
-0.0460822923505 0.00395569421705 0.0085284970741
-0.034213184666 0.00359129657374 0.00854207053583
0.00697543098798 0.00328119671349 0.00829095198564
0.00179081086168 0.00337262140986 0.00830619175944
0.017664269319 0.0032710430133 0.00820381242813
-0.0375543813321 0.00325468216653 0.00867547788648
-0.0389222662546 0.0037236635534 0.00854049976132
-0.0333784594841 0.00464350084961 0.0082062511108
-0.0177432388231 0.00296587836521 0.00859832782029
-0.0280596740952 0.00288864516803 0.00870962535765
-0.0419626331752 0.00418947030158 0.00842064470346
-0.0293697259842 0.00294961867117 0.00870164276193
0.0191305469467 0.00315966734291 0.00822622345902
-0.0550024468159 0.00288857182133 0.00893729315249
-0.0521214957674 0.00337417319112 0.00876122276256
-0.041871751176 0.00270856274753 0.0088825940435
-0.0442906119929 0.00258482219066 0.00894169485912
-0.00449967931861 0.00295369165322 0.00849023813749
-0.0347243528683 0.00452093270712 0.00825591988297
-0.0280219405646 0.00412255270602 0.00832376575105
-0.0399980098541 0.00309626244415 0.00874562365391
-0.0262204789277 0.00361700052252 0.00846650723424
-0.044485675618 0.00385169504727 0.00854750201806
-0.0021784120105 0.00326766810153 0.00837252172133
-0.049030978563 0.00291388376452 0.00887893017499
-0.0454855015302 0.00300356473365 0.0088209524478
-0.0132248764309 0.00304588262705 0.00853515352727
-0.0406069471263 0.0047359742437 0.00823843225914
-0.0589071892277 -0.00355311497006 -0.00901425400971
-0.0572071518729 -0.00264878703873 -0.00940900107873
-0.0577757347987 -0.00365749058852 -0.00915872248523
-0.0582413493463 -0.00217084184451 -0.00944281621139
-0.0450123496589 -0.00428463035408 -0.00884799351671
-0.0531012560638 -0.00370577595788 -0.00910488351976
-0.00456430195191 -0.00487905916153 -0.00824839518545
-0.0553257196815 -0.00245359040103 -0.00950102167789
-0.0556940470343 -0.00392021151635 -0.00906811310301
-0.0229780148755 -0.00433371239083 -0.00860317452189
-0.0513636958599 -0.00251286904275 -0.00944197560409
-0.0384426901487 -0.00384561763969 -0.00891009442413
-0.03376568156 -0.00345224601206 -0.00897837687645
-0.0485249097848 -0.00254225331313 -0.00940356697353
-0.040912867353 -0.00377564517008 -0.00895673911387
-0.0400025456017 -0.00304103832844 -0.00916599293644
-0.0437613580218 -0.00369592437701 -0.0090102392422
-0.0527104735434 -0.00273902957115 -0.00938869586274
-0.0355241132105 -0.00433085558514 -0.0087350999265
-0.0510886604356 -0.0043672921777 -0.00888685891489
-0.0475722421487 -0.00420042301218 -0.00889981461657
-0.0324178406037 -0.00419169222756 -0.00874408987124
-0.0187707878673 -0.00426098700245 -0.00858087722152
-0.0545411497205 -0.00424640849215 -0.00895892750664
-0.0499205051658 -0.00391498360675 -0.00900935121072
-0.0243976438033 -0.00402426209514 -0.00871015965596
-0.0264313420653 -0.00425029612729 -0.00866409414888
-0.0199924583228 -0.00441886980666 -0.00854662339076
-0.0275489829438 -0.00400021035771 -0.00875024565003
-0.028983419603 -0.00403984551641 -0.00875342857992
-0.0369872973272 -0.00412670568579 -0.0088111818665
-0.0454779469886 -0.00788088517794 -0.00670638135465
-0.048086870315 -0.00772379566867 -0.00675861153532
-0.0529816189339 -0.00730264729547 -0.00705029888333
-0.0503874101248 -0.0075972022013 -0.00678639363113
-0.00785294990813 -0.00802386079858 -0.00542630135162
-0.031294996005 -0.00824503112717 -0.00601746076587
-0.0243305483501 -0.0080410203166 -0.00604601259915
-0.0231589634751 -0.00814860169933 -0.00584132323228
-0.036179263767 -0.00810230431175 -0.00641937584598
-0.0412462505588 -0.00823090039404 -0.00642788162618
-0.0258155087479 -0.00838015078233 -0.00560347545893
-0.00376240276695 -0.00801241773606 -0.00528306347929
-0.0324495474374 -0.00827252270907 -0.00602207104817
-0.0279797550599 -0.00810146385017 -0.00609963256037
-0.0207063672657 -0.0080454728289 -0.0058975643251
-0.0348460735106 -0.00814802979144 -0.0062996798846
-0.00261990487075 -0.00811203709897 -0.00509126734236
-0.0165082802581 -0.00819936952894 -0.00550602055202
-0.00896834461634 -0.00801970341578 -0.00547610309419
-0.0196106625604 -0.00809512845726 -0.00578136295357
0.0136444313805 -0.00601079737513 -0.00686461163918
-0.00949167675946 -0.00725110015362 -0.00641208268199
-0.00955623623269 -0.006517046274 -0.00717917123434
-0.022930581394 -0.00718268089519 -0.00697107392001
-0.0392577578529 -0.00792090298046 -0.00679451536475
0.00216417320094 -0.00532719120402 -0.00799343031517
-0.0106783867771 -0.00670290032999 -0.00702627034406
-0.00032152972653 -0.00663447526553 -0.00672169565497
0.00895964035161 -0.00614758570247 -0.00689211976341
-0.0288722527213 -0.00734950543396 -0.00701290342215
-0.0143309530804 -0.0073617830282 -0.00647239418748
0.00642781432935 -0.00662644005648 -0.00648512638464
-0.0159875348979 -0.00734202606119 -0.00655309622886
0.000530109025406 -0.00581461558477 -0.00754492791098
0.0147149183204 -0.00658972397447 -0.00622263032671
-0.0374341787436 -0.00787650552386 -0.00677458962803
0.0271143174283 -0.00673966280115 -0.0056164357761
-0.00167308268758 -0.00625135313475 -0.00716988582689
0.00464285269377 -0.00692396082917 -0.00623994392436
0.0196281449888 -0.00655439952222 -0.00608112583347
-0.0241183676349 -0.00727051501253 -0.00692267329418
0.010212888522 -0.00625732171952 -0.00673231391238
-0.0136771047175 -0.00670833348068 -0.00712943649762
0.0165631480639 -0.00645804731356 -0.00629273845489
-0.000686909622015 -0.00581112598971 -0.00759273023369
-0.00823413553353 -0.00701276106581 -0.00661474960821
-0.0193921888417 -0.00710827612008 -0.00692017785287
-0.0312752145199 -0.00747156629618 -0.00697294492243
0.0120159495899 -0.00626336954277 -0.00666057833344
0.000737525238681 -0.0069612773073 -0.00634279543267
0.0036815248235 -0.00640551915249 -0.00681494986935
0.00251529714981 -0.0066176162454 -0.0066363082898
0.0233836737248 -0.00679802490905 -0.00569102226162
-0.0026947246039 -0.00661928912246 -0.00682364236453
-0.0153124651743 -0.00662652862123 -0.00727401058991
-0.00391833510672 -0.0058928709527 -0.00762483906846
-0.00584181855591 -0.0063852342042 -0.00718169460765
-0.0123991927284 -0.00672664697283 -0.00706398059122
0.0184230769401 -0.00662483913509 -0.00605147417299
0.00149413893549 -0.00612470519462 -0.00718688744329
0.00587544089477 -0.00547749542572 -0.00770215606489
0.00319922178683 -0.00560472096681 -0.00766673372525
0.0043198011065 -0.00547451996663 -0.00776171165459
-0.00531715923874 -0.00708117492848 -0.00643761528788
-0.0218183770055 -0.00728914977029 -0.0068197904342
-0.00648498721742 -0.00714829568127 -0.00641006977396
0.00734727901981 -0.00579181897626 -0.00732127576226
0.008189191531 -0.00734386237622 -0.00563132687799
-0.0173342943904 -0.00773215115367 -0.00616355316923
0.00692261355567 -0.00753376226578 -0.00545254592585
0.0129965233059 -0.0079617350574 -0.00470011514222
0.0113790707261 -0.00705648534203 -0.00585203759921
0.0110085015047 -0.00771160421798 -0.00507873357466
0.0208043003981 -0.00696199616582 -0.00559669811146
-0.00416658099915 -0.00730384211205 -0.00616314137609
-0.000833358098871 -0.0074632897643 -0.00584091340474
-0.00206668665589 -0.00726975597561 -0.00612192749378
-0.0185432925886 -0.00756914788269 -0.00640690045101
-0.0152181841111 -0.00794567804993 -0.00582393841623
0.0128882802423 -0.00723941851446 -0.00557297139735
0.00998766301728 -0.00709622979081 -0.00585871215419
-0.0118159016578 -0.00760855452969 -0.00609615668039
0.00947457032953 -0.00796163997484 -0.00483810248181
0.000233690206527 -0.00787717793148 -0.00530142236334
0.0058601880928 -0.00736085503602 -0.00570206532831
0.00348465549206 -0.00740758580022 -0.00573886380455
0.0223320814751 -0.00701862404128 -0.00546879282691
0.00447318165259 -0.0078334738697 -0.00518801621473
-0.0268395055539 -0.00788715715245 -0.00634924940735
0.019389188815 -0.00732726831057 -0.0052128385574
-0.0299691970837 -0.00779875431776 -0.00657807512451
-0.0103155498386 -0.0078923651396 -0.00569612746655
0.0150053960951 -0.00775212301068 -0.0048735424442
-0.00587576177808 -0.00786107105995 -0.00555995678252
0.00149179639927 -0.0075911615238 -0.00559611949551
0.0165183498786 -0.00719793790668 -0.00548074832373
-0.0424186271282 -0.00786673815825 -0.00689582864635
-0.0582178931413 -0.00545742902716 -0.00826096702864
-0.0525734274609 -0.0059490643237 -0.00800291781828
-0.0537626726072 -0.00664974398377 -0.00755688078978
-0.0560551322948 -0.00507710175739 -0.00851593493159
-0.0544185798484 -0.00579184609626 -0.00808509828117
-0.0581625414731 -0.00667744742153 -0.00750235089616
-0.0513554060106 -0.00711229769703 -0.00728948757803
-0.0510777030173 -0.00592827939732 -0.00802852770416
-0.0555618221021 -0.00627255706029 -0.00777631386242
-0.0493158083881 -0.00646523666242 -0.00770937108464
-0.0301559940277 -0.00496802904047 -0.00842276875966
-0.0142453073544 -0.00505241303367 -0.00827026656717
-0.0405026002403 -0.00565373469462 -0.00811160238852
-0.0266989524786 -0.00680028503622 -0.00738458348611
-0.0462426796485 -0.00447314427652 -0.0088038892491
-0.0255029782861 -0.00551089189692 -0.00809105627123
-0.0436589048941 -0.0074998328425 -0.00710970173945
-0.0406504671646 -0.0068113740987 -0.00747116513764
-0.0211460376941 -0.00591580466711 -0.00783774639355
-0.0484388009056 -0.00507652252107 -0.00848416800739
-0.0477226933353 -0.00659474103272 -0.00763820036068
-0.0193176416627 -0.00532541184812 -0.00815271673379
-0.0211282941434 -0.00491852303691 -0.00839019811509
-0.00169199480827 -0.0052129590997 -0.00809787889774
-0.040087478725 -0.00460343582744 -0.00869078859005
-0.0379573244329 -0.00496345113858 -0.00847715518019
-0.0443665209659 -0.00664623887929 -0.00758736054863
-0.0293212678833 -0.00564670783956 -0.00804118140521
-0.0347903630132 -0.00626827218464 -0.00773313682303
-0.0336842183772 -0.00739480600446 -0.00710159989834
-0.0119729538342 -0.0053310254786 -0.00810079142074
-0.0230803820217 -0.00549971514457 -0.00808114775871
-0.0366181801126 -0.00717938994128 -0.00724045669793
-0.0432034871715 -0.0048083936179 -0.00859793633185
-0.0418192133864 -0.00603120694038 -0.00791120473409
-0.0385940362242 -0.00643594566712 -0.00766551331932
-0.0301672993178 -0.00656397952533 -0.007538566303
-0.0502776560766 -0.00531874167112 -0.00836218179741
-0.00794212285055 -0.00558260658949 -0.00793460632948
-0.0343754418885 -0.00520921104822 -0.00831717931805
-0.0279239331587 -0.00663724886511 -0.00748305946713
-0.00295901854789 -0.00538772782617 -0.00800946477904
-0.0169054509601 -0.00602065320044 -0.00775146817963
-0.0329844450697 -0.00518157525037 -0.00832324667548
-0.0131442735502 -0.0050174282232 -0.0082823330136
-0.0532940147802 -0.00514973888937 -0.00847586975368
-0.044506751742 -0.00517099952004 -0.00840568704064
-0.0255781253064 -0.00681347716144 -0.00736982470426
-0.00916850237453 -0.00505424906582 -0.00823550734049
-0.0321942893054 -0.00604872572891 -0.00783752794591
-0.0569655921727 -0.00443818848606 -0.00889452500988
-0.045981065325 -0.00695242914073 -0.00742843865676
-0.0242818081297 -0.0057763853342 -0.00793583652092
-0.0460801402913 -0.00581331010115 -0.00806025546902
-0.0269962142109 -0.00538149746337 -0.00817267508102
-0.028124494695 -0.00551954937576 -0.00810368273358
-0.0061405083526 -0.00549844103212 -0.00796926637574
-0.0332708458951 -0.00647950806555 -0.00760599697262
-0.0311773587081 -0.00544340016188 -0.00816616539677
-0.0352335186809 -0.00736735741626 -0.00712710559912
-0.0175719763192 -0.00493864763262 -0.00835541123813
-0.0189801579326 -0.00635511579275 -0.00757993964732
-0.0415984537223 -0.00470425422386 -0.00864496993327
-0.0158279948056 -0.0054410165644 -0.00806546974414
-0.0104514998556 -0.00578632678198 -0.00783840794503
-0.0368328591364 -0.00521801675651 -0.00832863299919
-0.0355631655984 -0.00553931459752 -0.00814217087684
-0.0388579718475 -0.00553148328831 -0.00816840825868
-0.0176648754321 -0.00830788702673 0.00464827269495
-0.00425575048784 -0.00831983534648 0.0043864738744
-0.0151654144889 -0.00812024692378 0.00487831966263
-0.0525774719365 -0.00786023712747 0.00594165128496
-0.0377044374439 -0.00786119029966 0.00566933482164
-0.0537433118378 -0.00793160989004 0.00585806664956
-0.0290722778919 -0.00800976261713 0.00529389861741
-0.0528697580705 -0.00852931603164 0.00496434072247
-0.030162074843 -0.0084394679183 0.00468266808992
-0.0388379291472 -0.00808012290504 0.00536844897648
-0.0444415444226 -0.00786225749012 0.00579048584547
-0.0240429812494 -0.00817863422626 0.00495427728757
-0.0273381602475 -0.0079687393497 0.00532255949147
-0.0413900370238 -0.00830040795369 0.00509141738325
-0.0541591152048 -0.00857986562455 0.00491358768519
-0.0572208220252 -0.0086041081371 0.00493375408221
-0.0358373383856 -0.00811441984128 0.00526342257274
-0.0463373090323 -0.00872473437828 0.00455835149477
-0.0262740472271 -0.00852480131243 0.0044865226923
-0.0342859926351 -0.00806845413125 0.00530267134794
-0.00959287734995 -0.00824571232559 0.00459255105227
-0.0226827252159 -0.00848224974856 0.00448359856907
-0.0514827075928 -0.00837976403679 0.00515871292734
-0.0490771672079 -0.00844929977623 0.00501277249524
-0.0318615105247 -0.00850308680658 0.00462019068871
-0.0252142722495 -0.00838893855184 0.0046667517862
-0.0479427812674 -0.00838774005401 0.00508251827058
-0.056750032863 -0.00801957873464 0.0057836405579
-0.0116567995086 -0.00832977673714 0.00450668580661
-0.0401811083388 -0.00829405979949 0.00507871953962
-0.0216291862951 -0.00819633371611 0.00488431517698
-0.0560402520347 -0.00858985621043 0.00493318058018
-0.037502849936 -0.00853909000568 0.00467007364487
-0.0310424606333 -0.00791970242644 0.00546205187192
-0.0587450052435 -0.00820174447739 0.00527964261961
-0.0589802562902 -0.00870695386487 0.00410789219085
-0.019484815905 -0.00916358763602 0.00290294447916
-0.0419151696214 -0.00890575843011 0.00408221315769
-0.0212684476764 -0.00912793027593 0.00303173321085
-0.0184953678745 -0.00884443106479 0.00361459092477
-0.0340636770269 -0.00904161452594 0.00356405422259
-0.0275405436946 -0.00863206509065 0.00434057674708
-0.0295813334945 -0.00908393310892 0.003349662603
-0.0352124655766 -0.00903109198284 0.00361825394683
-0.0118388252994 -0.00879987716145 0.00354434581626
-0.0388532204021 -0.00883948575004 0.00415566858702
-0.0161614878501 -0.00893334501508 0.00334844070436
-0.0448345435833 -0.0091040048918 0.00370013212079
-0.00192069968021 -0.00842777021435 0.00414603230128
-0.0272981105723 -0.0091041655544 0.00324351415802
-0.0440790284135 -0.00879538446034 0.0043935218002
-0.0211211572675 -0.00866674217888 0.00409344407001
-0.0497530870794 -0.00900081807117 0.00406650420616
-0.0286704379494 -0.0087512502446 0.00409460431143
-0.0246932694831 -0.00921058701698 0.00292986443638
-0.0321965558415 -0.00898133139448 0.00365475715305
-0.00801525231774 -0.008491510351 0.00415732761955
-0.0255735328337 -0.00890570387341 0.00365717755182
-0.0235270863571 -0.00895985341395 0.00347882625626
-0.00082937114967 -0.00858654927807 0.0037507911705
-0.0378481454142 -0.00912161171774 0.00347768710463
-0.0143065153908 -0.0086699302304 0.0039087812233
-0.0396252039373 -0.0091427502321 0.00347508191383
0.00596848813928 -0.00833598748852 0.0041528362637
-0.00705451993088 -0.00868165739727 0.00369301068355
0.000954606355779 -0.00849164461258 0.00392364789581
-0.0309546151928 -0.0090186335059 0.00353626155888
-0.0367874492366 -0.00908767493425 0.00352849945916
-0.0196005189097 -0.00861989353816 0.00416212201791
-0.0501910611373 -0.00946742344418 0.00229426812361
-0.0432752425756 -0.00919707559486 0.00343028983884
-0.0591362729332 -0.0094479538318 0.00228190724826
-0.0551505022688 -0.00902404848546 0.00399479478116
-0.0550963599011 -0.00930918827758 0.00286989821081
-0.0314608840041 -0.00947078587758 0.00246778469041
-0.045907553986 -0.00945062132626 0.0024033030466
-0.0568907437671 -0.00933031194936 0.00276862922203
-0.0478776654483 -0.00922682719601 0.00326696336228
-0.0567280706306 -0.00903255192267 0.00394549961195
-0.0441768870509 -0.00936569857272 0.00275574929608
-0.057987541628 -0.00920417052371 0.00325556700276
-0.0525288289457 -0.0091828638952 0.00339410088452
-0.0367545200444 -0.00945897501334 0.00246161060007
-0.050619918826 -0.00919869756218 0.00335064270667
-0.0491242029343 -0.00925988767852 0.00312404364611
-0.0539325924192 -0.00913196308579 0.00358100542228
-0.0416026901498 -0.00942745082233 0.00253768674122
-0.00626241606582 1.7817652081e-05 0.00887118807959
-0.0198413016035 0.00102068150085 0.00901905436984
0.011732642396 0.000852838478615 0.00867284408877
-0.0451882269582 -0.000853388221363 0.00929920180407
-0.0403679072359 -0.00105368767995 0.00924653945649
-0.0435968259921 -0.000414634209237 0.00928125847397
-0.00293247357838 0.00019523432998 0.00883445972998
-0.0405630466673 0.000214515300851 0.00924728080393
-0.0138882669052 0.000768868828834 0.00895402193342
-0.0206421949488 9.28119283575e-05 0.0090288648557
0.00961451316262 0.00104015836649 0.00869587521943
-0.0348843415463 0.000169596840263 0.00918502970172
-0.0271973977703 0.000940504139573 0.00909984605868
-0.033647890609 -6.16742433384e-05 0.00917171990311
-0.00707797408434 0.00115253900499 0.00887888329778
-0.0491050403261 -0.000975620640885 0.00934230777446
-0.0523975411624 -0.000117197500892 0.00937748226311
0.00398490780553 0.00107516135043 0.00875759859374
-0.0467600474236 0.00101165489126 0.0093143879843
0.00803090021148 0.000636875265694 0.00871369396418
0.00651666978699 0.00104032721634 0.0087298612533
-0.0507931817094 0.000155931666456 0.0093595795401
-0.0129762911044 7.97169096704e-05 0.00894477721863
-0.00405534133015 0.000643732441907 0.00884628369667
0.00520336801219 0.000928325078739 0.00874439299292
-0.0558040998278 -0.000225292330486 0.0094149746639
-0.0549787903522 0.0010039469755 0.00940456373668
-0.0103415612851 0.000734244726201 0.00891514948645
-0.0221730502218 -0.000423935214285 0.00904623001188
-0.05612878566 0.000982380006796 0.00941720405375
-0.0280159301423 -0.000319332785987 0.0091102164005
-0.0441056405767 0.000535760550396 0.00928579184355
-0.0161598532937 0.00025144428441 0.00897951434573
-0.0382819008741 0.000146353860448 0.00922232973396
-0.0250340882329 -6.67746429048e-05 0.00907722411601
-0.0288453894543 0.000447430911591 0.009118470185
-0.0427482357307 0.000502733455902 0.0092709362979
-0.0322867633797 0.000281494580957 0.00915640837199
-0.0496191422495 0.000501920242201 0.00934631742393
-0.0366725166399 0.000315808577795 0.00920448629339
9.9936131603e-05 0.000421486142026 0.00880094169984
-0.0513298758915 -0.00137306871933 0.0093671548879
-0.0417447903399 -0.000921357544403 0.0092614991118
-0.0394207835837 0.00094110173709 0.00923394729896
-0.0460820739674 -0.000123214340191 0.00930820235978
-0.0233995946649 -0.000125289146616 0.00905935677601
-0.00864849025563 0.000331449928729 0.00889701942453
-0.0540551539505 0.000388127849949 0.00939511016854
-0.0371436567406 -0.000885615341022 0.00921098095809
-0.0258308191708 0.000699102417934 0.00908511981828
-0.0471297770328 -0.000401323824572 0.00932000354098
-0.0015909263475 0.00025649886393 0.00881967410246
-0.00520580044867 0.000242472082113 0.00885934810924
0.00291970506129 0.00035167841064 0.00877008325035
-0.0177159525073 -4.7807424176e-05 0.00899691643635
-0.0190035688104 0.000155928912528 0.00901081795228
-0.030924667819 -0.000431568447243 0.00914225181208
-0.0323778169404 -0.000777181465509 0.00915857560612
-0.0543476726316 -0.00142047137414 0.00940031523288
-0.0260693351919 0.00249931474202 0.00880698787654
-0.0325311651386 0.00235150239358 0.00890381853374
-0.0462812871846 0.00214493917102 0.00908032148167
-0.0527318873258 0.00230759182109 0.00909210151109
-0.038218927048 0.00163608925363 0.00914920760776
-0.0363652474275 0.0018197665367 0.0090827730723
0.00508953296724 0.00286255776299 0.00843570713084
-0.0388672577919 0.00247788393417 0.00892452426779
-0.00780946227562 0.00270652155046 0.00859095758372
-0.0122582844245 0.00234392838975 0.00872899365599
0.000497464777913 0.00255887907641 0.00855887235447
-0.0541049259682 0.00176889015285 0.0092514875016
-0.0308410874171 0.00230439405832 0.00890196150163
-0.0351187562376 0.00177754105235 0.00908345059698
-0.000741979876034 0.00281384583417 0.00849992087914
-0.0451108481153 0.00177730914292 0.00917070317412
-0.00336102600872 0.00267575201119 0.00856056084222
-0.0214875109818 0.00247335041468 0.00877411236516
-0.0429206636571 0.00189083103125 0.00912052900406
-0.0520642537806 0.00139302766112 0.00933652835478
-0.00967826982827 0.00256973297778 0.00864469394959
0.0151161439395 0.00288335452335 0.00834252617971
-0.0574702411832 0.00231045820345 0.00913266316902
-0.0484778259114 0.00141970156704 0.00929793506827
-0.0473655623362 0.00226053158109 0.00905815307449
-0.0144237184835 0.00249459291929 0.0087066624432
-0.0407723393312 0.00140164417461 0.00921857575131
0.00803347856653 0.00226477162883 0.00853447903674
-0.0127648248312 0.00123807438386 0.0089396299192
0.0228222065251 0.00224533648512 0.00837564494277
0.0104668978083 0.00268002926292 0.00843617887133
-0.0112908235804 0.0014660406636 0.00888415086212
-0.0231095115167 0.00159569659334 0.00899140485302
0.00210209022135 0.00139395567259 0.00874970417916
-0.00918066448148 0.00147222514068 0.00885994251769
-0.0300568479595 0.00126711077704 0.00912426149635
-0.0314013629044 0.00134470890866 0.00912562441286
-0.0148871429842 0.00131448653232 0.00894972741643
-0.033828504797 0.00163187931046 0.00910271857078
0.0147262837228 0.00159158324996 0.0085771746803
-0.00120188565122 0.00163803581966 0.008743845571
-0.0278804656065 0.00185293924121 0.00899936443886
0.0267446772843 0.00273655835955 0.00824791416449
0.0248094888367 0.00257778696882 0.0082965179945
-0.0212106812808 0.00125719159771 0.00902895751329
0.0133783075491 0.00165219899288 0.00858150425193
-0.00254938632757 0.00160317101035 0.0087646360181
-0.0164331057037 0.00130125344255 0.00896896387096
0.0266736592095 0.00124321001561 0.00850622826559
0.0202744239529 0.00207459726503 0.00843303091239
0.012180121766 0.00254072199792 0.00844141442105
-0.0189948960791 0.00191042106217 0.00889200469708
0.00368356555758 0.00254833808424 0.00853328145778
-0.0291066246766 0.00180258437064 0.00902149548776
-0.00561957346008 0.00162300759652 0.00879488538704
0.0157429089558 0.00180391060476 0.00852940860741
0.0190131850174 0.00182272638805 0.00849029910199
-0.00399290443237 0.00185801950211 0.00873651699238
0.0170721283156 0.00179989835937 0.00851552318781
-0.0178988929846 0.00172954334498 0.00891117824486
-0.0593850568046 0.00164567875398 -0.0093564573717
-0.0579119532832 -0.000121442232209 -0.00960000045598
-0.0588365186566 0.000415049892961 -0.00960000045598
-0.0595531410992 -0.000470032296052 -0.00960000045598
-0.0310394392403 0.00138791458915 -0.00947649924047
0.000842715281053 0.00212608540903 -0.00933223834365
-0.0400342953588 0.000386992660328 -0.00952013239933
-0.0451236731848 -0.000103913480989 -0.00954454137287
-0.0453779699754 0.00101673081727 -0.00954152351998
-0.0258331581147 0.001075005927 -0.00945454566709
-0.0470280271205 0.00115274058881 -0.00954834508381
-0.0283425341754 0.00178242336963 -0.00946306749454
-0.0440829735398 0.000948267594965 -0.00953602817942
-0.0200288827436 0.00156570331856 -0.00942696393344
-0.0392548830079 0.00110984277188 -0.0095139977188
-0.00536298664563 0.00211778093377 -0.00935981707191
-0.0338926463873 0.00151767637919 -0.00948868487876
-0.0512755976767 0.00143472874241 -0.00956615721867
-0.0233637021949 0.00122267224329 -0.00944303699003
-0.0339778790039 -0.000404265239573 -0.00949617498651
-0.0532254938504 -0.000679321574747 -0.00958263569346
-0.0546669096626 -0.00138751287637 -0.00959165486023
-0.0567428680311 -0.000518568485919 -0.00959765498739
-0.0350616751175 -0.000206381924509 -0.00950025388628
-0.0558848187676 0.00155392767221 -0.00958617713993
-0.0493189043382 0.00152233228625 -0.009557147018
-0.0386053115686 -0.00032673801693 -0.00951642994865
-0.0554406299804 -0.000361300388133 -0.00959129222815
-0.0429667369776 0.00029186855184 -0.0095335019146
-0.0435594866035 -0.000883484075368 -0.00954048236466
-0.0245855875429 0.00107088720589 -0.0094490227632
-0.0147417540549 0.00209261034026 -0.00940154390169
-0.0480050175752 0.00048652229653 -0.00955514728748
-0.0372724435291 -0.000374958160046 -0.00951069158529
-0.0409699907521 0.00119977889167 -0.00952127853757
-0.0453932653183 -0.00136484271156 -0.00955040393911
-0.0524359309544 -0.0016260343594 -0.00958263382583
-0.0377868520002 0.000764110976696 -0.00950876022808
-0.0365002461759 0.00123114017872 -0.00950132065555
-0.0296284675905 0.000204283129968 -0.00947461551904
-0.0472904497383 -0.000628744020478 -0.00955610203119
-0.0502629813385 -0.000803309202578 -0.00956994346691
-0.0488258879312 -0.000315205331983 -0.00956175787599
-0.0271856454472 0.000585010458446 -0.009462362679
-0.00974715430647 0.00143041129179 -0.00938182248917
-0.0323854059126 0.000954132630223 -0.00948407929975
-0.0462643946007 -0.000224548337018 -0.00955005158291
-0.0410389796177 -0.000220947950258 -0.00952684189524
-0.0540761773642 0.000530043663354 -0.0095819369931
-0.011033865058 0.00151203852758 -0.00938723233768
-0.016317812029 0.00152320432678 -0.009410647218
-0.021729521017 0.00172094302275 -0.00943393887774
-0.0518575662 -0.00044608480101 -0.00957570022228
-0.0177104433154 0.00183307713086 -0.00941568268734
-0.02853319418 0.000654428703747 -0.00946808777286
-0.0422084999879 -0.000862463768911 -0.00953440736037
-0.0481547241643 -0.0013506987012 -0.00956261011327
-0.05293770806 0.000496463386827 -0.00957700742175
-0.0518105814561 0.00455825837815 -0.00849533826193
-0.0553657641367 0.00448197829863 -0.00850751181081
-0.0543043978355 0.00393278507096 -0.00887601918029
-0.0533380103031 0.00461687440646 -0.00844110773282
-0.0443174314526 0.00554462813833 -0.00793251753278
-0.0423345600726 0.0046401033816 -0.00854192529352
-0.0433304181639 0.00500867119264 -0.0082916295243
-0.0478279640131 0.00480306364769 -0.00837801955101
-0.0456013855948 0.00491278345187 -0.00833009087897
-0.0487594723438 0.00528733387916 -0.00805312159483
-0.0456644806321 0.00399473411789 -0.00892674213515
-0.0567873512284 0.0039368995067 -0.00884718204964
-0.0444772324844 0.00465810234041 -0.0085076395551
-0.0505171955346 0.00463006813248 -0.00846224322014
-0.0470546693907 0.00558740303576 -0.00787584739628
-0.0459256818926 0.00598970441354 -0.00762599049642
0.0147804788011 0.00457331427864 -0.00806394624656
-0.0211852876219 0.00407544669696 -0.00872708755446
0.0183116920056 0.00400382666607 -0.00834103156
-0.0067516471084 0.00343938929956 -0.00892350754696
0.00893110218566 0.00263820524692 -0.00919784297175
0.0209414868892 0.00446572630102 -0.00805708153978
-0.0148861776984 0.00393601218633 -0.00873635770026
0.00413339721414 0.00390544065635 -0.00854828689619
-0.00462179466747 0.00334788552064 -0.00895118899359
0.00323828561655 0.00265090509367 -0.00925217095502
-0.0317441140178 0.00410056291232 -0.00882698926318
-0.00251411430668 0.00386118502487 -0.00864442246527
-0.00134349485518 0.00439298378255 -0.00833751821551
-0.0283549768845 0.00405342508459 -0.00881654713833
-0.0085249351688 0.00419994911322 -0.00852173990929
0.0240636325967 0.00484993683927 -0.00781081678561
0.0121602911655 0.00437486755532 -0.00820200275801
-0.0226150541457 0.0040686446141 -0.00874626138984
0.0112465638009 0.00329016021428 -0.00881210765931
0.00900839452125 0.00450750144068 -0.0081625760249
0.0144358452922 0.00353255773524 -0.00864359602983
0.0133403669423 0.00463439703639 -0.00804566536747
0.00592804513292 0.00405535829651 -0.00844598295464
0.00699562787809 0.0041606476079 -0.00837621164216
-0.0118538609769 0.00371483889078 -0.00882606930827
-0.0105528507135 0.00372856549126 -0.00880445127784
-0.00384978665182 0.00432276600769 -0.00840338765806
0.00213759690244 0.00291317302402 -0.00911889970272
-0.00098877172712 0.00340180082839 -0.00888219739023
-0.0134353998223 0.00426349890878 -0.00853949646659
0.00948781203943 0.00359190892969 -0.00866408092082
-0.018085184531 0.00360314656214 -0.00895503752071
0.00595364382011 0.00285082060657 -0.00911227591652
0.00705704016314 0.00298604670155 -0.00902555215164
-0.0235905511946 0.00608687846075 -0.00758477040937
-0.0400618277125 0.00546541272357 -0.00800065242251
-0.0394382186237 0.00634421972886 -0.0074152952447
-0.0307540933274 0.00606274550606 -0.00760170761707
-0.0363490633061 0.00611652271718 -0.00756656761805
-0.0248004135812 0.00635411170194 -0.00740694020598
-0.0273286863662 0.00652160074469 -0.00729569838773
-0.0371568392509 0.00531169227097 -0.00810267893981
-0.0344479337513 0.00554331311638 -0.00794809338743
-0.0411838827681 0.00500094096041 -0.00831012418177
-0.0382455992746 0.00577325064648 -0.00779541436679
-0.031942531468 0.00606802336648 -0.00759833604756
-0.0419378274015 0.00638870378966 -0.00738597078485
-0.0328051114479 0.00541754599461 -0.00803165546418
-0.0389472844546 0.00454244207228 -0.00861521258558
-0.0437786910987 0.00672396247206 -0.00716291208605
-0.0402939886751 0.00443811756675 -0.00868485485218
-0.0203318031596 0.00644753751752 -0.00734417955701
-0.0427851478882 0.00585590501749 -0.00774091488973
-0.0296284595671 0.00566083732362 -0.00786924095239
-0.0360547945967 0.00516657295511 -0.00819919478006
-0.0264437278293 0.00596606480362 -0.00766557624011
-0.0111997013018 0.00486413734586 -0.00817164091199
-0.0308579798209 0.00506212833642 -0.00826253489322
-0.00971595912355 0.00477285861911 -0.00820887661967
-0.0271385614147 0.00427335121324 -0.00867934684237
0.00214890012982 0.00458053514605 -0.00819608551291
-0.00316331790922 0.00502892871947 -0.00799253289553
-0.000747784838168 0.00527055854774 -0.00782772939274
-0.0137177797945 0.00631518740982 -0.00735971283802
-0.0200208974621 0.00446156946289 -0.00849629895704
-0.0224903347698 0.00510369178288 -0.00815115242057
0.000268399259784 0.00472237403163 -0.00813378580745
-0.00738119515958 0.00450251018059 -0.00834066853242
-0.0160992248159 0.00506652397185 -0.00810588870985
0.0201402199335 0.00512627858103 -0.00769296794721
-0.0277643843891 0.00517457753024 -0.00816527440601
-0.00523713755847 0.00514833563491 -0.00794520994244
0.00375923710901 0.0052034004019 -0.00781946319957
0.00784003815575 0.00483048615439 -0.00799227216168
-0.0340737842724 0.00436500714713 -0.00869881614036
-0.0172377710485 0.00447825120925 -0.00845760182948
0.0156202242319 0.00526042098882 -0.00766267512941
-0.00855261073601 0.00547411323731 -0.00779163883234
-0.0074936904267 0.0058208286149 -0.00758029644905
-0.00615551834527 0.00463346133961 -0.00825222441038
0.0100886672558 0.00517563345891 -0.00776941297827
-0.0249682035403 0.00520743260424 -0.0081170981984
-0.0167933335163 0.00604827959075 -0.00754601031665
-0.0237055038633 0.00491612923763 -0.00827218925354
0.0173003699033 0.00507404043984 -0.00775279706082
-0.0259274155309 0.00446312186228 -0.00855707647388
-0.0138864347084 0.00523649266181 -0.00798459834328
-0.0191175438772 0.00560004027236 -0.00782921137187
-0.0125437244731 0.00622032631003 -0.0074022516255
0.00070513812155 0.00582814011065 -0.0074904628744
-0.0180380114638 0.00637447885551 -0.0073705729362
-0.0184785679258 0.0046083411898 -0.00839540943979
-0.0111612272224 0.00598899935406 -0.007521445499
-0.0204751791326 0.00553486754109 -0.00788103545773
-0.00384257462776 0.00590924547423 -0.00749109712725
-0.0369380964756 0.00426066347203 -0.00878900023696
-0.0298905372391 0.00456928593124 -0.00853713104027
0.00563567703033 0.00519663936164 -0.00780377553303
-0.0548040212797 0.00212943086629 -0.0094495209099
-0.0489224175049 0.00381543375216 -0.00899549249052
-0.0540498968974 0.0028878705273 -0.00923665595419
-0.0580079016803 0.00207666444777 -0.00944996573342
-0.0567942877224 0.00248283234972 -0.00933966097627
-0.0586185847986 0.00328402605372 -0.0091028499382
-0.0428468456581 0.00375395922284 -0.0090407181555
-0.0523595117973 0.00329333654783 -0.00912872457432
-0.0444928467834 0.00360668491118 -0.00907521713808
-0.0508743657857 0.00286252150758 -0.00925835995824
-0.0555918014544 0.0035175885259 -0.00905003593948
-0.0471212208332 0.00381509988252 -0.00900379787269
-0.017153223763 0.00296511065793 -0.00920278144995
-0.0301317959147 0.00256174779519 -0.00931626805116
-0.0266511657746 0.00224537800612 -0.00938848929734
-0.0381487221988 0.00205772104026 -0.00944799713564
-0.00853946821746 0.00255996294655 -0.00929016034381
-0.0135430169823 0.0028155598083 -0.00923450603322
-0.0227686538987 0.0022346359504 -0.00938631473964
-0.0115802321215 0.00249020861312 -0.0093107646095
-0.0273604701316 0.00318233959917 -0.00916280053915
-0.0321955687356 0.00207178525805 -0.00943727929387
-0.0423011802416 0.00217484098023 -0.00942478094407
-0.0532721567036 0.00172105700504 -0.00954799199476
-0.0403081820117 0.00249708719668 -0.00934441108013
-0.0487629599143 0.00242765445286 -0.00937159198905
-0.0286160247018 0.00305494013049 -0.00919514938486
-0.0247063039152 0.00273278712019 -0.00926824163554
-0.0435192216614 0.00290876928982 -0.00924881163192
-0.00677453471359 0.00236074413065 -0.009336162853
-0.0381850948017 0.00339449784848 -0.00912480456353
-0.046341829328 0.00288365854434 -0.00925835278544
-0.0355303868277 0.00296197068124 -0.0092261282145
-0.0455679995448 0.00207130040403 -0.00945383268704
-0.025840619924 0.00334815663525 -0.00912083734441
-0.041830527746 0.00330060261501 -0.00915198938594
-0.0369292833684 0.00316179005025 -0.00917953059074
-0.0197253802175 0.00326632867875 -0.00913310734224
-0.0327220936286 0.00308097311754 -0.00919390131785
-0.033707211616 0.00260797062557 -0.00930948578006
-0.0476412471696 0.00233686388806 -0.0093921667577
-0.0232173842607 0.00325828635252 -0.00913934405271
-0.00962511908534 0.00288697105178 -0.00921242302904
-0.00368602346104 0.00269810336526 -0.00925079210558
-0.00180632908527 0.0026439113969 -0.00926158556558
-0.0187002407008 0.00254082131247 -0.00930727753819
0.0162959759047 -0.0035330654504 -0.0082960334276
0.0275186045384 -0.0033529675107 -0.00798025991297
0.0226528183646 -0.00298065859571 -0.00829729773737
0.0185690524568 -0.00310404612821 -0.00838906639958
0.0130426253116 -0.00388741927069 -0.00826673541792
0.021304176995 -0.00337439328287 -0.00818643221198
0.0142384081263 -0.00389003951441 -0.00822436689555
0.0154086805249 -0.00435283354684 -0.00799884039644
0.0222019082154 -0.0044998990689 -0.00770528197698
0.0273105818052 -0.0019323870553 -0.00855558770477
0.0264019266023 -0.00276423437926 -0.00825430186501
0.0115923563766 -0.00473943648663 -0.0079760985449
0.0236279815614 -0.00437001316542 -0.00770794951838
0.0179473717218 -0.00424161108673 -0.00795559696981
0.0244507829435 -0.00356832754528 -0.00800013934602
0.00990282583136 -0.0042770041242 -0.0082194235041
0.0237647642162 -0.00263865199161 -0.0083956544811
0.0202500373647 -0.0042010280434 -0.00789225831095
0.0298822698772 -0.00356764692664 -0.0072824211731
0.0289902664997 -0.00285803770863 -0.0079229861309
0.0307733507764 -0.00443681939384 -0.0065784102811
0.0205568981018 -0.00566243266855 -0.00687448626797
0.0254745738315 -0.00567392237495 -0.00663554235001
0.0171055096028 -0.00488667822374 -0.00772098832532
0.0249452025335 -0.00499035356794 -0.00726459179295
0.0216618547945 -0.00552074965519 -0.00694835867093
0.0246788499543 -0.00637981890359 -0.0060483976829
0.00867764379791 -0.00513722186516 -0.00789154275097
0.0184676870936 -0.00557081535477 -0.0070526918002
0.023762641953 -0.00533357844976 -0.00701612347548
0.0156419586889 -0.00598129655199 -0.00682119940076
0.0174317694527 -0.00589211248394 -0.00681679006761
0.0269956340849 -0.00482849305852 -0.00731231919833
0.0281937024423 -0.00488109364112 -0.00721007137455
0.027714920475 -0.00578214469488 -0.00643562315959
0.0151200443201 -0.00525807358357 -0.00748496471614
0.0109616594427 -0.00543699452695 -0.00752022033336
0.0194688839776 -0.00502324025758 -0.00749028713747
0.0137093846483 -0.00502870721683 -0.00775340180095
0.0229386182673 -0.006060476208 -0.00641172580274
0.0297986163726 -0.00508373211284 -0.00662170412589
0.0304798778377 -0.00591716439469 -0.00561762630431
0.0289528014074 -0.00630369568491 -0.00561169413987
-0.0556691327741 0.00883983369382 0.00313608632254
-0.0469548804578 0.00866417180461 0.00361978975892
-0.012243197463 0.0081484032286 0.00499588459334
-0.0498675572385 0.00858316593349 0.00387636555591
-0.00541230791365 0.00809188044442 0.00513205293676
-0.0570330165266 0.00873297441492 0.00346256464993
-0.0234367451224 0.0084331528148 0.00419761670216
-0.0479151093927 0.00887267658987 0.00300027472845
-0.0511502618579 0.00885488534887 0.00306917712889
-0.0433531543511 0.00862948924947 0.003706194854
-0.0107798227793 0.00820624901923 0.00481564688417
-0.0253795724419 0.00837195129852 0.00439021827691
-0.0482767360614 0.00851514914179 0.00407228081297
-0.0489746451607 0.00884553170908 0.00308665649334
-0.0530930459609 0.00859368692741 0.00386046863414
-0.0335025195009 0.00866174356855 0.00356200648412
-0.0187823744522 0.00827935416938 0.00463550513734
-0.0353300630374 0.00840164022266 0.00434946260987
-0.0384370684665 0.00864337164186 0.00364086501422
-0.057984238268 0.00897254570114 0.00275000858492
-0.0309006840643 0.00850255223663 0.00402596344799
-0.0326216772423 0.00844169142997 0.00421647237608
-0.0447726568294 0.00874481889976 0.00336782024219
-0.0399309250247 0.00852574328957 0.00400020904607
-0.0587043921697 0.00863740460083 0.00375673495053
-0.0565572159817 0.00908366005538 0.00241048738032
-0.0284741176869 0.00850989865055 0.00399223772268
-0.036527847427 0.00853264896192 0.00396308051975
-0.029431812005 0.0083047486842 0.00461098470129
-0.0545631478823 0.008911648489 0.00291576068591
-0.0454501119165 0.00822399724153 0.00459914603237
-0.0525997167345 0.00773458692107 0.00531378673789
-0.0567703483553 0.00715773403829 0.00619388012726
-0.0554639473918 0.00729295657986 0.00599049075755
-0.0198205654107 0.0082053939479 0.0048561419348
-0.0135830530652 0.0079166541414 0.00537053813084
-0.0389508561841 0.00773886504793 0.00542809623336
-0.0153706543932 0.00773797757811 0.00563874236423
-0.0493325443779 0.00775089762805 0.00531684614553
-0.0443169095688 0.00737313474317 0.00596193219875
-0.0273838245491 0.00814915636094 0.00487843902513
-0.0321428285142 0.00791602171832 0.00520685633979
-0.0260182711878 0.00787525572078 0.00532601283759
-0.0577717533745 0.00772893818752 0.00527687404034
-0.0170784237024 0.00817763186561 0.00492461102327
-0.0431709239488 0.00798309021963 0.00500237243238
-0.0360319885797 0.00766300100593 0.0055746076443
-0.0419016984439 0.00800959899419 0.00497149013036
-0.0308212244662 0.00781938459115 0.00537222045985
-0.0562565058066 0.00816061283099 0.00460402794752
-0.051026251784 0.00741905994401 0.00582938442317
-0.0409037128274 0.00743329458854 0.00589657444128
-0.04703888218 0.00819862822313 0.00462538088031
-0.0442585040178 0.00838078680095 0.00436045006739
-0.0410890426105 0.00836980568678 0.00440603194143
-0.053968640991 0.00727994719302 0.0060244418999
-0.0548093209838 0.00848144044938 0.004106806377
-0.0247569441949 0.00787617899918 0.00533573716347
-0.00978413442751 0.00784051798546 0.00552529115203
-0.0429832033475 0.00733088995455 0.00604092886875
-0.045880043295 0.00745909489973 0.00581139952344
-0.039978907627 0.00803965159435 0.0049407730395
-0.0337319557672 0.00812778993882 0.00485607896735
-0.0516248459485 0.00801737822774 0.00487284561817
-0.057744613749 0.00834863131873 0.00429190510743
-0.0536375719437 0.00808120708309 0.0047535086713
-0.0346491086783 0.00779685130072 0.00537407854418
-0.0187387801885 0.00766869978318 0.00571899608584
-0.0231088789068 0.00794869395704 0.00523507420178
-0.0077945027601 0.00783102456458 0.00555803880634
-0.0376943277219 0.00818045760404 0.00473718659397
-0.0479131435796 0.00752626087051 0.00568657632604
-0.0587685562158 0.00781858917731 0.00497266900937
-0.0589809772314 0.00660696861402 0.00650743516227
-0.0596158447435 0.00777196787755 0.00408636687007
-0.0600687170975 0.00605279318078 0.00661640657337
-0.0598831219439 0.00694889870517 0.00533711204852
0.0249651531565 0.000941389818175 -0.00877222628078
0.0267257217473 -0.000853087679308 -0.00873064815943
0.026323350213 0.00127769350301 -0.00872175739732
0.0158699684627 0.00174860784015 -0.00907748912991
0.0193152731741 0.00121586077558 -0.00896428014589
0.0276680900296 -0.000139954558406 -0.00869050211745
0.0206872009711 0.000978927276878 -0.00891946510661
0.019020337886 0.00238904673324 -0.00896191793809
0.0244869476653 0.0021944089823 -0.00877533567785
0.0238390452365 0.00131691278303 -0.0088070761428
0.0232980975212 3.51577022452e-05 -0.00883944679653
0.0227195989552 0.0019356928983 -0.00883909576008
0.0257308211284 0.000228619691049 -0.00875342093357
0.0169776644697 0.00102921850476 -0.00904695051604
0.0180860619861 0.000860827384976 -0.00901049770147
0.0140169199907 0.00159839290559 -0.00914304702864
0.0128928936926 0.00244268149453 -0.00917281409916
0.0201444713197 0.00214808340483 -0.00892569782086
0.0172279248192 0.00209456517604 -0.00902692535908
0.0218118760247 0.000559146305666 -0.00888513779905
0.0298927660558 0.000402031442284 -0.00817467446237
0.0298428417551 0.00158261357622 -0.00809734591549
0.0286712522414 -0.000553306550952 -0.00854629924725
0.0286420080803 0.00205486292521 -0.00835561366845
0.0272771876044 0.0023257108431 -0.00866932042657
0.0196176011259 0.00366043740358 -0.00846752347592
0.0222382138304 0.00299688853663 -0.00863791359631
0.0147529738518 0.00257206974768 -0.00906323383782
0.0211346868738 0.00251726780257 -0.00886453097291
0.0250075443138 0.00389652173256 -0.00818870486111
0.023667271063 0.00317641665283 -0.00851802402904
0.0222204456686 0.00409515599395 -0.00820681230263
0.015723880392 0.00321800870117 -0.00877581593193
0.0168566875189 0.0033156295013 -0.00869834719664
0.0259472741883 0.00331398837654 -0.00838525924242
0.0338878752776 -0.00762832683669 0.00166406310013
0.0380432106653 -0.0082734014342 0.00141807164333
0.0351279514969 -0.00788928249827 0.000795121867354
0.0364589842283 -0.00806817705028 0.00103868308517
0.0321150012314 0.000838920281042 -0.00187249398322
0.0321150012314 -6.42595700935e-05 -0.00721108436771
0.0321150012314 -0.00100619775507 0.000935104308923
0.0321150012314 -0.00256950336762 0.00117328597702
0.0321150012314 0.00397436775407 -0.00658459735653
0.0321150012314 -0.00273513186385 0.00406818600046
0.0321150012314 -0.00183700083023 -0.000227785227186
0.0321150012314 0.000116176606528 -0.00315821795319
0.0321150012314 0.00121511445217 -0.00590816566837
0.0321150012314 -0.00375806012236 0.000475764845932
0.0321150012314 -0.00702116805566 -0.00172805555176
0.0321150012314 -0.0051802577145 -0.00380051691219
0.0321150012314 -0.00253807335158 -0.00573988125951
0.0321150012314 -0.00305359037371 -0.00384088056205
0.0321150012314 -0.00189565426508 -0.00384364080693
0.0321150012314 -0.00242973127411 -0.00123037956296
0.0321150012314 -0.00575294239743 0.00188808776479
0.0321150012314 -0.00455856122501 -0.00160063574215
0.0321150012314 -0.00151974640963 -0.00525534665765
0.0321150012314 -0.00356419049461 -0.000858943552872
0.0322431079079 -0.00707248099002 -0.00282597111545
0.0325569954491 -0.00668026195084 -0.00401882300687
0.0322489569324 -0.00455369905347 -0.00492258485463
0.0385513389397 0.00752523226457 -0.00507154536069
0.0447352305707 0.00813605244737 -0.00501288776227
0.0539081998564 0.0075718215397 -0.00670345544197
0.0494358483302 0.00820393789519 -0.00544757108718
0.05000482134 0.00698783615868 -0.00698037520508
0.0483685158076 0.00838489248669 -0.00511146301803
0.047295410098 0.00806814710934 -0.00537643456233
0.0412473345519 0.00781698265142 -0.00501520274939
0.0459214376827 0.00758070526328 -0.00581470104835
0.0507605496453 0.00819871642584 -0.00559951306585
0.0522026216772 0.00879627388222 -0.00503560434971
0.0527084892127 0.00756547486514 -0.00657923991645
0.0489694333897 0.00728539857203 -0.0065068012304
0.0531638056784 0.00823188232106 -0.00582361458119
0.0510931870062 0.00720026694116 -0.00684319654493
0.0352944984873 0.00632806217978 -0.0057371841611
0.0340101932536 0.00566137489439 -0.00603148195401
0.035412981751 0.0048118479164 -0.00713039259531
0.0440304080302 0.00689946185022 -0.00636824669524
0.0486754552909 0.00604970021138 -0.00769167430352
0.0425525466691 0.00683046563461 -0.00625269502465
0.0516148699896 0.00647469073483 -0.0076624439987
0.0392327472026 0.0065511847996 -0.00610501933384
0.0403631183634 0.0071046069849 -0.00574268656777
0.0369864208669 0.00715918978143 -0.00528760635585
0.05286424628 0.00654956762438 -0.00774523339995
0.0414134690941 0.00637127130087 -0.00652915148171
0.0463727726917 0.00675048108134 -0.00678396376944
0.0424831137032 0.00572573935087 -0.00723888962036
0.0403767619862 0.00535615791271 -0.0073183868708
0.0445001326954 0.00596911516081 -0.0072622708995
0.0453363944894 0.00693999619542 -0.00648875893032
0.0378142397015 0.00555008909338 -0.00683573568858
0.0403534081153 0.00624898403278 -0.00651180298403
