-0.028602259708729462 0.017848794104096954 -0.033732039093508026
-0.026229273775639037 0.020651611154023922 -0.03645811401264058
-0.026661682847757044 0.014367970124080098 -0.03663648475259346
-0.02576068631356826 0.018142235571307445 -0.03666380261545383
-0.027919392029575135 0.011600425005431467 -0.03669830960190752
-0.03034974846517245 0.013612071571548834 -0.036759000271558755
-0.028505004768457402 0.016525893519584466 -0.03675900027155876
-0.03160033613304519 0.006270670049749199 -0.03186500072479248
-0.03274501317796398 0.0024750266204554565 -0.032577244001143875
-0.03127972212667457 0.011921611827751484 -0.033341746891597676
-0.029945753470505307 0.015346404351852609 -0.03363995024078997
-0.02591415227340067 0.02149435858860524 -0.03362266508916122
-0.03153422685007253 0.003528058312941977 -0.03675900027155876
-0.03189743059931975 0.007171337469685282 -0.03675900027155876
-0.033157868880024546 0.005540927767714079 -0.03478285846117098
-0.03358711902198296 0.002366611930580261 -0.03526326841855732
-0.03174088138329474 0.010404928695864641 -0.036186157675856145
-0.030040498601550482 0.00309769952484847 -0.034585346216029295
-0.02757309500810768 0.008897679255497207 -0.03524679662887425
-0.028827946695290516 0.005947973593248584 -0.03599919183430916
-0.004078383780019821 0.03105978626913942 -0.031863998621702194
-0.012543190392245523 0.028487012064390176 -0.031863998621702194
-0.018048211216831787 0.024706131052689602 -0.031863998621702194
-0.015685488504015337 0.027094185322792355 -0.031863998621702194
-0.014405376603944918 0.024659506975284923 -0.03475026670040843
-0.0214246734627373 0.021960034268804433 -0.03193684045536876
-0.019767335823432836 0.02259741117602573 -0.03435726813505699
-0.020113338472317256 0.02708921495393605 -0.031863998621702194
-0.020688449848807453 0.024862775604950812 -0.037202998995780945
-0.016528751804142858 0.027779120861951643 -0.03704115596452039
-0.01344903423769295 0.028525668133478996 -0.037164313645331584
-0.00827502038099058 0.030879797303273258 -0.03712128874783471
-0.01096917556706414 0.030222214478186578 -0.037014571955983754
-0.019247482254266146 0.027160648805589233 -0.03692321555989925
-0.011944039517350877 0.03142640340696705 -0.03332550111240508
-0.017769240543311037 0.02866746220725888 -0.03244829137784107
-0.016042904913890092 0.029588113120486256 -0.03454410440635483
-0.02297537626563556 0.024710677332140933 -0.0336928659216862
-0.023337356865353622 0.023223933842214474 -0.037087123982465
-0.020792316656889836 0.02646961853007409 -0.034480031202418646
-0.012528548275707905 0.02589300999617082 -0.03679431904592834
-0.006039340648871711 0.02881068781172893 -0.03718146719398
-0.017565310290680286 0.02392714549405866 -0.036732580801248624
-0.009816766071308486 0.02725690331933713 -0.037071678646464754
-0.004511207466833472 0.03325400139002052 -0.03414554175549306
-0.006510287592370464 0.03286457198683651 -0.03583149720593784
0.0002999264596797651 0.03240453280808292 -0.036724066383373895
-0.0028766926588083895 0.03329502370057185 -0.03660042928125315
-0.010894594038176575 0.026009679493321107 -0.03447456207318791
-0.007828820826365759 0.02718871085159396 -0.03432366419119409
-0.0003006495978422545 0.030083885848453566 -0.03401343382119543
-0.004138510141095437 0.028607926076954067 -0.03469240625707769
-0.03066476123117856 0.02002600021660328 -0.023142956404633253
-0.030718185545328597 0.02002600021660328 -0.016527609409234287
-0.03331624331614353 0.014674239845772239 0.03133000060915947
-0.03269278091038174 0.012907000258564949 0.020049898698853562
-0.03226420880135076 0.012907000258564947 -0.00016135002938551571
-0.028963495599729217 0.020026000216603276 -0.019965295057343558
-0.028922824583882352 0.019792143054576553 0.015672473206194193
-0.028248721888119027 0.019340671755917655 -0.004996993203159229
-0.028477998039142 0.020007456591843737 0.0022891550322277267
-0.031101474650406247 0.01430759930241033 -0.009120083814299962
-0.029806769108064818 0.016782924215346086 0.0009720034162745816
-0.029313108389793178 0.01721674449201366 -0.00829334477491569
-0.03018962482198832 0.015605094782784304 -0.013476323449745232
-0.03093944171966609 0.01412955999771026 -0.020400291422730126
-0.032773342553061795 0.012921215691160065 0.024388243978008862
-0.030690074585964955 0.015701387718898615 0.009700361739570942
-0.03226117200503452 0.013049906725547832 0.006511627204452896
-0.031356601282912504 0.014377701926638248 0.003235562996378138
-0.03056905413938543 0.015270593854799326 -0.006382333486389875
-0.029992750214828855 0.01629343819751387 -0.003920904993052612
-0.03067971209039628 0.015282688380513564 -0.0014940641530955187
-0.028502448013093096 0.018385025877679463 -0.011786364712517459
-0.030116101368051082 0.01557637687468394 -0.017255978069145625
-0.03240427196501323 0.013120317641965876 0.014241295379633328
-0.03252114814947989 0.013442609543449498 0.027362714103280693
-0.029398982337163322 0.017173444088163865 -0.01946750108622751
-0.029858177976882203 0.016885875924928438 -0.026000694343564
-0.028678917889853096 0.018199525062148135 -0.014650423765341756
-0.030660288177368773 0.01492661019317237 -0.023663532819422132
-0.03263319059862777 0.012907000258564949 -0.02212402556671735
-0.034905031342995545 0.012907000258564949 0.0025456906338836623
-0.031450026392099865 0.020026000216603276 0.0019687806464944065
-0.032403495573080796 0.02002600021660328 0.02706811541810381
-0.03281126188251219 0.01954530203745186 0.01962888824310572
-0.03272851346894911 0.019526105002078645 0.012790395137359098
-0.032774237731133526 0.018664078407651177 -0.018734757035965707
-0.03296793656361327 0.01847491828947913 -0.0156911538205643
-0.03299920510831936 0.018984186896445914 0.00498300023674789
-0.032377874708160836 0.01941778508557405 -0.011254810190540747
-0.032979043925665974 0.018762758138120103 -0.004348972724485315
-0.03423119231460704 0.015503294908572727 -0.0232527840012676
-0.03477846667853644 0.015568756830791106 0.00897431249884761
-0.03372494225490398 0.017072313808366754 -0.01169905111583848
-0.03447385698150597 0.015862137422693698 -0.0005910528803854294
-0.034520127805018966 0.015647725143762885 -0.0034494503370293556
-0.034515615428647464 0.016293518978427637 0.012691343362580577
-0.034427576390141566 0.015414901586709728 -0.014528456601665862
-0.03313357116903519 0.017987039036745773 -0.02150791996112164
-0.03438253369006565 0.015358237994653426 -0.018482449808174282
-0.033655657741132244 0.016670099458332935 -0.02577840575003478
-0.034409774469723375 0.016995045565221994 0.02777418235335791
-0.0336496057859501 0.017975119753791645 0.010631366816052869
-0.033516949851630756 0.01764530876235294 -0.008264724932685158
-0.03384169513948369 0.017804221664500988 0.017400789063386594
-0.033707067910635866 0.018243475839491513 0.022801621689157545
-0.033160109665262255 0.018575035036690536 -0.001397712445599419
-0.03360756418342575 0.01795573961904068 0.007346580234427334
-0.033477649516607845 0.018034931970236805 0.001612667214355325
-0.03132437747344152 0.014104391130675449 -0.026691501313864618
-0.03528999362192675 0.012944807936295825 -0.004202741788262221
-0.03526970613325618 0.014672818951392956 0.020062204737525874
-0.03521686295624207 0.015009054195426294 0.02298344970599622
-0.034954938465981654 0.01446545809587372 -0.0067469272391727075
-0.035028714960955866 0.014839454212364498 0.0060454799974327044
-0.035350571765593315 0.014523567562063449 0.027161009502498352
-0.028356459952122718 0.01930632729927167 -0.0020424810917178517
-0.0297499942665719 0.019172557277263164 0.029666373682122466
-0.029008536301716313 0.019235568329850065 0.012710404739458527
-0.03136083619176036 0.015256353763246877 0.021481701519609223
-0.030270748409852125 0.016947291208767794 0.015668904550514534
-0.02966297129468786 0.0171447448527286 0.003578877684119284
-0.030215790401852877 0.01737412503915838 0.019431394684622745
-0.029282484286420073 0.018173950657921698 0.006762082502745234
-0.030234794536237123 0.01793468191796968 0.02653810921620045
-0.02957878957363884 0.01891188390195883 0.022560491808020337
-0.030914792240419327 0.01681031523060318 0.02933828383280366
-0.030521933423660497 0.016205977928772118 0.012832941596133228
-0.029074994351115786 0.01885342541790338 0.009901582083904462
-0.015919428209944873 0.03421937661521391 -0.012445972501245225
-0.015145939565905724 0.034640833357531584 -0.008698328756289902
-0.01649885748381127 0.03407248011883239 -0.006363122498609227
-0.01529600163394942 0.035064941434192975 0.01721422475081845
-0.015518822930692452 0.034339843626427585 -0.01565593390063897
-0.002633190185548546 0.03766511758120997 0.03133000060915947
-0.012494588084790068 0.034792081489221575 0.03133000060915947
0.0013170000165700912 0.035867899469084565 -0.002739235910846076
-0.012062214555130086 0.03248700127005577 -0.00880719737612647
-0.014417410139359361 0.03248700127005577 0.009867829037858687
-0.015866334485325026 0.03248700127005577 0.026463480464204304
-0.01265023962611808 0.03248700127005577 0.0038262089054278453
-0.01531264251120891 0.03248700127005577 0.018507886539869907
0.0013170000165700912 0.03698931341000502 -0.021540741373598207
0.0013170000165700912 0.03494335032702856 -0.024457147716112154
0.0013170000165700912 0.037984567304218286 0.026486129590132287
-0.0021069688734143503 0.03429108777160446 -0.02819243326996735
-0.016010358677845372 0.03248700127005577 -0.020962447038580995
-0.01805932998581306 0.03248700127005577 -0.00816244208553598
-0.012981829136040802 0.03248700127005577 -0.01580653580172861
-0.01511368090195276 0.03248700127005577 -0.017927193687533694
-0.0008850203278963562 0.034635851481966975 0.005709026663709132
-0.0007311552159486713 0.03452232914873608 -0.0010198919772905334
-0.004314800449267095 0.03395001033769142 0.006009878844760422
-0.004686274379968688 0.03395316901341327 0.009646652404363479
-0.00910563463754026 0.033243395853535036 0.01813016952274808
-0.003547440618273124 0.03427894438247005 0.01410995887726991
-0.008474539254612272 0.03361954421617966 0.029707774254887007
-0.0003631578262540669 0.03520448745471224 0.02727138746603805
-0.003403518943467155 0.0343919877045616 0.018019063101631816
-0.0021019018088213946 0.034526325065452924 0.012043389717152951
-0.006822380705893615 0.033877518568378985 0.026193182614402153
-0.003025248987169975 0.034678365381052234 0.02779377991550256
-0.0049909607118349 0.03432400911631594 0.029768289260926506
-0.006227158837272849 0.033845964647838025 0.01913289165308554
-0.0030767808989721843 0.034113716568809 0.0019985239761069126
-0.003191503687356422 0.03450047769790996 0.02107655385238328
-0.0008784221408629975 0.03442289098480609 -0.004264370901563706
-0.012499272917792854 0.032752228866399495 0.027151837390699537
-0.005947277716082188 0.03399142094496542 0.023273276757121902
-0.0003535783479244013 0.03497858562008861 0.01666767869904482
-0.007139258999748176 0.03359737074572532 0.016131673637985705
-0.001836312384651431 0.03483164680308787 0.023758346777715936
-0.010479884216667169 0.03310229229051346 0.024473272961319112
-0.0011376826860843908 0.034655800239111315 0.0090110683039522
-0.008559501434938315 0.03343655731693368 0.021989532753046645
0.0013170000165700912 0.035291843658005945 0.01145842743598157
-0.004404005020598247 0.033653255547972716 -0.023001160470212695
-0.006302263384952294 0.03330162696710118 -0.025285099314997166
0.0009824897301502137 0.03465103621926832 -0.012641419191927069
-0.00037329399992968096 0.03439989426834694 -0.015232600011529672
-0.0023584953600087485 0.03403216058672748 -0.021055250420097475
-0.002116550032595429 0.034076977927572326 -0.02523061126859968
-0.0027027785523434287 0.03396838643848093 -0.018435906521944614
-0.009727359294176518 0.03686852462093707 0.012014812469324471
-0.009692636225664266 0.03662316611239496 -0.0017001211070634221
-0.010997135830851615 0.035964353770559475 -0.01864391958687299
-0.00942506953255275 0.03656220165164014 -0.008791181418493051
-0.01001025872679829 0.03634028530488131 -0.01242495742040475
-0.011193403807657584 0.035858469988700195 -0.021557582043672165
-0.009012359251419633 0.03674977029956187 -0.004554773460511407
-0.01038070654702723 0.03650238662697978 0.0015792492594334535
-0.011696287467687022 0.03620857493808215 0.009011579467364523
-0.012971779209086775 0.03572290308671221 0.0036670386440187386
-0.01263829757560371 0.03565513283886734 -0.0075757072039406275
-0.010361032934608971 0.03693602010997327 0.02882162349428781
-0.01369683952026574 0.03560837344302605 0.011114344035104296
-0.011108588044993081 0.036337919077795 0.0053449109606069495
-0.010681524942968514 0.03677259165171623 0.024792070545474797
-0.011735057195894369 0.03639330008017544 0.021796657193119014
-0.011901910867810055 0.03593652376276335 -0.004425514621443744
-0.013810700049561246 0.035705894110585584 0.019780629170637512
-0.01309535947304607 0.03584967510483113 0.014431334065628514
-0.018626543374066877 0.03293940301808508 0.0058272626107844245
-0.00517263343510945 0.03794358757606873 0.028459446608139684
-0.007310117792796372 0.03757907770060078 0.0232983410440031
-0.005808133681145757 0.0377289458574478 0.014872577242249312
-0.005590174625349246 0.03779150775994647 0.01827877981415091
-0.007053867921334108 0.037644465332951425 0.026376901517279096
-0.008205390943126263 0.036691546895790954 -0.017799068931291923
-0.007143919178942453 0.03723342709710138 0.001235866289560867
-0.008355828814603174 0.03725875141599374 0.01539757674090151
-0.005851604629219078 0.037601088195841945 0.00813181621463279
-0.006571983868895162 0.037291810744181766 -0.0015272418284769627
-0.008203881806057833 0.037349840940906646 0.01887597674351358
-0.008537747331357995 0.03708098289809432 0.007403327384631954
-0.010045799276248551 0.03574876463875143 -0.02720393482762835
-0.015238456144264376 0.033763525398458075 -0.028303999453783035
-0.008332856130559528 0.036541602663685745 -0.02478318714463528
-0.006771222811690021 0.036875532319933416 -0.020601241709693328
-0.005529659271744518 0.037587184210600144 0.0040419241143096
-0.011852377587313787 0.03248700127005577 -0.002093808638023517
-0.011018730286881948 0.03248700127005577 -0.019082069587624345
-0.004759243097751961 0.03371691896899199 -0.004559512385802645
-0.009488594988400236 0.03283106728531366 -0.007766068605464166
-0.004794864392744763 0.03365038787384607 -0.009196570095191451
-0.00965633070097623 0.03295674945114367 0.004226850448946977
-0.01073248699078346 0.03285531507663958 0.011214271750959362
-0.00436373783568998 0.03367353681289547 -0.013343481775772808
-0.008150468259218913 0.03314271787246805 -0.002157421962230087
-0.012250871880999704 0.03253673239021742 0.007551157323078638
-0.010277600407803253 0.0327270332708348 -0.004929204888209241
-0.007557324868240376 0.03320205075660384 -0.005744692077698324
-0.003624381279349273 0.03396875544578588 -0.0007640851945183299
-0.006506907662762388 0.033486108096109954 0.0016954427968685001
-0.01256630875194689 0.03259725883509131 0.016554847706344036
-0.007458152703018659 0.033113809546170624 -0.013909097011082018
-0.010267589644102001 0.03259219415564934 -0.015458025884254229
-0.0008385714604094952 0.03436453331145899 -0.008587544594173182
-0.011666544596854383 0.03281426722893483 0.020900464349283318
-0.007238164215729592 0.033411271903435506 0.005987949852328438
-0.012957893260574673 0.03262357104542866 0.02396941958823977
-0.007696767130610316 0.033404338202407596 0.01176243787801366
-0.010780526093234644 0.032889542507814486 0.014512795339956162
-0.00943313566554297 0.03303665800714898 0.007314437302204446
-0.0022561237994130545 0.034076994856180806 -0.011245411136739672
-0.010846236948211564 0.03270352028667048 0.0010813231125660367
-0.007894697058019526 0.03307112127571966 -0.011193414330125079
-0.008050592985531428 0.03297777081143159 -0.01712830580428689
-0.009477924989935983 0.032713375439038704 -0.02153745944643463
-0.006563712649780432 0.033253196766192934 -0.019946372083530946
-0.010095625838821256 0.03259895409525572 -0.025472754787300874
-0.005314515839836328 0.033484594825465744 -0.01665030784658554
-0.00238474060522013 0.038223658420266565 0.027244109807671158
-0.0010692963518441358 0.03810902784913148 0.01775160194790466
-0.00019960950282274558 0.03824789204944554 0.02925088612549099
-0.001371172811509828 0.03795552388222703 0.005040005050872565
-0.0026717961821145384 0.03816068354552846 0.022029187754157457
0.00028779422156369536 0.03818209676127425 0.023802406859296365
-0.00367346217707308 0.037848978622893645 0.006535250658360494
-0.002497455681062375 0.03797327297308485 0.009093925232060183
-0.0027404530803063856 0.03805239363070581 0.015309249527493062
-0.004717175101738331 0.03785135530874948 0.011515836906206549
-0.0025076241657811626 0.03736796246044602 -0.021470027243664105
-0.002600924996363566 0.037261863550134194 -0.025925862441162233
-0.003386829900839428 0.037675366200481314 -0.0032287212662914532
-0.005306344784673666 0.03701388403929243 -0.024990741406648084
-0.0047416343889694025 0.03748468883608914 -0.005794538116517743
-0.005134237764239698 0.037364177735680563 -0.009560788035833205
-0.005143729956551137 0.03722019834884738 -0.016186181312150966
-0.0042309409715627685 0.03738937494004673 -0.01257178287502475
-0.0021323167575148807 0.03770760035159566 -0.007538292088683009
-0.003514580878775887 0.03772135153310274 -0.0005077185956855858
7.378960829659386e-05 0.03759799209995733 -0.01597303762740239
-0.00011818002196078222 0.03777304989518442 -0.005283724179608514
-0.00033168303157759605 0.037885840815175265 0.0013278797345533402
0.00044278331024004885 0.03805495327244032 0.014599595147665874
0.0006432872028338903 0.037677648317334375 -0.009093605162868385
0.0009892641741332591 0.037950679626367244 0.009558447824718137
-0.001225216707501917 0.03754186862021219 -0.01871966066815529
-0.0006249074935183558 0.037683944578880926 -0.01218385956119978
-0.0003522934289046327 0.037421581850974946 -0.024253111977578068
-0.0183180412811586 0.0334428655057705 0.00937849493722587
-0.017997161759935543 0.033873328771632384 0.02545333506391006
-0.015064444089061865 0.03531877122151538 0.025178314093038067
-0.0172935382167589 0.033811697762564076 0.001232532529149925
-0.016061513222962287 0.03459969507286419 0.011808099980190834
-0.017648788260477687 0.033940007694838605 0.019209440717159652
-0.016442779706094333 0.03428864023013567 0.0045611260647148745
-0.017332758966568627 0.03403273398985523 0.015451857922744946
-0.01589629736836181 0.03496129083093563 0.028362041817202973
-0.01766991510398145 0.03321942530791347 -0.016756214793758
-0.018899049430809153 0.033345557830863154 0.021848098884598204
-0.0012521322331276177 0.035093895893177844 0.030249995975564905
-0.011511493702779846 0.03566571777559589 -0.02467284842197138
-0.014361618380897431 0.03517327187161241 0.0010551620813938137
-0.012823818058679735 0.03544003708642239 -0.016014757836297626
-0.013862931418784556 0.03529484737175937 -0.0025754712384177692
-0.01378275968767159 0.03495106735318867 -0.022895444254603485
-0.014125856431132061 0.03486856519774648 -0.020335542769894046
-0.013216978715721639 0.035380971407671415 -0.011154273107756883
-0.014392357726101045 0.03528472721875137 0.0077404371606544595
-0.015022945515949144 0.03437351781037976 -0.02543812118588519
0.015179959857224729 0.029935191057358528 -0.033377625327253226
0.013931700658337898 0.03057123471833466 -0.0361140674438288
0.012268876447184131 0.029048637372824013 -0.031863998621702194
0.003447772428123533 0.030987310463917776 -0.031863998621702194
0.009450575495293063 0.029853761942130748 -0.031863998621702194
0.01801942428455868 0.024588469251889622 -0.036866441497747524
0.01371580186104365 0.02633267375988821 -0.0368585157613867
0.020526774134157856 0.022515283241026196 -0.036480927022935206
0.002911582986082045 0.030650876980750898 -0.036813845864565174
0.01197626779347487 0.02834424229804506 -0.03716333122293707
0.009495541172691342 0.029884908194218195 -0.03709576308639174
0.006471760509317486 0.03292697076877469 -0.03300913676485595
0.0032758624218828317 0.03326505254721622 -0.0344884259928628
0.02098536334086982 0.021499912547619404 -0.03209790711838405
0.003842493931916943 0.02952303059876893 -0.03444046307355096
0.018267201360998464 0.022983504431892073 -0.03472842883003377
0.009744057514246956 0.02683079548565142 -0.03495010741966062
0.014656340064136048 0.024619215827512773 -0.034880008338873496
0.006389113636448498 0.02853780765880107 -0.03617338291336404
0.01932656029236888 0.027152371845122515 -0.03676012791150109
0.016660385467195178 0.028959928370423063 -0.0364519747037533
0.02137515355532 0.025907713798647897 -0.03541660210313901
0.010248333662293937 0.03209016435702215 -0.03447384603704078
0.00607473088547703 0.03282341231405061 -0.0357034393188954
0.028564034797448387 0.006937923055149269 -0.03650867022420387
0.029999898942805525 0.009253424453936369 -0.03186500072479248
0.028842816548913124 0.012689093873634193 -0.03186500072479248
0.02827192767511255 0.01591613280190626 -0.03186500072479248
0.03181863175141291 0.010895777490015617 -0.03476048302750127
0.032919692128146785 0.005669629605025899 -0.03552606372892135
0.028811490475698885 0.00999646352055498 -0.03675900027155876
0.031263996099085964 0.0016951173918390294 -0.03675900027155876
0.033273105367961825 0.0013633638388660936 -0.033780345518521535
0.03317649391217688 0.004113097313538593 -0.03327549785648211
0.024501508040937196 0.01873546408265639 -0.03675900027155876
0.02485071395119146 0.022624296917808075 -0.032474096780243655
0.022678000852465633 0.021786467558629292 -0.034973174896310716
0.02549478331724775 0.0215429850836604 -0.03612294147501893
0.02655249171069045 0.020626998003340585 -0.03368190917749449
0.023681524205960622 0.023846223213600456 -0.03628446348725305
0.027731611777363628 0.018713240733911188 -0.03586045302234093
0.032034009874065246 0.008410498985254814 -0.03648005320107908
0.02746179698966811 0.016296786733533995 -0.03675900027155876
0.028821974517103582 0.013500234308017688 -0.03675900027155876
0.030920598542103807 0.013529249921082606 -0.03421675982725633
0.029363872981345393 0.016556590125914553 -0.034358466409361944
0.030362147305636217 0.0022686412583477512 -0.03445680309033271
0.029315560352998857 0.0047478171076713715 -0.033426684725331376
0.024000928596319897 0.017337221806443977 -0.033920742200259285
0.027718956819556002 0.008529883099495214 -0.03405162642673734
0.025695340693203696 0.01332346495727785 -0.03367486422229495
0.026603311264640793 0.011612599309599169 -0.03644348098544055
0.02523478013485169 0.014735254728628086 -0.03572574887645663
0.03795556892178637 0.0030210994584538293 0.010035058083464084
0.037766389002758596 0.0028325129179790475 -0.0017158523886603248
0.038035891600789185 0.0025151668003659143 0.013340343307556683
0.03564159924858808 0.0004450000124052167 -0.0010561141384529222
0.037105305549126714 0.0004450000124052167 -0.02648455931285672
0.037108877077606 0.0004450000124052167 0.015227143863223448
0.038086954791185235 0.0004450000124052167 0.024148910696225948
0.03663414619282386 0.009824829749308706 0.0026987652392907223
0.03694398086550516 0.009361299707418468 0.012019144547863632
0.036413836529566423 0.010235999710857868 0.0059477462010801094
0.03642863901080874 0.010235999710857868 0.027005121653466673
0.03468838565868957 0.01023599971085787 0.020460903787561876
0.03745106810750568 0.0050492556214383165 0.03133000060915947
0.03638294662084956 0.009237134521922936 -0.02099337687264939
0.0368943428715081 0.008644092775464157 -0.0006065335136771835
0.03712308874515764 0.00830491228514228 0.007539206117209594
0.03724961708246861 0.008354755398524248 0.015171507959215857
0.036709635605717536 0.008538806803806177 -0.012176486928561752
0.03684295257517026 0.007121447072753712 -0.023488400977837186
0.03685955821573498 0.0076436273736894605 -0.015697372894610498
0.03412820698722974 0.004216529945279994 -0.01943268794748303
0.03440170797733326 0.002393398197230403 -0.01571822170854742
0.03403599582896753 0.0048312008102323585 -0.023847717893904684
0.03466995104441715 0.0006053152670379146 -0.02098671299867877
0.03424887789871184 0.003412149055449124 -0.02600250522539016
0.03486019401715735 0.0004450000124052167 -0.003960791579333719
0.03349826344859318 0.008804052163511883 -0.011469028247003644
0.03359936963497221 0.007750450709570607 -0.02499883710370091
0.03408144643673609 0.004701475874795883 -0.012649403059044722
0.03378189625093805 0.006655569498775019 -0.018005550794119505
0.033770162420072344 0.0066604180948374525 -0.0210060496393615
0.0338241018215195 0.00643768328637252 -0.015015152940466629
0.03335899859666824 0.010135256844474824 -0.02726874955347303
0.03377200087354341 0.009947841711179283 0.008673107677346647
0.03451725018755722 0.004002699345024416 0.005476507431157073
0.03452824487604122 0.005018578173208152 0.013398106429393986
0.03486412236127154 0.003971369639651397 0.02205383010515151
0.034737703338133856 0.005390878499907612 0.02625381317024219
0.03523746300756185 0.0018421418845255473 0.024654563520988198
0.03513807895920121 0.0029396172090795135 0.02782204136088194
0.034744490222002086 0.005725360565514715 0.02901545698547789
0.034307558827875964 0.008331188445926665 0.02680041194763139
0.03497624040666569 0.0020960757883510686 0.013845872672160545
0.03549166202458085 0.0009939466941573378 0.03080065522173801
0.035340813531309134 0.0007462550388112251 0.02169080642896772
0.034488969493240394 0.006133620697651561 0.01960549141915915
0.03504374419907932 0.0012290753382433479 0.010810210661304628
0.034801643776231 0.002460390122906755 0.00803686549861663
0.03442864478437155 0.007161799509253817 0.024161284928246075
0.034696173807358816 0.004439378848756829 0.0173211257950962
0.03426040770664822 0.007153574257789756 0.015679407129614638
0.03404046593716265 0.005800646432184756 -0.0056119702173425936
0.03402689520645023 0.005333670706336755 -0.009768056122307531
0.03432842541815853 0.00416287930178461 -0.0030033682124139286
0.033719747218750734 0.008608402754195155 -0.0012266491494276072
0.033655997099833815 0.008194986312068551 -0.00755560410369629
0.03462202787672907 0.0016079772958130898 -0.006903310318815753
0.03455004091868296 0.0033161417991018124 0.0020704444406529684
0.033842182924367706 0.008527326112537408 0.004442729009109206
0.03441331202481112 0.002435480685664206 -0.011459051468693212
0.03429168948420498 0.006168828799790448 0.009982791790883825
0.0340081893919719 0.006883655290899767 0.0007619999531634277
0.037366097076502514 0.008239765751383682 0.029981580289900507
0.03708214566992357 0.007183488790082884 -0.009185559140115183
0.03736333365830881 0.0068582504179601714 0.003719763135467626
0.03712393503544684 0.007385821357292042 -0.004210923297816403
0.037447871656409185 0.007642438502996229 0.01835454021821468
0.03732997284532909 0.0085763420606692 0.02266872913375068
0.037697192706448834 0.005514976719788776 0.011064684218755045
0.03759631299554502 0.00510363935078339 0.0013067680170236453
0.037065415760962145 0.006288878903156882 -0.0198711008503236
0.03737262382699637 0.005654842113714241 -0.0071496571871164216
0.03738852036166722 0.006172661424348544 -0.0015316078912713076
0.03776073110174575 0.004635712820642704 0.006957031441390069
0.03681273826746018 0.0066243209268038545 -0.026560933629216518
0.0380777488696287 0.0031520810013287433 0.027814999316609572
0.037881954126883145 0.005660260773850993 0.028653107304074527
0.03787005470162764 0.0050440820834323444 0.019396936023712938
0.03784373330030676 0.005602015748521852 0.021893895585746993
0.037991658982221746 0.0033912726570479385 0.016191454735238787
0.037972557813349385 0.004563189404152894 0.024912492050367604
0.037261053170165204 0.004015241017066763 -0.02435823541184425
0.03741267732584927 0.003955135323006208 -0.01682951567535579
0.03755230434124515 0.0038259307800680422 -0.010369379033882338
0.03726700697516701 0.0055893549804503714 -0.013968704026552353
0.037079266782816374 0.0036610232011869406 -0.027898528283488766
0.03747171233789741 0.002569398371894311 -0.01931100721772826
0.03774880946437065 0.0015976084592681833 -0.004903155591006955
0.03742221780113723 0.0008985925169566325 -0.023726822988611434
0.0376986329417906 0.0017219715433181935 -0.007563667554927351
0.0378491695893825 0.0020683822078898895 0.0011369532657836204
0.02957287963056522 0.017317491426662664 -0.01925735808965494
0.029016688703350932 0.01887821741165405 -0.007866827118188023
0.02993752143935944 0.016754861550129306 -0.013825434774993164
0.030743489840602933 0.014966483576075093 -0.017077183596015476
0.03401585961599505 0.010236999951303005 0.01601935741656971
0.03580147099543414 0.011031280934320558 -0.01831870456943424
0.03567756432886626 0.01063388602358668 -0.023989106370707943
0.03611735304435563 0.01035704778549731 -0.004438352902966113
0.03541139293337434 0.012025488568757965 -0.02760742738313573
0.030600839478517963 0.01667107908373413 0.015478160252783823
0.030849318105151232 0.01670941993273226 0.026790290980876943
0.03228214137313677 0.013635715687723928 0.025989977545970978
0.030819716768756545 0.016923967404134863 0.029833922649615017
0.03133885860395925 0.015486528123715048 0.023055290339201798
0.030035910511020832 0.01731917931058266 0.004494879117788451
0.032315152714167364 0.013338784929541029 0.02144001304165272
0.033137840570589855 0.012012546740255084 0.029770378742744824
0.031182874898066044 0.015628876132885626 0.01928917338684663
0.02999549138024232 0.01835223861791143 0.023483142079705338
0.03043443003130135 0.016728833350999308 0.009574315853061826
0.02920261758988978 0.018898090914742892 0.0007782939860434736
0.029775389772455217 0.018664246915571947 0.020396430953821553
0.02910492516019693 0.01920030850974559 -0.0150541870566545
0.029144767838833224 0.01921358936556431 -0.0041174728821675366
0.032513711035108465 0.014984034477172888 0.03133000060915947
0.03371374667452942 0.018157052165763063 0.022079735874690733
0.03304842686524069 0.019372412556872196 0.018621359261849386
0.03236800374304718 0.01922768934931314 -0.019714873287766183
0.033170879600924415 0.01864262459455593 0.003664167028101458
0.0328890008827295 0.01935009201178377 0.009144827367439191
0.033074899651987066 0.018384203303901774 -0.008083551748557214
0.033417767636290376 0.01741237722558381 -0.01778427697557235
0.0335270971344908 0.01701376391925336 -0.023296745913679667
0.032772310010832154 0.019090948480048872 -0.0036371607892369713
0.03316016925938628 0.018076920763168722 -0.012284508398491299
0.03407237667929278 0.016598014951239658 -0.004068415754991379
0.03413901319620931 0.016982373683358403 0.011885502024234593
0.03408771680082266 0.0163794474281221 -0.00986574400504127
0.034253160180384844 0.016876737685545144 0.015649870381447675
0.034469112955463614 0.01658254146682559 0.01986181910036925
0.03474368083524466 0.01554470770952078 0.004744528073329263
0.03359430099487569 0.017668709659636225 -0.00045755654774353935
0.034145046444889575 0.016654686622580177 0.0021501428819085044
0.03376686312186719 0.01756562537009488 0.0069792483987155445
0.03509583912441547 0.015574891006649138 0.027340443821367327
0.03210818218430934 0.019579999148845673 0.01175468864964311
0.032436552450993326 0.019579999148845673 0.01535785894645216
0.033029705634101944 0.019247564603960203 0.028802068441304306
0.0327402459969462 0.01938039088543063 0.02528023785657313
0.03602878832690338 0.011283217506434663 -0.007196923161402901
0.03642922694279013 0.011268129030326667 0.018408826433052645
0.03618234451742981 0.012436321783601597 0.025295228914625812
0.036150544912174294 0.012702091076729304 0.028564893134944775
0.03623369874818948 0.012090075451605018 0.021729152247215822
0.03600361650422692 0.012437774923772772 0.012834358704876024
0.03621214258027508 0.01153869837364107 0.008828547540623587
0.035655301622365534 0.013094609845158622 0.0020647716316250994
0.03623337806751678 0.01179134193151682 0.015533474560879421
0.03563421136088938 0.012450489396763142 -0.012719794374212683
0.035630176253430484 0.01231737489298645 -0.01575258248666125
0.0351847355848333 0.014696811176142894 0.009684363614136115
0.035119418820901346 0.013315679617288391 -0.022211137059822653
0.035389472572452826 0.0148303228727859 0.022958757651636102
0.034963159636572136 0.014693634445151363 -0.0017615436185553224
0.0345912355615192 0.014917865481266198 -0.016230077908185633
0.03463550737389476 0.01465124459811455 -0.019465918713498807
0.03519639543715193 0.014874120454836704 0.01394727929768114
0.035147955818490596 0.013934341403366496 -0.007960944318779997
0.0344164399741433 0.0155351096645194 -0.01245245135955158
0.03540207138716035 0.013438073460010455 -0.005164704828409188
0.032657333785376746 0.01738246983951109 -0.02819610330429436
0.030293432187091816 0.019424885739997164 -0.012434169196763628
0.03146624832828473 0.019579999148845673 -0.01629571835660263
0.031821339266089745 0.019579999148845673 -0.023589352772726883
0.03248674505895608 0.011206573278996754 -0.02115816553754119
0.031715610411000766 0.013775648547611789 0.002663076725518923
0.033058842787608095 0.010536875645524146 -0.009001990576362575
0.03231282910244515 0.012183081605241536 -0.006204489617320232
0.03150022586593692 0.01376580773972835 -0.008234332570592091
0.030759480897081786 0.01541527833876695 -0.005097299029694532
0.03284488716315814 0.012084834085845248 0.017757995616332903
0.03322568115643452 0.010419254163139954 -0.0035826820325720963
0.031997851991728415 0.01244704382250504 -0.01542467121177237
0.03130830924559389 0.014460384964790329 -0.0009740093207208627
0.03291668859188446 0.011205574929429729 9.68265209917267e-05
0.030232625361700616 0.016364771495315025 -0.008263390946599915
0.03349517084006273 0.010984151937136788 0.023384986403836905
0.032219311626777804 0.013048614670766012 0.01005070902455818
0.031681643143698354 0.013257303540748874 -0.011524715768751935
0.03239660001662633 0.011509376905684824 -0.018313625825850624
0.03323297112734411 0.011048564494647205 0.011962156217381843
0.03151417691592401 0.014615170611930064 0.012949621670960565
0.03182335642378742 0.013300273964546356 -0.0034741453156619615
0.03276216371276644 0.011708730981976646 0.004589147613499007
0.03048120717452242 0.015734004179469754 -0.0111795896371617
0.03099254575157899 0.015433191022322386 0.0068699157965304725
0.03132818357820924 0.013621880695292129 -0.02553420499890269
0.03014974873127566 0.016269293455119835 -0.02611989555863101
0.02931378916794257 0.01803470302065924 -0.024281045951226873
0.030871902541686362 0.014547075663632452 -0.02240842795208708
0.03281844343230308 0.010438685811346599 -0.02434565286537112
0.0035097780109500038 0.036657305515064804 0.03133000060915947
0.0019089109073582296 0.034746829735258965 0.0001373785333308201
0.0019169839357463464 0.034638524340612334 -0.0066146053287981545
0.0018300273300053645 0.03448137994766521 -0.020782232760355162
0.006357847691336881 0.0333674364339732 -0.024396963801497123
0.003608499194832267 0.03377255939282971 -0.01138866322178679
0.002749565538802798 0.03409599307277462 -0.016390198275467352
0.0045722350056345736 0.033692009095330044 -0.018778575104744333
0.006282006156378438 0.03316885311964568 -0.014379010566055894
0.004184020935114177 0.03393768967991653 -0.025620862774728404
0.009445132660164446 0.032619522831224004 -0.025512148735370527
0.012466569643213873 0.03189013502258849 -0.02672206450294154
0.006040230483412484 0.033524876705232416 -0.027988950071905352
0.006842331673772833 0.03315235553343537 -0.020072472384023127
0.004708834707926638 0.0335854194013614 -0.002203339244803414
0.008324654781150846 0.0332459176662958 0.01606375506551645
0.0036111179969499636 0.03493423424548723 0.028458871044127625
0.004608518354052353 0.034550385123157626 0.025063015773537752
0.013981192882705076 0.032024496219037496 0.024576553047790335
0.0021366132152748993 0.03495800481641424 0.017676611755420367
0.005846464694325799 0.03391579580482797 0.016251041118699648
0.007761665268157122 0.03373643436624678 0.025940085269932665
0.011264562462536105 0.032796874945338325 0.02588772916733889
0.006872936967745465 0.033862994746644684 0.02270337232339667
0.0053968639680516605 0.03352056067384995 0.0012651005545470627
0.003431477866412339 0.0347606016746549 0.022014422167062474
0.00207698891576839 0.03487739769069212 0.014869811714914232
0.0016216674130572618 0.035363905931478805 0.02546740252794044
0.008067961308428342 0.03346049087081191 0.020303029727098014
0.009683324017486757 0.033111909323012806 0.02274061273324979
0.012070865908917821 0.032391896566634396 0.020390818438955523
0.004813171674642914 0.034293300272617906 0.019183206121710736
0.003287930686658066 0.03415658520882721 0.003341620644032253
0.0043740020238647575 0.03396892435199014 0.006337966909321139
0.009927087876465701 0.033241539648607835 0.028405075886473376
0.0063993939796814 0.03357740479395044 0.010717995184802712
0.010722370002362732 0.032559781725407216 0.014777756002712444
0.004445657179536599 0.03418004216023803 0.013031698026385164
0.014872844432100444 0.03190068163692916 0.027915819030313985
0.008413321242706072 0.03309914555822899 0.012487710595931149
0.0013170000165700912 0.03588660978464188 0.0027953224768587377
0.001317000016570091 0.03613388353188032 0.020093851119639145
0.02022238118357303 0.03241360247923412 0.013165554837827206
0.02109849455856405 0.0321032089363939 0.02636738015634955
0.019929043677142138 0.03216888038238601 -0.0081264387916533
0.020901278937563203 0.03203476983665049 0.020011286322491356
0.02014203362079596 0.03199860124373752 0.008346229356133583
0.01700317738429962 0.03171184893713133 0.01107659756385435
0.016898903708610382 0.03177609627795851 -0.009543702474340323
0.01612156954146988 0.03173937260204203 -0.01645001332055545
0.016274930500016 0.031698455228915984 -0.0013754525466411994
0.01465337760037538 0.0316089724134518 -0.012116596278566755
0.010543039348974277 0.03294772279225934 -0.028303999453783035
0.0013170000165700912 0.03742106806931663 0.0061568490330921825
0.0032051850848944462 0.03695294714090132 -0.02723921783468311
0.019300365337558415 0.032426211558582024 -0.01399056433489503
0.019439407898716517 0.03222069276511156 -0.020491559068396156
0.018511802413139197 0.03363054250106614 0.024837435900168223
0.01795403747037478 0.03380933530460109 0.01829094448788251
0.01867734196461163 0.03334489952254445 0.015027850354543095
0.01951441181125169 0.03257979872842067 -0.00025022217662941555
0.013218601859248287 0.036135880210893256 0.030452998543144205
0.017986315110074057 0.033900428903715585 0.02977093916422574
0.007957577845280358 0.03662418912470385 -0.021785507466391737
0.009805438358692641 0.0362798742914899 -0.018398190301287087
0.008381374107126872 0.03673990354898009 -0.010803280394091428
0.007913376215906466 0.03739670969611618 0.018197976523555537
0.009809416042359295 0.036369812160508795 -0.01363741808957766
0.014676466243499296 0.03440744477189635 -0.026975951060596654
0.011066129398353108 0.035538364569553144 -0.02760464442425013
0.012645925277831503 0.03519404491114819 -0.024584543895654162
0.010733324102958295 0.03599670544691488 -0.02120611935378638
0.010619620823908112 0.036721155713782476 0.01811328522065642
0.009822910696424565 0.03647339568801777 -0.008002133456286014
0.01043382464399655 0.03695650179741196 0.02915090879766318
0.010137658991793004 0.03657952314644619 0.002796934327217773
0.009631013884088038 0.0369233961650168 0.01548904550815026
0.010522888744177835 0.03656142334814001 0.007366753270582905
0.009619292957225065 0.036845982411533106 0.010794390518093349
0.011013694064969416 0.036289124596649666 -0.0013745215834117704
0.008598937635593523 0.03731953921501885 0.023559912940699458
0.010710686096696629 0.03682707558309642 0.02563266790329943
0.00887957063906019 0.03720235499581657 0.02081209031248352
0.012745019684193608 0.031811923783087184 -0.02366132293634692
0.004122274006220998 0.03360947221775806 -0.008267566923635616
0.006873126317141532 0.03303601331613027 -0.01179649224540596
0.009639898451018312 0.032459235674288635 -0.01712745603993352
0.009483125913733365 0.03249191740230432 -0.010050197280590133
0.011914634851278512 0.03198503070428446 -0.012755133367358923
0.011810158403900279 0.032006810480872845 -0.020660546131037683
0.009160494872778754 0.03255917497249171 -0.013257455539833447
0.01239212456049576 0.03188549038250882 -0.017531922128843823
0.009101315351890005 0.03280739394141689 0.00864899192565126
0.014118306657746453 0.031610082151260994 -0.004885550559753784
0.005647487584387898 0.03332371727249959 -0.006158150503361489
0.013281421359507446 0.031830991744421125 -0.0009680975715498519
0.012015731634342235 0.03198121110838205 -0.009449103376125428
0.015595442731633834 0.03164666496384472 0.021612964424003463
0.007124430126022201 0.03308209630818808 -0.0014579946336533245
0.010129637514457026 0.03248134809920078 -0.00044235476834505495
0.012901001712107923 0.0319435359946094 0.0017626478101400202
0.008472386121722441 0.032751841985020694 -0.005765263849847643
0.01152327366402688 0.032348306489504285 0.011431403218128081
0.011115592227649067 0.032238561646030346 -0.0036887593247901655
0.007395458229299026 0.033103365998799726 0.004544477156320124
0.01475020805691512 0.031646332300932944 0.008064098994012038
0.009907933591444483 0.03256255264056791 0.002372423070866798
0.01374226037605793 0.03181093076969279 0.0048331752008916795
0.0119486870145903 0.03222123220627526 0.00828218298682621
0.013988378057766235 0.03189365467642142 0.015251603630775453
0.014759975452447166 0.031786973237400644 0.01923857107056977
0.01708619633038265 0.033109106286099005 -0.027756036610927088
0.015790453805861998 0.03404238127822297 -0.024147247030221503
0.016021643421587482 0.03416595247708255 -0.014611514107798155
0.017716008520118866 0.03374668050526939 0.008780726198297421
0.01727667645492137 0.033710570904295 -0.004290010273586313
0.017065579315085216 0.03375539385968992 -0.007562988034109566
0.016409010516997447 0.03385806813656202 -0.019519877054180478
0.018719197763101398 0.032547443275872376 -0.023370970994069144
0.018202478015670886 0.03294533842540242 -0.017442746978828486
0.01739541458222703 0.03380723039009952 0.0034461467428429284
0.016556803139712757 0.034307433970685135 0.006482321340548037
0.01659037190102428 0.03439110750236804 0.012362659922093878
0.01686763490128005 0.03441654442259295 0.021033872852372685
0.014681618525726657 0.035179179082628964 0.01039752947479533
0.014126059957504577 0.03569815417678462 0.02718313926895081
0.01566570750404097 0.03484666284018096 0.015833202098248622
0.01585795613209638 0.03446663690968738 -0.001988833594684202
0.01491245100733285 0.034978903196108364 0.0043435723484560925
0.015035236727798947 0.03467646058725773 -0.010618851625757823
0.015750628346730734 0.034968427434113505 0.025320209146311303
0.011375578183775015 0.03610948604815026 -0.005374801944037978
0.012957820138849718 0.036004045079949434 0.01683245679965922
0.01356119002588154 0.03526923918742263 -0.008012994047965807
0.013083025818896697 0.03520513844983448 -0.019326838775298154
0.012978333603543757 0.035922241036225946 0.013262488023530247
0.014031535825236141 0.0351825283748976 -0.0040670228760984455
0.014970688517575244 0.03457500889413515 -0.017021590169697683
0.012721653731830204 0.03549739912050477 -0.011536548642478056
0.013717802965790764 0.03554374712873291 0.007851495893307758
0.013558799726725315 0.035474110312286186 0.0017717476531894354
0.011928665559098557 0.03568354982955749 -0.01627283644687254
0.0128017793525573 0.036190886145331454 0.02310482447786506
0.012314830951934343 0.03598475852432338 0.004827790222029965
0.003427686956119178 0.03814840591696894 0.029018574830787555
0.0048654403898570914 0.03711872349093399 -0.02218975258523386
0.0041451034520062074 0.037358318513131476 -0.01738059692886088
0.00599004433424126 0.03702666330267379 -0.01962888530005183
0.005067098749943084 0.03700864322241103 -0.02507162206297
0.006582807340181552 0.03752016262447079 0.010686370305537096
0.005811317626321843 0.03748503256674594 0.0014915574423557433
0.006392170478780207 0.03728194825649177 -0.00331003470267919
0.006921237576180625 0.03697014361751826 -0.014161698339974447
0.00654740622926251 0.03761132022843822 0.01500302805588885
0.006099670229791902 0.037493322065447414 0.0046809578926075394
0.006425181470509201 0.03718485226572249 -0.007952946099839528
0.0035376646260276185 0.03750135205924501 -0.013078567842937441
0.004436261898062757 0.03755819395842175 -0.005255379011153565
0.0032812854490840513 0.03761896823220786 -0.007892820584280098
0.0029376787658909782 0.03786571546271573 0.003996479301014709
0.0032491385472040437 0.037737604583454265 -0.001484521706573926
0.004999210729288838 0.03769223141051126 0.007204985211008381
0.003446616232770549 0.03796789517520609 0.012380774052935091
0.005702693280766988 0.0378270711183301 0.020779419371726067
0.006995171429054976 0.037807835000744715 0.029356550004633466
0.004366187013643297 0.03808021778201276 0.02620625621915953
0.004856644789359059 0.037875604619415554 0.017367734071097814
0.0038664630669688104 0.038092593017849716 0.02319262823490808
0.005521875052437845 0.034552038558222455 0.030703167355171812
-0.018879586381837146 -0.02730851346769763 -0.026119671586712495
-0.0190495567476847 -0.02589754553145948 -0.019928287328429176
-0.013591183956390968 -0.030713626588288558 -0.021818858761366137
-0.015046088643184428 -0.03007053138792349 -0.013051786750456169
-0.015572337852061559 -0.029925625233333086 -0.008749367338999614
-0.015136022772682379 -0.029556178980662297 -0.0186316638625908
-0.017165386505160203 -0.02797421302627972 -0.015238053605634872
-0.026024425188342012 -0.025366999208927155 -0.008510514170855826
-0.023053403196912615 -0.025366999208927155 -0.0184175427473905
-0.022975768203226568 -0.025366999208927155 -0.015182307725266356
-0.02188494790983434 -0.025366999208927155 -0.011400969358474511
-0.020017890687267628 -0.026103958050247327 -0.013844560395143162
-0.018438101826795006 -0.028698347006059076 -0.003939998074819462
-0.016984382258919496 -0.02850388356685733 -0.011291652242324696
-0.016605093070167103 -0.029588878481540674 -0.005966511189344269
-0.021055725719718397 -0.026638026658847454 -0.006075417054050595
-0.014824445109935695 -0.031116942097562796 -0.0037069681299826684
-0.02306018498036877 -0.025617323638193357 -0.004158308726497459
-0.01978735863811624 -0.025786003116099278 -0.016841510440798603
-0.019829763884920575 -0.026982162895744424 -0.009034598351648639
-0.01881695642776464 -0.03248700127005577 -0.011079409187830928
-0.018566903281455324 -0.028908400909157646 -0.028303999453783035
-0.025445376423652886 -0.025366999208927158 -0.021962882640766002
-0.026473247156626953 -0.026587450791404774 -0.02491453301876216
-0.02550936043515755 -0.027396373333454804 -0.027923567457903337
-0.024389095727224076 -0.028904832478067667 -0.012158028880563464
-0.025021437148119604 -0.028259697106528082 -0.01531010954532825
-0.026406332141307044 -0.026937335479545188 -0.01825580965570129
-0.018835272975480752 -0.026294172907832786 -0.022961173139014093
-0.01603856066786956 -0.02859425384339817 -0.022358053570821226
-0.020291388153021176 -0.028443917438834752 -0.001601999974809587
-0.013563452631326228 -0.032378523200995976 -0.011490998121733742
-0.019719434896304983 -0.032145056327924915 -0.01575244431663341
-0.02081284031147259 -0.03137287389021785 -0.02285876741533099
-0.020691817209164638 -0.03138569166018792 -0.025827235157636894
-0.023117027091813992 -0.029715145280595476 -0.02304808796191527
-0.024407496976409676 -0.028713974329184256 -0.019599965697241484
-0.023082012131690414 -0.029891399315932685 -0.01743433967885129
-0.023381506790308877 -0.029386191902045396 -0.027079283717085033
-0.02145447614112524 -0.031149292416859042 -0.010748226327698679
-0.021506084876201273 -0.03100630492770203 -0.019644441811047762
-0.022642330772583243 -0.030389904020532495 -0.008571172527535316
-0.02086092547603456 -0.03163747204343452 -0.002948914957508731
