0.00491086968626 -0.0444523068339 0.0135870262298
0.00446255242121 -0.0442735794292 -0.00323426772477
0.00644607495147 -0.0444173410121 0.0226087281649
0.00451465330853 -0.0445794877035 0.0201306272156
0.00455730034609 -0.0442151843443 -0.00690013197465
0.00566330514745 -0.0444140722921 0.016424638211
0.00614998498445 -0.0444869592193 0.0255897737537
0.00428983368739 -0.0443994590346 0.00490723904502
0.00601875131972 -0.0445056074406 0.0293049948218
0.0129059870117 -0.0424877840587 -0.00965118953651
0.0118460708872 -0.0432142858003 0.0135453256349
0.0126060504331 -0.0423836798487 -0.0215954467919
0.0121878890038 -0.04243086275 -0.0267537733161
0.0126134764171 -0.0427761502112 0.00200194091023
0.0111766755067 -0.0429888323109 -0.0127002551249
0.0125339355641 -0.0431887925072 0.0257693917291
0.0127200308275 -0.0430607589834 0.0218022622279
0.0109861504418 -0.0431420501959 -0.00667671374229
0.0109451641182 -0.0433445658644 0.0073332644636
0.00940574628798 -0.0437858170734 0.0162039661291
0.00973281347802 -0.0438394199351 0.024958378371
0.00917544378264 -0.0435659937419 -0.0031068856198
0.0116182186876 -0.0435046681081 0.028943863841
0.0106447721509 -0.0435706272665 0.0191695209566
0.00883282351381 -0.0440724669875 0.028345062387
0.0224063662086 -0.0378526873964 -0.0285009584591
0.0286049991846 -0.0333358204362 0.019126243954
0.0286049991846 -0.0302560595556 -0.00962758958542
0.0286049991846 -0.0333496734149 -0.0202745686349
0.0286049991846 -0.0335100811104 -0.014405539198
0.0210183646959 -0.034562406103 -0.0292019993067
0.013474999927 -0.0394703995056 -0.00134069995983
0.0210437904052 -0.0354181455016 0.0302590366808
0.0256381203626 -0.0328419460393 0.0307140983381
0.018666876434 -0.0366414790346 0.0266403136735
0.0221124570226 -0.0345892789325 0.0272205433793
0.0162890388012 -0.0382042382962 0.0290274849872
0.0241318483177 -0.0327725061976 -0.00112861853812
0.0259963620739 -0.0317416474953 0.00222942515841
0.0239810730687 -0.0331847117161 0.0145481101795
0.0180104846874 -0.036836511088 0.020806056492
0.0194030198192 -0.0359480766679 0.0175658397317
0.0154371900492 -0.038388529906 0.022441629229
0.0260099949152 -0.0318432913621 0.0075490447862
0.0166124782433 -0.0375203020703 0.013964925394
0.0231563349831 -0.0334541497109 0.00401563377588
0.0208775850788 -0.0349068107318 0.00926087833368
0.0270774711128 -0.0309882984234 -0.00337080609179
0.0210072514296 -0.0351388774566 0.0242260084248
0.0259714509719 -0.0319410501145 0.0111872191082
0.0218302390546 -0.0341549637438 5.7786607983e-05
0.0256612524261 -0.0317551111321 -0.00670669209247
0.0192185878986 -0.0359448615866 0.0121324430723
0.0232105367787 -0.0335626503016 0.0108286606239
0.0262263554942 -0.0320088106693 0.0217674943586
0.0243871693287 -0.0330338384634 0.0188514060242
0.0245406557757 -0.0330820275386 0.0255804525491
0.017046458769 -0.0367778846802 -0.0270590730583
0.0134962887815 -0.0392260796379 -0.0082643868684
0.0261977680168 -0.0312204043679 -0.0219974351534
0.0221707624905 -0.0336367183961 -0.0228661174258
0.0255868110785 -0.0315869953276 -0.0271850020589
0.0224388716013 -0.0334758455587 -0.0268070586435
0.0194051135192 -0.0352961838135 -0.0236379513637
0.0154819148229 -0.0376502108898 -0.0242488941394
0.0146354658229 -0.0382170547547 -0.0200308414609
0.0247934096685 -0.0321924691484 -0.0111676848772
0.0179890790564 -0.0366153772793 0.00927101571657
0.0220642919476 -0.0338317692594 -0.0121403422124
0.017562546919 -0.0367633449419 0.00174825015634
0.0155244573115 -0.0380685536261 0.00653703378326
0.018502861279 -0.0360799310826 -0.00599268523769
0.0192317113251 -0.0357066083044 -0.0013422540807
0.023558092199 -0.032861730135 -0.0165625913495
0.0198075586168 -0.0351389336833 -0.0162397892983
0.0165882448389 -0.0370750142171 -0.0172281995127
0.0260403085876 -0.0313951009582 -0.0140187499917
0.0212547429295 -0.0343645664253 -0.00926060595205
0.014309353859 -0.0385276523807 -0.0123354327281
0.023674516399 -0.0327415137187 -0.0199453223384
0.0167689765891 -0.0370647887383 -0.0104673985661
0.0159315812625 -0.0376185722522 -0.00730749676072
0.0188639145987 -0.0357520004644 -0.0134267264079
0.0204494063961 -0.0346932060963 -0.0201097556066
0.015998084414 -0.0378490463822 0.0111312796122
0.0191687969303 -0.0358606347603 0.00655072631445
0.0164021977882 -0.0374184058886 -0.00152039640808
0.0229680181827 -0.0333978725268 -0.00439934055722
0.0224947084408 -0.0385612545133 0.00363808940499
0.0226596653598 -0.0381740331976 -0.0120696718767
0.0237390692845 -0.0376866995673 -0.00213748786791
0.0240629432588 -0.0372434568066 -0.015516741173
0.0225136732268 -0.0383891793296 -0.00519347309916
0.0237451043764 -0.0373542922369 -0.0202404249377
0.0243159352608 -0.0369111311931 -0.0252016832562
0.0218959379854 -0.0384298023077 -0.0240014343332
0.0161529002173 -0.0418880582467 0.0243764426757
0.0170023330935 -0.0412377284272 0.00235434275513
0.0164330863046 -0.0416397269717 0.0147377962705
0.0172825583608 -0.0413784246945 0.0200324102658
0.0175626168025 -0.0408529577611 -0.00906890785353
0.0176847666279 -0.0411013536835 0.0117718464191
0.0168332050852 -0.0412138842361 -0.00402694842908
0.0171883019665 -0.0412523894849 0.00855954364679
0.0195973336746 -0.0402857645503 0.0294218417647
0.0185535791586 -0.0402860333787 -0.0174821159352
0.0196268254556 -0.0398048120297 -0.0148986209443
0.0198858455134 -0.0397291819971 -0.0115999714846
0.0190373201881 -0.0403986212494 0.00544099054767
0.0191773247163 -0.0401653690974 -0.00547994184796
0.0192228432318 -0.0402144758059 -0.000779661173305
0.0211186774316 -0.0394331634139 0.0128603141019
0.0205698315721 -0.0394272653499 -0.00825678005342
0.0208416337567 -0.0391138527123 -0.0209329380852
0.0188664484043 -0.0406417841157 0.0163627492883
0.0214326331678 -0.0393204158923 0.0164477996467
0.0204419598574 -0.0398866023843 0.0205156909766
0.0213391552393 -0.03924738852 0.00758407285108
0.0222153281816 -0.0390504375533 0.026203375072
0.0195093761263 -0.0404134747392 0.0238978605029
0.0276533548333 -0.0348541744631 -0.00465256147779
0.0274081599847 -0.035554253476 0.0257049789421
0.0268492663348 -0.0359187216651 0.019781971122
0.0285111730996 -0.0345891826336 0.0224002419646
0.0277219651167 -0.0351421047905 0.0163706588568
0.0253794597064 -0.0370754237862 0.028704792657
0.0267140947838 -0.0358610142808 0.0103474185642
0.0259667410035 -0.0358630440426 -0.0182172399897
0.027318282166 -0.0350444304683 -0.00811110362055
0.0269929485145 -0.0354492492961 4.96025765918e-05
0.0261106931321 -0.0356738462668 -0.0223418631328
0.025726519388 -0.0358574267728 -0.027718437102
0.0284010838497 -0.033864084159 -0.0267572315312
0.0264415309261 -0.035930163378 0.00341767449379
0.0258724217851 -0.0360408537654 -0.0127693597859
0.0238025397544 -0.0380962386339 0.0235146950879
0.0240877511893 -0.0376749374957 0.00989268890812
0.0247911659535 -0.0372824839159 0.0139946338731
0.024551947458 -0.0373005054814 0.00586901025366
0.0249539060439 -0.0368236151093 -0.0065155772534
0.0247238342851 -0.036916649505 -0.00991695824858
0.024597858136 -0.0371852456418 0.000910274497135
0.0243770542965 -0.0376340572093 0.0186068322873
0.0150472650344 -0.0423715787497 0.0277622277684
0.0159944306064 -0.0411526047224 -0.0266529135108
0.0169060931366 -0.0410384509651 -0.0133450319337
0.017006194632 -0.0408411367734 -0.023343201269
0.0170221242216 -0.0408806022902 -0.0205394627361
0.0157465436287 -0.0415621889583 -0.00679541211955
0.0194537378272 -0.0371963307815 -0.0292019993067
0.0148405981916 -0.0419899078451 -0.000117281282723
0.0149209704335 -0.0420440580928 0.00471172230078
0.0141056203293 -0.0419622673193 -0.015281436562
0.0140253734452 -0.0419383404545 -0.0182338009045
0.0187661887862 -0.0399888802709 -0.0264487239631
0.0417422460994 -0.0162412791968 0.0193964850525
0.0342734281345 -0.0273803729927 0.0313259996474
0.0404630715269 -0.0181807716133 0.0313259996474
0.0286090001464 -0.0302463109602 -0.000710575360748
0.0286090001464 -0.0329419450436 0.0248644850826
0.0286090001464 -0.0298284703702 -0.0163066822838
0.042128925134 -0.0146439997479 0.0229727288503
0.0286090001464 -0.0336881783033 0.0122244007815
0.0286090001464 -0.0322651842507 -0.00662668527939
0.0286090001464 -0.0331211423328 0.00644257915807
0.0381478646184 -0.0231125246872 -0.00120181349432
0.0390860206129 -0.0219490716264 0.0218327424999
0.039024692796 -0.0217528639346 0.00621301722483
0.0378500255907 -0.0238355900839 0.00982094048337
0.0388786871877 -0.0224013171716 0.0268570330041
0.0375187940842 -0.0245361839826 0.0167121504371
0.0394306657108 -0.0211745056782 0.0122985556687
0.038724517052 -0.021935003321 -0.0110130579888
0.0391369175862 -0.0217917035356 0.0181966511704
0.0387281890113 -0.0220468213591 -0.00489026562542
0.0377977327983 -0.0239859620301 0.0129703498623
0.040401110407 -0.0189817773011 0.00489160956048
0.0401782224356 -0.0190872965925 -0.00697140651347
0.0393141705296 -0.0205218628635 -0.0213677831209
0.0406074703027 -0.0182673883165 -0.00312308801937
0.0400956610526 -0.018712185089 -0.0241255244103
0.039910114688 -0.0199484258022 0.00137678217025
0.0402167880802 -0.019732231183 0.015511661459
0.0402369442225 -0.0186213732822 -0.0173429135745
0.0402000755029 -0.0188139084325 -0.0139116410654
0.0306509293278 -0.0260621544646 -0.0195816513546
0.0319535121955 -0.0241221897386 -0.0228720834529
0.0332617275279 -0.0221592792534 -0.0249995940094
0.0299871803646 -0.0270348981358 -0.0166279704173
0.0311709648419 -0.0253695236197 -0.0275155540435
0.0321996366032 -0.0236933383382 -0.0184565705101
0.0292536565344 -0.0282808219075 -0.027185254878
0.0287655579536 -0.0290843723988 -0.0238927192418
0.0288283376111 -0.0297270028786 0.0209299806064
0.0288212060973 -0.0294284618223 0.00252885206447
0.0286756168716 -0.0298000289581 0.00845345050317
0.0295058664911 -0.0278809345819 -0.0135400805141
0.0291362244781 -0.028726134006 -0.00429200188664
0.0289656500395 -0.0287818677883 -0.019751314056
0.0363075644242 -0.0175357266715 -0.0255698780352
0.0336274580647 -0.021743536732 -0.0289409893299
0.0388379453986 -0.0146439997479 -0.0261265458982
0.0387829570285 -0.0146439997479 -0.00626949108152
0.0325827043666 -0.030011555141 -0.017417795316
0.0309710375229 -0.0314107357669 -0.0255375330822
0.0330260298009 -0.0294810136215 -0.0206177143735
0.0317716899007 -0.0313374083853 0.00168859445927
0.0309865847372 -0.0315609190299 -0.0193537758325
0.0313064725985 -0.0313557469123 -0.0150363110057
0.0330850747086 -0.0292351751064 -0.0275781737052
0.0309696708501 -0.0319448506194 0.0304896199944
0.0348532728198 -0.0283105848549 0.0226352776651
0.0318249146725 -0.031354998559 0.00482036732286
0.0325467449253 -0.0304340137808 -0.00117001015573
0.0339878465737 -0.0290766725324 0.0120976631519
0.0334467875538 -0.0293382719363 -0.00588141657424
0.0338801779613 -0.0290022384611 0.00189076713926
0.0334129812278 -0.0293015977331 -0.00978341051069
0.0338203480029 -0.0291824340261 0.00783027664066
0.0376334305567 -0.0234560348737 -0.0227086386302
0.0367474041473 -0.0252601882282 -0.00634712060705
0.037828449186 -0.0233416492854 -0.0139821643105
0.0375316597424 -0.024231597593 0.00395256139462
0.0371237537127 -0.0253495952767 0.0240172579974
0.0372337478297 -0.0250835626749 0.0201521150996
0.0382505895114 -0.0228011892728 -0.00786266474232
0.0368854367971 -0.0247920411115 -0.0170536140602
0.0385875068648 -0.022044721217 -0.0171551650572
0.034853830732 -0.0282101505504 0.017910779436
0.0349375343533 -0.0273990631966 -0.0155392900714
0.0350847239264 -0.0273764889393 -0.007986070997
0.0357453452258 -0.0266586836736 -0.00323616869417
0.0354967794587 -0.0267879424321 -0.0116822214495
0.0348955566596 -0.0272287626946 -0.0260505518395
0.0353927355745 -0.0267074208024 -0.0215833820365
0.0359000629417 -0.0266686787892 0.00697993193845
0.0365732416615 -0.0256757587981 0.000406044941023
0.036291489284 -0.0263227108495 0.0147197604991
0.0363095520629 -0.0265785417827 0.0286591161115
0.036052456491 -0.0265653425248 0.0115603435178
0.0356735385667 -0.0184451836987 -0.0212106793639
0.0338771943313 -0.0211405047174 -0.0177205599072
0.032321636922 -0.0234745376372 -0.014915150031
0.0380235797473 -0.0150005062965 -0.0210987521856
0.0388301393632 -0.0148031513078 0.0125814954633
0.0387878645237 -0.0147655543782 0.00683454643228
0.0384181832866 -0.0147435222699 -0.0179450555484
0.0387327676952 -0.0212157763225 -0.026121651204
0.0301846825027 -0.03208373904 -0.029146569876
0.0367607769433 -0.0236869617389 -0.0292019993067
0.0367814783708 -0.0246504676021 -0.02615600518
0.0291659135954 -0.0335896215758 0.00173974293978
0.0300447468472 -0.0326672230045 -0.0118438745078
0.0300601140174 -0.0328323114383 -0.00378750465629
0.0306020409029 -0.0326221533551 0.00912078416643
0.0327760427031 -0.0303462322376 0.0283448770759
0.0314550666254 -0.0317394078539 0.022194909473
0.0289183254093 -0.0339545778097 0.0283286595564
0.031685858722 -0.0315778986669 0.0191574310921
0.0318425704762 -0.0314207980207 0.0154831431693
0.0317152436958 -0.0315480125319 0.0126788044229
0.0345328185098 -0.0287293304907 0.0261779724991
0.041378440557 -0.0174881615013 0.0283118665722
0.0410171464952 -0.0171121733352 -0.00987906475571
0.0405106843019 -0.0189343093117 0.0109027965864
0.040681114277 -0.0189837765043 0.0248722626197
0.0405831362233 -0.0190753170374 0.0206369711766
0.0392033361923 -0.0147969967182 0.0304924271093
0.0323190461406 -0.0248546622925 0.0292535852179
0.0355414143362 -0.0201225921688 0.02946927148
0.0372614054874 -0.0176056490965 0.0297172993352
0.0338909686726 -0.0223340752544 0.0239141728903
0.0307772339306 -0.0264566040541 0.00876650509722
0.0299000998163 -0.0278501065334 0.0119952490345
0.0322927368769 -0.0244422856768 0.0158866672974
0.0318077392131 -0.025441904367 0.0250680308019
0.033258132938 -0.023352450823 0.0266629968759
0.0322566056893 -0.0242431284195 0.00773724208765
0.0310200802843 -0.0259897236596 0.00525540465201
0.0363308088921 -0.0185057562626 0.0164779365181
0.030482435719 -0.0273226091742 0.0226891985384
0.0381335660617 -0.0161494048963 0.0262315217447
0.0290292034111 -0.0293153404615 0.0178366371126
0.0291616856624 -0.0290293084591 0.0149097635149
0.0318729691481 -0.0252109275475 0.0207168378298
0.0339477227037 -0.0219523216218 0.0142919814787
0.031316937719 -0.0252539177628 -0.00436606763335
0.0316559972741 -0.0249276359148 0.00124211951683
0.0297946944831 -0.0275987206553 -0.00113816382108
0.0330096567202 -0.0232276381841 0.0108046021917
0.0357310569375 -0.0194857916464 0.0195640392138
0.0363048747805 -0.018746709659 0.0230219400716
0.0359456724045 -0.0193635867906 0.025836036443
0.0291049449566 -0.0295204042146 0.0280624534075
0.0338855610859 -0.0222176856449 0.0198993599061
0.0381413248752 -0.0159697047037 0.0207684819914
0.0362290731953 -0.0177998739234 -0.0113730476159
0.0338985072146 -0.021471787826 -0.00363602196686
0.0360475878191 -0.0187840508248 0.0119534955479
0.0347442951846 -0.0198791427642 -0.0149077162203
0.0379942087275 -0.0152505388005 -0.00969176093673
0.0359675578201 -0.0183110948863 -0.00727669840065
0.0371857560594 -0.017014374564 0.00894175960864
0.036670731257 -0.0173637239555 -0.00438728915691
0.0364189615089 -0.017336675713 -0.0173414568662
0.0351419919163 -0.0200043227529 0.00823821676227
0.0377643524605 -0.0159120784846 0.000814931614042
0.0365714124686 -0.0178116056325 0.00542600450995
0.0382540614562 -0.0157031399388 0.0174995806877
0.035537681087 -0.0191476439016 -0.000666552387594
0.0311031617571 -0.0253082084606 -0.012834149433
0.0339709157679 -0.0216263122836 0.00486537952315
0.0327785783865 -0.0231892964194 -0.0014473833076
0.0359514543337 -0.0186347095835 0.00248302646847
0.0323922660931 -0.0234968872446 -0.00996291153504
0.0333035498989 -0.0225227114277 0.00203429241717
0.0342655855392 -0.0207852734014 -0.0083748827631
0.0310038800283 -0.025587664903 -0.00850044888296
0.0414970195989 -0.0153021589005 -0.016210550982
0.0399345970459 -0.0185408957456 -0.0275522214102
0.0413764199944 -0.0166667513862 0.00310961217495
0.0413272893746 -0.016143321586 -0.0132687835387
0.041565807116 -0.0163225475164 0.00771451697824
0.041216639897 -0.016124503212 -0.0214089957399
0.0415302726217 -0.0166488107355 0.0133351737358
0.0331079385804 0.0200916586006 -0.0331070013344
0.0353462209885 0.0164884509595 -0.0331070013344
0.029100635085 0.0207983179956 -0.0351892300501
0.0353491840323 0.00665782405605 -0.0359549691363
0.0322079659266 0.013739596201 -0.0350869509929
0.0367997642798 0.00341293068668 -0.0372574492267
0.0306887080356 0.0171895275111 -0.035548281608
0.0338345600797 0.0100815354648 -0.0358575002503
0.0374196215499 0.00194306504685 -0.0348572359184
0.0387652524542 0.0116514511234 -0.0351619973358
0.0394319486209 0.00722199144238 -0.0345892106616
0.0356106705589 0.0189897314672 -0.0357476839328
0.037522731243 0.014895964257 -0.0362200969937
0.0280965000997 0.0232783633365 -0.0371731806095
0.0381584609373 0.00665144595771 -0.0379620562883
0.0328739610872 0.0155013749354 -0.0379158517007
0.0360634952531 0.00977463404977 -0.0379149095733
0.0332738072082 0.0126115154038 -0.0377531962446
0.0304686125748 0.0256503105295 -0.0379890017211
0.0313848009073 0.0224390348674 -0.0379890017211
0.0330949298232 0.0188633309228 -0.0379890017211
0.0270922827659 0.0263436966941 -0.0369530586307
0.0324477204234 0.0240474480901 -0.0347432184731
0.0340928285999 0.0214163840256 -0.0361936223116
0.0399149025417 0.00395840963869 -0.0361510028318
0.0403173304605 0.00101019685943 -0.0364260768119
0.0183167179463 0.0360240468246 -0.0351826600238
0.00962193614589 0.0342661101881 -0.0331070013344
-0.00204727101416 0.0371913214949 -0.0371705462857
0.0172354035393 0.0301213790574 -0.0337860176695
0.00340341239502 0.0351928426096 -0.0331753163592
0.00320209425934 0.0353233643663 -0.0373492038924
0.0219504671293 0.0286505793932 -0.0373678173559
0.0258895717292 0.0269825472393 -0.0336294642101
0.0231757338276 0.0304131868309 -0.0331070013344
0.0197872588509 0.0316071478055 -0.0331070013344
0.0250606992427 0.0294069428063 -0.0378689227811
0.0108231959431 0.0331941616325 -0.0378649418813
0.0186696470207 0.0303630594315 -0.0379799741111
0.0157850486325 0.0352034905025 -0.0379890017211
0.0153173697936 0.0321535082691 -0.0379890017211
0.00699481051596 0.0361170417157 -0.0379890017211
0.0018280138659 0.0380267684627 -0.0379890017211
0.0115620628243 0.037135483047 -0.0379890017211
0.0287969314529 0.0282952504018 -0.0349456037767
-0.00312100001611 0.0395598383567 -0.0348688179602
0.00489962011067 0.0399926964875 -0.0361307121251
0.00205013420682 0.0400240011513 -0.0354292840685
0.0237234208474 0.0325778070373 -0.0356868341442
0.020674538985 0.034325087594 -0.037287734709
0.00819771088528 0.0389423274178 -0.0374633286718
0.0133283431393 0.0380623416841 -0.0341041525746
0.0124989999458 0.0422838720251 -0.00891732075933
0.0124989999458 0.0404958173424 0.0297754552682
0.0124989999458 0.0402785437912 -0.015215810025
-0.000441925425683 0.0430762087088 -0.0277379993349
0.00781464491532 0.0396526837701 -0.0249482095183
0.000300100851358 0.0407960552002 -0.0252454229373
-0.000696636219722 0.0406818423255 -0.0216914439616
0.00248888069047 0.0401288812077 -0.0206427351202
0.00422614428704 0.0402557023202 -0.0258606939702
0.0108348614072 0.0392763355486 -0.0259531328331
-0.000182707127274 0.0449079982936 0.0286532025786
0.0100197659039 0.0404679044404 0.0243365434995
0.00287537684542 0.0412780456548 0.0278511320268
0.00852630767632 0.0407118672951 0.0269372893391
0.00535524831251 0.0409883666104 0.026419281595
0.012467414756 0.043413847954 0.0296531526629
0.011607533982 0.042539032825 -0.0191616729224
0.0119855906176 0.0427968455131 -0.00281571399405
0.0124823466957 0.0427988574351 0.00507664099719
-0.00148775138124 0.044245585347 -0.0110384013675
-0.00212156537855 0.0439757758425 -0.0247054831293
-0.00199825801384 0.0447326499477 0.0174859565017
-0.00240278579185 0.0443890270867 -0.00130432702263
-0.00307546624494 0.044007725369 -0.0214391644834
0.00296507843064 0.0445955630353 0.0308783321779
0.00712810132228 0.0444126313202 0.0227394896286
0.0048949916426 0.0444323665771 0.00733934405699
0.00612989122043 0.0442081067232 0.00344843074236
0.00633544144811 0.0445744638683 0.0262770484121
0.00696720544505 0.0443070930211 0.0154096511301
0.0067695338543 0.0442418446909 0.010150353326
0.00505805822274 0.0442563421946 -0.00168896702613
0.00868882011579 0.0442608360372 0.0288879555114
0.0102471219312 0.0436419269986 0.0140011498555
0.0106455384794 0.0430947468695 -0.0115255025137
0.00998621558024 0.0430478942759 -0.0224670840864
0.0119855564685 0.0434171168453 0.0233973384228
0.0104027977209 0.0432399916245 -0.0064793108968
0.00966887507375 0.0438885965143 0.020475076545
0.00967919583435 0.0436665009894 0.00820243852743
0.0108630310273 0.0434504390241 0.0110843949103
0.00904475961765 0.043685880345 0.00142871503466
0.00651978556351 0.0438080250112 -0.0139365033017
0.00960342902488 0.0432470035451 -0.0159174822259
0.00769494796875 0.0442533608163 0.0185108228295
0.00746074163832 0.043856230194 -0.00348944129624
0.00711772741833 0.0438439933434 -0.0070290175854
0.00799254760797 0.0434539642728 -0.0192203985843
0.00879940102789 0.0438004944584 0.00511112761915
0.00705112569821 0.0395435715028 -0.0214072571326
0.0104582111672 0.0400334295299 0.0124251975546
0.010780709327 0.0395869667469 -0.00415500951016
0.0114960202218 0.0394221168641 -0.00824639562845
0.0103019682366 0.0391786938534 -0.0219518256315
0.009044127602 0.039810093754 -0.00123420975011
0.00485067130067 0.0401194945741 -0.00326470411695
0.00531294662971 0.0399482643865 -0.00847050353219
0.0064594720712 0.0400770161234 0.000532434190195
0.00356019582585 0.0399595503835 -0.0139930230645
0.00687016053398 0.0397511123983 -0.0109736523599
0.011136659092 0.0392135459827 -0.0177290501548
0.00819288993045 0.039560125153 -0.0140312891875
0.0067315080151 0.0396247670825 -0.0164487519638
0.00344490450186 0.0400427912346 -0.0110895937577
0.00947991765943 0.0398632339977 0.00235416707538
0.00870517396465 0.0396834044658 -0.00740510275897
0.000260243584111 0.0403064538126 -0.0114954887492
0.0081401922958 0.0400525397489 0.00528733810038
-0.0030621954102 0.0414387130062 -0.0180993849393
-0.00302441158305 0.0416602782362 0.0189768736918
0.00501709218015 0.0402696927035 0.00323805597903
-0.000924935390822 0.0405368475571 -0.00704043533526
0.0050422105462 0.0406283856388 0.0145750733725
0.000921227510127 0.0409451700473 0.011574072498
-0.00246342725479 0.0416704217761 0.0237062012328
-0.000723670566993 0.0409993256705 0.00810730282137
0.00597024704483 0.0406272276261 0.0174536343076
0.0103445424417 0.0401757001029 0.0170211569606
0.0011858076455 0.0407321592424 0.0057194354472
-0.00134035324113 0.0412808744781 0.0150071761647
0.00233654393448 0.0405035583169 0.00215884207151
-0.00129466894507 0.0409175887719 0.00374839459856
0.00386917618196 0.0410122140112 0.022937678819
0.00531493232461 0.0404891923597 0.0110628838061
0.00139700742223 0.0413310694109 0.0251805057856
-0.000366165748906 0.0407156174698 0.000325591566557
-0.00234782770712 0.0412700470967 0.0115029255622
0.00510602238674 0.0403984332067 0.00755809648496
-0.000568195073288 0.0406142864562 -0.00348939804987
-0.00178748321568 0.0417101651477 0.0270767069018
0.00173394760778 0.0409565878937 0.0144851439625
0.00171770141847 0.0410626912936 0.017764331882
0.00994839790195 0.0403259760925 0.0204935307336
0.000268857017352 0.0413098637315 0.0209714806756
-0.00129526407187 0.0403767348249 -0.014634400396
0.00119023215224 0.040119651185 -0.0163702123638
0.00201355039305 0.0442660977932 -0.00985338176501
-0.00122002870935 0.0441792543439 -0.014697524855
0.00264321912316 0.0439571763 -0.025973316546
9.32217754662e-05 0.0440688322206 -0.0203597807671
-0.000848263795901 0.0445320131469 0.00380985551023
0.000206395851387 0.0443619041622 -0.00500178521234
-0.00062700474372 0.0447422359923 0.014839104797
0.00143432365054 0.0441178434 -0.0176702632173
-0.000870379230949 0.04460395989 0.00757554410942
0.00418403399587 0.0441700479369 -0.011870042895
0.00407367528805 0.0440001726711 -0.0219015878486
0.00198612501528 0.0445289702609 0.0050709068034
-0.000234498272033 0.0448563268599 0.0211060817927
0.00366644461995 0.0447496754743 0.0200113038611
0.00149767458829 0.0447616896821 0.0178872073784
0.00362112571825 0.0441310440669 -0.0158042310084
0.00393224926627 0.0446292349952 0.0133953312706
0.00208411491815 0.0444501543962 0.000642729242636
0.00371497152831 0.0443140213634 -0.00510625801751
0.00174234745136 0.0448614041415 0.0239686362917
0.000665689612474 0.0446788051041 0.0120152734427
0.00791008641049 0.0433379107988 -0.0255841201564
0.00766898299183 0.040768779784 -0.0277379993349
0.0174015408232 0.0407047303712 -0.0207447433085
0.0191163541673 0.0402119394105 -0.00874652632511
0.0191517001116 0.039865365306 -0.0245324296518
0.020072763228 0.0404290959211 0.0213935345027
0.0166737891792 0.0408877175264 -0.0270829094865
0.0186098971552 0.0402458973131 -0.0176080738482
0.0175615179229 0.0408197808719 -0.0119512239403
0.0261758755119 0.0332163089142 0.0313259996474
0.028116999194 0.0314623899515 0.000487711997413
0.028116999194 0.0313164864673 -0.00759454140527
0.0215475509059 0.0338227872067 -0.0220365545877
0.0213230843797 0.0338610535322 -0.0191321572375
0.0187534192893 0.0353421988862 -0.0216788438335
0.025453856529 0.031656463895 -0.021090980605
0.0159412454843 0.036900097688 -0.0223029144548
0.0250443178378 0.031753923021 -0.0167405302795
0.0125000001863 0.0425364512938 0.0159317623917
0.0235449449549 0.0327178426683 -0.00683905149284
0.0194069767629 0.0354327867453 0.00516362584916
0.0131937545592 0.0392896948878 0.0135279709361
0.0192135205015 0.0353746893526 -0.00241170524172
0.0133712312243 0.0384057652993 -0.0207370020063
0.0159060823673 0.0376961661669 0.0138418471636
0.0231518758234 0.032809329657 -0.0130166878299
0.0146844916718 0.0382656014093 0.00718050841006
0.0184624185179 0.0354636357611 -0.0179925898078
0.0133670686951 0.0393423676906 0.0203420354176
0.0212087346019 0.0341539891241 -0.00431295733122
0.0182466385139 0.0360598905199 0.00262785820176
0.0148532201661 0.0377950439624 -0.00913346620723
0.0155859978466 0.0376593344524 0.00391546736095
0.0155798307022 0.0371363643168 -0.0192421757598
0.0179022038011 0.0359646939673 -0.0104970400948
0.0206171709944 0.0346124844435 0.000497336777856
0.0145062812794 0.038586297973 0.0166582847845
0.0148169540418 0.0376864166546 -0.0148515128156
0.0197975353119 0.0347846573718 -0.0132022234221
0.0169094887611 0.037018451248 0.0100793581407
0.0138750533227 0.0384671760017 -0.00496147736237
0.0207176246737 0.0343683560665 -0.00763126722664
0.0132590584289 0.041522172744 -0.0277252972987
0.0277796405118 0.0347362296518 -0.0124005281855
0.0273785978022 0.0358331797935 0.0283254913691
0.0268459819651 0.0361230145833 0.01660333387
0.0266966137919 0.0359686763685 0.00494715156727
0.0268562206699 0.0353089038097 -0.018340956092
0.0270225153313 0.0359122714257 0.0133396766113
0.0270921957946 0.0350112481459 -0.0233949133535
0.026951988118 0.0358737261354 0.00932382689657
0.028116999194 0.0347696159978 0.0218751849835
0.028116999194 0.0338406015257 -0.00943277102903
0.0258981045773 0.036096362375 -0.0147421196492
0.0263048335495 0.0360774755275 -0.00314374654863
0.0255397206306 0.0364847867327 -0.00835386488831
0.0244718211529 0.0377583790436 0.0158715158863
0.025836318719 0.0370104839143 0.02420282459
0.0260002159592 0.0368136082293 0.0204218402011
0.0262477761338 0.0362142253966 0.00121963044039
0.0152051019635 0.0374269000162 -0.0251989421705
0.0255064075248 0.0317313339864 -0.0240573284525
0.0188989467422 0.0353954751631 -0.024982469149
0.0125000001863 0.0402655545586 -0.000604021901426
0.0125000001863 0.0397336877995 0.00304603776686
0.0125000001863 0.0400614292162 0.0263595703319
0.0126425165829 0.0391706236436 -0.0115726691068
0.0215885895671 0.0339415322026 -0.0252269273963
0.0239876419417 0.0328936253083 -0.0272678117296
0.0152085957782 0.0424645071576 0.0259376236303
0.0154298088322 0.0422183094733 0.0169797608834
0.014312676255 0.0426682939415 0.0201671461796
0.0148858179979 0.0423489189049 0.0138402900115
0.0145750893676 0.0422383966106 0.00223435663369
0.0140951556076 0.0425348228381 0.00906891776689
0.0273134086331 0.0308487812167 -0.00287094266421
0.0270061153084 0.0307348656624 -0.0105718210711
0.0177295893717 0.0372389303608 0.028875613889
0.0250244566886 0.0332348190309 0.0279086099174
0.0149296852077 0.0387201847144 0.0281365345792
0.0206271860843 0.035699562423 0.0295120673109
0.0264447694939 0.0322865512475 0.024352199811
0.0214687294943 0.0350477517367 0.0256085086671
0.0203668765488 0.0350206524773 0.00934533549441
0.0223282090523 0.0344594149947 0.022922626021
0.0189467958768 0.03592855015 0.0128109037136
0.0243211533669 0.0324030410453 -0.00267818776386
0.0180786877722 0.0365387201346 0.0163918583027
0.0225400565653 0.0336327558867 0.00408110441652
0.0235250036983 0.0336905785161 0.0199040924763
0.0218131867717 0.0343479836919 0.0124963422778
0.0237432187532 0.032849530004 0.000773484609924
0.0269820124532 0.031830299724 0.020743196981
0.0208835805464 0.0349611155469 0.0152635732475
0.0169953541937 0.0374186084341 0.0240005732435
0.0239258179144 0.0333576201103 0.0168924189512
0.0189742167692 0.0361817415996 0.0199209589128
0.025541767593 0.0319985730482 0.00430843770027
0.0242210243914 0.0328477293196 0.00765798034176
0.0245252157931 0.032899107394 0.0134333906413
0.0255916214146 0.0322029820906 0.0104507168975
0.0230344784086 0.0377143849382 -0.0252151806586
0.0231396152545 0.0382006835428 -0.00216548002229
0.0246496337996 0.0374360583428 0.00695650136884
0.0223364009608 0.0382502887479 -0.0219764592894
0.0238651142144 0.037844459527 0.00268409851585
0.0244108697184 0.036964249451 -0.0193131479768
0.0242120275053 0.0378502811624 0.0123818735568
0.0201291758324 0.0398954554634 -0.00244318999908
0.0221519385034 0.0387082086122 -0.00686290282981
0.021322489456 0.039331065478 0.000682118112517
0.0213675597188 0.0398701204206 0.0280027837948
0.0219687302306 0.0385746300298 -0.0183213516421
0.0220549921447 0.0386304703394 -0.0132676858434
0.022258576549 0.039183715529 0.0190595990162
0.0228484188563 0.0389089350956 0.0218332282215
0.0215536243505 0.0393159213258 0.00624786130101
0.021210370574 0.0396147717695 0.0113592341309
0.0213787860449 0.0396153956914 0.0159790149457
0.0141891592992 0.0419097401587 -0.0221669809074
0.0151872122207 0.0416080417597 -0.0189994197428
0.0149266854976 0.0418016470928 -0.0140041465295
0.0166041252177 0.0419167670386 0.0228599265915
0.0159571553479 0.0415148752543 -0.00948028933451
0.0167632763563 0.0413106979036 -0.00442699445698
0.0173680202619 0.0412244323044 0.00395569195039
0.0171436698774 0.0414689747018 0.0113623221229
0.0181373853131 0.0409600569476 0.00696932166984
0.0168685551971 0.0413459377113 -0.00048091108875
0.0190136230975 0.0408225738961 0.018497358296
0.018185495645 0.0413495294615 0.0272469398823
0.0404044990497 0.0200222449176 0.0242793246995
0.0403991964811 0.0198789022498 0.020525375781
0.0408683844364 0.0167030475091 -0.0275464535213
0.0404093518329 0.0181023998126 -0.0214594949752
0.0344978582528 0.0272300812829 0.0313259996474
0.0340287312177 0.0259197397021 -0.0277379993349
0.0390597427646 0.0201354605496 0.0313242307074
0.0281210001558 0.0314947491044 0.0137954984347
0.0281210001558 0.031418374577 -0.0134189504567
0.0281210001558 0.0312210095815 0.0267545326016
0.0281210001558 0.0317302099079 0.00731444040617
0.0348724662699 0.0211766926486 0.0300030493676
0.0373414438069 0.0175374592082 0.029765297285
0.0306816436599 0.0269916544519 0.0241033480529
0.0338203257037 0.0215215103826 0.0104988991853
0.0340542649922 0.0213361676435 0.0134501485251
0.0311508910879 0.0245679622343 -0.00656620233906
0.032810971149 0.0240994937684 0.0294756609068
0.0315526522822 0.0242884621136 -0.000805886169541
0.0323295681474 0.024061720751 0.0159279585073
0.0364090397025 0.0178663673989 0.0145512777216
0.0340916626284 0.0218348339724 0.0233423542137
0.0292765097727 0.0284365108109 0.0122901843441
0.0312451626565 0.0258410644433 0.0186565103922
0.0355398214229 0.0198727795672 0.0270835970779
0.0356555430223 0.0194012542161 0.0217702244632
0.0308959970255 0.0257578038619 0.00783410570531
0.0357759187829 0.0185803257649 0.0103508571427
0.0305254225028 0.0253055135831 -0.0101412731601
0.0328194207923 0.0228768805341 0.00790032371424
0.0335311438836 0.0228235093847 0.0259822105895
0.0295880675592 0.0281280669606 0.0151220771231
0.0335467975663 0.0223670660578 0.0182616635905
0.0350396015227 0.0200125065518 0.016197806616
0.0321044075578 0.0241780657678 0.0119811290537
0.032910585041 0.0225612710044 0.0047104630953
0.0308531377469 0.0256144238186 0.00413120763783
0.032179753363 0.0246158852692 0.0218031773139
0.0379968395187 0.0160999467951 0.0255154243128
0.0307594622582 0.027115293271 0.0283891419047
0.0288835573105 0.029469503073 0.0202015061486
0.0417984105327 0.0141566751115 -0.000615876002886
0.0421217658555 0.0145244612025 0.014190331451
0.0281210001558 0.0340294675289 0.00251857339061
0.0281210001558 0.0338197218734 -0.00431318720631
0.0281210001558 0.0314948751108 -0.0185418995856
0.0284040412612 0.0337123432812 -0.0203746787163
0.0397335421751 0.0197145061484 -0.0162635926274
0.0399430325206 0.0206248448699 0.0156074406774
0.0397972633858 0.0198883421261 -0.00904030693316
0.0396244960122 0.0205980425933 -0.000309269320737
0.0384558239772 0.0218470038892 -0.0264037379008
0.0396283163928 0.0207333313418 0.00311753022927
0.0392098260028 0.0206490783872 -0.0189694646341
0.039958446234 0.0203659348704 0.0101390579847
0.0398006036029 0.0200283053066 -0.00552446004288
0.039606241726 0.0196525339295 -0.0238535760899
0.0382742785211 0.0144066412301 -0.0142827973641
0.0384653106207 0.0143848765472 -0.00522184884619
0.0355908319261 0.0185512666903 0.00264551204007
0.0345198978513 0.0199390643623 -0.000345719174206
0.0358264990139 0.0176512949001 -0.0141157014928
0.0347710754481 0.0192198251914 -0.0111797755625
0.0313904181758 0.0238403191574 -0.0136032226925
0.0364363931128 0.0172790670263 -0.000162460300805
0.0358083676354 0.0180164327806 -0.00415717699241
0.0373296530338 0.016213883519 0.00503871030961
0.0382421409675 0.0147594934935 -0.000379091104848
0.037168992691 0.0156580914319 -0.0177927775678
0.0382275485087 0.0153744723192 0.017043327996
0.0382493237205 0.0150457253381 0.00829947473153
0.0379845847579 0.01556752011 0.0127962093323
0.0366852486888 0.0166853721828 -0.00741305561765
0.0337857019124 0.0207228807607 -0.00730693036689
0.038668028464 0.0149125808218 0.0214645701778
0.0373148928479 0.0156789275324 -0.0112356354405
0.0324455704978 0.0224827111769 -0.0103707603423
0.0337552567963 0.0204841190905 -0.0155428944347
0.0282312081091 0.0349361848038 0.0252848341559
0.02903600655 0.0339524999925 0.00563215968783
0.0303735784157 0.0324959533718 -0.0111190584862
0.0310188297054 0.032667618485 0.0221967037673
0.0330950257788 0.0305602984812 0.0180890444926
0.0323349077194 0.031001072773 0.00401845867204
0.0305862862236 0.0329831997218 0.0172393916586
0.0317277495853 0.0316858652521 0.00844688308041
0.0316656918332 0.0314541360919 -0.00530854081394
0.0311722266306 0.0320425255502 -0.000210614819118
0.0313058912688 0.0321944269158 0.0130665649336
0.0317124061172 0.0313374735723 -0.00866184150489
0.0293375702259 0.0275893275937 -0.00693217314071
0.0291676689619 0.0283611036064 0.0061949544887
0.0283473210099 0.0303140133814 0.0169572825807
0.0299055201185 0.0262596391291 -0.0137196413737
0.029666789489 0.0271629212724 -0.000649298813879
0.029408200495 0.0275569109319 -0.00383182004659
0.0290815861889 0.0279865137089 -0.00987003639453
0.0291990241734 0.0281738397245 0.00244215176125
0.0364067575264 0.0264121478911 0.0163422407632
0.0367759350837 0.0257740523725 0.0132497894677
0.0364388699121 0.0261847774145 0.0103436531097
0.0375937680005 0.0250053188833 0.0278960836833
0.0368936093813 0.0254142899109 0.00705105850939
0.036627085986 0.026254844336 0.0219481425353
0.0362824030496 0.0258910876199 -0.00715237283357
0.0377679913145 0.0237712432778 -0.00223967632877
0.0377586973479 0.0234038269525 -0.0134984332515
0.0383472335187 0.0236350953459 0.0204840995766
0.0371501276974 0.0248912679706 0.00225406789693
0.0373066890463 0.024016079458 -0.0163159171357
0.0383603741671 0.0237378707156 0.0241199996382
0.0377219879082 0.0232579709643 -0.0194920480279
0.0369036570098 0.0243767283193 -0.0242888752248
0.0379732898167 0.0233411529863 -0.00544056719921
0.0384344348758 0.0232278886946 0.0128932279589
0.0384660959137 0.0219783533349 -0.0222888871344
0.039425101243 0.0219696972842 0.0273889406538
0.0386967542376 0.021959755415 -0.010827276928
0.0385455334087 0.0227689078962 0.00514917761087
0.0333147980701 0.0212127124635 -0.023499823824
0.0334682832633 0.0218004538245 -0.0274646485003
0.0306293351211 0.026183726437 -0.0270905779321
0.0308920971921 0.024737743357 -0.0221495590528
0.0367379755344 0.0163980205601 -0.0261466065767
0.0357016876036 0.017700342063 -0.0192161736734
0.0373233924939 0.0154890567478 -0.0216669621474
0.0357363084092 0.0177434796275 -0.0236458768044
0.031493030123 0.0235899030565 -0.0190094032782
0.0286145234804 0.0288574900475 -0.0160680144072
0.0284537549894 0.0293959679323 -0.0224722219915
0.0290368576808 0.028060673458 -0.0190262481156
0.0335733613911 0.0287747906986 -0.026096852743
0.0308714592552 0.0315470976649 -0.0258109254567
0.0319262594755 0.0309460449104 -0.0161203237261
0.0337603044593 0.0290397727857 -0.0098372294944
0.0330279249695 0.0295252012323 -0.0219811597656
0.0332893278601 0.0294757685798 -0.0133207448228
0.0333391541077 0.0297937598857 -0.000231655314019
0.0331417903642 0.0299332921544 -0.00319968393973
0.0322235835329 0.0311729448007 0.030924598006
0.0360610112898 0.0264060911824 -0.000571616364049
0.0353948051214 0.0279017046997 0.0197258782889
0.0361608104881 0.027035705494 0.0258270069166
0.0358610737048 0.0263665242002 -0.0113236886078
0.0343629886573 0.029387063837 0.0279136480714
0.0321257716159 0.0316247846472 0.0273759657076
0.0353966498201 0.0271932374199 -0.00413680994355
0.0346478550583 0.0285009802626 0.00746525680122
0.0350138552509 0.0278831303721 0.00249302169429
0.0351399876717 0.0269323673713 -0.0233596731825
0.0355118514847 0.0265853497025 -0.0192271584782
0.0341683037991 0.0283778446289 -0.016533276596
0.0347473008133 0.0286026897587 0.0149340263485
0.0342879992518 0.0285223544493 -0.00668476706143
0.0344114990741 0.0292611846244 0.024253106064
0.0345596175737 0.0287269570583 0.0114859552367
0.0417011705948 0.0145973083974 -0.0209174914345
0.041536247514 0.015417915106 -0.0168399363731
0.0412971172724 0.0162101946507 -0.0136343934299
0.0408331955011 0.0191369043094 0.0288607159768
0.0417474968663 0.0165746957791 0.0224003729921
0.0408371544567 0.0179312076925 3.1591179206e-05
0.0413735424871 0.0170685234142 0.0116829429921
0.0409015083398 0.0180477386206 0.0067343348557
0.041203415384 0.0177517169426 0.0178620624981
0.040967129993 0.0177419118011 0.00333098017392
0.0415967735879 0.0158734627496 -0.00362432872922
0.0411201367647 0.0169575247149 -0.00632359415518
-0.00635252325682 -0.00488100014627 -0.0305170133825
-0.0161213400699 0.0111161967036 -0.0292019993067
-0.00653388418298 0.0207133387883 -0.0292019993067
-0.0281378821982 0.00223394690633 -0.0292019993067
-0.0280645976588 -0.000885571476392 -0.0292019993067
-0.0252094166029 0.00890571448938 -0.0292019993067
-0.0249381748998 0.0154050588119 -0.0292019993067
-0.0169155536726 0.0141051853261 -0.0292019993067
-0.0210879965607 0.0194543342478 -0.0292019993067
-0.0283062074271 0.0132911221103 -0.0292019993067
-0.0151866794369 0.0167600771346 -0.0292019993067
-0.0112141494808 0.0211431045186 -0.0292019993067
-0.0183230823333 0.00746919554555 -0.0292019993067
-0.025732237663 0.0192814875939 -0.0292019993067
-0.0251295154396 0.00383635903602 -0.0292019993067
-0.0207230076738 0.00886683700029 -0.0292019993067
-0.0222627904279 0.00551630636163 -0.0292019993067
-0.0138028173393 0.0135287792719 -0.0292019993067
-0.0134170909546 0.0192140263181 -0.0292019993067
-0.0182546997715 0.0184755008336 -0.0292019993067
-0.0219835674119 0.0160464195115 -0.0292019993067
-0.0207658348673 0.0129797367501 -0.0292019993067
-0.00724774570109 0.00370175883526 -0.0326189994812
-0.00356836983039 0.000327343816358 -0.0326189994812
-0.0154214023162 0.00163365686721 -0.0326189994812
-0.011926007786 0.00709532611817 -0.0326189994812
-0.0112621160845 0.00220395887686 -0.0326189994812
-0.00334612232413 0.010509365688 -0.0326189994812
-0.00528025455523 0.0133877380345 -0.0326189994812
-0.0091770409414 -0.000794310841232 -0.0326189994812
-0.00487553730605 0.00808562195674 -0.0326189994812
-0.0188893237615 0.00111941730178 -0.0326189994812
-0.00810381181837 0.00709158397523 -0.0326189994812
-0.00560790162937 -0.00285150624047 -0.0326189994812
-0.0130064530096 0.0227895955979 -0.0317840201296
-0.0094131306586 0.0222787508006 -0.0319809353233
-0.00486088391771 0.0208837793166 -0.0323238507656
-0.0194472841407 0.0211594678122 -0.0317473223265
-0.0195005179592 0.0178095549697 -0.0321426905206
-0.00840341024529 0.0189948231983 -0.0324234855006
-0.0105912216074 0.0168970845619 -0.0325892541065
-0.0165829765828 0.0206496750554 -0.0319165661657
-0.0157095653959 0.0175555893608 -0.0323167746419
-0.0245649719998 0.0204142557778 -0.0316413863088
-0.0156496782461 0.0101883057167 -0.0326189994812
-0.0135686130808 0.0148278374552 -0.0326189994812
-0.0152002283453 0.00669490175631 -0.0326189994812
-0.0109195724866 0.0122021605185 -0.0326189994812
-0.00541418098037 0.0170589792393 -0.0326189994812
-0.00755983859765 0.00647613786418 -0.0293407042442
-0.00534493379276 0.0148902410808 -0.0292590305291
-0.00823718945459 -0.00196132332471 -0.0294725036153
-0.0124987115159 0.00344980069841 -0.0292361860366
-0.0113536157453 -0.000595475240142 -0.0293468878168
-0.00863680882505 0.0105708035869 -0.0292313048974
-0.00382482857981 -0.00121160390399 -0.0296014729164
-0.0131736063922 -0.00405792969725 -0.0293511291066
-0.00975545575321 0.0023957346466 -0.0293440600777
-0.00631610156308 0.00226383533409 -0.0294576370274
-0.0103764369971 0.00784417993178 -0.0292247401722
-0.00476006352548 0.0111533078541 -0.0293460068024
-0.00365680228938 -0.00432013119966 -0.0296635282008
-0.0176624869337 0.00325932837674 -0.0292019993067
-0.00741610875583 0.0170321895521 -0.0292019993067
-0.0211058561192 -7.34477511075e-05 -0.0292019993067
-0.0198938933813 -0.00287485769682 -0.0292019993067
-0.0265349568543 -0.00374762022655 -0.0292019993067
-0.0137363080008 0.00909916477695 -0.0292019993067
-0.0172545847147 0.000112826898459 -0.0292019993067
-0.00801116241638 0.013659742802 -0.0292019993067
-0.0244489904376 -0.000127118569865 -0.0292019993067
-0.0147867279215 -0.00259726808888 -0.0325692950914
-0.0216257180336 -0.00273201920981 -0.0324246421123
-0.0244363577169 0.00570382850335 -0.0321176282265
-0.0281430738822 0.0198643137677 -0.0313644501533
-0.0262250523524 0.0122576975372 -0.0317627036316
-0.0233997085853 0.0142796948465 -0.0319456799821
-0.0282612999836 0.00849248095179 -0.0317012671286
-0.0195695242859 0.00862513214908 -0.0324499594819
-0.0271402985959 0.00202163215019 -0.0319958332714
-0.0232449206687 0.00855801815915 -0.0321337044686
-0.0270509121221 0.0156153757044 -0.0315887084082
-0.0271001559149 -0.00161794645211 -0.0321103857072
-0.0214148169703 0.0110795693974 -0.0322152434213
-0.0178082908394 0.014275571478 -0.0324300437938
-0.0194603183849 0.0051027685468 -0.0325610852125
-0.022184728332 0.00143714560415 -0.0324380625883
-0.0188099774303 0.0226338492372 -0.0292019993067
0.0426284701011 -0.0110284044045 -0.0272448919206
0.0429436458086 -0.0102666271319 -0.0237453241162
0.0402652704847 -0.00993871122572 -0.0292019993067
0.0417580261287 0.000975999981165 -0.0124805601696
0.0441728699187 0.000975999981165 -0.010203889339
0.0438605865554 -0.00480463697731 -0.00918900035322
0.0419359030881 0.000975999981165 -0.0256585733321
0.043852164745 -0.00443131711348 -0.018661395879
0.0438537269199 -0.00504464757039 -0.0124152501365
0.0440539443076 -0.00170704586529 -0.0118300094796
0.0439039211548 -0.00386688839844 -0.015597652333
0.0438722078777 -0.00245099910466 -0.0232227849989
0.0437611656848 0.000202909225831 -0.0281757921207
0.0437958721224 -0.00357163033274 -0.0261744567731
0.0391001466508 -0.00738280407536 -0.026614730539
0.0397567746462 -0.00376208131177 -0.0266511880406
0.0397129373351 0.000791607317825 -0.0235096698314
0.0406844907111 -0.000718802693456 -0.0280591982787
0.0388454285178 -0.00286440992464 -0.0227234230288
0.0383807948595 -0.00627462764349 -0.0221764064592
0.0383699983358 -0.000544176676515 -0.0189406926629
0.0385695357448 -0.00154739980655 -0.0146045231108
0.0392304772626 -0.00668498834057 -0.0108321988132
0.0391312185151 -0.010601661162 -0.00988916421267
0.0399096704178 -0.00203341710866 -0.0110544499056
0.0425920402079 -0.012094627846 -0.0151588919087
0.0436095364411 -0.00788286427488 -0.0101440769807
0.0428433562282 -0.0109002035569 -0.0119638641604
0.0419707882295 -0.0138766351216 -0.0195450278546
0.0420897168458 -0.0134149381 -0.0248545817698
0.0383737892776 -0.0108027948422 -0.0171842626592
0.0385015406612 -0.00633300631557 -0.014731874055
0.0385626625009 -0.0129879593816 -0.0141085600704
0.0383699983358 -0.0115269685663 -0.0222040050503
0.0383699983358 -0.00447777671479 -0.0188174007745
0.0383699983358 -0.00818338089087 -0.0183113070766
0.0435727166401 -0.0071742310238 -0.0206733813322
0.0433185121873 -0.00793145659324 -0.0286328574948
0.0437028174092 -0.0060257481349 -0.0240280706977
0.0432218886994 -0.00937816470368 -0.0175001949289
0.0404362275874 -0.0114596483985 0.0313259996474
0.0413214572446 -0.0054686691552 0.0313259996474
0.0423426929091 -0.00149695561236 -0.00918900035322
0.0423307546172 0.000975999981165 0.029182481757
0.04108005282 -0.00267603200084 0.00707527643919
0.0412938038436 -0.00157180916595 0.00283290163021
0.0401723695736 -0.00736506015471 -0.000467211774554
0.0400968592533 -0.00775514118699 0.00312329409985
0.0407081569647 -0.00459721997335 -0.00761932936069
0.041068519561 -0.00273561200999 -0.000273094884718
0.0416257841938 0.000143178099586 0.0132591675762
0.0416365280656 0.000198680189471 0.00504230121452
0.0417222322131 0.00064142182048 0.0169588475129
0.0417576713898 0.000824498127805 0.0202653584412
0.0415376923467 -0.000311898219868 -0.0057115201777
0.0401205267726 -0.00763287643775 -0.00765842768603
0.0406837072959 -0.00472352525185 0.00338045636882
0.0405108021642 -0.00561674106685 -0.00394165190712
0.0394683656051 -0.0110018954071 -0.0043774555992
0.0411686770734 -0.00221820530743 0.0106265628064
0.0405464142873 -0.0146439997479 -0.00136949307343
0.0419901494938 -0.0142686326053 -0.00785427767404
0.0445623800769 -0.00332950576138 0.029941262162
0.0446833430249 -0.0013072370732 0.0266686205291
0.0445542318552 -0.00100886608001 0.0162146229017
0.0444411044487 -0.000610964529749 0.00717610200479
0.0442804636667 -0.00302722966683 -0.00478421840929
0.0445133887123 -0.00174239564946 0.0123104123503
0.0444678755983 -0.0031815787444 0.00910312910453
0.0446270728497 -0.00316781660854 0.020883535931
0.0442539229507 -0.00595739829511 0.015537753287
0.0439387543608 -0.00737995735448 0.00439863544676
0.044402205362 -0.00554473827669 0.0232616703013
0.0440419688304 -0.00727075952838 0.0114976727706
0.0444760191325 -0.00539828583766 0.0276771143255
0.0442932412386 -0.00415597759213 0.00250693992082
0.044161939949 -0.0058632665324 0.00740759452515
0.0439072787963 -0.00655046470637 -0.00555559728852
0.0440360275161 -0.00594488044382 -0.00121220309174
0.0425322436646 -0.0133895133388 0.00583940025242
0.0427083116502 -0.0134908708401 0.0281340699206
0.0435572839583 -0.0103869999315 0.0231361231669
0.043599321775 -0.00989970907506 0.0180032535998
0.0437577661413 -0.00900346653041 0.0149730317304
0.044042985269 -0.00804038650448 0.0208004207911
0.0436079447157 -0.00931538236393 0.00854649159197
0.0438216716537 -0.009431964196 0.0274570628843
0.0434246999182 -0.00909645453045 -0.00717208746568
0.0426513853588 -0.0127422053475 0.000477845039914
