-0.03190496389856128 -0.031728183468775956 0.020423828257564346
-0.03139104315464536 -0.031933556149457525 0.0032295454263494734
-0.0323264550884739 -0.030756139873285706 -0.0056144440542315165
-0.03316098502824342 -0.030151796264438053 0.008777583301667367
-0.0333382831749711 -0.030272560799820193 0.02428067922828723
-0.03630664132188058 -0.02665903017507279 0.030099471859521616
-0.03868271216147072 -0.023075266229940584 0.029421237728697616
-0.035624118173865224 -0.027269727448146618 0.009408189712692926
-0.034976837542263696 -0.02740956590567848 -0.0178163273627762
-0.03520437758739327 -0.02743921621929806 -0.005088698353299329
-0.035819829812987564 -0.02728299829049331 0.01986541561846174
-0.035797613624538406 -0.027467251290571204 0.026120551697961892
-0.03518450937576183 -0.02772926705818084 0.005524155359401165
-0.037791658086881 -0.02359119099809283 -0.008031297228630455
-0.03854535249457359 -0.022992708198149366 0.01520929458274193
-0.03913714962112254 -0.022299334930779943 0.024759246408562897
-0.037415415882636076 -0.025104223238288526 0.02763665204928878
-0.03772986817158664 -0.024204862953046385 0.012042589758288735
-0.03787373487621813 -0.023554206049495253 -0.004403045792845367
-0.038607965672321075 -0.022706491272490713 0.00793352940174727
-0.038091883648776484 -0.023326874393555252 0.00021738912733344903
-0.03713862881812889 -0.024410633748653286 -0.016454486215903952
-0.03778197527202436 -0.024286485391667424 0.018437486943850785
-0.03832989897369611 -0.023056115770776958 0.00437398809531619
-0.03619413044099919 -0.026149307411084455 -0.0025769691291650555
-0.036550792336847174 -0.02542331021640898 -0.010287343720582785
-0.03582094562152278 -0.026351695592686145 -0.013815828267462697
-0.03618858562270453 -0.02554506433464472 -0.023782990546970265
-0.03575350230911033 -0.02685719767756651 0.00039963432229986155
-0.03667637305837087 -0.025751178922793383 0.007213745587904136
-0.03532574801371531 -0.026840606954137328 -0.021094816598912335
-0.03703211880604272 -0.024472405033169883 -0.019693156972067354
-0.033082544808208526 -0.0248973291321267 0.03119374383868802
-0.0353898775284016 -0.021757293090924543 0.019782180657337438
-0.03542203168343262 -0.021859298382006957 0.024405757275036428
-0.033612090178654984 -0.023965074546136757 0.02163201463294946
-0.02975172201398668 -0.02880818020279747 0.027257494684450788
-0.034521552298223485 -0.02303798185016377 0.02732465088862808
-0.032539992780343405 -0.025445391501005346 0.027633427285220488
-0.03448024043848446 -0.02244040418069456 0.004514944122490367
-0.030675502628340224 -0.02760040372069517 0.02422051399253433
-0.03500548367482708 -0.021242981513356102 -0.016139521977498503
-0.030992630877424675 -0.026773987528845633 0.007925474165892211
-0.03488489945831737 -0.02148263379089945 -0.01270092197824075
-0.03496727990458382 -0.021977796390053934 0.00930965053728501
-0.033263686887192515 -0.024223754960966883 0.015749757674440173
-0.03351403773854252 -0.023334828845537184 -0.005858716813846003
-0.034652956136370684 -0.02158414515736041 -0.019376349718009226
-0.03132542400311954 -0.026274185881759532 0.004410014606355747
-0.03583853562609262 -0.021055166861900187 0.014371636937187031
-0.02897483443209261 -0.029595992228854413 0.02153568842660636
-0.03158797717472912 -0.026380159353581623 0.02013261740724634
-0.03293331621726142 -0.024514129805555923 0.011631411609290536
-0.03265560643156902 -0.02454635929800362 0.00033685614031807483
-0.03510831056590736 -0.02136594542013181 -0.006970220486906116
-0.030462041751672227 -0.027680674208160606 0.01759077878752028
-0.03428338974024369 -0.022514491525319803 -0.0015965777515042226
-0.031118945649406274 -0.026786235222789525 0.014057523627825414
-0.036143651531205155 -0.020501000806689262 -0.003315818122346277
-0.03725891644165911 -0.02071273780719476 0.026624211490251175
-0.027880064667741924 -0.03488548910753676 -0.004814076720340234
-0.02801187636053392 -0.03525058068985581 0.017027118728783486
-0.032196444451369974 -0.03145145180860756 0.028983030772642488
-0.03031303613617819 -0.033335651322641296 0.023945804674888115
-0.029519157232351437 -0.03408355128502442 0.020098031238071544
-0.029433430310927676 -0.033858619411742924 0.005975399832775279
-0.029784491579622843 -0.03327870699212358 -0.007118623493151656
-0.029936796955611418 -0.03297541200022132 -0.015242529780082004
-0.03116725685666801 -0.03147292210476345 -0.02644198978972559
-0.031497615239237865 -0.03147358893958567 -0.01308370503114047
-0.030421984865848104 -0.032322879300955315 -0.02342666091772222
-0.03055444389064646 -0.03300524881558744 0.012320528332898085
-0.031788933115121466 -0.03108306351713027 -0.0173137228552214
-0.030687759498402422 -0.032588409745687164 -4.651086347397335e-05
-0.03130752947042223 -0.031505191360678995 -0.02010186354790262
-0.029032548336877732 -0.033843688196053226 -0.009828573706195543
-0.02857137277740921 -0.034644650809783704 0.009126691769078536
-0.02842859601147847 -0.034161307647948884 -0.017404765463230207
-0.03886045718528273 -0.021245829420738317 -0.013236523528638744
-0.03855724925708564 -0.02176770062580624 -0.019061802679832505
-0.03874939569474535 -0.020753703311245705 -0.025619013997033244
-0.03921409993029897 -0.0217292146002708 0.010790418152353671
-0.0358238539882616 -0.025907724335979068 -0.0272162780679479
-0.032744476347950115 -0.029428922338198913 -0.02791278822507035
-0.03667327377714004 -0.019200145250975298 0.004272752491991962
-0.039168273403940884 -0.012722325048773325 0.026735290430483956
-0.03638703434040466 -0.018285950866506077 -0.021099921698713574
-0.03675030282234264 -0.018225646031791918 -0.00568645048744224
-0.03702282394942728 -0.01662396650468721 -0.015530908125944543
-0.03860743930869268 -0.013440200844814003 0.011532357575065117
-0.03847576164693637 -0.013117012883872002 0.0011994414854478493
-0.038525436677402755 -0.014463326807803167 0.021937995560384754
-0.037601291169124605 -0.01788915989545263 0.027735917236023557
-0.03648438027506119 -0.018605470678278724 -0.01235254096671841
-0.03737819461891096 -0.01776366750174912 0.016034502896555034
-0.041263791726002426 -0.006031971059860276 0.028412497160723686
-0.039687691825664895 -0.010229200915732695 0.015669337750696097
-0.03776422878057416 -0.01561098373614832 0.0036869792427063437
-0.039415465593405696 -0.010582158088436372 0.008351849407908554
-0.04071266069798643 -0.007555375227189804 0.024722789047531855
-0.037904901319461226 -0.014378584877869478 -0.006973710266132235
-0.03741768086976974 -0.017103701084169545 0.008722775281569901
-0.03958002605798311 -0.010352061304075538 0.012545093456757007
-0.03712412889754468 -0.018884661764690773 0.020092737856011653
-0.038042810065425384 -0.01622238052225551 0.024552504849893596
-0.03869595863582442 -0.013418886443992237 0.015197182457516802
-0.03724538440535148 -0.017937719676185414 0.012490068960708728
-0.03863012274514881 -0.0138569976055417 0.018279298577886516
-0.03747471916104059 -0.016038144724383047 -0.003382694057776239
-0.04009094586034193 -0.009339399727141555 0.021461664258818194
-0.03745581790803081 -0.016385401936619273 0.000548402071405195
-0.03715869104930431 -0.01902839492883935 0.02361505339425362
-0.036188668380343965 -0.01916335634243545 -0.017901529543468492
-0.040162990097411956 -0.008894231868113466 0.018560084499071514
-0.03862357615800946 -0.013016862356837251 0.006431221655995715
-0.03663617306397706 -0.01910361340305351 0.0012861442583232859
-0.04173280331742288 -0.004881000146269798 0.005174465153371225
-0.037876569960417786 -0.014226441863097135 -0.011505251044828066
-0.03650066958846311 -0.017747133077859616 -0.024038524850783945
-0.04091205178292491 -0.005417710640762352 -0.005388179035595584
-0.039199357494605375 -0.009964545586464814 -0.017591272091053982
-0.04071254846432371 -0.006816078805129057 0.011152518611685536
-0.04031067706284639 -0.007880659455706974 0.00824156430643842
-0.03656973674507709 -0.017370117227224084 -0.027550547139052556
-0.038477604729712525 -0.012228708409895036 -0.015537113154039718
-0.03738848509113775 -0.015008588738738608 -0.025602558205977486
-0.04002096197344032 -0.007582947539778879 -0.015881121663318374
-0.03936355304018621 -0.01026248854867798 -0.0012480783537252996
-0.0383794350963126 -0.012041313323522526 -0.025499889436171694
-0.038469111096898836 -0.01195303911398269 -0.02176369728145193
-0.04040442975788734 -0.006051688426336056 -0.023760708685712294
-0.03943381332023347 -0.01031938674317879 0.004285658801586507
-0.040632803658687544 -0.006674225101954136 0.0032740140719258824
-0.03857083196603766 -0.012276063407826578 -0.00877636683788854
-0.04067438205360549 -0.005812462503991543 -0.011965563939599943
-0.03945552672780352 -0.009029579393156555 -0.021036284654472055
-0.03857928793733032 -0.012458774067844262 -0.0044741652539271315
-0.039378655662070335 -0.009010968142835992 -0.026188363970952564
-0.037572269127254074 -0.014807170568451041 -0.018369531187071603
-0.040829995336513755 -0.0050711995546181615 -0.0176416144473985
-0.0389881610181378 -0.01087953734666025 -0.011770210064692904
-0.04000458581182668 -0.008210126286373002 -0.003928933936926536
-0.0412424237884138 -0.005615553316457223 0.019190969136983413
-0.04053890328352151 -0.007503307640476157 0.014593066647446857
-0.039949647165741425 -0.008155833024781262 -0.0084586180603846
-0.04427688192580675 -0.004881000146269798 0.018505184759998766
-0.038508517417845944 -0.0118479291803961 -0.029201999306678772
-0.04219619520451415 -0.0113373770037917 -0.028214220181515468
-0.04195234982793764 -0.014575059620757183 -0.011131759395535594
-0.0419323081268901 -0.016186129103119732 0.020014066814865228
-0.0416552503742277 -0.014562531309380808 -0.02743249657478362
-0.04169009579423498 -0.016148778634481366 0.006181927041955651
-0.041402510978593335 -0.015587775808238573 -0.02057672588650192
-0.04129131068060993 -0.016532042910862015 -0.007694537608386396
-0.04211669477808518 -0.016072692262927204 0.0277058922397951
-0.04114666309529739 -0.016092307477581915 -0.02430544951217491
-0.04203781498843564 -0.01401159888542573 -0.017786413524139198
-0.04088826353372608 -0.01886883099180775 0.026928735823249485
-0.040852476272450464 -0.018572961368199855 0.017457499736263257
-0.04101306234658396 -0.017426126792070278 -0.0020738011644446663
-0.04057214091623086 -0.019070829778722938 0.013846409126051033
-0.041268826871934935 -0.017846774730087035 0.02315258619713114
-0.04148835069170921 -0.016829358209609475 0.010248737536440287
-0.04066437810284439 -0.018341134343878778 0.0008487386109857381
-0.04062913394312953 -0.00838423438465366 0.03084575490619015
-0.038417104992835065 -0.01615542757321952 0.030661470826145676
-0.039392038339776315 -0.012227885088960916 0.02975257921962969
-0.03922552689119713 -0.020500606850168895 -0.007604083992808553
-0.04387135257264344 -0.007385807197206673 -0.0001969758592724486
-0.044124180527468006 -0.0062152594248165455 0.007678263057254794
-0.04393674200008242 -0.007279504370312601 0.0036520572607130087
-0.04408753692577255 -0.007896436697777141 0.020481437422995876
-0.044219351872796804 -0.006196706794591712 0.014536559077683218
-0.044147303530596704 -0.00817655390139022 0.0274800828051833
-0.043852993659417194 -0.007189021571469708 -0.0033684307321316543
-0.04390178923446744 -0.005875924174794988 -0.01130563550961644
-0.043990028578925595 -0.005276746653684638 -0.006476509010337224
-0.042389500725289145 -0.013135901003814742 -0.01368913883770332
-0.042752646519718246 -0.012971494079892646 0.0069880707818907005
-0.04237861618131722 -0.014027153555591143 0.0034215303922015437
-0.042555946402429726 -0.013266912123455921 -8.362916234329852e-05
-0.042973358954399535 -0.012830574909574153 0.01873514399665558
-0.04282544211978614 -0.012974110757716484 0.01184461576466901
-0.042894240465347004 -0.013652984022875618 0.029965489201116538
-0.04223206717216749 -0.015155761269261962 0.016327077899182273
-0.04283216661125501 -0.013492402545975779 0.022656537435533683
-0.042977354961242775 -0.013195747711795804 0.026303938649144286
-0.04374037247896214 -0.00940560612841825 0.014002457002856064
-0.04367281001507797 -0.010457399639429519 0.0229882364707555
-0.04380456480300934 -0.0103402224674626 0.030173443074458087
-0.04330577191374744 -0.00945328957290801 -0.01402734976471567
-0.04339192584329881 -0.010142803595734556 0.0004593617328357662
-0.04360136813159268 -0.009564929175318374 0.006877989513789507
-0.04367056582367173 -0.010056189463259544 0.01771439275971956
-0.04313697722527539 -0.008210478456394582 -0.027756386579448403
-0.04357630978318906 -0.007244861094122968 -0.021179312035286516
-0.043566014019361894 -0.008455525851176215 -0.008537432221972174
-0.043559095251104345 -0.007665303502839336 -0.01767563719996345
-0.04394682623895819 -0.007910447284636005 0.010224807994828701
-0.04329171314485357 -0.010323591748962073 -0.002996531772769139
-0.04299519356306633 -0.010378249594739378 -0.019619744809707795
-0.042649896781803 -0.012517405497114817 -0.008749493307025196
-0.043293251261493984 -0.010813956899414596 0.004235571504145438
-0.04265782381044912 -0.011506540373311789 -0.023006192981758492
-0.04321264027480655 -0.010437148719409437 -0.0059878654105831874
-0.04046429431902203 -0.018541898247572047 -0.0055382809735431615
-0.04016537647668522 -0.0197513944906341 0.007864817331957364
-0.04026371998147567 -0.018309935220061205 -0.022417927707578295
-0.04053525963347901 -0.017861197144386897 -0.018478030237638644
-0.04033252196461763 -0.018468994027611912 -0.014656944511502432
-0.039821806484049496 -0.019774266046406787 -0.010630333520213612
-0.026065588868606222 -0.035251687206957615 0.03132599964737892
-0.02573026660142152 -0.03533616132424737 -0.029201999306678772
-0.016757423813804954 -0.041780496953898794 0.02235497168889508
-0.017292116460032217 -0.040900045672246574 -0.012348833975324613
-0.016373015307960093 -0.03896691808501601 0.02135597130321256
-0.023770723241644743 -0.03817016423173775 0.031098901926703615
-0.023982138055758672 -0.03704706319609475 -0.027067126695977176
-0.02499247971377728 -0.03668799097302927 -0.017368169225753356
-0.024283859566927933 -0.03723004067475755 -0.014061887926441759
-0.023667577551811037 -0.038485326200129906 0.02664831158192172
-0.024810595581116084 -0.03724719917159057 0.00375625778690308
-0.023456771479898806 -0.03824222080621443 0.008114831240852927
-0.025795406615987344 -0.036274601160326644 -0.011422582146549797
-0.023358547516670165 -0.037944606165428524 -0.009418274769643714
-0.025841076816680263 -0.03632571071200241 -0.007482592753128663
-0.024064763910883025 -0.03716669617664197 -0.024186285980849664
-0.024719683451097207 -0.03680975275623336 -0.020290221334942852
-0.024143602676049366 -0.03788977850962412 0.013257466270268144
-0.0237542781239633 -0.03780656591300828 -0.0033166618879922937
-0.02618488777157827 -0.03637244568365072 0.006326538198723008
-0.025188124256206233 -0.0372805439455214 0.017896672196572642
-0.026938548834565028 -0.036149704058825304 0.02054549978465927
-0.026093489242319527 -0.03652158373675224 0.010648758226215985
-0.026021793364608862 -0.03683443230319698 0.023736520616050565
-0.01756101387867714 -0.040987544771296146 -0.0058570325990345215
-0.018324945998615328 -0.04085758313859868 0.00577823328187623
-0.01815706120505742 -0.04055823681290511 -0.015083049667193572
-0.017332145756313984 -0.041241570941766205 0.0026638147282015932
-0.017880592408306556 -0.04090332394143925 -0.0026560761572406886
-0.018747927475859218 -0.04076850590554897 0.011264965560457356
-0.017909904329844715 -0.041268149749309826 0.018433847205128393
-0.01808660892360937 -0.04112011051295818 0.014539489614084751
-0.01880510515349311 -0.04012800182314476 -0.020451029098386645
-0.021317659552990798 -0.03895736274352804 -0.015711236449660024
-0.01944331852417012 -0.03968619566329257 -0.026328621297437335
-0.019970567848719305 -0.03979730934527513 -0.007844041650476594
-0.021116753677939366 -0.0389162884029192 -0.02269268373231372
-0.02014902410865022 -0.039645773539752585 -0.010860113011251258
-0.020389988822452132 -0.03990605568796146 0.007858187570256777
-0.020534141492847824 -0.03959215196916339 -0.003965941540400577
-0.019586927088133244 -0.04014433222204493 -0.00031817405506762673
-0.018679811053590886 -0.04103304509197133 0.027001177604847208
-0.02114276450937292 -0.039731763846106924 0.020102630902278595
-0.022525577473892586 -0.03849737039709014 -0.006649101397714019
-0.02259254838974638 -0.038239568060869124 -0.01871316917739925
-0.022727166270773504 -0.03853198958492103 0.0011195329189055982
-0.021245942642720537 -0.03974845169619265 0.024022737743246127
-0.021311739204045693 -0.03948975484275948 0.011875736460792378
-0.021695934477102285 -0.039152657803957394 0.0047619183246852825
-0.020512602114901128 -0.04000544468704639 0.016586046679170848
-0.0189259684316932 -0.036300291705118864 -0.017897523334194837
-0.01733224799393579 -0.03725381592858509 -0.026910686117245054
-0.02197716024494723 -0.03428312679871439 -0.02154886269472063
-0.018883826688497963 -0.036295524703168755 -0.02140668871781674
-0.021368180592901118 -0.034635504991099124 -0.02629934141048634
-0.01731476383923151 -0.03775633946761152 0.009766684500632136
-0.016616037911620245 -0.037984306589199504 -0.003716025656760531
-0.020020877080594156 -0.035791274455409514 -0.005101428745413349
-0.01956729371353353 -0.03592079928617712 -0.01499831937280517
-0.017278461060280192 -0.03772560551231398 0.006426675313216509
-0.023835722866598765 -0.033050536612829015 -0.02423605537763114
-0.018573499284051727 -0.03666259665227604 -0.008289262031902105
-0.01892021069787741 -0.036564877230182403 -0.0006444536598517584
-0.021071158724169647 -0.03507173775324343 -0.008198029730804558
-0.018149635586136935 -0.036864014837554505 -0.012554764240711076
-0.016300000250339508 -0.03812139127247953 -0.010426567742115374
-0.026563894104087108 -0.031872494786784514 -0.005401489683831016
-0.02656952340023887 -0.03217677185517817 0.006376108791273117
-0.02692407307735038 -0.03405043901101765 -0.020533060000093698
-0.026632912623618436 -0.03182517114569088 -0.02895900555097075
-0.022370453825377827 -0.03502886215810356 0.02487300010639032
-0.019931342633359335 -0.036575735924984185 0.027793735135537914
-0.023380765587405972 -0.034514629044146476 0.02808507828434964
-0.02615288174765861 -0.03255905652313709 0.01786167713234843
-0.022075704375987437 -0.03538984922967325 0.03131015530013162
-0.024653863064871804 -0.03358543623808845 0.022303082080927884
-0.023032080471194774 -0.034055582255490706 0.001001723916936384
-0.01971275209598776 -0.036281556458362424 0.010354114873786336
-0.02362908510416469 -0.034023965733880765 0.015712922121745274
-0.0259745003167695 -0.03245650602528466 0.009344600884888307
-0.024126536191212394 -0.03302963499026408 -0.015063314995056172
-0.017104509543783973 -0.03804183463923504 0.01819935543051299
-0.026385360640243678 -0.03157215983208131 -0.018879608719368886
-0.023292916099862337 -0.03400257194296023 0.005686559113694117
-0.01976773288999583 -0.03616568537951531 0.0066870414079428665
-0.02057816351363624 -0.03559365345384122 0.003134382368178506
-0.023685887996373577 -0.03337743485176587 -0.011496776323392285
-0.026088243717841082 -0.03159350952014297 -0.025951449532037617
-0.02374143933379923 -0.03340905141052778 -0.008591513948387903
-0.01827936758833087 -0.03723171590015842 0.01390006407555589
-0.02433252061190565 -0.033521047962828336 0.012344456780942075
-0.023512750713117682 -0.03363013935743106 -0.0049361922370226964
-0.018445671212880075 -0.037391422494888936 0.02471842746492565
-0.01904339761014358 -0.036949223367445015 0.021548856737193943
-0.017273620521543222 -0.03820719841520111 0.028903436922432402
-0.021744520827304922 -0.035320419463166955 0.021844397043879298
-0.02056559737543558 -0.03594920456439602 0.018466464782753187
-0.026988347358709922 -0.03468827891606618 -0.014721094077679919
-0.004827877461164346 -0.04406232665953726 -0.014898404533383577
-0.004751915375073907 -0.044013967879073926 -0.019173916666238636
-0.00529604259040189 -0.04428618889997059 0.005698199299032883
-0.006286199665913422 -0.04439327243179598 0.02084013973160389
-0.00602545360217973 -0.04426890315589268 0.009392958983450274
-0.004908410213774154 -0.04419700650223326 -0.003895578367199465
-0.006351305111542358 -0.04024958510867814 -0.02505153169428644
-0.008995558443846221 -0.039598953601820704 -0.027696594883560622
-0.004785929458647482 -0.04065231726102237 -0.020563534351868085
-0.007524450098166706 -0.03998779108445136 -0.021755580161585363
-0.01136989336702195 -0.03903986438468867 -0.025891110562885792
-0.0036187480968423165 -0.04098106327561671 -0.01248230987107224
-0.003914244910093833 -0.04088572487721545 -0.01654291300736791
-0.011675986162594775 -0.03923120315400042 -0.009043768578170004
-0.014399742602592488 -0.03847914026603124 -0.0175161710625986
-0.007963128321087847 -0.03992197947663068 -0.016022189599172384
-0.011569267156345792 -0.03955500550422077 0.007596412889747626
-0.013617941797259952 -0.039306414822708115 0.018791949966073623
-0.008463483689772221 -0.039949248467974485 -0.00841298964310456
-0.014162101137187697 -0.038734308165968796 -0.00627448596561603
-0.011476742808569728 -0.039097816616126525 -0.018862666493098482
-0.006778133399068338 -0.04041772343402644 -0.0029972485312366143
-0.012288968962600778 -0.0393339447690242 0.004119830339365272
-0.0074430703438350156 -0.0401240806779538 -0.011162844181010073
-0.010987983895197999 -0.0394544311542148 -0.005060751999365572
-0.015170113453595572 -0.038916796062166886 0.01612220702506402
-0.00921112938788932 -0.039979945589373955 0.002400116752206587
-0.009985718683864695 -0.03974593521144271 -0.0011249982086614088
-0.015396728403172922 -0.038564142727591504 -0.0006552297034864891
-0.004352529822921411 -0.04085466495308399 -0.008350853554705877
-0.014944294213523878 -0.03822046258137617 -0.025211713815722136
-0.010819550001665871 -0.03933549911833919 -0.013703267022739385
-0.014018945907544055 -0.03863649096470602 -0.013438999169735746
-0.015368207164923682 -0.03863815741061142 0.003098075072518402
-0.01325363592180373 -0.03900002978964513 -0.002624025052884081
-0.013524413746406031 -0.039174748635202754 0.010356825093176097
-0.013100421112129832 -0.0386765500986248 -0.022414391843348275
-0.011429297057097087 -0.03975000739549491 0.016694903606993022
-0.003121000016108155 -0.041121067311241336 -0.026974601779425497
-0.0031210000161081553 -0.044079059739236995 -0.009489830444590546
-0.01228912969832104 -0.03998266523956827 -0.029086703434481845
-0.016110576399824952 -0.03963602618164894 0.012575117239036575
-0.01594177165747635 -0.03821113530555101 -0.020552177375092275
-0.008210390122641879 -0.04059449688765271 0.02111562579639088
-0.006975496112482312 -0.04058427679039502 0.007488290221502687
-0.009682021143867287 -0.040361468569482195 0.026116371528242595
-0.010396864110705851 -0.04013008560404781 0.023128278252220972
-0.00456260788068575 -0.04145569771508826 0.021718183491608277
-0.013950523425673513 -0.03941539786085598 0.028238149644333528
-0.0034249243308668723 -0.04143965743546532 0.008859945587224229
-0.009632845338459943 -0.04004104308983565 0.010905732259388045
-0.006605761205821748 -0.04074799070629075 0.011052223344947857
-0.01335212804139182 -0.03948073702535834 0.024856517156407593
-0.007583201162274555 -0.04089634718276427 0.028267604496593303
-0.004577177133422544 -0.0415674311319723 0.02699470699780058
-0.0032801983881865517 -0.041690769887426454 0.018827441910913734
-0.007269286514265763 -0.04087802509725845 0.02408277473573479
-0.0059382415656457676 -0.041039930926420054 0.01732021661750196
-0.003695243301023679 -0.04145533495821563 0.012459011504668872
-0.005951604004367652 -0.040663151120187674 0.0001929908457579373
-0.009604059808137161 -0.04011644205930332 0.014054890869074799
-0.010621499951983948 -0.04261890621403957 -0.0283357185266836
-0.0056319600684501805 -0.043685558139969334 -0.027181147603849577
-0.008730047190324958 -0.04387593149449024 0.01114284379476681
-0.00972218178631874 -0.0434202585751607 -0.0060722855242070425
-0.008988681407300358 -0.04411198069887354 0.02821605936134238
-0.008617225480496375 -0.04409309535389556 0.023147443799553205
-0.005787044141348495 -0.0440600987710992 -0.00716659466764597
-0.008070002397509409 -0.04408309014290005 0.016838020981485444
-0.009029778579384511 -0.043628814841276634 -0.00066715853870589
-0.005946417439201132 -0.0437845338762978 -0.02197792737364453
-0.006680311721499351 -0.04426577858526506 0.013925327556559884
-0.008453999681555973 -0.04384522216146429 0.0064963321681567685
-0.00877360358429331 -0.04325946668250411 -0.025177496888127926
-0.009692617706490684 -0.04320189187062849 -0.01948964240920563
-0.008021618247060928 -0.04357122261520475 -0.014089517650959109
-0.006618167144195692 -0.04384706308955441 -0.011597626309487857
-0.008072689884829167 -0.04351031831119588 -0.0172059232597793
-0.013957776391288503 -0.042137954936603675 -0.011268622033862027
-0.015449442715326315 -0.04134905980217797 -0.02602176154014326
-0.01496304803237689 -0.041870461070231416 -0.007849508267459683
-0.01591146412285873 -0.04128017698850657 -0.021716080566362272
-0.015282069295767052 -0.042009618562581244 0.006775903574507747
-0.015413099040252372 -0.04201216170674292 0.01034152124646903
-0.015680256410059164 -0.04216628090972055 0.02684782925596267
-0.015164627453111004 -0.04196588269127392 0.0010090639133719832
-0.014261174714228015 -0.042660373877855824 0.02058135604026014
-0.015942421253243896 -0.04132451614925007 -0.01853684321910802
-0.015311459412411108 -0.042115327257672544 0.014095971586812755
-0.013530745080352215 -0.042951622580003256 0.029323331111803803
-0.012460014109908336 -0.04239591837503246 -0.02266089138768056
-0.013285658561346163 -0.04226171712539826 -0.016176211208612547
-0.013675831100589163 -0.04278902567149237 0.016982255501916975
-0.011407615558362713 -0.04351105497322831 0.024176379600923694
-0.010872468981057969 -0.043121675797446885 -0.009201730423844229
-0.01265703143907037 -0.04297290472460129 0.010137530325013163
-0.011107777163246357 -0.04301124334020382 -0.012422745309192592
-0.011602027250893807 -0.04313672931776635 0.003525986474799487
-0.01218740866103146 -0.04315317591961526 0.014015996022932117
-0.011006326763667692 -0.04317977468728804 -0.003350001141036887
-0.011149983978443169 -0.043524116397059255 0.02084961217856785
-0.003823322373300563 -0.043973133006647035 -0.02499425700433256
-0.0037596185704581323 -0.04441985509571313 0.024681420418140847
-0.005171360058137985 -0.04441953440142861 0.017021852081875205
-0.00332912392479727 -0.04441995288781854 0.011239746727355348
-0.0033979031628221783 -0.04441993726377638 0.0033731828240282018
-0.004264866960748742 -0.04441974032238356 0.03063819820095453
-0.037865218870341694 0.0029412177885861867 -0.03794370571705326
-0.034759976142060854 0.010164426837075179 -0.03778234428119242
-0.03485281137499904 0.006621624231768389 -0.03310700133442879
-0.03340309866513991 0.019256730524544338 -0.03310700133442879
-0.036949588456763716 0.009001207104331074 -0.03310700133442879
-0.03725193752085186 -0.004752493780310662 -0.03664090254754231
-0.03518959598463626 0.0025967450799622527 -0.03579679356923421
-0.03593477489377481 -4.165816189190437e-05 -0.03648841372557657
-0.030531979702736904 0.019609384828743498 -0.03736076231769815
-0.03104256904373079 0.01752540417424681 -0.03524024463913103
-0.029587867656793145 0.02276784100699091 -0.03503850106419626
-0.03397888393269051 0.006956356831632261 -0.03576256157310222
-0.033781522393937786 0.018940981855219193 -0.03749053094459777
-0.03168311262185715 0.022787285350880527 -0.03731247316426267
-0.03546931302126047 0.013632414446623333 -0.03766564007552608
-0.037392314930771414 0.008714308394870448 -0.037804489814176695
-0.03190003592602163 0.022483131068783108 -0.03310700133442879
-0.029724397025215624 0.025444744064822052 -0.037157887171195746
-0.040210386692563514 -0.0027730038242950884 -0.036081960717812465
-0.039958065974962605 0.0017130167758784367 -0.035662173492102975
-0.03938454671671551 0.005658713481509744 -0.03697399925685192
-0.03673738839335444 0.01637272926235963 -0.03549810182847071
-0.03868525031743213 0.011426495256630413 -0.03607509044266852
-0.03981865075254412 0.006203013076743492 -0.03421894551094736
-0.032174309746659205 0.014797811954128043 -0.03748993077520941
-0.03581557014429044 0.005255009703080444 -0.0377724412057995
-0.01565691525984287 0.035333975617302546 -0.03310700133442879
-0.021529751636335945 0.030833069543662845 -0.03310700133442879
-0.026963388766173046 0.02458775743798942 -0.03567749298351037
-0.018451611950906617 0.02994717283036202 -0.03310700133442879
-0.013443939116846809 0.032115580349688554 -0.03310700133442879
-0.01568070671693813 0.03062581657632427 -0.035546278282315276
-0.00454728754394608 0.03663419134762926 -0.034071133741606446
-0.014207048620978184 0.03609851407732187 -0.03780020101534158
-0.007255089641737741 0.039473333190151096 -0.03714755641669516
-0.010063499678381993 0.03885688447070481 -0.03561316540842135
-0.026321527847554795 0.028286877876189928 -0.03310700133442879
-0.025259417488316588 0.03103515251172398 -0.034228423070869526
-0.01884746178649868 0.029935535764645735 -0.03742589135738545
-0.022160287160956707 0.02823915807131981 -0.03739046126942298
-0.026160622822065382 0.027394538030014938 -0.037627631899183875
-0.012823590434011434 0.03272852432923893 -0.03742249797370236
-0.020398435479057495 0.0333202217362463 -0.0379452273464731
-0.01745984139942295 0.03414693841308199 -0.03787386750934182
-0.005007354218804678 0.03696686941002539 -0.03754205802702827
-0.009104232464712543 0.035510210079094856 -0.03762845460046857
-0.02896064881870986 0.028227504137217863 -0.03578505575831602
-0.017719210779004218 0.03627992178191129 -0.035895312961187184
-0.02295854138711916 0.03302720700883983 -0.03641529156544333
-0.033298062302442144 0.0019719294908231706 -0.03258979705287119
-0.031068888332717537 -0.003524472298259523 -0.03164674460610077
-0.03149601973163963 0.00703542533912828 -0.0324944146180496
-0.02963144367939563 0.0030399247323968557 -0.03174783507601558
-0.03399920084754935 -0.0015148563281319406 -0.03252050133734105
-0.03801920203019223 -0.004881000146269799 -0.030067554741484554
-0.03450179091254539 0.007145642443539872 -0.02887106417493826
-0.031127190078331486 -0.0018544444514001514 -0.029106296103010104
-0.03396180509829901 0.01715403105181553 -0.02875779399775414
-0.03461880827636638 0.012923811966113571 -0.02879085521642804
-0.030477122169281494 0.02171815583390309 -0.028818030482242983
-0.03504834216100577 -0.002263318036464146 -0.028976206049324507
-0.037458061038328785 0.005997324832235506 -0.0287840588516777
-0.03175059393169597 0.026046717704741963 -0.028716973120731622
-0.030775506038611913 0.006919561129541721 -0.029002791136076365
-0.03205065390992907 0.0038850287381450663 -0.02899873370237903
-0.03267227795625139 0.0100780696691307 -0.028895621387441242
-0.03100356175919716 0.013329184340395222 -0.028910422081628355
-0.03848364074290739 0.0026316881788831055 -0.02879298875065643
-0.038233603715353955 -0.0005354750145080472 -0.02884337626057875
-0.033051654194430534 0.0005101610213996124 -0.029008634525447666
-0.029482999816536903 0.016806719103904112 -0.029903907886227876
-0.034759524008240665 0.014026417825920245 -0.03310700133442879
-0.03880936186681467 -0.0015446100244647007 -0.03310700133442879
-0.037347097169289654 0.004007149930585823 -0.03310700133442879
-0.029482999816536903 0.013969739428394834 -0.03160283190119294
-0.03917434600993648 0.009762578683636926 -0.028713999316096306
-0.042979022227891045 0.00040447225425862795 -0.030414128348626647
-0.040016417627623674 0.0015151159458692241 -0.03269797838763884
-0.043501247769619125 -0.0025993659264556992 -0.029105056690843064
-0.03680170425875419 0.0007133515175844255 -0.03310700133442879
-0.03359172590591468 0.010254551791218347 -0.03310700133442879
-0.04031289039944159 0.009498730799432701 -0.032176632734375446
-0.04230956939425334 0.006694378640580321 -0.03097968968866822
-0.03888409788976475 0.017786445917247762 -0.031017327527788095
-0.0375118243051343 0.020755910863510096 -0.03089744549476125
-0.04012090684006344 0.013728885803647435 -0.03153981559557483
-0.03782205844400388 0.015392970901465543 -0.0326199171430714
-0.029529710386524438 0.028594295548751276 -0.03172976454736851
-0.03521907807164448 0.023929493195796854 -0.031187119165175945
-0.03208477622805422 0.026102361540642997 -0.032078950911203385
-0.03459235983004011 0.02650839246865606 -0.029483023094978973
-0.029482999816536903 0.019276069695634564 -0.032782129290322246
-0.03200312972960437 0.01543682090810538 -0.03310700133442879
-0.044478017796380866 -0.0027479345828905974 0.01164612486168537
-0.044532906850391116 -0.0027484123056051094 0.015896018280613433
-0.044562447314253545 -0.0038675476575342864 0.023110253017066977
-0.04347363297339296 0.0034376179729928473 -0.02871399931609631
-0.04160063759171819 -0.004879999905824661 0.013363253307366152
-0.041698647951325156 -0.004879999905824661 0.00013405643059509129
-0.04160521085956657 -0.00487999990582466 0.008555798666257684
-0.04134271352497397 -0.00012602857396269024 0.03062818930838014
-0.04209601333869428 0.012688404775846603 0.0033723055522022335
-0.043831520795300616 0.002921552544649665 -0.024780770411237447
-0.044000257628768 7.593575754605752e-05 -0.021403626288728737
-0.04374616840776347 -0.0004631752362305174 -0.026489035927366632
-0.044281249656111715 0.0047671129991917905 0.009685699497970726
-0.04419850852068968 0.004898109639087655 0.005032756366347538
-0.044254144561622175 0.003416852198033338 0.0013558224560790188
-0.04392713963642515 0.005189127562725675 -0.010904794575195038
-0.04403483985241627 0.0021789453925968854 -0.01872000434889578
-0.04409695571446557 0.0024266243810763533 -0.013536615046575893
-0.04406557334837874 0.004736684959639009 -0.0042595154090487655
-0.04414481552753423 0.002996591300304542 -0.007690799997404648
-0.04025170187495217 0.011492782629374082 0.029650748036662317
-0.040360594831603216 0.009060341089386536 0.02726428416358086
-0.040299069366173126 0.007975661460084119 0.023562455590736747
-0.040982949815271445 0.0024311407057486024 0.028561596104454908
-0.04061252385620065 0.005378612572357546 0.025739331288568375
-0.04071499383292346 0.0066954871160521635 0.03089907874717316
-0.041136466852643064 -0.0014377818756155505 0.01799781837188429
-0.04090237906226776 -0.000216037607784071 0.011037877465801108
-0.04074524607040064 0.0006915261529268236 0.006954465642963487
-0.04040970321984602 0.005876035364638908 0.020079552409611883
-0.04011680761358299 0.008147113731660561 0.01636659201600116
-0.04139558370155452 -0.002959010520845189 0.02456575512914338
-0.04110719341938988 -0.0017236400045970164 0.01417594804190674
-0.040739082242461214 0.001814914944661234 0.014113740429082597
-0.04075400216984651 0.0022577593730843818 0.018061097756636082
-0.04124331980662405 -0.0010813117054379597 0.027325904623940002
-0.039886883828653644 0.010608378942066562 0.018017117274854992
-0.040911998867621396 0.0015648716377635592 0.023645022981281072
-0.04039935410284588 0.0051436167254315076 0.01448014256032496
-0.041669181320124725 0.012688442575471639 -0.018352034440960074
-0.040168198404320066 0.01268995600387222 0.025545173503300045
-0.04348290166300127 0.006560217806459653 -0.027704907662908784
-0.042467566235640915 0.01121439609156067 -0.028300018907173412
-0.04297082988098409 0.010131996296343197 -0.02180028626357834
-0.04291218532584917 0.011086049132688808 -0.009560203159399414
-0.043128794429705894 0.011442512381447998 0.009565259771940674
-0.042689118992176714 0.010956633272493351 -0.025315223777491666
-0.043406490986951256 0.010035593744035976 0.0055411607493669945
-0.043675508758663356 0.00935183655595534 0.013064093047905054
-0.04331933267699605 0.010149466697244331 0.0013189189734997657
-0.043283252321185926 0.009930277462403962 -0.004844606799180756
-0.04325484911512243 0.011798949887368595 0.02414639532615727
-0.04362150779140267 0.01045525271297398 0.02757277127892145
-0.04354006078303302 0.010370569769056568 0.020458903859079558
-0.04329049727775087 0.009286720316561093 -0.015006745722187718
-0.04432667400961983 0.006446132238475302 0.025341723896297196
-0.0438352538749356 0.0052738072226151565 -0.016351900487639622
-0.04374184466120592 0.005469845212260509 -0.020893307767098607
-0.04428100492278038 0.00530739067255738 0.01314818839899904
-0.04434087823138199 0.005243320805694288 0.016556636448571617
-0.04431639580673222 0.006120893268182709 0.02204043331531945
-0.04339761533559549 0.011395804209309171 0.031085221379348674
-0.04387070377880095 0.007388360102956184 0.003398455531710382
-0.043855180575550545 0.008128583880227715 0.008833772892050996
-0.04340632464164901 0.007601163027791935 -0.023628986932114356
-0.043348551959650455 0.008590437372489296 -0.018666646097449564
-0.04404167383575586 0.007828853933930706 0.017835250663327827
-0.043808839715351246 0.006595222160940132 -0.007305043158884424
-0.04350236218442388 0.008271611939881827 -0.01186196770918023
-0.04370187363588435 0.007971483569710563 -0.0020546786683406926
-0.03925258094739166 0.011283176090558114 -0.02313827430912538
-0.04021106842069022 0.0032965668589240125 -0.025715340799875377
-0.0397706063452149 0.007127001885360997 -0.027096201114344694
-0.03961219765208443 0.008279406345236709 -0.02398899631299742
-0.03992093081783442 0.008462097259175003 0.005483150268361632
-0.0399686267147327 0.006532467470396078 -0.004678201464263115
-0.039678979203009 0.010434795371951614 0.00289871142367868
-0.03964895836602612 0.01127373027356079 0.006693074250022781
-0.03971047997455833 0.007639137751015843 -0.014347995180831819
-0.040500863519899594 0.0023295947356959112 0.0019530146401903394
-0.040214450511430126 0.005388154136867271 0.0039034140229830317
-0.040441589867328334 0.0038750319856117833 0.008676120931383135
-0.039322570165369365 0.010608462928570114 -0.019831012164937933
-0.03989879671864832 0.009383403175850635 0.010377578199629724
-0.04013232688030527 0.0042623676413047935 -0.009407988183459358
-0.04092734500034392 -0.0026200574844727487 -0.0036891175362758965
-0.040622903871406865 0.00017609954398840584 -0.004766613922897522
-0.03992754097553424 0.009574030055967946 0.01362795421752192
-0.04080504910621947 -0.00045328306063830977 0.0031053198907070078
-0.04019345261107746 0.006655540141380616 0.011270991405212635
-0.03967737547007839 0.009497685689129755 -0.0036991398089897343
-0.0401040279445969 0.007052243221565771 0.00801367356200984
-0.04033560889229802 0.0026746741707363497 -0.0067537374728763805
-0.03944538863700582 0.010544608773551806 -0.012026115451880983
-0.03987029606281831 0.008251928329468562 0.0006275071929509931
-0.03985720730022842 0.006720828411847837 -0.010855363786520663
-0.04073229063370865 -0.00019889037032130852 -1.848268564514201e-05
-0.04099929733857945 -0.003265340678160893 -0.015116745989545152
-0.041035562804884365 -0.0035645493582640506 -0.022042591491437797
-0.04087447257977911 -0.0022354724555710107 -0.012055645429607758
-0.04075431079534217 -0.0012440761608725204 -0.018629588839264456
-0.04047397490201653 0.0010688386082977272 -0.010602060819809604
-0.04067131341523642 -0.0005593052456261275 -0.0077457112237669734
-0.03983647411644366 0.0063285467563240164 -0.02090867910185263
-0.04032174985801088 0.00232477322423809 -0.013704226585150277
-0.04099096479988337 -0.0031965929641732194 -0.027504943745400166
-0.040288710347695544 0.002597366114388378 -0.022572194786817983
-0.04030788342873315 0.0024391783711911266 -0.019249907606711764
-0.040625513622602215 -0.0001814334877433773 -0.02500097895623716
-0.039916491297037476 0.005668364014159639 -0.01637170912821627
-0.04055053703095639 0.0004371618127101385 -0.016048019956815696
-0.0411911074738261 -0.0048478725809636075 -0.008964225647633009
-0.03936289179754951 0.01197553195527953 -0.009149110116168223
-0.04461099952459335 0.0007444323637610062 0.029700805832718655
-0.04461099952459335 -0.0023667974941770096 0.02866071786225939
-0.04461099952459335 0.000124639923048719 0.025818619603282522
-0.04457500128315819 0.004188017624733574 0.02702524025157483
-0.04428039196232906 0.0017329946091054775 -0.0034718807982438596
-0.04450423014401468 0.0001635861062782714 0.014654196646376759
-0.0445532804782274 0.003403850706454932 0.023890810082339
-0.04457999702016688 -0.0014352099462008035 0.019221593418336187
-0.04444972385016986 -0.0005473356253636089 0.008634788843314626
-0.04460217079327552 -0.0004855330606163401 0.022640477488517097
-0.044447542029810404 0.001708089636008281 0.011748506131785935
-0.04439083072887068 0.0025648254470503097 0.007830475836122378
-0.044155826024001504 -0.00041123194945738226 -0.015129369348980178
-0.04418565262029662 -0.002319582023927213 -0.011014583698991113
-0.04426836262046025 -0.002715806072241352 -0.004498596702223327
-0.044404622022366405 -0.001210160163813462 0.004078225969722092
-0.044346244522890585 -0.0024586300801424927 0.0010069178632032922
-0.04423373948521726 -0.0021775627186846674 -0.007598531370785731
-0.043675509967107506 -0.004864663519978802 -0.02635027151449674
-0.04454099450081626 -0.004835801280118013 0.026649710601433653
-0.044081589376625846 -0.0033034785604691337 -0.014432961816051582
-0.04384828320963532 -0.002958069141781158 -0.023807108936456576
-0.0440594480123166 -0.002083495567056411 -0.017920965643872397
-0.042310392918666624 0.01272656503869223 -0.007299455790454056
-0.042487633126833166 0.01333144355390049 0.012338677584439281
-0.03494003724747601 0.020947895753485397 -0.028713999316096306
-0.04241746226898846 0.014530735216285215 0.03132599964737892
-0.034300721960927594 0.02635899931192398 -0.025991949125878287
-0.04233650731031839 0.012690999545156956 0.01587497394200006
-0.033143435672340425 0.025404059330524444 0.03127633901120744
-0.04214876976495263 0.01511167685625963 0.019365264972915092
-0.042263893693755 0.015100570797057376 0.026214175695020714
-0.04170601990204974 0.016932375343475047 0.029183822123941345
-0.041907597766069025 0.01600598763431403 0.022731773501647227
-0.04220152606344953 0.014447441559636098 0.009098935118512997
-0.04078805207034461 0.01842299644467496 0.01571393312377993
-0.03936283610600542 0.02140063470519317 0.020281366472172706
-0.0397283394639755 0.02040623427418729 0.011290126247151012
-0.040310613821782956 0.019810910119866652 0.030473884767310784
-0.04003134767584299 0.019692765464089563 0.007594374856698135
-0.03989122930475132 0.019543012778212552 -0.006950973892599063
-0.041043553700274515 0.018026897281624994 0.019561510361320335
-0.040060768995962566 0.020114626468679356 0.023878179277598027
-0.03985306012956231 0.02063801380341585 0.027574277404665608
-0.03985161960570414 0.019816764237800828 -0.0003519262911975086
-0.0390580570068896 0.021902728314991515 0.016694767425187634
-0.03576725190959803 0.019302790418100426 0.005860412477484419
-0.03803720861543548 0.015503540372460154 0.019209962204383854
-0.035588151485289404 0.019902598284028634 0.014818060721828032
-0.03379846917416968 0.02325987968085299 0.016366727729878194
-0.03801615166247353 0.015743773035774185 0.02592553760920454
-0.03523337846913875 0.02041016460155947 0.009854914571975673
-0.036607243040888145 0.018085687192553025 0.017099585782417326
-0.03312667264413206 0.023540726035803605 -0.015728763158087272
-0.03497238871775359 0.02118176602732752 0.019489881751300987
-0.03246749497942945 0.02504491315428052 -0.006228971163754837
-0.0326392116532023 0.02453899759938235 -0.012509683817774859
-0.03256467298162448 0.02434071627694189 -0.023726092037693935
-0.03390382228526838 0.022869393456683616 0.009841067805685373
-0.03338657681202099 0.02392961606331727 0.013288713244132767
-0.0366108800440302 0.018216485691087355 0.0216881282435157
-0.035438203981024395 0.019696210328423686 -0.001323343804683609
-0.03481070342601121 0.020773702926684498 -0.004104854651719467
-0.03334793517600083 0.023325375286305725 -0.009256708631030761
-0.03227152910576303 0.02497364392366472 -0.020702609247894205
-0.033249485485020096 0.023699279627176773 -0.0028581928456613143
-0.03388330027960251 0.022779866636046482 0.005587335732767123
-0.03362610257871067 0.023084241181500324 -0.00013252225485693627
-0.038445597409098274 0.014855474759400508 0.02279476180725419
-0.03602078176486838 0.019446893610070487 0.02483144994162598
-0.03458223847379003 0.022508890685922135 0.029336009643242837
-0.03661346061529845 0.018512389906068523 0.027751796329260357
-0.03797521800200851 0.016020272602981063 0.02942351379378602
-0.03334749431838318 0.02471711647309222 0.027068844069134658
-0.033514212118352794 0.02408113248294054 0.022441191560978048
-0.032287556756052556 0.025828086763354335 0.006116338982653464
-0.03595997085625753 0.026173973368840753 -0.003050716033714581
-0.036932901991468335 0.024634733803652956 -0.0080575570511027
-0.03664227981744143 0.024630826143365356 -0.02331346209504819
-0.036602938289276424 0.025526893256656035 0.0070121644585178985
-0.037504430017606866 0.023471766318191742 -0.020347281893420194
-0.036289337274534615 0.02546339887182391 -0.011591484464503884
-0.03683384296417393 0.024511580137576816 -0.01765854109660519
-0.038522357699369146 0.023132964023219956 0.025316441664568704
-0.037822033244697184 0.023409566300030313 -0.004607000707083968
-0.037926842887213694 0.023878157299316707 0.01960683664335755
-0.03661149708528274 0.02578246173361715 0.01699360233534599
-0.03735444904516863 0.024310865723827606 0.0031459568289657625
-0.037215598267428165 0.024436052783610756 -6.459211656409565e-05
-0.03702757613468714 0.025077951345005282 0.013868077892696038
-0.0372775797295971 0.024948829642827894 0.023374593731692386
-0.03914451446114488 0.02060549331322868 -0.018768166165472826
-0.03882205855039866 0.02140893350736705 -0.012448211266653032
-0.039071068502273536 0.021444920823977292 0.0031183969084461597
-0.03879285929166208 0.022305229340530617 0.013776596141576981
-0.038162537936275234 0.022716659275111184 -0.009974159865375552
-0.03937205679710836 0.0202947292729736 -0.015247903455401467
-0.038357643177253556 0.022927196704369428 0.00790237460250205
-0.036598381332738315 0.02596063203327081 0.027046324800051355
-0.039898396783049545 0.018106148949479664 -0.027990124657028
-0.04135615000253415 0.015533601832450951 -0.02012854248796854
-0.04120918754366537 0.016969876078199574 0.0003355960085143321
-0.041628283737155485 0.015190413098460642 -0.010914536115642498
-0.04108928261545269 0.016523701781873686 -0.015873099114895102
-0.04106015860022465 0.01699374382257723 -0.008046997301068688
-0.04153557828586836 0.016253882257358836 0.005196526533520041
-0.04167791129535529 0.015457752973933415 -0.002524616475973249
-0.04125757066274359 0.01549115563481784 -0.026857736278208366
-0.04063807823386961 0.017774396386015287 -0.012414987166999854
-0.0410512546262369 0.017757134003969704 0.011697892933891377
-0.040328328735294725 0.018771356824187586 -0.003515909758343408
-0.040400752816660855 0.017933587908736115 -0.02217297540017569
-0.037303126766415895 0.02350712081290168 -0.026301796899060672
-0.039016775892169585 0.020549566428160415 -0.024688857468676786
-0.03614080136140552 0.01811263542316961 -0.014657163587585332
-0.038122670716745626 0.014934096218589158 0.0020181910542066807
-0.03650371189300462 0.01771247222501747 -0.0038267875760133446
-0.034741627180638876 0.020699251226296303 -0.011780101393885446
-0.039572183836303045 0.012750021353371534 0.02022912432629865
-0.03839556095280344 0.014517558847883182 0.005217622111132898
-0.036480682179366 0.01790928165948754 0.0028155319921576447
-0.035446652106416315 0.01930230172635914 -0.01723159613450615
-0.03669359130459923 0.017221906428399908 -0.010183880882608328
-0.03673806802146336 0.01721518976141905 -0.007046750475911093
-0.03932608903969463 0.013082361891087699 0.01549252625842799
-0.03800160631396313 0.015419434334208603 0.013449924480679018
