0.00340963411648 -0.0272145930678 0.00182031932367
-0.00199859847647 -0.0297217439983 0.000995280526593
0.000226325209032 -0.0295515911855 0.00115065034789
-0.00331501254115 -0.0299650397055 -0.00124628140541
-0.00952800604595 -0.0226169992238 -0.000360459830182
-0.0165350589986 -0.0247974585291 -0.00419845936761
-0.0151955081184 -0.0227309047868 -0.00727700096495
-0.00559723560708 -0.0226470870446 -0.0038262389522
-4.68112049907e-05 -0.0226480457236 -0.00422603131901
-0.0071443135899 -0.0226170483455 -0.0012396884852
-0.0121055139406 -0.0226838946563 -0.00651098848442
-0.00342571259517 -0.022675952387 -0.00635125137895
-0.00474309127899 -0.0226972968372 -0.00804979500582
-0.00668764625536 -0.0226717903144 -0.005817114334
0.00114845642035 -0.0226185307399 -0.00184117091959
-0.011143621226 -0.022734796476 -0.0107982914855
-0.0140849497336 -0.0226708855912 -0.00531529898238
-0.00762426037595 -0.0226963429532 -0.00780433606658
-0.00158310521844 -0.022628848116 -0.00254139996527
-0.00576499989256 -0.0170937966298 0.0010956102556
-0.00576499989256 -0.0112028861075 -0.0022071431721
-0.00576499989256 -0.0149548603286 4.65482629128e-05
-0.00576499989256 -0.0170802982706 -0.00199636156392
-0.00576499989256 -0.0141091548569 -0.00433191125286
-0.00576499989256 -0.0127819417699 -0.000907160397543
-0.00576499989256 -0.010529450859 -0.00452623789006
-0.00694515474525 -0.0135631674487 -0.00687218931703
-0.00727343995988 -0.00733011698126 -0.00536724883894
-0.00578711881358 -0.0133836105412 0.00208935360696
-0.0057997287846 -0.0146051510205 0.00420790691233
-0.00580027864171 -0.00956836782159 8.74679476406e-05
-0.00583308850914 -0.0107022157042 0.00390760192807
-0.00583760878319 -0.00882434328054 0.00275038252636
-0.00806520923787 -0.00883560935207 0.000181327245677
-0.00774921475586 -0.0078630328025 0.00298543647045
-0.00767680427155 -0.00764016581275 -0.00182874817501
-0.00822537784042 -0.00950344785508 0.00490074883013
-0.00599200811307 -0.00689595793254 -0.00313128993966
-0.00871750333388 -0.0119936363391 0.00457967665331
-0.008400750823 -0.010464173511 0.00223715619079
-0.00826160483647 -0.0150642965748 0.000328195728916
-0.00797444463863 -0.0163635109008 -0.00214980557808
-0.0076670867983 -0.00901573957578 -0.00359694485429
-0.00747189615234 -0.01173963152 -0.00553518189225
-0.0078688027545 -0.010393418524 -0.00217213963858
-0.00755482941654 -0.0159835762398 -0.00545657631364
-0.00853337865518 -0.013977959838 0.00265366451238
-0.00752654727749 -0.0182369528711 -0.005993759972
-0.00834655390758 -0.012526256855 0.00135827777793
-0.00797070594346 -0.0131146496906 -0.00173166759457
-0.0082668568406 -0.016244973134 0.003487650869
-0.0079271639784 -0.0173075094552 0.00084029912014
-0.00583911146873 -0.0183082039261 -0.0076965583634
0.00811081465279 -0.0198744258962 0.0010921999872
0.00559675401648 -0.0194678169922 0.00635799998417
0.00851781289719 -0.0175976104499 -0.00535606837929
0.00692191739624 -0.0207022657561 -0.000483265347032
0.00709299748369 -0.0205277756398 -0.00378496655689
0.00781574832249 -0.0195503840406 0.0059190757959
0.0050180000253 -0.0212569494608 0.000660356034753
0.00572724100135 -0.021372500807 0.00488093734508
0.0050180000253 -0.0197529852382 -0.00343008992518
0.00686142995576 -0.0168643220197 -0.00152191724807
0.00635323364735 -0.0170272646542 0.00481020413707
0.00759401877619 -0.0161997417947 0.00106031368217
0.00780721079827 -0.0160575566028 -0.00355224939782
0.00782352659838 -0.0160466750269 0.00328984565714
0.00523532374661 -0.0185496188695 0.00134371791754
0.00955894499116 -0.0175224114118 0.00143636340045
0.00843174683337 -0.0193799006519 0.0036937911378
0.00901996271568 -0.0186223282717 -0.00175428877762
0.00948071296521 -0.0177989908655 0.00567124989243
0.0090862220133 -0.0159809999168 -0.00154835850652
0.00999450031668 -0.0154194902551 0.00456487883357
0.00999450031668 -0.0104319828608 -0.00300949399593
0.00999450031668 -0.0157153049518 0.000829048193057
0.00999450031668 -0.0134594136487 0.00263441849846
0.00999450031668 -0.0124899900143 -0.00172792478137
0.00999057098772 -0.00865280713416 -0.00525431259256
0.00992736874055 -0.0148066504459 -0.00527542233286
0.00833550002426 -0.0118667424726 -0.000305146980532
0.00833550002426 -0.0140087767504 0.00128850311761
0.00833550002426 -0.0120039086262 0.00446473560013
0.00833550002426 -0.0108729347605 0.00261435936771
0.00999450031668 -0.0100092929474 0.00135021370974
0.00999450031668 -0.00687873686418 0.00115087227576
0.00999450031668 -0.00732450689687 0.00543432009752
0.00999450031668 -0.00991630327333 0.00485864108166
0.00861673161144 -0.00710297766646 -0.00231160741556
0.00839454025892 -0.0135195171006 -0.00398350459243
0.00847383936748 -0.00790918002499 0.000235237126719
0.00837782206851 -0.0078431813821 0.00260956583019
0.00855207404873 -0.0110722851716 -0.00509126358137
0.00846712336223 -0.00965971507953 -0.00151334671713
-0.00785677667848 0.0152045582953 0.00306507398097
-0.00763292503532 0.0166597969876 0.00150014897439
-0.00761843662038 0.0167539848243 0.00433494949243
-0.00576449977234 0.0118346975312 -0.00311113186374
-0.00576449977234 0.00430298435715 -0.00157624687337
-0.00576449977234 0.0147547562776 -0.00222247055264
-0.00576449977234 0.00986128877322 -0.00480364101651
-0.00576449977234 0.0139361677819 -0.00465168950011
-0.00576449977234 0.00960341396087 -0.0022710622259
-0.00576449977234 0.0153164357802 -5.13112565999e-05
-0.00576449977234 0.00906687468775 0.00184013378931
-0.00576449977234 0.0175732799084 0.00272372997509
-0.00576449977234 0.0116128701977 -0.000752158093568
-0.00576449977234 0.0050803843219 -0.00360754774126
-0.00576449977234 -0.00248713889709 -0.00435914319634
-0.00576449977234 0.00584945448991 -0.000119640651253
-0.00576449977234 0.00143965077078 -0.00306197845484
-0.00576449977234 0.0113676679169 0.00217222801243
-0.00576449977234 0.0136272096705 0.00359526326041
-0.00576449977234 0.00246101672979 -0.00518049256151
-0.00576449977234 0.0173666324258 0.00566584753095
-0.00576449977234 0.013308635654 0.000823767162064
-0.00576449977234 0.00770401845003 -0.00372630576017
-0.00576449977234 0.00944816104101 0.00451939756752
-0.00576449977234 -0.000675488647704 -0.00148389027855
-0.00576449977234 -0.00230769467643 0.000362883062629
-0.00576449977234 -0.00384005323821 0.00262135543548
-0.00576449977234 0.00423464534988 0.00160154319412
-0.00576449977234 0.00709056434115 0.00531993899836
-0.00576449977234 -0.00253469134051 0.00461571390152
-0.00576449977234 0.00249426310109 0.0048885565214
-0.00576449977234 -0.00368228738935 -0.0024913939861
-0.00576449977234 0.00187876111534 -0.000839435477927
-0.00576449977234 -0.0052379102064 -0.000254189730846
-0.00576449977234 0.00185865066137 0.00298984103757
-0.00576449977234 -0.00526035812399 0.00609831117337
-0.00576449977234 0.00500511573161 0.00399811429278
-0.00576449977234 -0.000783343597977 0.00313095518051
-0.00576449977234 0.00635396329984 0.00242224652469
-0.00743256111988 0.0104210712672 0.00635799998417
-0.00740537940329 0.00807128337005 0.00635799998417
-0.00605980841306 0.0126148104046 0.00635799998417
-0.00688532183555 0.016353887812 -0.00525399995968
-0.00592336171955 -0.00438505605869 -0.00525399995968
-0.00605520523002 -0.000584429954224 -0.00525399995968
-0.00790085707014 -0.00630520763977 0.00457688740545
-0.00616562720498 -0.00675468800172 0.0020740737993
-0.00744338465277 0.00368295621848 0.00634325410722
-0.00825024411563 0.00864540528167 -0.00342344761202
-0.00824867391972 0.00775572856459 -0.00144463916115
-0.00823438919561 -0.00282347984679 0.00497360100193
-0.00825213506185 0.0120552321297 0.00509203579933
-0.00824214286937 0.00297494188474 0.00175119468735
-0.00824477336692 0.00586611487448 0.00496445369421
-0.00824848173446 0.00882145935074 0.00427206209689
-0.00825211526655 0.0112300132774 0.00132320382686
-0.00806981381248 -0.00143182367167 -0.00460589820896
-0.00707177907828 0.0116634745273 -0.00525399995968
-0.00765697035131 0.0140083663116 -0.00525399995968
-0.00730296590516 0.00796166377452 -0.00525399995968
-0.00808748710807 0.0132016302425 0.00170324712888
-0.00804641414806 0.0128508899867 -0.00175084705807
-0.00789879099278 0.0146026644738 -0.000125742705399
-0.00763051319055 0.0166740406465 -0.00235575402513
-0.0082205071633 -0.0042895193026 -0.00148996639224
-0.00821557990919 -0.00435313049885 -0.00398752410196
-0.00823815340234 0.000170480173291 0.00142188712892
-0.00823204462164 0.00121714142928 -0.00327895537321
-0.00822723633778 -0.00495981837634 0.00300027533454
-0.00824021042116 0.00534614558538 -0.00487525423295
-0.00824530760915 0.00531637576368 -0.00215532181756
0.00747994298192 0.00150500122122 0.0102138155375
0.00154398454867 -0.00271802763084 0.00957106933636
0.00303109120541 -0.00096410210553 0.0113549525044
0.00590915437993 -0.00336515429917 0.0117495004088
0.00258004811591 -0.00424198275696 0.010555718199
0.0047463893479 -0.00574331133161 0.0104371174688
0.0063720565277 -0.00666597870005 0.00972729295792
0.00826822750184 -0.00361959174304 0.0113281074757
0.00529113188698 -0.00663807388383 0.00719254806597
0.00222432236853 -0.00329963767296 0.00706721115668
0.00736593218591 -0.00381939401722 0.00772868744539
0.00764428802043 -0.00653103837774 0.00751716936863
0.00536678794101 -0.00399850671358 0.00737469825449
0.00814591295455 0.000762273773587 0.00829678896195
0.00751299493091 -0.00144121633221 0.0079801213971
0.00509166213094 -0.00100167495499 0.0076795799044
0.00353567604409 0.00149296806284 0.00782084827715
0.00737912851135 -0.00136247659665 0.0115655839896
0.00562376455437 9.09870268882e-05 0.0117495004088
0.0027302697419 0.00121873251094 0.0103774943957
0.00128550000954 0.0149797627894 0.00916251860623
0.00350268149733 0.0062754763325 0.0117495004088
0.0057481770533 0.00683434133545 0.0117495004088
0.00638421744324 0.013483845119 0.0075795304321
0.0078288801627 0.0114278944736 0.00809916231929
0.00704207697158 0.00732381684662 0.00790529196091
0.00558153946471 0.0158017523471 0.00727075510675
0.00140663581715 0.0105484956528 0.00962336413593
0.00172000066818 0.00473650107101 0.00983605986556
0.00141986351579 0.0129727793798 0.00970067775733
0.00279890373428 0.00863584543424 0.0111803926797
0.00333975229232 0.00358404256309 0.0107538541407
0.0058130029396 0.0037859312623 0.0116188676729
0.00804974288258 0.00502775159549 0.0117495004088
0.00609512462134 0.0101461560179 0.0117495004088
0.00627866177677 0.0151437682858 0.0116676557431
0.00683921328229 0.0131048789593 0.0116627583023
0.00772407882291 0.00778710589256 0.0117390625713
0.0054864838987 0.00486904915506 0.00781430722206
0.00316741798376 0.00367776993001 0.00784291421242
0.00618194998849 0.00253727782575 0.00819774360471
0.00251977993286 0.013422249939 0.00696210560371
0.00277379950044 0.00968716013629 0.00712013936273
0.00207278218794 0.0154883384791 0.00687655728815
0.00525391934533 0.011232147201 0.00734832862146
0.00413904342116 0.00746467067348 0.00741451949054
0.00609138980827 0.00946591371216 0.00759283162797
0.00833550002426 0.00908113492178 0.00990734900382
0.00833550002426 0.0121467243652 0.0102947301924
0.00832303510183 0.00379265120254 0.00853181924101
0.00826225616405 0.0162474940719 0.010884446746
0.00549481693964 0.0170434433679 0.0109017648498
0.00296385701984 0.013452314934 0.0111570407654
0.00417541005966 0.0117911253289 0.0117495004088
0.00336664787109 0.0156919835043 0.0112517094513
0.00198346876009 0.0170997548816 0.0102546518218
0.00473580587012 0.00199383594205 0.00965061097627
0.00833550002426 0.0160255339034 0.00242204396286
0.00833550002426 0.0144575676953 0.00527794598263
0.00833550002426 0.00660332657163 0.00551847167973
0.00833550002426 0.0163328069165 -0.00233735672809
0.00833550002426 0.0101407836357 0.00463565115998
0.00833550002426 0.00916768796782 0.00751980401265
0.00833550002426 0.0144427988217 0.0073566940513
0.00833550002426 0.0123900908964 0.000413187310636
0.00833550002426 0.015153604808 1.85453771158e-05
0.00833550002426 0.0140775596379 0.00227159668082
0.00948780159946 0.000136970008601 0.0101806236386
0.00997654675899 -0.00354812830553 0.00969050287462
0.00974143309824 0.0106844410834 0.00992627827778
0.0093044292093 0.00315704727694 0.0103645121421
0.00909424079117 0.0172458597486 -0.00526600229655
0.0091829977338 -0.00421462862526 -0.00562435970343
0.00892111826314 -0.00119376997452 -0.00554616184256
0.00999629039046 0.00719462489185 0.00965240788684
0.0101079588189 0.00538349108879 0.00864833403908
0.0103191839502 0.0073685262805 0.00674908970221
0.0101549703197 0.00126201660139 0.00822562710968
0.010402202603 0.00439717342683 -0.00110269315458
0.010389587034 0.00732182048929 0.00377858050673
0.0103043642409 0.00994320378425 0.00246452219004
0.0102136164353 0.0109765721449 -0.00245244088508
0.0102872753969 0.00904559899451 -0.000646912391347
0.0100975694905 0.0151448412565 -0.00304364817671
0.0102775131843 0.00819800402638 -0.00309435385741
0.0101367320116 0.0128368185048 -0.00464775527697
0.0102499962279 0.0110774002186 0.000549429145285
0.0101710743077 0.0132721153722 -0.00113343001014
0.00982675262537 0.00760470082673 -0.00533687627203
0.0101371420186 0.0105616368667 -0.00511020320499
0.00994195232299 -0.00653029141008 0.0097182389986
0.00833550002426 -0.000553214198462 0.00371362517717
0.00833550002426 0.00628148226706 -0.0033480741369
0.00833550002426 0.00750473290213 -0.000365999412252
0.00833550002426 0.00208031905825 -0.00263165322609
0.00833550002426 -0.00399842247359 -0.00347697143499
0.00833550002426 0.00881580655168 0.00198763310684
0.00833550002426 -0.002540711678 0.0025446819984
0.00833550002426 -0.00275096652166 -0.00121719316989
0.00833550002426 0.00418825650757 -0.00219110336688
0.00833550002426 0.00906099026647 -0.0025468406358
0.00833550002426 0.00138001427005 -0.0050358635099
0.00833550002426 0.00404598339361 0.000421059731215
0.00833550002426 -0.0053296367538 -0.00112764210517
0.00833550002426 0.00243602558954 0.00638364449308
0.00833550002426 0.00613400917072 0.00213330189244
0.00833550002426 0.00421287455183 0.00549301058625
0.00833550002426 -0.000366016326272 -0.00246426699493
0.00833550002426 0.00420100850942 -0.00424584339338
0.00833550002426 0.0100032958093 -0.000364918580649
0.00833550002426 0.0151128777926 -0.00521391977037
0.00833550002426 -0.000355251305875 0.00110051102146
0.00833550002426 0.0115997652992 -0.00418884689403
0.00833550002426 -0.000216421679729 0.00592074700192
0.00833550002426 0.0136960023025 -0.0030870477315
0.00833550002426 0.00373064359298 0.00292885725635
0.00836246525814 -0.00561944000248 0.00475151021064
0.00837675017835 -0.00509463926231 0.00958584509617
0.0083435254411 -0.00543253083825 0.0014712413698
0.0102603700493 -0.0040787575379 0.00727791867017
0.0101998235985 -0.00120084873921 0.00782232597187
0.0104090003297 0.00383318983723 0.00143730984244
0.0104090003297 0.00283208504061 -0.00291936596333
0.0104090003297 0.00162945716244 0.0022883490323
0.0104090003297 -0.000303521484682 0.00138081150124
0.0100335793378 -0.0061974194136 -0.00479403874194
0.0102820297645 -0.0033346109029 0.000653650058541
0.0102470110142 -0.00247293884583 -0.0026435005196
0.0101352482788 -0.00480053110476 -0.00301537442202
0.0103159638276 -0.00396110411083 0.00501197211598
0.0101004225501 -0.00590045562359 0.00377329502217
0.00998602387137 0.0180245004594 0.0049308497958
0.0102980787098 0.0103730844107 0.00685545399746
0.0102257013031 0.0122356034988 0.00248785722294
0.0102750813412 0.0110018763201 0.0045954471247
0.0100916962781 0.0155836292955 0.000996542457368
0.0101667266672 0.0137090452756 0.00490149799876
0.0101978678136 0.0129310045919 0.00749332523094
0.0100779613701 0.0159267867702 0.00743766339474
0.0095053256477 0.0143430621762 0.0100557431312
0.00835653569946 0.0176586901309 0.000542029135787
0.00837426371043 0.0166106102995 0.00854807914882
-0.0635085937238 -0.0174305325049 0.00329937122227
-0.0638714281582 -0.0181676463986 0.000738006387333
-0.0633042630441 -0.0181487024895 0.00599138840336
-0.066852159564 -0.0183961533422 0.00951113210341
-0.0634012244831 -0.018061545852 0.00810232796796
-0.0696289986372 -0.0165439850827 0.00655450887814
-0.0693489214491 -0.0159721718224 -6.57537013965e-05
-0.0661194406421 -0.0158646218915 0.00685185083495
-0.0665996408724 -0.0158806137814 8.96576463423e-05
-0.0650363662725 -0.0170139557343 -0.000893116376785
-0.0646114618144 -0.0159076412316 0.0019476094637
-0.0660907143347 -0.0170379289821 -0.00315497667647
-0.0671277245901 -0.0167682414406 -0.00486373910884
-0.0652953757239 -0.0188669362078 -0.00469809532965
-0.0694042412086 -0.0172149940893 -0.00326730007111
-0.0677771830723 -0.01994242045 -0.00273178882239
-0.0687394429608 -0.0187576768854 0.00347403303471
-0.068409509193 -0.0193385094282 0.00622871412635
-0.0692233133595 -0.0176250923516 0.00951270889617
-0.0689767349421 -0.0184018409635 -0.00072945865318
-0.069407702368 -0.0174690866703 0.00192066450423
-0.0647784657872 -0.0200148599849 0.000800827340599
-0.0645619064355 -0.0198684312973 -0.00147523250115
-0.0648577375835 -0.0201290007681 0.0034238010332
-0.067051593121 -0.0201290007681 0.00441056539997
-0.0639687084663 -0.0201179245597 0.00769490235571
-0.0640245282375 -0.0111542580781 0.00155504017841
-0.0658708266393 -0.0159814991057 0.00435896868896
-0.0677904608827 -0.0159814991057 -0.00186787744593
-0.0676756542391 -0.0103018119672 -0.00447697391213
-0.0634099990129 -0.0120896346808 0.00917371664317
-0.0634099990129 -0.0117718103304 0.00415663550041
-0.0692141543773 -0.0159814991057 0.00369927350925
-0.0699081400297 -0.0134561892806 0.0072797954614
-0.069891713256 -0.0144739902878 0.00488543372701
-0.070044003427 -0.0119801245493 0.00414449044659
-0.070044003427 -0.0133906807507 0.00190164083999
-0.070044003427 -0.0120046979501 -0.00274440974304
-0.070044003427 -0.0156094497216 -0.00454899287954
-0.070044003427 -0.0125097402031 -0.00058155810655
-0.070044003427 -0.0113683898518 0.00193478344399
-0.070044003427 -0.0148800007901 -0.002543497551
-0.0699496183365 -0.0103408160471 -0.00523888065725
-0.0697988424077 -0.0127726875335 -0.00511391644538
-0.0665592206107 -0.0101531235634 0.0117495004088
-0.0695269280023 -0.0143321313834 0.00995752172074
-0.0688526339697 -0.0117630768529 0.0110032330866
-0.0695702001544 -0.0103266094613 0.00638611161618
-0.0635157022046 -0.0146020114239 0.00934044776963
-0.0679946155962 -0.0159758965279 0.00861425124258
-0.0639125396887 -0.0159803981056 0.00550789532412
-0.0668033751163 -0.0120580385272 -0.00324982893836
-0.0679631942038 -0.00976100005209 -0.00168136874859
-0.0669030441331 -0.00976100005209 0.00086903079066
-0.0685617351799 -0.00976100005209 0.00279450600208
-0.0644245805038 -0.0109542572444 0.0117495004088
-0.0639991286165 -0.0129659560603 0.0108819442752
-0.0663714434945 -0.014787596815 0.0102436612581
-0.0664025650279 -0.00976100005209 0.00613313984103
-0.0663527497769 -0.00976100005209 0.00352794550787
-0.064248005513 -0.0137409698699 0.00176808138813
-0.065135789173 -0.0129747453855 -0.000106925608233
-0.0665443854863 -0.0139936816996 -0.0024073387858
-0.0655499342201 -0.0100455983538 -0.00157126085459
-0.0542855001986 -0.0144364459152 -0.00122354910334
-0.0542855001986 -0.0176282164063 -0.00370370767371
-0.0542855001986 -0.0173957753864 -0.00162962175306
-0.0542855001986 -0.0198495424614 0.000875782169873
-0.0542855001986 -0.0129175303926 -0.0049723359917
-0.0542855001986 -0.0155065091807 -0.00514553129594
-0.0542855001986 -0.0112910627702 -0.000540843315015
-0.0542855001986 -0.0126307675293 -0.00291003032311
-0.054047176053 -0.0171881579773 -0.00754397473108
-0.0537157184031 -0.0104125171967 -0.00535106140669
-0.0525358481667 -0.0186478340258 -0.00755615953978
-0.0525707449178 -0.015095089264 -0.00646116331882
-0.0524417348153 -0.0166458826296 -0.000284774911347
-0.0524800912083 -0.0129139447337 6.02006790933e-05
-0.0524269091893 -0.0188318984784 -0.000418115892693
-0.0526037692623 -0.0150999988308 0.00117255526802
-0.0523571617611 -0.0148837046691 -0.00280979756404
-0.0525543477606 -0.0111402691618 -0.00258957830505
-0.0522746840447 -0.017578780863 -0.00526817130871
-0.055434595665 -0.0201290007681 0.00880994350882
-0.0565545447975 -0.0126053034207 0.0117495004088
-0.0576035007834 -0.013806404701 0.0099143287148
-0.0554497641666 -0.00976100005209 0.00542699106201
-0.0558219427977 -0.00976100005209 0.00906891037156
-0.0575898797611 -0.0162318140214 0.00830775547418
-0.0566492506507 -0.0170190578436 0.0049739057041
-0.0569131463471 -0.0144059493765 0.00434180534237
-0.0554292101553 -0.0140533366694 0.00246353561767
-0.0567599429312 -0.0121670641086 0.00498699161713
-0.0556737513693 -0.0110125718155 0.00347082084757
-0.0543718605783 -0.0128216623234 0.0116046836643
-0.0544486108452 -0.0100494272131 0.0116142890231
-0.0530357363251 -0.0157215437477 0.0114374666179
-0.0543967822701 -0.0177906073837 0.0115856261979
-0.0551894902809 -0.0155630423456 0.0116850442762
-0.0546196851133 -0.0199534352347 0.0108923433014
-0.052212998271 -0.0136181301262 0.0102421913346
-0.0556994421844 -0.0191729166 0.00394123357076
-0.0549997929771 -0.0178798823952 0.00185576440324
-0.0536324534379 -0.0201290007681 0.00397494552287
-0.0545615446298 -0.0123901648108 0.00151935494244
-0.0567802013221 -0.0176875403252 0.0117495004088
-0.0576035007834 -0.0157729578405 0.0107831284639
-0.0576035007834 -0.0181131224938 0.00962221261295
-0.052212998271 -0.0115077937211 0.00889363136146
-0.0524401878697 -0.0179128370555 0.00571742155045
-0.0525829071992 -0.0158653388467 0.00427378032864
-0.0524489046208 -0.0141606022338 0.00562924946325
-0.0524584970041 -0.0120614897833 0.0055632802957
-0.0527857215541 -0.01307173785 0.00233269391773
-0.0527784646285 -0.017217110319 0.00232737039853
-0.0525948423958 -0.00976100005209 0.00707251707824
-0.0677307091374 -0.000713754211394 5.6150272754e-05
-0.0682609155548 -0.00290506684287 -4.83799534334e-05
-0.0699652964966 -0.00870411937543 -0.00272354665573
-0.0702893083533 -0.00110530931396 -0.000696116543824
-0.0701172357069 -0.00696294991139 -0.00366448249111
-0.0701687639225 -0.00494716566657 -0.00250392672855
-0.0690427605372 -0.000668025705672 -0.00981550011784
-0.0699479593349 -0.00463529861398 -0.0081508057163
-0.0704594999552 0.00310365377031 -0.00338082626493
-0.0704594999552 0.00222751137477 -0.00519679259688
-0.0704594999552 0.00438177820377 -0.00605026366373
-0.0704594999552 0.00242655260193 -0.000975591864906
-0.0703491588932 -0.00244205613207 -0.00545890623181
-0.0702665100857 -0.00464393413375 -0.00595713356901
-0.0702956184301 -0.0029141930375 -0.00334120492909
-0.0701574987409 -0.00739012577794 -0.00621015126937
-0.0704229494249 0.000547319239848 -0.00239654650949
-0.0680719174828 -0.00705357156463 -0.00651608270238
-0.066177431142 -0.00151753132661 -0.00646990344502
-0.0665587050978 0.000839667163945 -0.00728633948017
-0.0673539296463 -0.00242996084896 -0.00855759997051
-0.0674389772293 -0.00448831091875 -0.00756357401942
-0.0700762846114 0.00591590829009 -0.00018416502954
-0.070320984866 0.00628548630115 -0.00707530630368
-0.0701039557764 0.00673542220047 -0.00277460322739
-0.0701954848733 0.00672717702043 -0.00505213190201
-0.0660917797399 0.000251071028505 -0.00518368368424
-0.0669117574039 0.00373173113456 -0.00744025931209
-0.0680051215508 0.00687711042694 -0.0033362754841
-0.0662402594803 -0.00036947742544 -0.00204236743592
-0.0657698651188 -0.00308590826083 -0.00177262612748
-0.066183795688 -0.00406235363823 -7.29346249284e-05
-0.0673936182092 0.00180493339415 -0.000122778418801
-0.0675715957686 0.00497327965721 -0.00270268185134
-0.0668790062149 0.00365318586432 -0.00511592366088
-0.0667618805364 0.00234714843397 -0.00346480383593
-0.0681788644125 0.00639193614098 -0.00108344850906
-0.0655374140595 -0.00244885953728 -0.00407653944196
-0.0681232091354 0.00420396126191 -0.0093769119789
-0.068706975253 0.0078089983543 -0.00822164978868
-0.0704233254455 0.00610716614321 -0.00972695663992
-0.0653530014359 -0.00739406400982 -0.00188533928138
-0.0664505865582 -0.00857848187802 -0.00401720617374
-0.0658403085021 -0.00463723616069 -0.00475341205333
-0.0678311110513 0.0156218385956 4.26507714632e-05
-0.0699483801328 0.0140169287033 -0.00611978499648
-0.069959614168 0.0126356829379 -0.00201465915506
-0.0699960133569 0.0147684215249 -0.0034127994341
-0.0699288441868 0.0158013797668 -0.00110643077588
-0.0700268303072 0.00843105321642 -0.00663450080068
-0.0700060274542 0.0106484016969 -0.00484088902868
-0.0689151243227 0.0114247642565 -0.0068271780638
-0.0679197417698 0.00999457210911 -0.00269703094639
-0.0670452007585 0.0126832485527 -0.000589775498823
-0.0678331731472 0.0098929691023 -0.00480839610708
-0.0681431633337 0.0138551064537 -0.00495917903678
-0.0666205459786 0.0150826502906 -0.00149049083486
-0.0670996286748 0.0133097322098 -0.00298364339251
-0.0677737731801 0.0132726786977 0.0117495004088
-0.0699237790423 0.0161278781896 0.00193682358954
-0.0699635976811 0.0145154620499 0.00421310677155
-0.0699484741279 0.0125175702943 0.00298173447239
-0.0699933977721 0.0122863572375 0.0060388525088
-0.0700331807226 0.0155566861815 0.00886943879666
-0.0700244394223 0.0102726256493 0.00824748882806
-0.0699942946635 0.00989825852273 0.00610266699409
-0.0679923285608 0.0171781187741 0.0040650803955
-0.0668749402473 0.0171870035304 0.00197683916773
-0.0631512807137 0.0125983745622 0.00810277670215
-0.0648420375179 0.0169983826129 0.008277809087
-0.0668128330382 0.0171201047487 0.00625070320913
-0.0695082949601 0.0121079416499 0.0103452979508
-0.064911493244 0.0139250526732 0.0117495004088
-0.0695498732555 0.0120227956748 0.000312383325919
-0.0697850345671 0.00941530665938 0.00236641843563
-0.0667902193088 0.00931550003588 0.00265339408353
-0.0666270474775 0.00931550003588 0.00521603446763
-0.0650360454409 0.00931550003588 0.00690359537415
-0.0631028176413 0.0104503301681 0.00742702429172
-0.0639316768438 0.0116081634678 0.0110454975598
-0.0646326298203 0.00987725378318 0.0098208090673
-0.0634000184773 0.0152824593137 0.0109307847738
-0.0685365165397 0.0168714035704 0.010327151114
-0.066426323788 0.0163832358097 0.0112681949304
-0.0632511178241 0.0144630670792 0.00469665265506
-0.0645474510543 0.0151018315969 0.00230967938014
-0.0631679681269 0.0148759072728 0.00668998508481
-0.064674546882 0.0102233922478 0.00371509646229
-0.0663319252733 0.011276427287 0.00144414387745
-0.065906352005 0.0138893947586 0.000697018191024
-0.0680731738905 0.00967805552292 0.000306092977266
-0.0657131468689 0.0167508138075 0.000428774587857
-0.0644634324099 0.0129920774456 0.00268993496421
-0.0632725036067 0.0122569083969 0.00436695076119
-0.0676432515915 0.0109034554982 0.011262573306
-0.0581128717577 0.000331715395297 0.00795227695718
-0.0607692984726 -0.00585131803115 0.00535405747738
-0.0576035007834 -0.000238312340853 0.0103131188061
-0.0576035007834 -0.00634227368022 0.00889598920404
-0.0576035007834 -0.00324054155839 0.0100210425722
-0.0608176660885 -0.00975999981165 0.00761887991207
-0.0629940032959 -0.00218002766368 0.00922803784809
-0.0629940032959 0.000489139236804 0.00912131602089
-0.0629940032959 -0.00684917606664 0.00910490604739
-0.0615639957668 8.68508623373e-05 0.0108186261009
-0.0593198819768 -0.000195228659196 0.0115440902717
-0.0591974004846 -0.00330600717752 0.0117485001683
-0.0617102753779 -0.00443412110655 0.0107446421293
-0.0612588918024 -0.0019339929537 0.0111207490473
-0.0629940032959 -0.00219944025861 0.0054471354273
-0.0629940032959 0.00126792670242 0.00632649058919
-0.0613283494637 -0.000701835142724 0.00644204655337
-0.0608748163004 -0.00342737843643 0.0059051855037
-0.0597841729172 -0.00611415986635 0.0117485001683
-0.0611852761333 -0.00860454114764 0.011182087926
-0.0589168456762 -0.00778498852099 0.0069719429039
-0.0603350294077 -0.00817695825351 0.00539641569229
-0.0583910479196 -0.0037134051031 0.00755607643674
-0.0608244476891 0.0131471558918 0.00589146933702
-0.0576035007834 0.0162040898548 0.0116308873479
-0.0596900939032 0.0166872315744 0.0109402143715
-0.0629940032959 0.0155993453064 0.00885251399842
-0.0629940032959 0.00245691003436 0.00839719168212
-0.0602825905291 0.0171934999526 0.00888824040212
-0.0576035007834 0.00665719411591 0.0106823825532
-0.0576035007834 0.0121431872321 0.0117019497487
-0.059989756043 0.00182711816992 0.00976251488626
-0.0627586511519 0.0135466757445 0.00987105533376
-0.0622356597696 0.00807297609539 0.0103067230101
-0.0590681326284 0.0140374373024 0.0117480000481
-0.0595975949504 0.00887326665302 0.0117480000481
-0.0597797242347 0.00347385797326 0.0116851868874
-0.0601514835253 0.00616272931001 0.0115775247457
-0.0609051905117 0.0128285367827 0.0114110847188
-0.0612039816843 0.00997395945429 0.0111104627842
-0.0576035007834 0.00398917929612 0.00854236478139
-0.0622354768061 0.00543571062346 0.00612819444875
-0.0615318849371 0.0158796207066 0.00556417050882
-0.0606776884569 0.00160004380882 0.00717990435318
-0.0610251666193 0.0098566139519 0.0059218753136
-0.0591684092265 0.00481770602277 0.00734708063866
-0.060855453863 0.00730992768543 0.00633490388558
-0.0613438200964 0.003633812793 0.00663796276119
-0.0581570370631 0.0110795461826 0.00787813076345
-0.0590117888768 0.0141704632861 0.00720492300591
-0.0595387218963 0.0163052538127 0.00685484977538
-0.0589903518919 0.00782007279125 0.00722010860912
-0.0423549554018 -0.00644350005314 -0.000658043068654
-0.0452501365083 -0.00644350005314 -0.00260719577539
-0.0456715135788 -0.00644350005314 -0.00518458025276
-0.046642331944 -0.00644350005314 -0.000956391891285
-0.0439210347989 -0.00644350005314 0.0006077570572
-0.0512432126096 -0.00644350005314 -0.00514035108488
-0.0487641012626 -0.00644350005314 0.00323506250507
-0.0478187919908 -0.00644350005314 -0.00429118942364
-0.0404444422129 -0.00644350005314 -0.00492242893148
-0.0350932206016 -0.00644350005314 -0.00281933344945
-0.0408967208842 -0.00644350005314 -0.00232061741566
-0.0494954151981 -0.00644350005314 0.000235811650087
-0.0513835829191 -0.00644350005314 -0.00275133041649
-0.0371612451007 -0.00644350005314 -0.00221829869129
-0.0428159233039 -0.00644350005314 -0.00503269197853
-0.0408256066334 -0.00644350005314 0.00236041490647
-0.0360793554346 -0.00644350005314 0.00167501047719
-0.0304753254833 -0.00644350005314 -0.00369334925084
-0.0309056956421 -0.00644350005314 0.003675056087
-0.0326579601025 -0.00644350005314 0.00205018634499
-0.0438516301647 -0.00644350005314 0.0038052702894
-0.0337159755733 -0.00644350005314 -0.00077107983186
-0.0309689323578 -0.00644350005314 -0.00121356302536
-0.0388610298427 -0.00644350005314 0.00401234687874
-0.0388664631314 -0.00644350005314 0.00133158960022
-0.0457575051022 -0.00644350005314 0.00241884162438
-0.0344634369094 -0.00644350005314 0.00380730440751
-0.0473839445567 -0.00589044997122 0.00511399982497
-0.0357036648682 -0.00395500008017 0.00231613787517
-0.0309899071477 -0.00395500008017 0.00332270182534
-0.0384840548743 -0.00395500008017 0.000280902901197
-0.0452568154817 -0.00395500008017 0.00382449634736
-0.0333443475943 -0.00529638650847 0.00511399982497
-0.0381117408832 -0.00642272331177 -0.00525399995968
-0.03206296017 -0.00638755733569 -0.00525399995968
-0.0347367830003 -0.00640858346015 -0.00525399995968
-0.0319896799043 -0.00419164851864 -0.00223412475395
-0.0465764691681 -0.00437196297453 -0.00458774052788
-0.0444051173657 -0.00429020993238 -0.00409254870966
-0.0344905449695 -0.00414607658975 -0.00282250899077
-0.0399737646626 -0.00436492580834 -0.00412662990316
-0.0330411633203 -0.00453863404819 -0.00442567722054
-0.0375140241683 -0.00424943832164 -0.00346673468375
-0.0461668028868 -0.00395500008017 0.00183459576484
-0.050790047913 -0.00395500008017 0.000398332043902
-0.0521448199869 -0.00395500008017 0.00279323485413
-0.0475898668108 -0.00395500008017 0.0033271871255
-0.0480077633451 -0.00415179078872 -0.00246012670064
-0.0499481299419 -0.00412276105353 -0.0018402067913
-0.0463564910834 -0.00398363273644 -0.000586182457608
-0.0516148185753 -0.0044169079034 -0.00357207049058
-0.0491280367231 -0.00446723324238 -0.00493585037739
-0.0447460003197 0.00573008927237 0.0111519228728
-0.034328072588 -0.00748248132033 0.00614423803983
-0.033648033478 -0.0091809836694 0.00768758090681
-0.0313678929145 -0.00727531589944 0.00612053601714
-0.0358902288223 -0.00899463579487 0.00740105681741
-0.0294584563576 -0.000144172326812 0.00670148175793
-0.0295503218493 0.00217792325336 0.00556311414308
-0.0351488183494 -0.00976100005209 0.00974071874477
-0.0427517972504 -0.00976100005209 0.00970259372863
-0.0326986468315 -0.00976100005209 0.0100841965982
-0.0342557978675 -0.00237902359662 0.0117495004088
-0.0347263419726 -0.00469644608204 0.0117495004088
-0.0348249025994 0.0028952904143 0.0117495004088
-0.0370739238495 0.00368330729209 0.0117495004088
-0.033074060943 0.00664857847525 0.0117495004088
-0.0372370068978 -0.000543743798707 0.0117495004088
-0.0319892129354 -0.00499937589576 0.0117495004088
-0.0339302729791 4.22486676486e-05 0.0117495004088
-0.0389154780844 0.00543801539957 0.0117495004088
-0.0348833056298 0.0055850372282 0.0117495004088
-0.0406808118416 0.00303908468092 0.0117495004088
-0.0318333554579 -0.00895410746651 0.0117495004088
-0.0322346718727 0.00411335463818 0.0117495004088
-0.0347390456519 0.00789557283528 0.0117495004088
-0.036879382037 0.00155747643002 0.0117495004088
-0.0332792515768 -0.00722894611726 0.0117495004088
-0.0447460003197 -0.00925460754752 0.00751159866406
-0.0424010548055 0.00495424183877 0.00514037963027
-0.0413974744551 -0.00214470862648 0.00512329327603
-0.0421424340666 8.14517280389e-05 0.00512876567083
-0.0412173323221 0.00691508150046 0.00514471108789
-0.0409886784339 0.00280689453434 0.00513491668801
-0.0381071149309 0.00204134840176 0.00513233744201
-0.0378100075187 0.00438483737812 0.00513781102951
-0.0439396760729 -0.00239153776199 0.00512338372504
-0.0403823402612 -0.00718228805306 0.00576217676131
-0.0361581587637 -0.00688626619875 0.00563077961219
-0.0386607384077 -0.0082383609474 0.00659085387072
-0.043038304513 -0.00815211522007 0.00643236346227
-0.0379059112877 -0.00287010386466 0.0051522365969
-0.0320835177229 -0.00302185055178 0.00520365318101
-0.0365984243859 -0.000545998074304 0.00514984564093
-0.0315603524951 0.00704238723728 0.00514871166859
-0.0342414057941 -0.00184599396319 0.00517798015822
-0.0419022823601 -0.00445429362033 0.00512692364691
-0.0294285593415 -0.00230317249037 0.00754669141783
-0.0294331489164 0.0094648232042 0.00802441806906
-0.0294233051179 0.0074446650835 0.00845088863312
-0.0403654007621 -0.00816806379919 0.0117495004088
-0.0425300069933 0.00128484909018 0.0117495004088
-0.0370229065017 -0.00324004061258 0.0117495004088
-0.0352444116738 -0.00936928598281 0.0117495004088
-0.0426009101268 -0.00631429519036 0.0117495004088
-0.0400075719033 -2.14244360886e-05 0.0117495004088
-0.0377571332414 -0.00860186917283 0.0117495004088
-0.0376162029657 -0.00642456059587 0.0117495004088
-0.0390308498779 -0.00238158863964 0.0117495004088
-0.0387067277917 -0.00465015089324 0.0117495004088
-0.0422709745421 -0.00916615277951 0.0117495004088
-0.0415301909825 -0.00395243083069 0.0117495004088
-0.0424484012114 -0.000808347885369 0.0117495004088
-0.042193596162 0.010106287718 0.00809816291142
-0.0396468071739 0.0101069782126 0.00804310134795
-0.0381114189068 0.0100474221703 0.00569323784561
-0.0437534381856 0.0100625387828 0.00645824740847
-0.0447460003197 -0.00183546978485 0.00927592513091
-0.0447460003197 -0.00687504656104 0.00751686709472
-0.0447460003197 -0.00381954714975 0.00711605098523
-0.0447460003197 0.00145130563523 0.00819681751989
-0.0447460003197 -0.00779894865157 0.00965349654302
-0.0447436734201 -0.00525301090353 0.00532564941744
-0.0446884089451 0.00425717632007 0.00519881951984
-0.0447119699555 0.00624481489277 0.00691445558854
-0.0372728473613 0.0101411656159 0.00950940268468
-0.0359935069104 0.0100996011485 0.00770900458671
-0.0338930659877 0.010110306522 0.00817271638975
-0.0318059287189 0.0100789528043 0.00681460506543
-0.0294045004994 -0.00856246896019 0.00901073114058
-0.0302682787559 -0.00306246033373 0.0105392778518
-0.0308366299159 -0.00703362486974 0.0111076287565
-0.0299820878888 0.00141707377958 0.0102530871132
-0.0368244349251 0.00809464931163 0.0117495004088
-0.041965171624 0.00845460376057 0.0117495004088
-0.038853743669 0.00856902930211 0.0115252615787
-0.031598851305 0.00875556867128 0.0110737553591
-0.0440310673111 0.00767716291018 0.0116133446563
-0.0311048849303 -0.000356798456971 0.0113758836505
-0.0305184332271 0.00439223365564 0.0107894322106
-0.044734939845 0.000199034730727 0.0108076317085
-0.0444963131694 -0.00413188031404 0.0115290189018
-0.0445749468724 0.00265536649108 0.0115051428202
-0.0317329499373 0.0123791273199 0.0115196353718
-0.0370543150559 0.0121159831648 0.00777524169609
-0.0427615870669 0.0129094165709 0.00751065760253
-0.0397310107558 0.0123286765563 0.00770431540564
-0.044266471424 0.0114651056899 0.00799228804852
-0.0388415765132 0.0126971518747 0.0117495004088
-0.0361153376902 0.0117402357861 0.0117495004088
-0.0343189387476 0.0150300441511 0.0117495004088
-0.0385423058554 0.0150811016122 0.0117495004088
-0.0418546383908 0.0153614631435 0.0117495004088
-0.0412286918701 0.0147094034272 0.00711384816452
-0.0391275884704 0.0163217720892 0.00728785681466
-0.0367953660342 0.0141603000063 0.00756241595435
-0.0344003249661 0.0138280272527 0.00784437037043
-0.0304800565748 0.0136658434294 0.00830588103088
-0.0326246950567 0.0121716671466 0.00805340507174
-0.0328540494202 0.0155214904403 0.00802640450106
-0.0370706343966 0.0171949993819 0.00833743749118
-0.0414583280924 0.0171949993819 0.00710654348326
-0.0346050562644 0.0171949993819 0.00817117297876
-0.0414064218108 0.0114124075377 0.0117006450404
-0.0447460003197 0.0129718604637 0.00955653312047
-0.0437129905426 0.0129222222737 0.0116336930833
-0.0444346462978 0.0148671530667 0.0112276560029
-0.0315892218025 0.0101450001821 0.00956483774186
-0.0392205507931 0.0106481044716 0.0105136417985
-0.0339753222445 0.0105263848264 0.0103107431134
-0.0433809333478 0.010276636101 0.00989442832766
-0.0362103634864 0.0163818439061 0.0117086262342
-0.0434479510159 0.0170062021612 0.0101471641886
-0.0309829754123 0.0161332210278 0.0108796011061
-0.0322000127855 0.0144769218011 0.0117495004088
-0.0300780401649 0.0138938003103 0.0103487016419
-0.0685495606882 0.023003025693 -0.00098485283361
-0.0682533048399 0.0233735022155 -0.00462424188656
-0.0688891795972 0.0225783224066 0.00459331615584
-0.070044003427 0.0182172888125 -0.000659918641905
-0.070044003427 0.0174447373901 -0.00468786149863
-0.0688452122546 0.0171949993819 -0.00296853144391
-0.0651873207256 0.0171949993819 0.00505377759658
-0.067026514403 0.0172236917566 0.0083637876182
-0.0677717615005 0.018308415037 -0.00477287318659
-0.0640510700345 0.017562248027 0.00270783625224
-0.0648648876933 0.0203300096261 -0.00205739961921
-0.0650666263646 0.0218404599444 -0.00422899469769
-0.0643652297686 0.0188643420944 0.000587606168886
-0.0663664875928 0.0177606201549 -0.00162794259091
-0.0633733308104 0.0201801027263 0.00315680994996
-0.0634276561348 0.0219177395409 0.00155581924365
-0.0636371067846 0.0227741262817 -0.00151490963582
-0.0633962246537 0.0185358106841 0.00514416174566
-0.0632844738961 0.0221239282876 0.00429440490943
-0.0674591017202 0.0207137877807 0.00962898226949
-0.0657098560623 0.0193490467327 0.00953333033787
-0.0661219093267 0.0229575897393 0.00960395238949
-0.0676052763267 0.0238701381915 0.00656606619043
-0.0642094626879 0.0242912041077 0.00702612001477
-0.0671088423901 0.0242609505627 0.000961478893436
-0.0662366038547 0.0243126928372 -0.0014829213733
-0.0654563826768 0.0243490327241 0.00266313084847
-0.0697158681436 0.0190898360141 0.00956935641271
-0.070044003427 0.0182639642759 0.00473835391691
-0.070044003427 0.0195867790686 0.00277269447309
-0.070044003427 0.0187317411072 0.00718207170755
-0.0660773251774 0.02350078006 -0.0051545002621
-0.0679825600028 0.0207316557712 -0.00525399995968
-0.069515889854 0.0214183012344 -0.00353918594023
-0.0697868681504 0.0207411031452 -0.00112380422512
-0.0694684563691 0.0215368415966 0.00156676073066
-0.0697607736894 0.0208063154495 0.00538059511241
-0.06948642451 0.0214919376657 0.00821978553218
-0.0684518935626 0.0229525823828 0.00899373929438
-0.0560650683157 0.0242484106402 0.00827725158721
-0.0634243164249 0.0206321494919 0.00746973250469
-0.0634177194213 0.0224409688894 0.00877766037244
-0.0619154708976 0.0200156836752 0.0106919010524
-0.0599379794283 0.0214763645907 0.0117417599026
-0.0632650718988 0.0181922607854 0.00977808095501
-0.0551149994135 0.0211017171167 0.00961686371227
-0.0578138785184 0.0174775717025 0.00995743577885
-0.059920442661 0.0220459854138 0.00660390140528
-0.0617429236321 0.0235633376094 0.0065725927171
-0.0593745027377 0.0186455182335 0.00641382475636
-0.0578225354715 0.0203290858969 0.00714879060806
-0.0613166170951 0.019081632694 0.00549409676732
-0.0596300319985 0.0242479926799 0.011199816386
-0.0561372097624 0.0237138079885 0.0109827944188
-0.0559429709739 0.0216954840518 0.0117480000481
-0.0581523703783 0.0191080467859 0.0114558503506
-0.0526839329826 0.0244563925307 0.00148331853106
-0.0542855001986 0.0230026891217 0.00258729026812
-0.0542855001986 0.021738604405 -0.00428136412093
-0.0542855001986 0.021762609309 -0.00169454909497
-0.0542855001986 0.0197578179458 -0.00368770470931
-0.0542855001986 0.0218611406002 -0.00679994031563
-0.0542855001986 0.0183503154734 0.00177104936041
-0.0542855001986 0.0203489403207 0.00238426701658
-0.0542855001986 0.0176492675261 -0.00347607488732
-0.0542855001986 0.0200102222134 -0.000870889078551
-0.0518704505879 0.0229298639696 -0.00172428135089
-0.0523890634576 0.0238387167578 -0.00607535320896
-0.0517324117806 0.0227442275396 0.00246550211635
-0.0511100055631 0.0213772882182 0.000272883032001
-0.0526390599568 0.0175257996209 0.00341487020288
-0.0518362115025 0.0208211788293 -0.00311210472937
-0.0511721556057 0.0179506647603 0.00146995511115
-0.0515377858544 0.0188714744607 -0.000703832899072
-0.0521668417595 0.0219991623713 -0.0052605430648
-0.0507034423947 0.0189270940512 0.00417932326461
-0.0525703049873 0.0197383807892 0.00445819071731
-0.0540070388735 0.0194080565234 -0.0066795738085
-0.0529949417572 0.0181518728346 -0.00557765988848
-0.0532844885748 0.0231439316162 -0.00897493872111
-0.0537565552928 0.0242863265255 -0.000545483022232
-0.0522223786166 0.0208053009657 0.0116935256276
-0.0535254217212 0.0188033462581 0.0107284155568
-0.0547092999935 0.0219823969479 0.0047809981166
-0.0546643194456 0.0189442044273 0.00596819044764
-0.0550080000023 0.0221947597177 0.00742888445602
-0.0550453988713 0.0198571319892 0.00769078531381
-0.0548186109543 0.024157373118 0.00436021515124
-0.044300631164 0.0242810171189 0.0109350736028
-0.0431099478732 0.0242460569273 0.00847984707685
-0.0475471981879 0.0243697293759 0.00891713588303
-0.0464894367346 0.0242527358884 0.011583125099
-0.0497713096118 0.0218487206636 0.0117480000481
-0.0430909991264 0.020144273056 0.0116860881783
-0.0466177941587 0.0210333681357 0.0117480000481
-0.0441968858579 0.0220464657376 0.0117480000481
-0.0473976364771 0.01866717695 0.0109013702431
-0.0453230477703 0.0192864577295 0.0114172506787
-0.049873611664 0.0171949993819 0.00956319563671
-0.0511191272998 0.0186635942004 0.0108983856996
-0.0505275240836 0.0172323579278 0.00697704480025
-0.0469686630639 0.0171949993819 0.00844628431826
-0.0522179298022 0.0171949993819 0.00850393977885
-0.0443651511409 0.0171949993819 0.00802491043276
-0.0465636530792 0.0173778893669 0.00610770998304
-0.0493437523128 0.0174934456002 0.00529075895942
-0.0447576704445 0.0228423938436 0.00729895382204
-0.0450769240345 0.0200566850341 0.0063954485765
-0.0471819091681 0.0234540322281 0.00637599449967
-0.0469287011461 0.020872646242 0.00578993394768
-0.0487462988 0.0199752248621 0.00502526367547
-0.0528238884941 0.0237621701357 0.011147955482
-0.00975494686631 -0.0192907189816 -0.000990780456915
-0.0112491604867 -0.0195505754588 -0.00313316525793
-0.0100866127245 -0.0193483984997 -0.00610641066133
-0.0078465157798 -0.0189588265584 -0.00336206665386
-0.0151259067868 -0.020224774665 -0.00529799905975
-0.0100451244006 -0.0193411833267 0.00202665637463
-0.012251466519 -0.0197248850161 -0.00509810666384
-0.0145218740759 -0.020119728231 -0.00334040300276
-0.0119498513525 -0.0196724315693 -0.000438244092639
-0.0102820717792 -0.0226169992238 0.00220729489657
-0.00639871423919 -0.0226169992238 0.00343434616318
0.0033195052059 -0.0226169992238 -0.00206081567028
-0.00346239393823 -0.0226169992238 -0.0032544814905
-0.00420571064709 -0.0226169992238 0.001649959202
-0.00741511657264 -0.0226169992238 -0.0122742565923
-0.000896157033342 -0.0226169992238 -0.00674455499848
0.00211947849099 -0.0226169992238 -0.00412453534378
-0.00945590036896 -0.0226169992238 -0.00294203918311
-0.00819360724593 -0.0226169992238 -0.0100151112118
-0.00999504868322 -0.0203338674601 0.00594349997118
-0.0033193666929 -0.0190674924933 0.00056775801738
-0.00306466245108 -0.0191027047166 -0.00207933702265
-0.000816689551327 -0.0192508455986 0.000557924921452
-0.00544367560646 -0.0188898076837 0.00410148720662
0.000254574648052 -0.0193715466683 -0.00619541886109
0.00153147934685 -0.0194424991646 -0.00258791196993
-0.00552081452318 -0.0189354395516 -0.00409669784511
0.0023579262578 -0.0195159185483 -0.00464889577354
-0.00174496885586 -0.0192167489617 -0.00485977790799
-0.000495720788085 -0.0192875348062 -0.00154944248258
-0.00379242624552 -0.0190698802245 -0.00535270760694
-0.0030858282756 -0.0191348731844 -0.00746982031973
-0.00747933282615 -0.0206322726246 0.00594349997118
-0.0035498987446 -0.0207910032424 0.00594349997118
0.0050180000253 -0.0211979907064 -0.00147356779677
0.0050180000253 -0.0216532117639 0.00280338733811
-0.0095425154337 -0.0226169992238 -0.0058027916121
-0.0111159602412 -0.0226169992238 -0.00165787178817
-0.0137135587452 -0.0226169992238 -0.00184506659522
-0.0119598246515 -0.0226169992238 -0.00421417922241
-0.0098437691838 -0.0226169992238 -0.00801557686502
0.00240026555793 -0.0226169992238 -0.00935392685963
-0.00268163965884 -0.0226169992238 -0.011767727447
0.00399410215488 -0.0224733292068 -0.00735020285106
0.00465537644413 -0.0216114396983 -0.00507552530501
0.00283469398874 -0.019539857096 0.00239862782239
0.0043547482923 -0.0196614469424 0.00453924781317
-0.00304324726748 -0.0190696778578 0.00430215982711
0.00128178089964 -0.0194156388601 0.000864486168681
3.29767814461e-05 -0.0193157464415 0.00293321786188
0.00162971731491 -0.0194434704548 0.00503023843129
0.00361688871866 -0.019602425214 -0.0012282762151
-0.00733393784195 -0.0193891554436 -0.0103329105859
-0.00550870191835 -0.0197824021872 -0.0115746940797
-0.00758034875579 -0.0204014660084 -0.0138053279369
-0.0046106164071 -0.0209416579048 -0.0142153597401
-0.0165643738559 -0.0224854468582 -0.00284802867705
-0.0164021830232 -0.0222868388514 0.00438391794888
-0.0167040774881 -0.021904053281 -0.00612685998864
-0.0167680518107 -0.0223290332884 -0.000668575024177
-0.000237804740827 -0.0226169992238 0.000360661984178
0.00251714396812 -0.0226169992238 5.76187483897e-05
-0.0013745413602 -0.0226169992238 0.00281164311993
5.27458759072e-05 -0.0226169992238 0.00458185778923
0.00261645502722 -0.0223452003873 0.00416545878545
-0.00640973981578 -0.0188849996775 -0.000844123582709
-0.0139726437746 -0.0200242124029 0.00366372048651
-0.0168860191648 -0.0205308732013 -0.0039656184397
-0.0128014659194 -0.0198205345971 0.00165403349995
-0.0162883629909 -0.0204269357014 0.00347407295647
-0.0118836147049 -0.019660912452 0.0041929233698
-0.0148669974979 -0.0201797481341 0.00154507319457
-0.0145906114399 -0.0201316822442 -0.000589780142361
-0.000829101358547 -0.022043350869 -0.0135551319318
0.0011446476151 -0.0199190042206 -0.0089229501143
0.00336743593201 -0.0200230001153 -0.0079953538203
-0.00186763309721 -0.0202850209924 -0.0127873962052
-0.00240588351814 -0.0197416513528 -0.0103407738546
0.00230490101751 -0.0205826898618 -0.0107994305062
0.000653328679549 -0.0206843305528 -0.0125491337351
-0.0095534775301 -0.0226169992238 -0.0136211174352
