-0.06937454585924928 0.009886936640684083 0.010235406347578656
-0.05916961352634155 -0.002741158282042031 0.006773516576642408
-0.05760350078344345 -0.004694439331409549 0.009266837714883042
-0.05898015951624784 -0.009759999811649323 0.007541063451117339
-0.06299400329589844 -0.004570632265126482 0.008596065475256563
-0.06027962231205587 0.0007024600782159915 0.010780700686979346
-0.058991961341150645 -0.0030845570593305686 0.011748500168323517
-0.0597903137942476 -0.0011062424345705132 0.011748500168323517
-0.06140408649281463 -0.003084685413190719 0.01099976828837035
-0.06299400329589844 -0.002557090886831196 0.007449903063078965
-0.06299400329589844 -0.006649210618194177 0.007969369386083894
-0.05921371751236565 -0.0005852354515792199 0.007285095193998289
-0.06119927502573737 -0.0027082039658540905 0.005968147031362836
-0.06187875763281096 -0.004513595469149703 0.005235968521757846
-0.06225071137139742 0.00023011398031045596 0.006330758782452107
-0.05782471009200333 -0.004885220923073629 0.011748500168323517
-0.05760350078344346 -0.007237987474223693 0.011564352047849134
-0.06197852183131763 -0.009759999811649323 0.010505728983265407
-0.05966412261112714 -0.00712216403086487 0.011748500168323517
-0.06123302506957391 -0.005524198812523287 0.011142302018364397
-0.06226518398714648 -0.007458644312694915 0.010282274914175023
-0.05834432739258207 -0.007092721854816238 0.007607980474334493
-0.06017810462484423 -0.007031529235555478 0.005570750836634291
-0.059638957379069296 -0.004755281288188575 0.006169714946807145
-0.05760350078344345 0.013322402590417039 0.01002400786618646
-0.05760350078344345 0.01623257290018415 0.011522332726617825
-0.06299400329589844 0.008798169563245455 0.00867936576464875
-0.06299400329589844 0.01282273153179978 0.0057587427766356974
-0.06299400329589844 0.009694183093555938 0.005539576177982421
-0.059386062818457916 0.017193499952554703 0.008904851537098597
-0.05760350078344345 0.004774541786674329 0.009903516920577594
-0.061995793827096815 0.001707253366767888 0.009986164057832609
-0.05820559285390546 0.0022533208014004673 0.010201638598642438
-0.05833191404509684 0.010215429699939918 0.011748000048100948
-0.058587577311044726 0.005489759732460428 0.011748000048100948
-0.06062547910305111 0.01523255487895191 0.01163912293778821
-0.06116089381412668 0.01302696621717372 0.011202035633281182
-0.06280494186937144 0.014930883252683505 0.009832493762741876
-0.05878285160941031 0.012843547413107446 0.011748000048100948
-0.05950203142539374 0.007937811774958635 0.011748000048100948
-0.06021255785012068 0.0032255728190604426 0.011415611285834727
-0.060739608276880463 0.010500708862755356 0.011410795699548965
-0.061768874307777444 0.006524570081802147 0.010625234943992562
-0.061433140652856794 0.017193499952554703 0.00763617089067499
-0.06291122564085865 0.002547662070772759 0.006594146432817426
-0.06290255626477553 0.014915918375988466 0.004788850832440574
-0.06139487923723202 0.01628563986608064 0.005719761828555101
-0.06180654336696829 0.006101924634132008 0.006118457958914593
-0.06032704211998144 0.008176775884202328 0.006428632299300516
-0.06057951861611083 0.0027781165421562745 0.007059465385031652
-0.061398131276133805 0.011204379120031985 0.005590106615009128
-0.05816846531870827 0.01282308830016108 0.007866716285657877
-0.057789506820511434 0.00296769869742689 0.008245217914190002
-0.05814748527280987 0.008295272610988752 0.007887671038162462
-0.05822845298635497 0.015500720566374832 0.007875217943053271
-0.058892411666301075 0.01019453407403479 0.007168016345551263
-0.058484161224082454 0.0051426402690593395 0.00768326161719283
-0.04868756174618639 -0.006443500053137541 -0.000824413720189656
-0.05012723464569904 -0.006443500053137541 0.0012377193304926933
-0.032977878963083095 -0.006443500053137541 -0.005169762877683678
-0.038140461545692846 -0.006443500053137541 -0.0025762789240440353
-0.03702309511700723 -0.006443500053137541 -0.004739206505417981
-0.040860603096042725 -0.006443500053137541 -0.0020384888050466103
-0.04652653927882151 -0.006443500053137541 -0.004786062269406239
-0.044703148607182885 -0.006443500053137541 2.84501400487692e-05
-0.04669328442578882 -0.006443500053137541 0.001675222773375693
-0.04818224345216892 -0.00644350005313754 -0.003491708027584474
-0.04350011253832008 -0.006443500053137541 -0.002044863168661506
-0.050685301748290654 -0.006443500053137541 -0.002529327634842992
-0.042858477648730915 -0.00644350005313754 -0.004492802931756249
-0.039739857786790095 -0.006443500053137541 -0.005244693840401368
-0.04816008723094429 -0.006443500053137541 0.003043555865193513
-0.032299508059530545 -0.006443500053137541 0.0014492949774379447
-0.04212842337064114 -0.006443500053137541 0.0013011049148834697
-0.037143335447580465 -0.006443500053137541 0.00312694605468235
-0.033464360357444496 -0.00644350005313754 -0.0022876277789745216
-0.037447798657469916 -0.006443500053137541 -0.0006471915114233616
-0.034461889089528616 -0.006443500053137541 0.0010232832569715357
-0.040015839814734375 -0.006443500053137541 0.0021234831266548166
-0.033898428246515705 -0.006443500053137541 0.0033759402390565077
-0.03085626476408014 -0.006443500053137541 0.0035730639047195953
-0.03130599728607151 -0.006443500053137541 -0.0036751522834762755
-0.04472553508466852 -0.006443500053137542 0.002887436459241847
-0.04006551219104827 -0.006443500053137541 -8.371361757655862e-05
-0.04974958739338105 -0.004845192448916367 0.005113999824970961
-0.0522099994122982 -0.005829318097104694 -0.0006464278166171545
-0.038624723486493574 -0.003955000080168247 0.003374646082922854
-0.0400509190326666 -0.003955000080168247 0.0050953537320228386
-0.041045545680705356 -0.003955000080168247 0.0026565653608491926
-0.03245471638218858 -0.003955000080168247 0.003188336390525522
-0.03734852124678599 -0.003955000080168248 0.0011092635151108657
-0.02940550073981285 -0.006201808596353666 0.0018234336701868433
-0.031167398103160063 -0.0048547175833989755 0.005113999824970961
-0.03167812409460659 -0.004181980601903607 -0.0015838438780139174
-0.029405500739812854 -0.005346586377609274 -0.000694080116578791
-0.03549063864620741 -0.004490374843383124 -0.004376741599853398
-0.031245517793739762 -0.004692666215827486 -0.004974700586691295
-0.03823939924527793 -0.004368161973897892 -0.004027497453598406
-0.03484569293737129 -0.003992549633336266 -0.0021817107311393833
-0.04774572409056389 -0.003955000080168247 0.0003199073640718571
-0.04827287944124606 -0.003955000080168247 0.0026586103763030326
-0.04675300737167294 -0.004256852360442275 -0.0039354666525255565
-0.05021936235714554 -0.003959144986791698 0.00023324724672654833
-0.04941236803406209 -0.004134586358788454 -0.0020588143261085407
-0.04443033594865637 -0.004212952493937351 -0.003698196666459928
-0.037361930216707764 -0.0039852365922375356 -0.0018041748421309383
-0.04199211518337047 -0.004145265616299293 -0.003180124165945835
-0.05183653919012772 -0.004629807878272293 -0.004728517874648438
-0.04866303784651784 -0.005262724692587306 -0.005253999959677458
-0.04162669860078637 -0.004838780394143248 -0.005253999959677458
-0.04312519547692256 -0.00976100005209446 0.008988793467497395
-0.029646249873659332 -0.00931446319068085 0.008022349889229018
-0.03627525711203832 -0.00824773585570859 0.006717737487213585
-0.03981776594898233 -0.00893889822613925 0.007139259482978259
-0.030510447616461794 -0.007741499755052944 0.0065804029296319105
-0.03276150102791924 -0.008539387124519501 0.007166417854556957
-0.031098643198859244 -0.00976100005209446 0.010632862199556635
-0.0339545436518059 -0.00976100005209446 0.009401551469955853
-0.036274516272372034 0.006442450660301827 0.011749500408768656
-0.03946821719692326 0.005559341109706777 0.011749500408768654
-0.03411027397609154 0.006183650589983859 0.011749500408768654
-0.038456726834654356 0.0027625288876635175 0.011749500408768654
-0.0417943896763417 0.006134701118320135 0.011749500408768654
-0.03522165857932692 -0.003329689924532293 0.011749500408768654
-0.040915063452696875 0.003620023451783863 0.011749500408768656
-0.032452195546078304 0.007934804728418107 0.011749500408768654
-0.03610428654539683 0.003974994913114992 0.011749500408768654
-0.03295360199564312 0.0032130293924921088 0.011749500408768654
-0.034479313907348645 0.0017551221722505884 0.011749500408768654
-0.03806623361301443 0.0004247973751988661 0.011749500408768654
-0.03445190056063753 -0.0009037480703806217 0.011749500408768654
-0.04287695585167135 0.006546249466606662 0.005144278037547705
-0.04034614888383261 0.004683863804590974 0.00513919318249933
-0.03631041968560145 0.006906796530228068 0.005143388064814363
-0.04014931130706754 0.007458332847566969 0.005145714539468688
-0.0329483863721526 0.009792817243479888 0.005149332973261939
-0.0407426242502234 0.001902104702496492 0.005132707581516726
-0.038671387758557156 0.0002239229495262251 0.005128181239810679
-0.04379779743514414 -0.0021196180841756237 0.005123990307012877
-0.03611553485763816 0.0031786096605457364 0.005134502981666103
-0.04242873128063117 -0.007121153554355497 0.005672479613265167
-0.03655358686717139 -0.0063565962617881475 0.005225191182300151
-0.03444565786612107 -0.007167745609831962 0.005878520746297549
-0.04206812007417913 -0.009080179144263748 0.007148961693556923
-0.04470332606069044 -0.008146523707624843 0.006392483192846547
-0.03220601089315728 -0.006573669738567344 0.005481125103387153
-0.03841503581947092 -0.0073526372134891434 0.00593206096974169
-0.04048836054873148 -0.006194152293154764 0.005149474746876077
-0.0334317845594021 -9.011028056876919e-05 0.005174627585816356
-0.03158019611717512 0.0069157748734355266 0.005149287784462227
-0.03202241888519252 0.002421916933374942 0.00517200997225963
-0.03660105791445899 -0.0011558099959885272 0.005153426855548841
-0.038402141922278206 -0.002629107102944667 0.005146506581938784
-0.04263489609353233 -0.004173632970455612 0.005118908164599211
-0.029450228502962486 0.00970787171071067 0.007080608264205321
-0.029417918131576928 0.00832938503739327 0.008808651065520806
-0.029424987412226142 0.005181322380933162 0.008214985052719094
-0.02942652952001932 0.0006070175183917129 0.007842532140627467
-0.04252249648417046 -0.00976100005209446 0.011235978585872042
-0.041020770556577865 -0.0038553032500037976 0.011749500408768654
-0.0337655462659753 -0.007542492492834121 0.011749500408768654
-0.03929765233667734 -0.005403767751845616 0.011749500408768654
-0.04425838822858471 -0.0060343363851454185 0.011749500408768654
-0.043678023152080504 0.0018465036712054855 0.011749500408768654
-0.03649666480786838 -0.009471076427447635 0.011749500408768654
-0.04259267187463722 -4.704640294713423e-06 0.011749500408768656
-0.03711599265364089 -0.003829322332025695 0.011749500408768654
-0.03784515609025616 -0.007071671050186683 0.011749500408768654
-0.040003420567975595 -0.008452982378693082 0.011749500408768654
-0.040607333222927845 0.0009215024890539769 0.011749500408768654
-0.04215170279366073 -0.007648846214026846 0.011749500408768654
-0.03944496629303185 -0.0022680476840678697 0.011749500408768654
-0.04399648465712532 0.004793330901534221 0.011749500408768654
-0.03550735214673262 -0.006182000150598269 0.011749500408768654
-0.04040623944825389 0.010073863195808577 0.006788275325456724
-0.04474600031971932 -0.0032446520776533497 0.009278180206840594
-0.044746000319719315 -0.004363980226494625 0.007465727256640489
-0.044746000319719315 0.0006742055004978703 0.008891090061789717
-0.044746000319719315 -0.000350107062619248 0.007038928210032096
-0.044701313394816686 0.009897797377897088 0.007390258108421453
-0.044736389334619125 0.003904401182881237 0.007482483823109574
-0.04473248545873379 0.001888446447466346 0.006734402539911954
-0.037591710182719354 0.010097015824102822 0.007597019195535457
-0.033543869379177665 0.010092715622798721 0.007410752541819856
-0.030008591616471073 -0.0003036542195567005 0.01027959082897038
-0.0418298945282496 0.008376341516833984 0.011749500408768654
-0.0340956217533472 0.00910475022302945 0.010837878923014153
-0.0392929908921123 0.00872576548893414 0.011393557832890859
-0.044004286636780784 0.008803426488388532 0.01089971463995199
-0.036361053259951585 0.009760354121972067 0.010156075788147765
-0.03174781635448235 -0.0019814830562200356 0.011749500408768654
-0.03085712638893033 0.009076567754935627 0.010723026253489028
-0.030992456773334825 -0.004584844351486534 0.011263455544033157
-0.031441309581782435 0.0010935638608441777 0.011712308150925084
-0.0311618483923052 0.006291629341550784 0.011432847086938853
-0.03120307368937101 -0.0069826238448106705 0.011474072365492596
-0.030406506712846282 0.0033026923841667916 0.010677505746663301
-0.04450105973349805 -0.0039385320487405374 0.011526261451388513
-0.04440612403062172 -0.008115327275369304 0.011547930273906722
-0.031238731080614764 0.011860577239610662 0.011119236057771079
-0.03617696263631438 0.016630247859792363 0.01108739100187569
-0.04474600031971931 0.01498359584584551 0.006945860464407872
-0.044746000319719315 0.013748465990862687 0.008560981613675998
-0.03149735235469439 0.010458277700532315 0.00832803225698851
-0.03501630255500833 0.011433670199687537 0.008002770756471623
-0.04199536313168836 0.01172022406450415 0.007907214413635394
-0.037203285430739697 0.01223702206501961 0.007734879181144504
-0.034105933700055685 0.013520534308759775 0.011749500408768654
-0.03717136267998297 0.013644512757873605 0.011749500408768654
-0.041064553934022245 0.014921456116056893 0.011749500408768654
-0.039653188533081564 0.013238308456807703 0.011749500408768654
-0.04198433471909945 0.011922203757628062 0.011749500408768656
-0.04093799809884372 0.014079977645444696 0.007174383107281116
-0.030932447879429666 0.013592271597606951 0.00825262360334492
-0.033763724501407334 0.013096801616705032 0.007919313683384012
-0.035775205675932946 0.01585923261422417 0.007682513568524272
-0.039039966963345975 0.015815805654400633 0.0072981719909644615
-0.032973176010010596 0.016794631034682657 0.008012380412486803
-0.03344779393662774 0.011046042758141283 0.010912840807313211
-0.035834638907937456 0.011509675255885731 0.011563576105080202
-0.044238740964357 0.012993691558087175 0.011131675920829615
-0.04439432164636083 0.015412216385509648 0.011428746444268516
-0.04082623211107199 0.01030183808144105 0.009936438380191578
-0.03860660727447974 0.010640142320783164 0.01050036941402398
-0.040547768030955 0.016904650798901917 0.010401134720071615
-0.038440491049321866 0.015763756412606855 0.011749500408768656
-0.03162242877917698 0.015319119113701922 0.011492810689225152
-0.030048376072158635 0.01467475612690114 0.010319030409339885
-0.0690085495261907 0.022429046851502973 0.004269178502256318
-0.06919292787248868 0.022198476386958106 0.002118335502933373
-0.06904505839417568 0.022383391454216223 -0.004143220539188982
-0.0687182389184554 0.022792088678441017 -0.0005855222813347548
-0.06910777950387259 0.02230495688914962 0.008077525169054823
-0.07004400342702866 0.017329443715195673 -0.002404446881446089
-0.07004400342702866 0.018849050464726083 -0.00048091186683390554
-0.07004400342702866 0.01872095108186532 0.0016490018443792941
-0.06701729903709341 0.017194999381899834 0.0051610930290867125
-0.0660149091284047 0.017194999381899834 0.003042080311222832
-0.06817985663137659 0.017194999381899834 0.0024587903173428818
-0.06430128741264467 0.017199365830215783 0.005181564924989711
-0.06829293025309711 0.017194999381899834 -0.003551320869322131
-0.06403911064356826 0.01778031691486381 0.0024670215914463526
-0.06513194259564395 0.018445929389103763 -0.00026653914410820463
-0.06505165615440742 0.02001656127424577 -0.002011349900597538
-0.06509040436301286 0.021522439795566364 -0.003889017640563935
-0.06669873000010774 0.017204939796858082 -0.0015483228256166978
-0.06347201727335113 0.022396281046414 0.008525275739428434
-0.06332257320011281 0.02199989264889191 0.005509343575317345
-0.06349511607484884 0.01993338733056899 0.0017666471023009317
-0.06331513600220937 0.022036993898778667 0.002897922355384881
-0.06362865712502333 0.02166460960127469 -0.0008203671396319959
-0.06346282190912782 0.018132663401296226 0.007514857526156292
-0.06336180290595796 0.019863661227063935 0.005121613209991766
-0.06715045841065734 0.020675908902827545 0.009615563027839166
-0.06820946978083008 0.02293152658589265 0.009676000103354454
-0.06572952107198812 0.022208310338031494 0.009574910996903833
-0.06743201423575346 0.02416837552805453 0.0021949945174511228
-0.06760416290402532 0.02387157074290197 0.0065549045043183825
-0.06383855625094173 0.02443854271369104 0.0022441728891003463
-0.06634458310837063 0.02430514450494021 -0.00045249477325393604
-0.06971313966044831 0.019065173969374623 0.009574246617681897
-0.07004400342702866 0.01975316238880475 0.006864255776241265
-0.06958592031294213 0.02050387298785078 -0.0052403255653210735
-0.06732533275060648 0.02366707747783433 -0.004969182955327443
-0.06818042315255025 0.01890403608730115 -0.005253999959677458
-0.06734067255635462 0.021525913215072218 -0.005253999959677458
-0.06399645020293473 0.024360882349353484 -0.0009753492424374567
-0.06967325445539987 0.02102503354914831 0.00013837657574222078
-0.06993811093385957 0.020363134409753375 -0.00237209376567688
-0.06780778077841647 0.02392992043885175 -0.0026724305491582054
-0.05546567292727078 0.020132576167821162 0.01095744067158247
-0.06342262443883963 0.020239643129505488 0.007822287454108123
-0.05911970325149696 0.017194999381899834 0.0066851366696264
-0.06216893103673926 0.018484684009317742 0.010382263185313717
-0.06113495099480756 0.020244250523568853 0.0110609475229217
-0.062327345299597256 0.02276288104402208 0.010447355139966426
-0.05788993788836041 0.022079542407711907 0.011748000048100948
-0.05632088415095486 0.017194999381899834 0.009092506678572919
-0.05528743222506546 0.022401032067160216 0.010534263635761175
-0.060242974061143005 0.022192505596220057 0.0065640314904163045
-0.05707620176315379 0.022440967476633773 0.007502232205400196
-0.061239310287704976 0.019216945543671034 0.005530706987625729
-0.057165635058504714 0.018693864682864336 0.0074598792386079
-0.06266293133172107 0.024266897214138668 0.007161962181357241
-0.059246789416151496 0.024247750679385765 0.011079338324330196
-0.05830806863231343 0.019770680325919134 0.011748000048100948
-0.054285500198602676 0.02224451300857226 0.00023271045177912985
-0.054285500198602676 0.020874005571360828 -0.004150200285218364
-0.05428550019860268 0.01908058411277134 -0.0028125941822950266
-0.054285500198602676 0.023075296644481876 -0.004791171312279601
-0.054285500198602676 0.01787672282768885 0.0027514023811343615
-0.054285500198602676 0.020934307132363546 0.0024904103987514288
-0.054285500198602676 0.01947337318925134 0.00010756929465803437
-0.054285500198602676 0.017452786449490824 -0.0010855960098913827
-0.051419344532380645 0.022144614815230033 0.0023459602368056894
-0.05211393681469404 0.02334053415746423 -0.00463079945252017
-0.05121238405152874 0.021703230241294807 -0.00015724523583079985
-0.05091866707239563 0.019671146623860165 0.0018366243886326764
-0.053215636544634286 0.017299940847374483 0.0009975629796740671
-0.050900540910816056 0.01792270598344958 0.003674417785968381
-0.051609144034131624 0.019602031119359577 -0.0014195783949442747
-0.05229754970123679 0.018805452650526876 -0.004173394007077589
-0.05221155423580131 0.02100464853060037 -0.004940505442737281
-0.05186256088998174 0.020795043511528256 0.004530437971971952
-0.05362581418598967 0.019120008998075217 0.004427361834756034
-0.05404060288270619 0.021000536507089614 -0.007676782472381172
-0.05369866791736172 0.024213561177324122 -0.006743786057389513
-0.05409353400028345 0.01763790413027846 -0.005503388348893195
-0.052690912589731055 0.022627959039384637 -0.0078102782972442365
-0.05293220631269021 0.021431522567991235 0.011420273570840328
-0.05487432586375332 0.02059589991940299 0.0060191937982626495
-0.05478607250710965 0.022535154603382623 0.004822431096058068
-0.05500616816281633 0.02237246950194072 0.007427209129492454
-0.055098686099608316 0.01890130347148402 0.00848298258396884
-0.043090999126434326 0.022813662986114785 0.009590111936154201
-0.04656871281597072 0.02427877068608305 0.010989857120414006
-0.0503506022792309 0.0244377509269402 0.0073670947202419575
-0.05421700926262128 0.024393459697490225 0.00761667127386444
-0.04905867187618294 0.023799940495202697 0.011748000048100948
-0.0448275403178842 0.023627695720839843 0.011748000048100948
-0.0475921066199335 0.022462344655577025 0.011748000048100948
-0.04352093561897423 0.021665285895892478 0.011748000048100948
-0.050235545938658956 0.020142049416470673 0.011748000048100948
-0.04810780984452358 0.019616484554194485 0.011692173440233928
-0.043320715988420855 0.018899079346966958 0.01109455225931085
-0.04590848045777742 0.018574152030294302 0.010823877548913197
-0.0471588695828954 0.017194999381899834 0.009364864575095059
-0.05197354689056248 0.018215891497836346 0.010525435217677436
-0.04916936611871633 0.018006520472576962 0.010351022545304813
-0.05458323752176983 0.017245734754078534 0.007045536956182163
-0.04927322125900188 0.01720917928332648 0.0074553049703465595
-0.0433176561492265 0.02109287662858306 0.007488411507749314
-0.04570833679289202 0.023025890674047752 0.006921639720881306
-0.04752743341347779 0.02169430371592492 0.005740582281277121
-0.05159908706912987 0.023920419248547296 0.0045174767564413
-0.049477407546098064 0.022528581457713484 0.0050915694052977144
-0.04415082708448211 0.024268571274064076 0.007985555837016028
-0.049622354228311794 0.020088905582982056 0.004723901583692335
-0.044946502289383 0.01931710989278077 0.006312086222069434
-0.048048639946993654 0.01848906284862438 0.005093563945389019
-0.05162593882057506 0.023335766111807998 0.011748000048100948
-0.01197449255660602 -0.019676716884616724 -0.0031667515405132242
-0.00993183769285294 -0.019321481803186342 0.0003425835932282298
-0.012851592213674176 -0.0198292519866695 -0.00537271019788246
-0.009455645852200722 -0.01923866798559418 -0.003632851523104116
-0.014887037262212665 -0.020183233219816306 -0.003443688179558342
-0.010409946086834128 -0.019404628925728813 -0.0059976805873691716
-0.007887095602899566 -0.01896588373533941 -0.0053271499485889
-0.007581360751985385 -0.01891271384032295 0.0052409312828810015
-0.0028289432572619413 -0.022616999223828316 -0.0015848635480206691
-0.008797925640789893 -0.022616999223828316 -0.004710655890874247
0.0019260005131150595 -0.022616999223828316 -0.004765141687562545
-0.0045350561094628615 -0.022616999223828316 -0.005276924842308451
-0.007625473873253782 -0.022616999223828316 -0.006638404777357586
-0.006568726921328112 -0.022616999223828316 -0.004024089079162409
-0.0023205349297661993 -0.022616999223828316 -0.0060338703938997915
-0.007667400544003994 -0.022616999223828316 0.001043419115570558
0.002622814994713567 -0.022616999223828316 -0.0022570494383474006
-0.0038344306706417364 -0.022616999223828316 0.0004321568823590432
-0.0002047274580378091 -0.022616999223828316 -0.005874236186746742
-0.009049070391410145 -0.020588668411475428 0.005943499971181154
-0.004731764504082072 -0.018966021478391795 0.0002527448076559155
-0.00033946755645345144 -0.019307617261254247 -0.0029304904887518532
-0.003081193267842272 -0.01907540737460927 0.002091050042454161
-0.004155796888163194 -0.0190537346451622 -0.0070260380688988025
-0.001018305479454376 -0.019234601713308368 0.000794191156658386
-0.001591021618337136 -0.01923839579935864 -0.006517917973879462
-0.003240661020253414 -0.019106031234879358 -0.004671789375678563
0.0018330782264512086 -0.01947723404885998 -0.004609637552650126
-0.00686778090636833 -0.020925198011292185 0.005943499971181154
0.005018000025302172 -0.021357969372166018 -0.0025452313567739483
0.005018000025302172 -0.021730434796524208 -0.0002856556400592392
0.005018000025302172 -0.02125397237295864 0.002986731174007387
-0.009938473091447055 -0.022616999223828312 -0.006978734321267951
-0.013032112250303447 -0.022616999223828316 -0.00985531295547326
-0.012543543016298018 -0.022616999223828316 -0.0028096866273379342
-0.010354280640563648 -0.022616999223828316 -0.010443092136331121
-0.0034939184543876147 -0.022616999223828316 -0.012179110793447067
-0.0015851231942143624 -0.022616999223828316 -0.010213795220718108
-0.0077697013495982535 -0.02261699922382832 -0.014346635797839047
0.002683810611473524 -0.022616999223828316 -0.006719208492234011
-0.0008179236729168923 -0.019247682520790774 0.005896308726105661
0.0030499211622214703 -0.01955707321706781 -0.002386063727881535
0.0026534507246001315 -0.019525359363493706 0.0031016705691485564
0.001692710728476423 -0.019448509327100953 -0.0003144332834792489
-0.0006962604577875741 -0.019257414417607883 0.003073170986593425
0.0011600435861213018 -0.02068353208240486 0.005943499971181153
-0.0025366989601948668 -0.020437183296768118 -0.013646087240280238
-0.005265017968453599 -0.02018208373926765 -0.0129266624080162
-0.006966194757188839 -0.019660356255457652 -0.01123899117901032
-0.015310063642929818 -0.021776623240628862 0.005943499971181154
-0.015758069728356253 -0.02236367815283187 0.0033253869884928293
-0.01696150004863739 -0.020937161361020674 0.0023351125761750043
0.0005438286487574196 -0.022616999223828316 0.0033178216318633202
0.000914885072501436 -0.022616999223828316 0.0007358081394585264
-0.0016241877063468688 -0.022616999223828312 0.0011239711426819208
-0.0007917014769176728 -0.022616999223828316 0.00543118490838662
-0.006689118347273718 -0.022616999223828312 0.003963274742941791
-0.004588452283534623 -0.022616999223828312 0.0038663193050517803
-0.002146715364575752 -0.022616999223828316 0.003829802961404366
0.003945397384805589 -0.022013315551739625 0.0053791895676681255
0.0038680309725405825 -0.02239163938250022 0.0017204434198457514
-0.006625490836239766 -0.018884999677538872 -0.001249478067687006
-0.01574888366206841 -0.020333115650502963 -6.219347701506275e-05
-0.01237144873786931 -0.019745750946061773 0.0025331258568286096
-0.01261567856763783 -0.0197882245939624 -0.0001964781621720201
-0.010102708516495699 -0.019351197695003368 0.002756242161932554
-0.014475149428446613 -0.020111602416803785 0.001792922701962813
-0.013007050367723113 -0.019856287483949308 0.004412637163430214
-0.003983065087353455 -0.022423732630551002 -0.014470234421909313
0.0028234485980617578 -0.022264920902784098 -0.010702904747157276
0.0034757520104941775 -0.019662195839096133 -0.005999912551537725
0.001047286809471568 -0.019586776956602575 -0.007216960359814826
-0.0009418600347035682 -0.019670855648727337 -0.008991298248919791
0.003250493332871651 -0.02014340409813256 -0.008715119514132754
-0.005121440636189117 -0.019347615699051517 -0.010019695552742335
0.0013332151185073897 -0.020499616771620516 -0.011886150346011336
-0.0007560449832419733 -0.02007221156459168 -0.01100276147516222
-0.0031152366610808697 -0.019743011311206465 -0.010791044971140883
-0.0006423728067310619 -0.020880259851363665 -0.013373916004684449
-0.015471088599278156 -0.022616999223828312 -0.009052746239132976
-0.008330606903523077 -0.019284974435544396 -0.009229294840565169
-0.011316191439686901 -0.020062846706199355 -0.010909716406844069
-0.013239147463174672 -0.020420676385697167 -0.011133670412808768
-0.00996507298803885 -0.02043099620403584 -0.013527747928193761
-0.012059694657862417 -0.020892195087446448 -0.01298533654491272
-0.010259449158208431 -0.01951094930261111 -0.008466365766555163
-0.013268493438595132 -0.019976769386435042 -0.007309699196277614
-0.01582497407240937 -0.02054131799214248 -0.008467582560688705
-0.011426892231498875 -0.021059700002018032 0.005944000091403723
-0.005284035323233684 -0.018884999677538872 0.007551849002984159
-0.002303641041104778 -0.018884999677538872 0.008585639442551862
-0.009421745668568172 -0.018884999677538872 0.009488252898743246
-0.014351041833422885 -0.018884999677538872 0.008892731052889086
-0.012002629100672181 -0.018884999677538872 0.009540721475653068
-0.0014708715758925607 -0.020801023228423494 0.011363116633414938
-0.006749811847676314 -0.022200375169310137 0.009262189872970259
-0.004138318122719096 -0.021074282692898575 0.010952856637565199
0.0006602798427037403 -0.021559530549250548 0.010224326396479216
-0.00934208852799623 -0.022144136636272932 0.009346623985343127
0.00288653213336071 -0.01944898949626394 0.006193047112517926
-0.003312421458730946 -0.01937080884420727 0.0059561495384904675
-0.008349935161593562 -0.02243475320220286 0.007395610791246928
-0.01411836840297682 -0.022278509739186467 0.008140049381134672
-0.011801068834724057 -0.022341275986838036 0.0078098680877984605
-0.0018610270932169818 -0.022337865845041226 0.008172037079877575
0.000362129997303428 -0.02242224916821837 0.007498491099579648
-0.0043778930125540905 -0.022301457226304194 0.008462649938855043
0.0027725378288350217 -0.022138055228518357 0.007071910083802227
-0.00048753204845171014 -0.018884999677538872 0.010238930691187342
-0.006224722207397477 -0.019575447166670288 0.011749000288546084
-0.012777914291628164 -0.019170032488280208 0.011749000288546085
-0.008499441997616233 -0.019440490249428066 0.011749000288546085
-0.016432613605328796 -0.021950918232923403 0.009578161749031816
-0.013682542065965843 -0.021470506278040667 0.010242024696472464
-0.01091463835161306 -0.020393792436950536 0.011622617455126653
-0.012671215723374506 -0.019197491466148308 0.0070441386976556756
-0.014596556857297225 -0.019701432784396025 0.006700924329034259
0.0036589246415274987 -0.021382827944194195 0.009951666089963786
0.002572522446653858 -0.019834421554256125 0.010786410295258595
-0.015862134299637048 0.009196697085133905 0.006357999984174967
-0.010316250146157509 0.007311876426014115 0.006357999984174967
-0.02881877235444432 0.009740999844501958 0.0035507054572790422
-0.025403732410389436 0.009848862583355758 -0.005253999959677458
-0.017369447765529088 0.009965194023500896 -0.005253999959677458
-0.008252999745309353 0.009920536542610783 0.004834854354818497
-0.008252999745309353 0.008983663630574101 0.0001679641630789523
-0.02208583426166627 0.0072420001961290845 0.0015886876288677266
-0.014747675596620307 0.007242000196129084 0.005454357011779765
-0.01940782047820163 0.007242000196129084 0.003937806251721296
-0.014739811463132512 0.007242000196129084 0.0031758788782837613
-0.02438425549669307 0.0072420001961290845 0.00540110614801472
-0.01737038299503883 0.007242000196129084 0.004300645921792448
-0.018054315450845224 0.007242000196129084 0.0012349908424089855
-0.024230962569046943 0.007242000196129084 0.0027766477123556156
-0.010261321576062027 0.007242000196129084 0.004055816015864825
-0.012447528241636759 0.007242000196129084 0.00167427434313242
-0.019382695403387325 0.007242000196129084 -0.0007086853403965733
-0.008252999745309353 0.008879810287389746 -0.0022079188190224593
-0.008252999745309355 0.00794935918000827 0.0035149054593988428
-0.010484617522936945 0.007477367025454348 -0.0009921821889682285
-0.013905548769286857 0.0073206452931082605 -0.0005538558304223727
-0.016989517829430853 0.00724715332690031 -0.0006091364362776313
-0.01012829683513597 0.007992617433099996 -0.004352832815964596
-0.027228879370250827 0.010161212368194726 0.0016423355028521236
-0.020145107570335278 0.01046765845893734 0.004638641142216866
-0.026501390510074916 0.010246061679925145 -0.0021483751437237
-0.0181964946027538 0.010542234714322429 0.0062092844640247846
-0.028097719438274722 0.010149923946200066 -0.0007443510764094548
-0.024233984681170034 0.010278885660469902 0.0038218008212599006
-0.024719162674335146 0.010298376015130398 0.0005085272210043172
-0.026526782254144423 0.010164640991900849 0.00400812798729773
-0.021370139900155412 0.009621093943639409 0.006342340979526786
-0.02910531735381337 0.007600730560202508 0.006306677572283889
-0.023789606708526263 0.008475343292164081 -0.005041043276351943
-0.018878921433061475 0.007594675950790406 -0.002931128683095208
-0.021981226041833585 0.007864959430337846 -0.004012588784320615
-0.01409648169875399 0.007883692519277905 -0.004087543747514444
-0.016149973864036438 0.007996918135394231 -0.004540582854719586
-0.01942908804680492 0.010152840778201359 -0.005128644927222901
-0.016176551443575878 0.010377231455215744 -0.0015410987498676936
-0.009684273893092944 0.010351972018855224 -0.001944945271314421
-0.011810897785537601 0.01015968503014061 -0.005019219392221998
-0.015782168000371737 0.010250468593686718 -0.003567776619732642
-0.021220184342640648 0.010253775895045154 -0.003514899661992295
-0.014202373483538592 0.010148619709292213 -0.005196131151832803
-0.013247727886918331 0.010314518623348708 -0.0025437481612836828
-0.01783465988768154 0.010291207706159392 -0.0029164418621356707
-0.010179299150227888 0.01056000031530857 0.0031417500302041513
-0.013800796304224528 0.010531350869315278 0.00294159113673632
-0.011856950121194861 0.01051751487619679 0.0012828906586584948
-0.018100088839455734 0.01044413438874101 0.0015154475808383627
-0.015810561729007133 0.010480893402327694 0.0018560338527134309
-0.014277637183202742 0.010455158257734904 -9.305347960893715e-05
-0.016080357425881996 0.010533523452748736 0.004279072523661647
-0.02001736137937362 0.0103475476129989 -0.001615318054601214
-0.020111162440343788 0.010437727968148321 0.00233548657668079
-0.02281915204351038 0.010375299022372693 0.0011131424602524684
-0.02829427461911289 0.010179186072324868 -0.00438053762244152
-0.023386605480765935 0.010310146753157156 -0.00139465838251862
-0.025733811441191835 0.007242000196129084 -0.00015254732422339623
-0.027454297552288627 0.008254364759077456 -0.004637803016054612
-0.028834249197463094 0.007914887724425997 -0.002085044680524716
-0.026814168652092265 0.007653834500817511 -0.0023207370742619597
-0.024219668256984496 0.0074155896018955605 -0.0018620450445965351
-0.0282757894951099 0.007353702951387828 -7.598348586470953e-05
-0.013001195773200361 0.016265515106655686 0.010436716197487072
-0.011010398262526868 -0.006858000066131353 0.009416612787825143
-0.012005557145553132 -0.0026112211760496015 0.0064018884377999635
-0.007355453428885754 0.0115918067802784 0.00637195337749454
-0.0059026878008805435 0.006133590360720087 0.006385940049726875
-0.006771316545392936 0.0138411062741496 0.006367095935400282
-0.006455506402079421 0.001787567891386729 0.00639576669675675
-0.0065833522374607574 -0.006169147693775072 0.00641443496426636
-0.007720885783706452 0.007912442997704756 0.006380351276370664
-0.013225388477663389 0.003457817386581714 0.0079299412544614
-0.01321989601675695 -0.0005014577271022778 0.007812962006747113
-0.011765017262656344 0.014946167466940776 0.011749000288546085
-0.011056269483567051 0.002640190721130917 0.011749000288546084
-0.008924703899099341 0.015119530478844746 0.011749000288546085
-0.01077080842423327 0.011625146448708603 0.011749000288546085
-0.008754725053366946 0.018024500459432602 0.008922638452687159
-0.006665409396967562 0.018024500459432602 0.008113582269410566
-0.008365127236775695 -0.001529147101502763 0.011749000288546085
-0.01029528301145224 0.0053062738355902795 0.011749000288546087
-0.007807019924555221 0.0031705548122788595 0.011749000288546085
-0.009548993798953773 0.007596644081203317 0.011749000288546085
-0.009841233758818017 0.0005440833086728588 0.011749000288546085
-0.010315829907945086 -0.0021567565569574317 0.011749000288546085
-0.008854654517451117 0.010594961933007917 0.011749000288546087
-0.006704413990644902 0.014367673393932521 0.010846794916639212
-0.007468111556229507 0.0004720514053006336 0.011732047219478315
-0.007337392532080762 0.008408556408802273 0.011475174615217137
-0.007067529705953526 0.005247879450537845 0.011315334741856045
-0.006935915050319066 0.011616896340020473 0.01108744308889548
-0.006095597594741707 0.0018570398933465146 0.010420097745373995
-0.005708477393118697 0.004171339228446022 0.010032977456833486
-0.006131139210148795 -0.001655355236581771 0.010455639368761004
-0.013229499571025372 0.00796989872540798 0.00928777836903245
-0.013229499571025373 0.012027433890370398 0.009591889217538743
-0.013229499571025373 -0.002024940980567178 0.00945732418675263
-0.008772909002940161 -0.006705380897119504 0.0071003542082122145
-0.005589915623024579 -0.003089336058126723 0.007190863302036911
-0.005350499879568815 0.012963041740749897 0.009526066684792608
-0.005479281363898096 0.008304481731353276 0.007998198947596638
-0.00929845127876628 -0.005270587247261829 0.010996410482963428
-0.0071949632009309945 -0.004015153369164777 0.011205213964927088
-0.009745504099573189 0.015371156429024601 0.0065553328514134195
-0.01287147299888906 0.015747529166002833 0.007515094130220785
-0.011534733376112626 0.012233642604546357 0.006515578146788093
-0.010918996559545856 0.01724473407896826 0.007219984618114362
-0.009840718091677053 0.010364352940722837 0.006404509189109006
-0.012039008371588894 0.010002026654240919 0.006510791097854872
-0.009518538479763819 0.013035930979411997 0.0064142844119283995
-0.006125466929555357 0.017640536443204 0.01005990699236674
-0.00922653637777724 0.017040760740193246 0.010903341612775931
-0.012760902719566852 0.000375635992902198 0.01101704150261337
-0.012984901517780052 -0.004317286946891954 0.010333966141333204
-0.012704148183546498 0.004167822827339337 0.011277689330783543
-0.012506876316103697 -0.001857913089555162 0.01153749382355947
-0.012403657165846632 0.007436674927551488 0.011743843118169502
-0.013096214535132485 0.014002186128910327 0.010206538829111577
-0.001561310542423493 5.855652288877782e-07 0.007800802680170816
-0.004495599394146221 0.001647940312134338 0.008281775921592729
-0.00037685514504069966 -0.004460328621861534 0.007310620952365617
-0.004845717237287416 -0.004719641240676077 0.008264338184024517
-0.005106174950373153 -0.0014492279302671946 0.008351192311271174
-0.004420970855164266 -0.00020631750237519187 0.011178602384547393
-0.0034758839843296576 0.0018037916157070794 0.010199178841356092
-0.0023114864833947975 -0.00662184142854281 0.009697394022032409
-0.002803680222639659 -0.005099366547593917 0.011091426867255144
-0.004746911879148015 -0.006023901488292065 0.0102481043086805
-0.004098470179505435 -0.0027336590105802813 0.011589466712016272
-6.294426559809582e-05 -0.004990316593843672 0.010647527272202195
0.0005870238662806728 -0.0010274032697055854 0.011176618430080214
0.0009868584330213353 -0.003003666643204816 0.010157244920812415
-0.0018484515472781502 -0.00043014297762073247 0.011749500408768652
-0.0009988977946371218 -0.002928447309956563 0.011749500408768654
-0.002366859097343221 -0.005060959469884583 0.007648248265486224
-0.0030019144604340043 -0.002419289717200507 0.007821156442335844
-0.0013655364069806483 0.0022670000325888395 0.008803276844552756
-0.005277838290327701 0.015583400748816527 0.009122674873603983
-0.003666775032942224 0.018022999167442322 0.00812090151252487
-0.00516412041199869 0.0068005050583504235 0.01013986750074258
-0.005118671734365525 0.009510701365215049 0.01025353029753574
-0.00375730161202865 0.003932084575251915 0.011673018184211676
-0.0017926303167427721 0.010016501696239 0.011749500408768654
0.00021799485148250888 0.014047906548083987 0.011749500408768652
-0.0022549717391164344 0.014453280576810832 0.011749500408768654
-0.003451335571442792 0.01133215349664536 0.011749500408768654
2.391368793834087e-05 0.005226222156649996 0.011749500408768654
-0.002816198776001394 0.006007118594954798 0.011749500408768656
-8.153045556309086e-06 0.012037133551375678 0.011749500408768654
0.001285500009544194 0.015959536956694897 0.007140931292753954
0.0012855000095441937 0.010119717505085557 0.008690599242935736
0.0012855000095441937 0.013453779262264761 0.008791258631636281
-0.0026212510181425905 0.0045916904781703165 0.007967375005893326
-0.0001524686795313742 0.0046488008303230645 0.007955948342212003
-0.0035993852324191474 0.017339263134078575 0.010497521463796662
-0.0015432984568056404 0.017113080851164184 0.0108124669516634
0.0006963329124042445 0.01643335871715072 0.010717971419128811
-0.0045940693397228186 0.005401134564402572 0.007947576708644764
-0.0023414951820993992 0.0071714489927534614 0.007541294012053738
0.0008830945354472972 0.007339190308436363 0.010564494310639399
0.0007800469532046718 0.009678647046430705 0.01092563365537214
5.611268976075834e-05 0.01008908839001106 0.007113762763989753
-0.0034850457705310105 0.012731382190819249 0.007413103499820178
-0.001366252790858467 0.016607925166108373 0.006964857957764356
-0.0027889946875105974 0.01475787948642563 0.007254734752508025
-0.002298205025213856 0.010834544210513632 0.007275626832907186
-0.00036045757017805837 0.013227843713847278 0.0069777684128896076
-0.0011982648738742792 0.0032190277998590555 0.011200173364372762
0.012507111457733157 -0.002202403635860166 0.0010594509106676361
0.010410499759018421 -0.0022288548651802987 -0.00011822435043401698
0.010410499759018421 -0.0014831090359115119 -0.002474689370112756
0.011968187220412265 0.004038481244569346 0.005528499837964773
0.013115587443836143 0.0010524579731394442 0.005528499837964773
0.010410499759018421 0.0012842297211146402 -0.0003699223230262063
0.010472718663759265 0.002995365944391708 0.00224266164186379
0.010418009621803951 -0.0005820020215795798 0.0038327877089363834
0.010673492345704942 0.007061561388102281 0.0029305233816016487
0.010611852889837839 0.004721276577034587 0.0035053596485033066
0.014602690933583427 0.0048785440919829285 0.005528499837964773
0.0150837462864791 0.002178894788845146 0.005528499837964773
0.015651150185459463 -0.00026792808341257986 0.0008731537798782334
0.015595806553874561 -0.0001390246543427811 -0.0017655680693829559
0.010725122198737015 0.001724233923681906 -0.0049915004371629875
0.01245296093858535 -0.000304717249423567 -0.004363196414238371
0.013911300260310122 -0.001335383878848893 -0.002188307460696363
0.015361883271797078 0.0019264874168194632 -0.004699454499123272
0.01301730420182688 0.00146227444472944 -0.006178581771467215
0.015489072175498293 0.004683054588235208 -0.0040751645830911475
0.016424568875438764 0.0022796198047504795 -0.0021330037217350685
0.016599225868782767 0.002050897274439992 0.0015738946581936011
0.016373915856480153 0.0010001807422207049 0.004057578347844421
0.012172685418122687 0.00579625159701176 -0.005214764803971315
0.012166686763728164 0.0042902841925689114 -0.007290193822609413
0.012529345758706026 0.006502593833390213 0.0007282045542314553
0.01471680327925653 0.004994138858442715 -0.00631582809566755
0.012116312494857088 0.0064340667292967415 -0.003098490970381519
0.0128032674351191 0.00626480031417016 0.005081358207607412
0.014586368592657144 0.005421685591326015 0.0033230095544225543
0.015182753159739864 0.00512375652765159 0.001154537878727949
0.015467056623220522 0.0049530784882177445 -0.0017428184572598662
0.011862232917392398 -0.00250329296206125 0.003649572354457349
0.01349700370000404 -0.0016262691801866068 0.005528499837964773
0.014012555183772687 -0.0014961557427658758 0.0031123163305274183
0.0161091293783973 0.003269916192164982 0.007430056111745674
0.016894964030448822 0.001631611048392456 0.008501276544575349
-0.005764499772340059 0.01930736873785808 -0.0013436616189356622
-0.005764499772340059 0.021060000901047062 -0.004642558385870798
-0.005764499772340059 0.018331954675785612 -0.004498969144384678
-0.007264112076099389 0.020381603477937743 -0.006599938225402438
-0.0074235000647604465 0.02382253742642025 -0.0001130873219065201
-0.0074235000647604465 0.022220147414794566 -0.0058892502325513345
-0.005784845960942264 0.02383049950003624 -0.005850059245398349
-0.006321164653152597 0.02383049950003624 0.006078197323155332
-0.005764499772340059 0.022587714422434818 0.0001923757312042554
-0.005764499772340059 0.0217177077331644 0.0022901941734412845
-0.005764499772340059 0.021960030962731223 -0.002047511638068279
-0.0074235000647604465 0.01834715551464435 -0.0028740230680725813
-0.007423500064760446 0.020048559968641508 0.00045480551497582465
-0.0074235000647604465 0.018567697847550874 0.002144016942041674
-0.0074235000647604465 0.02076027756031793 0.0034487766369748945
-0.007223002928972731 0.02083005346224206 0.006357999984174967
0.0013845754717905158 0.03342942254932874 0.0023613284762341
-0.002396465671528681 0.03365342847756397 0.0009835620501638922
-0.0011914606264759454 0.03352452162910794 0.002739750298489011
0.003331185004504835 0.033198773713143406 -0.006771975101548207
0.0036491035418615082 0.03334421915396772 -0.0009076138771316909
0.003521754473706957 0.03325863130809433 -0.0039568929637757155
-0.0011452578120163884 0.03347713582450118 -0.009533318892735466
-0.003344391059485123 0.03348463675114487 -0.00940527627753501
-0.0050087859450567785 0.03326988583803098 -0.011366679977354138
-0.002633524993680061 0.033259513000331475 -0.01152618515511281
0.0020008484188180015 0.023831267232344716 -0.004251182906387499
0.004116155334010511 0.0238314562034965 -0.0015122170058546563
0.0005163439464799212 0.023831134613991344 -0.0018568087973903822
-0.0027901809094635134 0.0238308392252674 -0.006972911164218692
-0.00022220553680792673 0.02383106863560045 -0.004519522696340356
-0.004828477936117962 0.0238306571338016 -0.00794840764266865
0.002868078922479118 0.023831344706467247 0.0016783255342910997
-0.002499024535084416 0.023830865235750804 -0.0038975683926279134
0.001726498490120236 0.024033628356540722 -0.007444472442733099
-0.0004009574773340347 0.024032838525207253 -0.008229107643093867
0.0012616071815467953 0.02445704034014094 -0.009974439676749455
-0.0015004447646065826 0.023830975260118202 0.002532129905803015
-0.002917588595477492 0.0238308443596139 -0.0004463601545286536
-0.0039530747326461555 0.023830779623833214 0.004452131781183075
-0.004829758118244303 0.0238306778198714 -0.0021568574909084787
-0.0067517577665844935 0.023830539052645927 0.002676246680276994
-0.000827502758810999 0.023831039909765046 0.004516504064459976
-0.003644280089256769 0.023830793889995316 0.0018380754759016252
0.0018264869665533191 0.02383126191453946 0.004797852703219253
-0.006721215203666284 0.02383051219648074 -0.004051974469981765
-0.0005018766091355825 0.02383104978649527 0.0005773554549679629
-0.012354483771148825 0.024215005004046407 -0.009404715251981374
-0.01509782730207354 0.024308394469904085 -0.008653791531126949
-0.0030677207807112087 0.024851420008898763 -0.013438649272214451
-0.005977036076607492 0.023943796506582352 -0.0097738185405477
-0.002767964732093329 0.02437499518898261 -0.010917603668913367
-0.007959754865612689 0.02440562889116058 -0.011855466366356975
-0.010963748255251964 0.02453627496852287 -0.012542638418174944
-0.005278357562123246 0.02453867118835444 -0.012279968553534153
-0.009012260594995825 0.024956843232123195 0.006387773292788786
-0.00838796337143245 0.026926086479817105 0.006388293436879808
0.001197803710385264 0.0277519636185913 0.006361723806175802
-0.0009094700217426114 0.03094028481458246 0.0063585673676625045
-0.0029104915344044706 0.0297939317187003 0.0063667141413374755
-0.003281909936374394 0.025201356771986913 0.006378056820970476
0.004322893348209562 0.029384404861701335 0.003268998888975849
0.004603500012308359 0.026601357994344318 -0.0005223598470766166
0.004603500012308359 0.031539227784787315 -0.0017284415653571216
0.004603500012308359 0.026802660523488113 -0.0028755203079141806
0.00460350001230836 0.026822703159284887 0.004144928688005964
0.004603500012308358 0.02714707731944034 0.0015500362724590081
0.004603500012308359 0.028688398960803396 -0.001278477595746006
0.004603500012308359 0.029915058371091756 0.0005874797296119792
-0.016688719150370616 0.03300762297757233 -0.0018576393249990447
-0.010109431589750568 0.033660054662368016 -0.004710802815215605
-0.01476031798605197 0.033265056584734054 -0.0029970523263289986
-0.013605288155272482 0.03343848068489022 -0.0010899973377612477
-0.012106211794819036 0.033530680340625854 -0.002729813605536798
-0.012661795695551231 0.033364551247161096 -0.0062083883593201826
-0.01637481958782057 0.030343228227894578 0.0026974563218278604
-0.016065351782024506 0.032763278208050584 0.0005734550304506291
