-0.0480893225297 0.000953709391038 0.03684193007
-0.0490818298553 -0.00203030749756 0.0352604417442
-0.0394854597978 -0.0278558594473 0.0327965285343
-0.0391290001571 -0.0163504413063 0.0342726245337
-0.0398221773234 -0.0221557871766 0.0315309799012
-0.039403053978 -0.0229950826809 0.0379070208065
-0.0437462830933 -0.00766321790622 0.0379329994321
-0.0488097332129 -0.00364927956747 0.0325459154187
-0.0455156969657 -0.00729300820978 0.0315189641166
-0.0461309252805 -0.00304722502575 0.0316035780594
-0.0427031404561 -0.0123983664977 0.0312079538859
-0.0456580709154 -0.0140720821863 0.0317933467415
-0.0485667382434 -0.00734063445926 0.0354223903366
-0.0473379934287 -0.0123805897271 0.0353024061586
-0.0458791956899 -0.0173594160346 0.0352789696702
-0.0484020561448 -0.00947922756574 0.0331708306361
-0.0469434272659 -0.00878699529069 0.0375263218331
-0.0467699838125 -0.00570226539348 0.0377180325854
-0.04666646187 -0.0017444089065 0.0378997085099
-0.044581196529 -0.015476303157 0.0378012208883
-0.0419349536216 -0.0190130541159 0.0379329994321
-0.0433146646885 -0.0127111738741 0.0379329994321
-0.0413708854884 -0.0249142713698 0.0319658302369
-0.0453182332146 -0.0181160548203 0.0321277767006
-0.0435721127555 -0.02338864072 0.0337129028409
-0.0445543444553 -0.0201688827917 0.0360672440125
-0.0407753916087 -0.0273688613608 0.0360903213263
-0.0423257538026 -0.0226333993238 0.0373182237522
-0.0394859443345 -0.0099262459334 0.0366695153676
-0.0395751569729 -0.00671582920323 0.0360466348271
-0.0398184042808 0.00467265426578 0.0336419055436
-0.0394497051513 -0.000980125285062 0.0338469868594
-0.0392447198634 -0.00654288979826 0.0329967965999
-0.039141763772 -0.0107830833917 0.0334907949243
-0.0328019983664 -0.0264431730145 0.0376157124574
-0.0365920273134 -0.0177985894902 0.0367004018268
-0.0360335780245 -0.0226318543661 0.037823505673
-0.0391280017793 -0.0225787659137 0.0341370257094
-0.0312569998205 -0.0343187658959 0.0350569916467
-0.0312569998205 -0.0310037576296 0.0344090246315
-0.0312569998205 -0.0260029680958 0.0346057976745
-0.0334195089259 -0.0206443851656 0.032700322388
-0.0326368453475 -0.0232169435632 0.0353104373465
-0.0349785294539 -0.0175326658028 0.0323868431778
-0.037949632458 -0.0250779839393 0.0317678036074
-0.0348576930572 -0.0231368577502 0.0315780937986
-0.0324424537562 -0.030862658179 0.0317342703451
-0.0359557651267 -0.0319608701923 0.031912019605
-0.0364362867933 -0.02802537504 0.0317788490538
-0.0371594486357 -0.0324604437354 0.0347259873931
-0.0342906999374 -0.0352906416066 0.0337567758138
-0.0320073013963 -0.0367666422134 0.0328631209098
-0.0386641674605 -0.0201799841376 0.0379329994321
-0.0330282305027 -0.0330554737958 0.0379329994321
-0.0362584139617 -0.0263447365014 0.0379329994321
-0.035522054299 -0.0311155951234 0.0377588308427
-0.0318175080632 -0.036428485539 0.0366259288031
-0.0376848927136 -0.0294011079369 0.0374596291413
-0.0366421667759 -0.0150794173786 0.0351250089488
-0.0121679885774 -0.0444524407428 0.0317341795008
-0.0101641753211 -0.0466242682453 0.0318992028308
-0.00897917085505 -0.0438505992527 0.0316324222078
-0.0152848038132 -0.043852282768 0.0317269316662
-0.0185232177242 -0.0371790006757 0.034067805505
-0.0152750268844 -0.0371790006757 0.033567565531
-0.0254939734439 -0.0386765208093 0.0379329994321
-0.00771877193159 -0.0450041924515 0.0379329994321
-0.0137481716929 -0.0431494563485 0.0379329994321
-0.00642924005893 -0.047561642889 0.0372544692632
-0.00408087056904 -0.0484528273528 0.0358638575833
-0.00549652792523 -0.0433540075825 0.0377849520558
-0.0124324418436 -0.0400578451533 0.0377863212394
-0.00770157973901 -0.0409429340708 0.0376487174943
-0.0102554551128 -0.0426330299139 0.0379329994321
-0.0179053770977 -0.0407104077686 0.0379329994321
-0.0217948624537 -0.0393553573017 0.0379329994321
-0.00251058563361 -0.0398283290983 0.0328842563697
-0.00658179899884 -0.0389990485326 0.0336904344655
-0.0107861859186 -0.038011312493 0.0334726389627
-0.0093275721775 -0.0390952675059 0.0361928854201
-0.0156732760087 -0.038065472121 0.0370005168012
-0.00450600055395 -0.0403031701803 0.0361287562689
-0.023750681801 -0.0371790006757 0.0350669808567
-0.0265036356165 -0.0371790006757 0.0349540320407
-0.0292129544649 -0.038513098517 0.0320346058745
-0.00722373431995 -0.0473965180292 0.0320196460283
-0.0285698107479 -0.0387054088974 0.0371265437394
-0.019401917235 -0.0432159912512 0.037798148536
-0.0234764227958 -0.0431765803579 0.0359303160127
-0.0252484746131 -0.0426932129439 0.0334507459139
-0.0268159698171 -0.0411755281692 0.0357118400403
-0.0226712250804 -0.0437674822211 0.0330984517621
-0.0160165862418 -0.0466617142394 0.0335208084925
-0.0101317551245 -0.0478175484626 0.0364457937507
-0.0167992126706 -0.0442139217443 0.03782038791
-0.0150406920611 -0.0466164900866 0.0360697083863
-0.0184686962724 -0.0457262323666 0.0350611693065
-0.016295902164 -0.0399622782204 0.0315520058126
-0.0203982445266 -0.0385338075928 0.0316422199829
-0.0130273006266 -0.0413147197441 0.0314932995292
-0.0262404138988 -0.0398275835353 0.0318980296432
-0.0230280617855 -0.0403762423936 0.0318104413775
-0.0191174242117 -0.0440378883338 0.03187675848
-0.00324920772596 -0.0465944353766 0.0318043910358
-0.00742426146246 -0.0414474991044 0.0314874486058
-0.0275087890361 -0.0280643780022 0.0338050886404
-0.0224744747306 -0.0318412185349 0.0335826216542
-0.024942953518 -0.0299893177252 0.0340110107215
-0.0181618158718 -0.0351583517837 0.0317815154605
-0.0240790215111 -0.0358020015892 0.0378833880833
-0.0287995172233 -0.0339103702275 0.037790221458
-0.0218583416848 -0.0339141992037 0.0359594406828
-0.0286516897187 -0.0301840675415 0.0372463501344
-0.0211817947244 -0.0365684730564 0.0374243518024
-0.0263170416754 -0.0324523339855 0.0374210123806
-0.0289455579224 -0.0301493043419 0.0314499996603
-0.0232931897127 -0.0346665414909 0.0315312561834
-0.0265996492114 -0.0357580219112 0.0316930645794
-0.0266975202865 -0.0324901863845 0.0315033087831
-0.0297642500616 -0.0337174326823 0.0316660541053
0.0264923429251 -0.0399660424916 0.0371314028347
-0.00115799997002 -0.0446030592056 0.0340378159649
0.0276171544597 -0.0376410000026 0.0344864316242
0.0211874347086 -0.0376410000026 0.0351348492434
0.0240451405042 -0.0376410000026 0.03431756518
0.016152456565 -0.0388872981365 0.0379329994321
0.00660250091056 -0.0429861688777 0.0379329994321
0.0162452869296 -0.0417105564443 0.0379329994321
0.0119984921286 -0.0423973983023 0.0379329994321
-0.000392425839488 -0.0430600646222 0.0379329994321
0.0130770435359 -0.0395282867567 0.0378221283259
0.0089744742428 -0.0404600302776 0.0377278728599
-0.00115799997002 -0.0486493154653 0.0350944199882
0.0274305417343 -0.040180000787 0.0323805480816
0.00906666996308 -0.0465443480643 0.0374895078428
0.0135802473979 -0.0455987082379 0.0374000000798
0.00513829044588 -0.0487370338515 0.0350923833581
0.00321745197498 -0.0442726249022 0.0379329994321
0.00555849100471 -0.0461799193116 0.0378229785249
-0.00115799997002 -0.0466021655658 0.0378854729377
0.00215325346442 -0.0479761683291 0.037158291593
0.000884143002706 -0.03982434833 0.0333331060734
0.00673405942493 -0.0390196678775 0.0353308917821
0.0109119603702 -0.0385372596893 0.0359697521496
0.0182988284283 -0.0438563415633 0.0375380257815
0.0241656584179 -0.0416338894444 0.0368241732157
0.0254256209834 -0.04213793245 0.0340621125943
0.00230586798664 -0.0421737274597 0.0315520100278
0.00878867602072 -0.0427588432083 0.0315444747154
-0.00054332991528 -0.0478585178564 0.0318862223679
0.0165900835062 -0.0422496425118 0.0316884319121
0.0201196609415 -0.0422448214066 0.0318168920194
0.022749551999 -0.0404778967986 0.0318201233638
0.0115983441921 -0.0440430581791 0.0317087690542
0.00431459056629 -0.0452686423562 0.0317125902838
0.025368343723 -0.0381263286432 0.0318067113854
0.0184270231336 -0.0378593402638 0.0316107147054
0.0144023732885 -0.0394787609842 0.0315155307752
0.010796737176 -0.0401744132008 0.0314499996603
0.00745347682977 -0.0393782136218 0.0314499996603
0.00577876701345 -0.0476725435924 0.0321624977715
0.0170651462886 -0.0455285237857 0.0320133000464
0.00194930541675 -0.0488362861553 0.0326625755195
0.0203433819519 -0.0447278914498 0.0338497188246
0.0113060100805 -0.0477086581796 0.0358423330613
0.0157709900573 -0.0465110283904 0.0351598101175
0.0129825761064 -0.0475965423337 0.0333572718585
0.00970744438554 -0.0481763108998 0.0330043840452
0.020812967217 -0.0413303017486 0.0379329994321
0.02933658826 -0.0376410000026 0.0370910022483
0.018120432212 -0.0348717042565 0.0317629443141
0.021701121341 -0.0376410000026 0.0321708820896
0.0268837906194 -0.0290637783793 0.0336599655092
0.0212440560164 -0.0326595175354 0.0333857241329
0.0237973763007 -0.0315015457789 0.0349072227332
0.0158187528248 -0.0367609109473 0.0340744817804
0.0180949983723 -0.0363457570137 0.0359452932545
0.0213652442141 -0.0347742456248 0.0364786215939
0.0265901808939 -0.0355236276573 0.0378349645946
0.0238994442025 -0.0376052475334 0.0373410467366
0.0265703416142 -0.0327359534289 0.0373793754055
0.0332599190252 -0.0343550167286 0.0372256631774
0.0386639982462 -0.023961037615 0.0356256287081
0.0294049996883 -0.0309875492076 0.0342903932949
0.0294049996883 -0.035091637574 0.0351257967638
0.0300700920952 -0.0260770877071 0.0336935881754
0.0315750555738 -0.037479943887 0.0335536586879
0.0341267621648 -0.0350472322867 0.0334453354467
0.0317608116366 -0.0316859196822 0.0379329994321
0.0303605572473 -0.0350692998749 0.0379329994321
0.0355880966824 -0.0289120312245 0.0379329994321
0.0378202056707 -0.0272086754112 0.0379329994321
0.0377321128463 -0.0189958006207 0.0372715465964
0.0316104015707 -0.0282929969352 0.0377632195987
0.0366896590852 -0.0223420726263 0.0379091655934
0.0299793370954 -0.0351992411969 0.0318842176629
0.0358228698928 -0.0327285303598 0.0320335761272
0.0324483910194 -0.0333753854168 0.0318049883978
0.0361499203889 -0.0294701565577 0.0317965411228
0.0362802754912 -0.0259187762699 0.0316536236895
0.0386639982462 -0.0243316814455 0.0322597980977
0.0386639982462 -0.0210845742528 0.0333493638989
0.0386639982462 -0.0164980091792 0.034912979403
0.0326440011594 -0.0272258992102 0.0315723780986
0.0307537349006 -0.0303331272246 0.0316270204902
0.0362522703603 -0.0152006638749 0.0335449306163
0.0331268320808 -0.0206831575701 0.0339000165742
0.0349119387289 -0.0179411890301 0.034901141033
0.0320083618812 -0.0244865309137 0.0360554512654
0.0384610907317 -0.029526506883 0.0358881044984
0.0381083680468 -0.0312188565287 0.0334634497284
0.0347930224156 -0.0316692081196 0.0376042596977
0.046269250181 0.00542300008237 0.0366466045986
0.0420631475175 -0.013087970626 0.0379329994321
0.0416861374573 -0.0177784921753 0.0379329994321
0.0425887474578 -0.0103579582037 0.0379329994321
0.0441530770761 -0.00366252223585 0.0379329994321
0.0421009697336 -0.00622746677085 0.0379329994321
0.0455778957088 -0.00895883851548 0.0378106687437
0.0459450742719 -0.01244807351 0.0373051889333
0.0403508051637 -0.0221287511906 0.0378362849254
0.042403012213 -0.00112084293161 0.0378423814302
0.0396857927136 -0.0152357514092 0.0377142555343
0.0398119841575 0.00313934568288 0.0345898483553
0.0394864983456 -0.00253319807581 0.035415664956
0.0393221304923 -0.00552677816629 0.0359106688649
0.039044542079 -0.00779521828399 0.0343893195329
0.0389101756369 -0.0112330744562 0.0338508105735
0.0456030472006 -0.0141148229341 0.0318662514153
0.0404568868959 -0.01614132532 0.0315425086506
0.0461906945766 -0.0105925709995 0.0318273591832
0.0433204328256 -0.0176536388918 0.0317835094704
0.047076538981 -0.0146743676436 0.0340531652211
0.0490952876058 -0.00526908910191 0.0340898364246
0.0482872814535 -0.0100062692657 0.0340645469221
0.0450722807153 0.00247948875537 0.0378394163592
0.0458220456522 -0.000871236647362 0.0378261201216
0.0485095546917 0.00358832040044 0.0364216419671
0.0466037878244 -0.00568250069096 0.0376479890388
0.0417563553917 0.0030002968307 0.0373025173182
0.0402208764684 0.000413983162978 0.0363138559643
0.0391860306498 -0.0102914227105 0.0369427164306
0.0436685086017 -0.019633044699 0.0370675576281
0.0453312713205 -0.0163700268452 0.0369620025371
0.042554001781 -0.0241103896634 0.0358682192095
0.0452642884274 -0.0194590373433 0.0344371865511
0.0407170022191 -0.0268232365255 0.0360267235441
0.0445440021419 0.0011835110898 0.031643093715
0.0406970456369 -0.00437087309113 0.0314499996603
0.0404326294547 0.000993631180138 0.0314499996603
0.0408476370844 -0.00765822521849 0.0314499996603
0.0474337379618 0.000582598395502 0.0318691428378
0.0442496898991 -0.00334615296889 0.031579002033
0.0478865183608 0.00438715458972 0.0319104016589
0.0445088647164 -0.00650087475993 0.0316233676766
0.0435997427889 -0.0213805395116 0.0319072237221
0.0406482745075 -0.0272449671088 0.0325361542062
0.0424430523952 -0.0242670236329 0.0324285118364
0.0492742582905 -0.00245648304164 0.0334825846832
0.0491507283277 0.000545615814441 0.0342055271856
0.0483235662967 -0.00746218816641 0.0322973802212
-0.044861330738 0.0197811536171 0.0361950927429
-0.0433866846198 0.00542300008237 0.0342491463314
-0.0366557741009 0.0162088193201 0.0332473788827
-0.0419951066841 0.0139283572001 0.0316849182639
-0.0422581793575 0.00925413666091 0.0316319779728
-0.0412289484042 0.0194091566807 0.03176972908
-0.0389640572 0.0214831548728 0.0317096712322
-0.0458893073715 0.015473065203 0.0319019073744
-0.0382009650977 0.0185470888723 0.031595130754
-0.0421668764136 0.0230390593898 0.031911060977
-0.0444911682582 0.0195808009295 0.032405717574
-0.047973435093 0.0109838798374 0.0341402298879
-0.046224550297 0.0170733173183 0.0348337776089
-0.0440472333124 0.0220694337224 0.0344039810779
-0.0367929244526 0.0200098019483 0.0371567087859
-0.0399121832616 0.0105430314981 0.0371399713025
-0.039770730267 0.0219979036087 0.0379329994321
-0.0371037697478 0.0240918831518 0.0379329994321
-0.0386277477953 0.00968451632646 0.0337780233591
-0.038098103346 0.0121880369449 0.0354449018945
-0.0398272397436 0.00769441997139 0.0358416389984
-0.047371688033 0.0080158909829 0.0370359954617
-0.0456778447172 0.0133950867323 0.037525369965
-0.0444435061861 0.0162535110957 0.0376615341019
-0.0378458801149 0.0268471927858 0.0378674025469
-0.0481655734514 0.00621425946685 0.0322728359665
-0.0451861164888 0.00740943502951 0.0317780621137
-0.0451797587939 0.012755438738 0.0318223505721
-0.0443702550787 0.00729663099751 0.0378218418141
-0.0397249948811 0.0166806070106 0.0378867634644
-0.0440597030289 0.0102464683719 0.0379329994321
-0.0391462659199 0.0290389992297 0.0359917643613
-0.0413237902497 0.0271964891421 0.033813136611
-0.041277906011 0.0243874547568 0.0372771128975
-0.0338346047845 0.02317979764 0.0363888388286
-0.0310887262318 0.0289587405033 0.0317850343212
-0.0363489985466 0.0212266818153 0.0326725552561
-0.0363489985466 0.0275877753398 0.0353675000909
-0.0363489985466 0.0242211912353 0.0342817608829
-0.0336244103924 0.0288920968207 0.0370805620297
-0.0352260687329 0.0184201211633 0.0315176098462
-0.0332124888939 0.0214488446015 0.0337129284255
-0.0307591542243 0.0250814671766 0.0343923162237
-0.032481931377 0.0257155002289 0.0369567032394
-0.0357932094809 0.0339300369928 0.0333405996768
-0.0337894013869 0.0358364488963 0.0348698180959
-0.0315524649696 0.0290389992297 0.0351316578377
-0.025969900062 0.0343690569568 0.0377242182557
-0.0230146579623 0.0357680828162 0.0375973610303
-0.029262343732 0.0319335932552 0.0378443688676
-0.0276830418822 0.0372885139229 0.0378878754864
-0.0280749739739 0.0373720005155 0.0319441522561
-0.0246310629035 0.0328893878401 0.0314754388183
-0.0302369969339 0.0336556596667 0.0316846323566
-0.0271588741875 0.0339704651688 0.0316119323738
-0.0209205250578 0.0366795750191 0.0315833166052
-0.0348589672551 0.0295788612245 0.0317077082743
-0.0310984101343 0.0362977794074 0.0372412729132
-0.0323346922463 0.0334746912898 0.0379329994321
-0.0352903785232 0.0336029597497 0.0364576009526
-0.036790430768 0.030942022704 0.0372292943145
-0.016901002493 0.0367274928332 0.0353786203408
-0.0217315712585 0.0334063949925 0.0356596010392
-0.0170703984971 0.0359928796012 0.0318404125555
-0.0200918616823 0.0338873431209 0.0333130156108
-0.0285621426419 0.0291483890886 0.0360669583876
-0.026143913708 0.0299700783047 0.0334727838445
-0.025320040895 0.0311143796224 0.0358664695806
-0.0322526810565 0.0364917253773 0.0323340216381
-0.0377757683235 0.0308446393877 0.0323472252289
-0.0127335416161 0.0408242434391 0.0379329994321
-0.0199623712631 0.0383172232623 0.0379329994321
-0.00301299989223 0.0454337062254 0.0353071777414
-0.0206775246641 0.0373749993742 0.0344425449119
-0.0155531584523 0.0438819637254 0.0379329994321
-0.0103745132798 0.0431872391784 0.0379329994321
-0.00747105935554 0.0445189422987 0.0379329994321
-0.0260361050805 0.0374266945132 0.0355567209226
-0.0218280359591 0.0406262261972 0.0377632897469
-0.0238483007637 0.0386071367542 0.0377551683003
-0.0268928550662 0.0406936748277 0.0333258794166
-0.0242728392487 0.0418648503276 0.0322551700443
-0.021504436526 0.0434937293257 0.032093035916
-0.00446151295208 0.0488532533993 0.0345347839788
-0.00957643501465 0.0484366628909 0.0331980988544
-0.00895153675965 0.03849247969 0.0329361983622
-0.0107506925559 0.0386456400781 0.0352381310702
-0.00684982929059 0.0395270877293 0.0355351409086
-0.0135413685803 0.0376380225656 0.0339710763705
-0.0215973287857 0.0398310500265 0.0316842616174
-0.0247996770831 0.0390711623444 0.0317781949281
-0.00733187696904 0.045824160701 0.0319946816147
-0.0149402638771 0.0453019943016 0.0320351109546
-0.0118603144677 0.0460264251352 0.0320920492217
-0.0096819312623 0.0442437068921 0.0318043999142
-0.00389546764225 0.0438094365461 0.0316548626567
-0.0144545597087 0.0422699531909 0.0316746384761
-0.0183036546558 0.042991591005 0.0318054975091
-0.00725987660373 0.0417394125751 0.0314874106273
-0.016904181002 0.0400010342867 0.0315666505473
-0.0279656164238 0.0399139737176 0.0363032033152
-0.0251264579771 0.0416163749818 0.0367438397795
-0.0230158564783 0.0433761729027 0.0351498993983
-0.0200845730969 0.0449391381118 0.0347605293069
-0.00561645895353 0.0468237694332 0.0375541270986
-0.00996937096053 0.0477974427469 0.0364307003046
-0.0140719857962 0.0468166304856 0.0362318504833
-0.018385510574 0.0438196018987 0.0373884394693
-0.00531274030158 0.0418500324308 0.0375252445711
-0.0168103094122 0.0388774078192 0.0378625272264
-0.00945665901138 0.0402820754524 0.0373979836389
0.0354229994118 0.0236291196943 0.0336907847321
0.0307029900773 0.0247556563427 0.032755864037
0.0290607304181 0.030236576809 0.0345443751823
0.0330767811735 0.0270284688418 0.0373474750706
0.0335887398482 0.0244089511435 0.0366852997254
0.0301036867154 0.0267930114707 0.035324866924
0.0350842499403 0.0304279997945 0.0351761812621
0.0354229994118 0.0267549124199 0.0347697797327
0.0334928475501 0.0274616680689 0.0318733568812
0.0350707071783 0.0214466780908 0.0359982628677
0.0483798918512 0.00819892629617 0.0327549843564
0.0474675845496 0.0139191163664 0.0343696640118
0.0456683817623 0.0103609707119 0.0318842628723
0.0432775170011 0.00714070403695 0.0317583079722
0.0451928657961 0.00542799988762 0.033616664092
0.047736278575 0.00834897139058 0.036567554616
0.0449430312357 0.0186094262963 0.0363600501964
0.042226838819 0.0226087661753 0.0369273834368
0.0426446103392 0.0233976759317 0.0319554073779
0.0381665198374 0.0160714276165 0.037361877835
0.0367241661944 0.0196069409225 0.0371360364928
0.0427463531752 0.00991535875991 0.037736735284
0.0411301788077 0.0138496536029 0.0378250277929
0.0438868664641 0.00667588492186 0.0376259230326
0.0391102470726 0.00692859876 0.0322888464385
0.0366499775911 0.0155182649655 0.0343527416662
0.0358111319584 0.0181676062845 0.0340846532341
0.0392775522724 0.0082081364333 0.0347585031156
0.0380173517104 0.0123991202461 0.0353837166275
0.0396164690037 0.0290740416045 0.0361725452412
0.0416666180612 0.0262915080254 0.0348852689929
0.0444042559028 0.021851807875 0.0342647128042
0.0457514833351 0.0101754581765 0.0376975071956
0.0442371608526 0.0154838643981 0.0376750764772
0.0387573625513 0.0228768440481 0.0379329994321
0.0416976964051 0.0172461639902 0.0379329994321
0.0379918098737 0.0264709971202 0.0378248655583
0.0420958372667 0.015969554662 0.0316983989159
0.0428098676367 0.0126130047923 0.0316953227338
0.046207744171 0.0147242967817 0.0319003966902
0.0437095578801 0.0200222219139 0.0318770108652
0.0376187296759 0.0281325744097 0.0318856215571
0.0394079215925 0.0230206963341 0.031685502804
0.0476893315216 0.0114745800566 0.0359502814266
0.0465886677303 0.0168835216074 0.0338536125995
0.0286731663345 0.0358326513328 0.0317271923951
0.0191882214104 0.0373775287402 0.0315670803531
0.0319167189071 0.0304290000349 0.034546502658
0.0296780764622 0.0382990017533 0.0336717642462
0.0363742630847 0.0330440857466 0.0332094211188
0.0231945888175 0.0368415719552 0.0376258830444
0.0262751680503 0.0380815837971 0.0379245177965
0.0200881151966 0.0382990017533 0.0365295362071
0.0247235739122 0.0334817040839 0.0372112861369
0.0307534237272 0.031053891107 0.0376494951877
0.0277368597555 0.0322468661873 0.0375264475983
0.0201229602192 0.034684062969 0.0358935170447
0.0136530885951 0.0373420527408 0.0330478958721
0.0241387634434 0.0315382962334 0.0334415347368
0.0164800423817 0.0358242276528 0.0338145910686
0.0319168832433 0.0339511314986 0.0377084680914
0.0291262655748 0.0374611466351 0.0374251817583
0.0319827629524 0.0368795455721 0.0362551456626
0.0375839318669 0.0315331343595 0.036449139857
0.0346471013541 0.0322671514718 0.0373846950881
0.0301714620009 0.030764332209 0.0315538317843
0.0203754906183 0.0341900695913 0.0314499996603
0.03158958896 0.0359383604825 0.0319532337681
0.0338107744527 0.0339985455174 0.0320728492514
0.0108064962922 0.0460240446674 0.0317523524029
0.0157470859084 0.0447615979454 0.0317938124429
-0.00301000010222 0.0420556767682 0.0340661046983
0.0072647727638 0.0419038627492 0.0379329994321
-0.00174251966796 0.0441204117375 0.0379329994321
0.00298790728935 0.0434558257759 0.0313842830836
0.00636659807734 0.0434338471218 0.0312312666861
-0.000321034834266 0.0426760199867 0.0314847487814
0.0257138084608 0.0383353701461 0.0346812446385
0.00175566042752 0.0396310316161 0.0314179435128
-0.00102504004697 0.0398891662997 0.0328086311521
0.0108409866907 0.0427664048595 0.0379329994321
0.0152979227125 0.0407530722259 0.0379329994321
0.0103946375764 0.048108255482 0.0344113944218
0.0155744692669 0.0467371790363 0.0350953367244
0.00639026779831 0.0485789818705 0.0357163098598
0.020165721844 0.0439275252003 0.0367410935759
0.023435425923 0.0427273978873 0.0363976907799
0.00113081906221 0.041910694414 0.0376203851034
0.00406487392715 0.0409032706494 0.0374210551754
-0.00267759934234 0.0470046652714 0.0377093908084
0.015061180034 0.044006887253 0.0377635731567
0.0232912719198 0.0397451554162 0.0379329994321
0.00107771569596 0.0463521984563 0.0379329994321
0.00412265630509 0.0447924223256 0.0379329994321
0.020087449615 0.0410306041866 0.0379329994321
0.00829047523862 0.0466598637529 0.0373792995324
0.00333402907974 0.048207551189 0.0366120659646
0.0114345492609 0.0462767909504 0.0372267077655
-0.0010402550601 0.0490525928659 0.0350130684383
0.0260877442253 0.0420573809029 0.0343723139019
0.00204859280947 0.0461786574806 0.031629299669
0.0074832095533 0.0461571821843 0.0316259828582
0.00365138764411 0.0484564312058 0.0323221596661
-0.00047267789459 0.0486622159284 0.0322330714623
0.0170926381431 0.0383000001311 0.0364633015019
0.00643530364374 0.0390623882452 0.0343297055776
0.00955986939594 0.038535037249 0.0323940780566
0.00908059631353 0.0395244603807 0.0369001037357
0.013883038148 0.0386826724248 0.036804524776
-0.00163250258745 0.0411773700118 0.0367735870407
0.00175654448959 0.0398606344376 0.0355064877061
0.0180462764379 0.042687694909 0.0315470420904
0.024125545438 0.0408879606856 0.0317921831619
0.0269607006494 0.0395255876843 0.0318218593312
0.0205066817148 0.0407078467113 0.0314437196733
0.0210518359255 0.0442675082588 0.0326026099373
-0.0118434921315 -0.0306796952111 -0.0354682950116
-0.0209627140514 -0.0271723893447 -0.0368931105055
-0.0236282113378 -0.0261472235629 -0.0347442439541
-0.0158041499771 -0.0291564031344 -0.0346188648841
-0.0187732254636 -0.0280144794085 -0.0351989951287
-0.017916193124 -0.0309192444845 -0.0324519984424
-0.00208068897081 -0.0344345261712 -0.0347614545854
-0.00865674720562 -0.0319053358711 -0.0345422049689
-0.00213395611067 -0.0363398539933 -0.0324519984424
-0.00992560230518 -0.0337149607808 -0.0324519984424
-0.00840597824522 -0.0369654086106 -0.0324519984424
-0.0193056503508 -0.0330390643981 -0.0348663983958
-0.0228150782557 -0.0304239705495 -0.0357833803913
-0.0249243666593 -0.0284130174962 -0.0372773527731
-0.0141679326228 -0.0355570111705 -0.0337665086321
-0.0149842957835 -0.0350409216822 -0.0366119778497
-0.0252918299461 -0.0266122066479 -0.0324519984424
-0.0231198862117 -0.0304979682308 -0.0325274193537
-0.00478331026076 -0.0377010930474 -0.0347959301498
-0.014201749364 -0.0325660630835 -0.0375440008938
-0.0194293980144 -0.0302205530223 -0.0375440008938
-0.00238134132876 -0.037251205435 -0.0375440008938
-0.010821809605 -0.0364664036817 -0.035560632021
-0.0072866558802 -0.0371947840202 -0.0364633721475
-0.0052687783482 -0.0334364727508 -0.0371805083998
-0.0157216954311 -0.0297068950804 -0.0373449709376
-0.00845477528739 -0.0340751213627 -0.0375440008938
-0.0356520814323 -0.0135215576597 -0.0351785204284
-0.0373077460633 -0.00553448556464 -0.0324519984424
-0.0307712704452 -0.0194398133355 -0.0375440008938
-0.0352640803036 -0.0118620476439 -0.0375440008938
-0.0328667307678 -0.0150367464372 -0.0375440008938
-0.0262325376821 -0.0219395075191 -0.0324519984424
-0.0298239211998 -0.0137553691558 -0.0362518924163
-0.0317322873738 -0.00934782052872 -0.0345459446091
-0.0306139475191 -0.0116801284494 -0.0324678518522
-0.0271333701623 -0.0193680999661 -0.0337683933847
-0.0302401812905 -0.0231480699551 -0.0345078105379
-0.0283057694958 -0.0245181246619 -0.0324519984424
-0.0359468839833 -0.00259449978554 -0.0375316559374
-0.0367842471948 -0.00741150344112 -0.0373646175354
-0.0271002982527 -0.0219097509257 -0.0375440008938
-0.0331019420742 -0.00858663680816 -0.0375440008938
-0.0313924278911 -0.0114163857641 -0.0375440008938
-0.0288673401066 -0.0168242691226 -0.037525463562
-0.0251222465958 -0.0246009142157 -0.0371250691401
-0.0273261816062 -0.0257914292694 -0.0348245161864
-0.0378583939209 -0.00431533369134 -0.0351093076355
-0.0366585133238 -0.0102832193321 -0.0354235390474
-0.0319598369784 -0.0208351163385 -0.0350483708123
-0.0305364960997 -0.0222776408266 -0.0374538296411
-0.0335671140085 -0.0178978630108 -0.037238560753
-0.0340829141222 -0.0173707237677 -0.0344248971412
-0.0231427832677 -0.0209080231042 -0.0323051007827
-0.0332576758201 -0.00447929145947 -0.0324241244709
-0.0247651421682 -0.0160571230454 -0.0322686756166
-0.0224029586436 -0.0123808673118 -0.0320526502454
-0.0230638188523 -0.0244015716078 -0.0323884856036
-0.031144910325 -0.00770733115198 -0.0323941637128
-0.0278691124617 -0.00984480383134 -0.032275867045
-0.0256733589606 -0.012493455839 -0.0322270367534
-0.0344718236873 -0.0152995815373 -0.0324519984424
-0.0300340366382 -0.0189563617078 -0.0324519984424
-0.0335064247575 -0.0115051279052 -0.0324519984424
-0.0291746595235 -0.0246708608627 -0.0287469998002
-0.0275134840623 -0.0275514576004 -0.0287469998002
-0.0322803663191 -0.0217439526801 -0.0287469998002
-0.0311521589486 -0.00106000003871 -0.0314654943346
-0.0257928251096 -0.00423059613425 -0.0303655109831
-0.028264096335 -0.0211508269575 -0.0287469998002
-0.032803367989 -0.0163441948548 -0.0287469998002
-0.0353223397637 -0.0125233354125 -0.0287469998002
-0.0355035699426 -0.00847364288517 -0.0287469998002
-0.025601137827 -0.0109671033927 -0.0290713723291
-0.0353019192304 -0.00547876990007 -0.0287906109955
-0.0255166014665 -0.0250098642935 -0.0287754526122
-0.0247989395401 -0.016284295064 -0.0289909052335
-0.0210289012203 -0.0249631053765 -0.0289604629539
-0.0206479332473 -0.0185129798649 -0.029113598242
-0.0235529858829 -0.0195443114925 -0.0289724920161
-0.028884990285 -0.017120560001 -0.0288055321577
-0.0270357435922 -0.0137471555691 -0.0289532782187
-0.0294857250939 -0.00950723613866 -0.028943212672
-0.0324884809262 -0.00782229567691 -0.0288560100624
-0.0229132025246 -0.0281184782616 -0.0288159278605
-0.031855522053 -0.0120731525482 -0.0287913373126
-0.0342400112461 -0.00835061987556 -0.0324519984424
-0.0206059999764 -0.0327273593746 -0.0318042721552
-0.0228101501105 -0.034240017177 -0.0292217797552
-0.0306372986278 -0.0275457055874 -0.0298294122997
-0.0273154690983 -0.0309252295847 -0.0304636278417
-0.0248879800411 -0.0321770210408 -0.0307124373083
-0.0377906393744 -0.00850162831676 -0.0319293342976
-0.0367845863103 -0.011094435795 -0.032238070665
-0.0367843657971 -0.0168302250142 -0.0307508697931
-0.0324794890574 -0.0257142438146 -0.02876988991
-0.0393469787661 -0.0123648249637 -0.0297134948246
-0.0343885589366 -0.0187739126146 -0.031742221068
-0.0328212028526 -0.0223072471776 -0.031479016593
-0.0279868525802 -0.0280824491954 -0.0315675938554
-0.0235553909016 -0.00865968452026 -0.0293286021853
-0.0229687960042 -0.011829690157 -0.0291627086127
-0.0309704504221 -0.00256448987914 -0.029044770045
-0.0284248681162 -0.00558497275232 -0.0290804736427
-0.0400819938312 -0.00581324974569 -0.0308248118266
-0.0390845114001 -0.00318284090581 -0.0316959618706
-0.0293813905343 -0.0048411073773 -0.0322196670039
-0.0247552980191 -0.00918923094797 -0.0320893516949
-0.0338815668745 -0.00147406520641 -0.0323747161332
-0.0295552176512 -0.0146824821939 -0.0324519984424
-0.0205726158712 -0.0219994299854 -0.0290135816867
-0.0205265844977 -0.0152051822528 -0.0291762210614
3.84175992553e-05 -0.00106000003871 -0.0296950593089
0.000232000005781 -0.0227814468991 -0.0318989855602
-0.0193930564927 -0.0099826021133 -0.0294749889827
-0.018958989438 -0.00744297230402 -0.0315626430143
-0.018170924477 -0.00429119776611 -0.0318970537779
-0.0206059999764 -0.017025861907 -0.031698705531
-0.00346144331202 -0.0409412095681 -0.0290727330407
-0.0162899623028 -0.0378134300935 -0.0299243542223
-0.00868276997307 -0.0398406502674 -0.0305258443516
-0.0153274022617 -0.0327026475741 -0.0324519984424
-0.0204809092518 -0.0291742897316 -0.0324519984424
-0.00420547300333 -0.00111205748914 -0.031988868101
-0.018995436698 -0.0226116618117 -0.0323479556886
-0.0100348246058 -0.00957859611476 -0.0321302767002
-0.0121128660967 -0.0132631254062 -0.0321918159134
-0.0151485948996 -0.0128757790878 -0.0321853464336
-0.0175022645195 -0.0184475216246 -0.0322784059875
-0.010468617711 -0.00617851906336 -0.0320734884241
-0.0147935880123 -0.00897821798763 -0.0321202491513
-0.00433148451637 -0.00650505324094 -0.0320789422161
-0.0142532249981 -0.00193083522859 -0.0320025433724
-0.0178273920649 -0.0104761060691 -0.0321452669614
-0.0179951323302 -0.0141343634807 -0.0322063673802
-0.00710160980697 -0.00526602778607 -0.032058247944
-0.0113215408008 -0.00248948557895 -0.0320118739816
-0.0137639824179 -0.00620385715453 -0.0320739116223
-0.019720277123 -0.0256450457978 -0.0323986194367
-0.0095699959141 -0.0180455706642 -0.0322553308273
-0.0134603362156 -0.0299080845812 -0.0324255776346
-0.0155185043325 -0.0227974480384 -0.032347972149
-0.00814041079592 -0.0276707553146 -0.032367932557
-0.00116066885226 -0.0101705860195 -0.0321098688659
-0.00598890981438 -0.0127518294785 -0.0321690840124
-0.00888690179465 -0.0144266023495 -0.0322061974985
-0.00123235277125 -0.0273082982445 -0.0323249288042
-0.00896364708143 -0.0213761301002 -0.0322936720921
-0.00167149414396 -0.00550733377824 -0.0320543029009
-0.00277243386997 -0.0163462319911 -0.0321961970139
-0.0016081155171 -0.0128858767939 -0.0321463709816
-0.0144216389663 -0.0262708052034 -0.0323853708734
-0.00676261461244 -0.0192798118488 -0.0322551591188
-0.00333383371565 -0.0330071726477 -0.0324080117989
-0.00739008385205 -0.0247978313742 -0.0323277695618
-0.00451430752543 -0.0241182166785 -0.0323032447641
-0.00248010814879 -0.0298700738385 -0.0323639641258
-0.0009306058756 -0.0198642397471 -0.0322300070982
-0.00534243680805 -0.0295443569816 -0.0323758216269
-0.0113584445486 -0.0268465184474 -0.0323755263257
-0.0119315719865 -0.0229253157723 -0.0323296019014
-0.00546415220152 -0.0101062655079 -0.0321330248058
-0.00560994826612 -0.0353800136588 -0.0324504064502
-0.0122677518924 -0.0190464089728 -0.0322828879472
-2.35265718629e-05 -0.0401453103162 -0.031073826891
-0.00567452810667 -0.0386694279753 -0.0316950267547
-0.0170296912679 -0.0350285270488 -0.031853474644
-0.011329103918 -0.0375649720625 -0.0317576670798
-0.0176330279223 -0.015481460216 -0.0290015284878
-0.0130071660019 -0.0203922355217 -0.028930199677
-0.0178028011905 -0.0199026458849 -0.0289373109465
-0.00303116532112 -0.00150611678241 -0.0292045197806
-0.0174204158378 -0.0233634055811 -0.0288870435533
-0.0109660699956 -0.0098076716013 -0.0290839400358
-0.0173181213599 -0.0125636763652 -0.0290439091791
-0.00737248471736 -0.00747630786763 -0.0291178029988
-0.00468792957176 -0.00459993396761 -0.0291595822123
-0.0156457618454 -0.00998174281703 -0.0290814116585
-0.00861450267723 -0.0030738435858 -0.0291817486127
-0.015964454417 -0.00108076246151 -0.0292106980347
-0.0104879773049 -0.015094630654 -0.0290071471714
-0.0193825745419 -0.0276642086253 -0.0288245745647
-0.0140786850169 -0.0153176528499 -0.0290039077831
-0.0110398246759 -0.0046101296765 -0.02915943412
-0.013469482879 -0.00237654953136 -0.0291918767804
-0.0159174586477 -0.00451621048414 -0.0291607982924
-0.0132287702481 -0.0320290885575 -0.0287922509629
-0.000970337869881 -0.0262085128041 -0.0289158048857
-0.00734245444015 -0.0219408897339 -0.0289355807157
-0.0118362884242 -0.0289026550575 -0.0288346798202
-0.0181110282275 -0.0317953129128 -0.028772435013
-0.00461183426774 -0.0365601268584 -0.0287797904184
-0.00461915706851 -0.00921468489196 -0.029094711736
-0.00986913367469 -0.0193417666977 -0.0289538678342
-0.00176564890865 -0.0151272931089 -0.0290397678408
0.000169838269011 -0.0107230800919 -0.0290994171058
-0.0152443200992 -0.0251941018031 -0.0288616816946
-0.00961254779689 -0.0313174339797 -0.0288171192849
-0.00779130069856 -0.0340855256707 -0.0287936338177
-0.0085060337285 -0.028184910604 -0.0288582998966
-0.00250642813968 -0.0192074123615 -0.0289893592907
-0.00421649906605 -0.0219150281716 -0.0289502900573
-0.0156425277953 -0.0291909954873 -0.028813811052
-0.00220630155408 -0.0337825848636 -0.0288228712987
-0.0104021909005 -0.0358987929203 -0.028760712359
-0.00163636799944 -0.0302780834661 -0.0288658624435
-0.0103823151993 -0.0251069800642 -0.0288851002545
-0.00206875158514 -0.0078549256517 -0.0291221310002
-0.00344421629059 -0.0127940781113 -0.0290589023439
-0.00578431764881 -0.0259894047615 -0.0288961347799
-0.00531052501323 -0.0161954822916 -0.0290111220054
-0.00574475277257 -0.030443530498 -0.0288450161479
-0.0344379158858 -0.0192399366434 -0.0287420004606
-0.03145525497 -0.0232495084773 0.0314439982176
-0.0284956592752 -0.0263067395901 0.00888713785421
-0.0292659252587 -0.0248576277572 -0.000973135057503
-0.0341022040057 -0.0195675925758 0.028865011713
-0.0298131654331 -0.0243595106801 0.0048234148825
-0.028731280383 -0.0263681567232 0.0180290985436
-0.031282102731 -0.0229542442999 0.0187402150574
-0.0322175687736 -0.0215527484975 0.0153993355545
-0.0277135302263 -0.0271958527358 0.00487115456053
-0.0327071271176 -0.0211039819298 0.0205089319145
-0.0300553434586 -0.0247402964258 0.0218722539717
-0.0316177413045 -0.0227700944632 0.0252189967567
-0.0282690015404 -0.0274622093711 0.0293516902767
-0.0306125784856 -0.0242368829981 0.0278662470157
-0.0301314178004 -0.0243684654656 0.0153887211707
-0.0282993280808 -0.027075125662 0.0210129950913
-0.0285189503111 -0.0257141051058 -0.0046321073059
-0.0316176369692 -0.0221672048271 0.0106918844367
-0.0287798561382 -0.0256462928303 0.00221895419458
-0.0283562925601 -0.0272024380087 0.0259324602266
-0.0313154811653 -0.0224275358214 0.00713718191895
-0.0277987698099 -0.0273949649615 0.0124397995355
-0.026688231008 -0.0288039867324 -0.00509606082152
-0.0267204623498 -0.0285701305882 -0.0125339908795
-0.027088353084 -0.0276273796524 -0.0225670661194
-0.0267003070624 -0.0285160157548 -0.0165704465162
-0.0276457741565 -0.0268957601233 -0.00755372956985
-0.0276313210125 -0.0268535674891 -0.0105951153399
-0.0269104732037 -0.0289321936837 0.0190973677185
-0.0328377070104 -0.0196818252558 -0.0257915346829
-0.0310090670464 -0.0222149817358 -0.0255116937648
-0.0302189685148 -0.0231477860968 -0.0185565425694
-0.0294408063983 -0.0243352138916 -0.0230641524635
-0.0312498610635 -0.0217963415569 -0.0219526780272
-0.0281081523344 -0.0262442839605 -0.0255224559186
-0.0284526478269 -0.0256285162111 -0.0197191813649
-0.0360912753862 -0.0168040003628 -0.0158837178947
-0.0369652649083 -0.0204228845884 0.0314439982176
-0.0266260001808 -0.0296211131386 0.0100676928129
-0.0266260001808 -0.0301763312386 0.0270419262593
-0.0266260001808 -0.0296833364406 0.0162716495421
-0.0278957769318 -0.0324070131614 0.0131972956748
-0.0283615206723 -0.0318436123843 0.00600357496963
-0.0284954006899 -0.031658239542 0.0029007673577
-0.0277620899148 -0.0320099621862 -0.00820235290353
-0.0284486693291 -0.0313271687922 -0.0122935077332
-0.0285433741168 -0.0314267144227 -0.00502257988869
-0.0374909434935 -0.0191645592948 -0.0232598739328
-0.0382160129927 -0.0182266850698 -0.00496245041673
-0.0376360614164 -0.0190071639104 -0.0188852353806
-0.0379675103653 -0.0169557488985 -0.025222534466
-0.0386035146954 -0.016896395262 0.00482629724815
-0.0334989337154 -0.0264288289444 0.0133379328525
-0.0326623113802 -0.0273741464656 0.00841788355906
-0.0329167988543 -0.0273678724707 0.0213424294394
-0.0334301427388 -0.0267979148336 0.0247708910352
-0.0300052183432 -0.0304689215762 0.0286390995123
-0.0319019866302 -0.028499463623 0.029967000981
-0.03145409365 -0.0289578043607 0.0182542685481
-0.0298534930036 -0.0306231812204 0.0219639056334
-0.0278453068051 -0.0326782629983 0.0241750637332
-0.0320721578631 -0.028458914133 0.0270693788473
-0.0303487802396 -0.0301744265088 0.0255477041198
-0.0296647051689 -0.0307304556642 0.0160651798242
-0.0306261935711 -0.0297265221151 0.0135856334573
-0.0289175101591 -0.0315229283123 0.0188657397895
-0.0294448906067 -0.0308490205894 0.0087464403144
-0.0343991434635 -0.0241383771814 -0.0255229213906
-0.0340019621911 -0.0255074782272 0.0036657470724
-0.0332162532639 -0.025917366653 -0.0204589204999
-0.0346512479769 -0.0245282888146 0.00078974513093
-0.034822112421 -0.0236435717392 -0.0223004943122
-0.0343672078839 -0.0253682037755 0.0167063634666
-0.0346328907269 -0.0241481892766 -0.0136531564993
-0.0331258161677 -0.0261842605686 -0.0154100622523
-0.0344055014372 -0.0256142563681 0.0273574251655
-0.0338796566447 -0.0252774905554 -0.0105536726894
-0.0338739545707 -0.0254357546438 -0.00519774386741
-0.0372844137417 -0.0185704696942 -0.0284168475421
-0.0377107106154 -0.0202250166348 0.0246946094568
-0.0377544938042 -0.0194414866708 -1.62321913527e-05
-0.0380148576143 -0.0194929793471 0.0182859660235
-0.0368179114827 -0.0213672720272 0.00819760285095
-0.0377343213863 -0.0197854591415 0.010771635482
-0.038020830811 -0.0195671770284 0.0212671324717
-0.0368642978985 -0.021879137701 0.0290918451244
-0.0371016058413 -0.0207642894609 0.00502014462253
-0.0370690830024 -0.0203678841634 -0.0109455974538
-0.0349346596915 -0.0246909102758 0.0216959371204
-0.0356188012857 -0.0232240175075 0.00492588707236
-0.0359886051647 -0.0232341442736 0.025182760462
-0.0350648560437 -0.0233710313204 -0.0194958811517
-0.0353184077782 -0.0237492143241 0.00794828262152
-0.0365524659089 -0.0214933414179 -0.00223947735355
-0.0354435928282 -0.0230398405457 -0.0108314152494
-0.0367213902601 -0.0213505241675 0.00202963871497
-0.0360796607103 -0.0221595048865 -0.00568718576801
-0.0361464923099 -0.0226010475455 0.0118933441875
-0.036174576859 -0.0227218402906 0.0172149604454
-0.0365516633499 -0.0210256523297 -0.0172043418619
-0.0270012904069 -0.032111000334 -0.023652571559
-0.033416654892 -0.0200213797165 0.0174672910116
-0.0353185539273 -0.0175633827602 0.018162673669
-0.0343007581196 -0.0186804537881 0.0118529377016
-0.0330798610128 -0.0201466421171 0.00806264689932
-0.0349595380303 -0.0181362978783 0.0212926237082
-0.0349609881472 -0.0179334955517 0.0152774307031
-0.0352991909305 -0.0178494297551 0.0259705182416
-0.0313124311884 -0.0222434572587 0.00180588512148
-0.0369544471762 -0.0168438667961 0.0233267658335
-0.0358412687721 -0.0168040003628 -0.0028436151535
-0.0365556624553 -0.0168040003628 0.000596886395443
-0.0292011991205 -0.0304273615627 -0.020560943567
-0.027986362445 -0.0313214093412 -0.0270196869071
-0.0289942001507 -0.0307344418822 -0.016333613446
-0.0309230508262 -0.0287699861963 -0.0180237336753
-0.0309555169901 -0.0285661341702 -0.0247550351459
-0.0318571633848 -0.0278198752051 -0.0120014793839
-0.032204471745 -0.0277088207926 7.80179687956e-05
-0.0324092213988 -0.0273925006361 -0.00299245687956
-0.032268201097 -0.0274242249815 -0.00844031205008
-0.0318329818441 -0.0282312498848 0.00355699055678
-0.0316286358481 -0.0278426338598 -0.0219939679781
-0.0304694323717 -0.029367014848 -0.0141756189144
-0.0300083542528 -0.0301230389811 -0.0013167230698
-0.0315827425263 -0.028673240314 0.0105975791874
-0.0300764875618 -0.0298921451565 -0.00909532060733
-0.0326612527518 -0.01986976994 -0.0202049445299
-0.0285232448919 -0.0253885015867 -0.0136641808115
-0.0341477895615 -0.0178872222955 -0.0241429679431
-0.0336450688927 -0.0191654622892 -4.89607650975e-05
-0.0345293318909 -0.0174604728313 -0.018520825287
-0.0302910415805 -0.0230693758402 -0.0143016953273
-0.0310692505402 -0.0223064330722 -0.00629550301243
-0.0319576033822 -0.0208422676645 -0.0166712769133
-0.0310758962478 -0.0221338057521 -0.0116915290044
-0.0336174753711 -0.0187489809738 -0.0149232600715
-0.0325395681435 -0.0204562187244 -0.0046147737037
-0.0338141506892 -0.0191058473399 0.00518244238298
-0.034000502904 -0.0183455180939 -0.0119020974222
-0.03410733871 -0.0183248196465 -0.00803835430519
-0.0404694517565 -0.0138509908677 0.0247442493904
-0.0408102750265 -0.0124117459277 0.0164079255585
-0.0404580655683 -0.0131175184138 0.0090691344312
-0.0403300387426 -0.0133392605535 0.00569107833576
-0.0367188067478 -0.0143394783937 0.0204182155033
-0.036967160325 -0.0135813383563 0.0241370398546
-0.0374059340702 -0.0089322502887 -0.0100757132783
-0.0366016533478 -0.012105509438 -0.0132707220717
-0.0381990899303 -0.00695406617043 0.00726041942549
-0.03641051091 -0.01520591931 0.0148815516475
-0.0366946258325 -0.0149392733791 0.0265374482773
-0.0360230144297 -0.0159254980389 0.00337003060625
-0.0381244209582 -0.00812334949503 0.0177419413363
-0.0380531163107 -0.00815209699813 0.0143462658575
-0.0369185274731 -0.0121777450856 0.00428381296978
-0.0391814715812 -0.00296885975908 0.00981663017275
-0.0372866619271 -0.00971227852405 -0.00673642644929
-0.03581923275 -0.0148141524458 -0.0210412876339
-0.0361685352648 -0.0158508742108 0.0101034315166
-0.038292471927 -0.00590525113087 -0.000752526795869
-0.0380783410844 -0.00703888078794 0.00195535300713
-0.0372082705019 -0.0120238132646 0.0176245990949
-0.0389213786788 -0.0037716458976 0.00603058104781
-0.0364837437543 -0.01313432069 -0.00679417733245
-0.0361539215083 -0.0156442794047 0.00678915185202
-0.0363719456392 -0.0133768894223 -0.00968461681981
-0.0368817652949 -0.0126608838563 0.0083039133867
-0.0380511383942 -0.0078460648629 0.0104711998199
-0.0364768026865 -0.0134390959705 -0.00340364838561
-0.036175474286 -0.0137313026731 -0.0156498325085
-0.0364827433399 -0.0136948915159 6.0783240814e-05
-0.0380307541802 -0.00670024254083 -0.00472007621279
-0.0369031199709 -0.0128636071991 0.0119249925152
-0.0374177061957 -0.00978710845886 0.00107727898953
-0.0384423442524 -0.00484528165775 -0.0287420004606
-0.0371052408906 -0.00927715276858 -0.0262813521045
-0.0377122889135 -0.00721917510877 -0.0189653603095
-0.0381392621655 -0.00566111951212 -0.0160082171344
-0.0365974407459 -0.0116316132768 -0.0198711038451
-0.0385503717814 -0.00388837239139 -0.0185570511809
-0.037342685197 -0.00855694157928 -0.0217418174971
-0.039321189317 -0.00150815610344 -0.00465550204133
-0.0372512954275 -0.00935257338321 -0.0132259369891
-0.0377375671619 -0.00681797407108 -0.0249065895944
-0.0387142846219 -0.00400215408932 -0.00332847548489
-0.0390533940517 -0.00294342922352 0.00255795735579
-0.0364274833521 -0.0120161632083 -0.0257129773733
-0.0390610808418 -0.00229661195377 -0.00963823220912
-0.0383423494612 -0.00507592101755 -0.0115157647602
-0.0390301701414 -0.00172000031671 -0.0235001523057
-0.0370250177016 -0.010069625313 -0.0169440157606
-0.0382726903762 -0.00483213513895 -0.0218564042669
-0.038763196787 -0.00325130833244 -0.0143204728258
-0.03906510368 -0.00141834309616 -0.0267064060788
-0.0381792947002 -0.00592404839886 -0.00763398781318
-0.0384184640951 -0.00740392408737 0.0241288585243
-0.0390739447236 -0.00490735033853 0.0276112054219
-0.0398791127359 -0.00160706222167 0.0290869517674
-0.0379471588284 -0.00974311319221 0.0281512465716
-0.0391621512427 -0.00423566294379 0.0240528469171
-0.0378155788446 -0.00987281371423 0.022996691187
-0.0398418027417 -0.00148347192246 0.0257018005791
-0.039163260445 -0.00332736173004 0.0132146165558
-0.038961896625 -0.00481324385715 0.0207682338318
-0.0386358009209 -0.00580192407799 0.0159970287467
-0.0405175021141 -0.00106000003871 0.0226308006081
-0.0397057714575 -0.00376108188499 0.0314439982176
-0.0377074690134 -0.0119568241576 0.0314439982176
-0.0421475535392 -0.00150572775137 -0.0110065915041
-0.0422277501498 -0.00169440022248 -0.00688232832383
-0.0397730301752 -0.00106000003871 -0.0178744129354
-0.041601190829 -0.00520592005543 -0.024820873083
-0.0418763812574 -0.00332848027592 -0.0185948299917
-0.0418631493213 -0.00417892537107 -0.0154265591629
-0.0422260224811 -0.00254216379411 -0.00339007255325
-0.0416657543702 -0.00508916760454 -0.0218834543613
-0.0411275555137 -0.00840732619653 -0.0237337094468
-0.0412003374003 -0.00991674032158 -0.000336055378725
-0.0410411894651 -0.00937366060198 -0.0168953960348
-0.0416421056684 -0.00836408852453 0.00722867023016
-0.0413196902003 -0.00883996064405 -0.00654060743888
-0.0417039437449 -0.00882531309459 0.0168027221268
-0.0411209161908 -0.00943478262182 -0.0112468663479
-0.0415362539243 -0.00722570339279 -0.0135378177148
-0.0415376757834 -0.00808567369333 -0.0026591549946
-0.0357879446102 -0.0168040003628 -0.00981556432728
-0.0362758141468 -0.0168040003628 -0.0129624716904
-0.0354346087735 -0.0160343613883 -0.0280533163556
-0.0423699989915 -0.00192477893273 0.0135800280767
-0.0423699989915 -0.00430729619771 0.0230555375619
-0.0423699989915 -0.00373456287505 0.0280093743726
-0.0423150002546 -0.00494770794621 0.0189073959252
-0.041738572519 -0.00612716601509 -0.0108323278562
-0.042304061731 -0.00268472481715 0.00235371105468
-0.0419212186283 -0.0060507136861 0.000670775080437
-0.041932141066 -0.00512960159358 -0.00505381004043
-0.0422504970433 -0.00506418876846 0.0154710103976
-0.0423374180069 -0.00324245646666 0.00845429944295
-0.0422058562363 -0.00408100489816 0.00565003688022
-0.0415897598088 -0.0064038338266 -0.0187047225521
-0.0418013807582 -0.00595263001604 -0.00791383333468
-0.0419693822561 -0.00670296085983 0.00987068036717
-0.0420763872158 -0.00734033407819 0.0242820405558
-0.0420199222265 -0.00818839907096 0.0299358207076
-0.0418955185661 -0.00818799969635 0.0214717787681
-0.0398475213097 -0.0145621677082 0.00277226516535
-0.040087429814 -0.0148259582061 0.0212614830368
-0.039657937046 -0.0149042063385 -0.000989427297877
-0.0394874573447 -0.0158376335633 0.00796230554554
-0.0397343451329 -0.0142343513374 -0.00995806077636
-0.0399681146141 -0.0138070634466 -0.00542868775121
-0.0401926601012 -0.0127699706355 -0.0134283251984
-0.0400211164405 -0.0153400888812 0.0277203319339
-0.0399755435822 -0.0147283374204 0.0131393062156
-0.039763469372 -0.015577782552 0.0181316711986
-0.0400830129471 -0.0128611881002 -0.017704842199
-0.0401941568797 -0.0123292022617 -0.0220320587504
-0.0389649573535 -0.016054831399 -0.0167025978329
