0.00692585090459753 0.021982789746755497 -0.031836066234806004
0.0024865787950936677 0.022921038049352548 -0.0316152500533967
0.0037179557204216254 0.026914739681423876 -0.03142590186940084
0.0009335912076436214 0.018055707183107436 -0.03184395241087959
0.009954958693900852 0.022451208416087255 -0.0319214299783901
0.012090394144722955 0.024913787186390066 -0.03185599274700964
0.016536625497394253 0.021986116553137938 -0.029209999367594715
0.014557503263250235 0.01395381698351986 -0.031989000737667084
0.016428533865297027 0.016504512389612022 -0.031989000737667084
0.014999195974546055 0.02264423986692717 -0.03197716698497888
0.0064510211495659876 0.03882556106678871 -0.03463674614942434
0.010663630098145105 0.033858012210262814 -0.03761925342742661
0.00023299999884329736 0.03475625518593984 -0.032299149014198975
0.004118736514954854 0.030892999842762947 -0.02955549806524522
0.002990140315208338 0.03822457651972433 -0.03710371930833063
0.0017463747524647253 0.04088860281121828 -0.030976094352035605
0.0015073150142366823 0.03955549989830233 -0.033842362479906934
0.005588978034778548 0.03692344503138977 -0.03762158761089062
0.015695601149179565 0.03314078996923067 -0.03761373567810494
0.014113117354601483 0.035521931986823393 -0.0369502295943994
0.01692357240872635 0.03560059152125883 -0.034552930818441546
0.015965029147711817 0.03746009797420682 -0.03154962779323009
0.016789675656223274 0.03174995368476003 -0.029103649016900095
0.010106054625198535 0.031370242775595 -0.029151215395114918
0.0009533836809393396 0.036228328434456815 -0.037525087060710775
0.007978613694558156 0.0310238191786229 -0.032435030820019584
0.015003895663188552 0.031034593934588312 -0.03185747432362121
0.01117340025278215 0.031083742471989338 -0.03310168924777215
0.002660405342973814 0.0336945178267002 -0.035129989474777475
0.0024260072043025384 0.03173628390129203 -0.032767866902783584
0.008120948549008878 0.032965915838878465 -0.03607463852390963
0.005109771423578677 0.03216991832215109 -0.03415602101579808
0.013346184298223637 0.03139032732082598 -0.03595358843056483
0.00023299999884329734 0.0353341595963409 -0.028978141564547998
0.006039072969618667 0.03885022857004277 -0.02874699980020523
0.0027816391055725306 0.03850959657886659 -0.02874699980020523
0.0012141696091982283 0.03191357880180222 -0.02913674761469849
0.004071021686691255 0.035205869855631435 -0.02890163740942766
0.007538746407579836 0.033704377188082627 -0.028940474068373225
0.011916023180457203 0.033521469970584195 -0.02888851105044457
0.01544566874820695 0.034710144385987914 -0.02876781277319966
0.008736018639386372 0.04072586028774078 -0.028949122150289285
0.013787286815798279 0.03906712151323821 -0.030023557242121756
0.01172944149569179 0.038331452901206056 -0.03315374326127021
0.004109355253133722 0.040114328742250946 -0.032396445146873946
0.009329352275206792 0.03981923647463736 -0.03142728363243544
0.0241911037104589 0.0043739966851999 -0.030176041407700263
0.01977277134066385 0.013026802099154567 -0.03201708246042773
0.023287458375472924 0.006517626138800268 -0.031965863942512725
0.022561690545840514 0.031591893115656244 -0.02874699980020523
0.03648817379323098 0.013495136526686267 -0.02874699980020523
0.038634615066923464 0.01047044260097568 -0.02874699980020523
0.030786624843015725 0.0188840329998056 -0.02874699980020523
0.025466304229793277 0.025918586762161078 -0.028746999800205227
0.0343513705052054 0.017203403446777645 -0.02874699980020523
0.03147043267910905 0.02201480458098872 -0.02874699980020523
0.02080367840752096 0.025653368985529494 -0.028884129305538027
0.037741960883408754 0.004200080019607658 -0.028813908720016837
0.031320152011663265 0.004765183066920248 -0.02898689121841113
0.02260844509528984 0.02083201728437095 -0.028925679256491695
0.027915068289264554 0.014503219500540348 -0.028896092643518185
0.029479121197566564 0.008078002290513558 -0.0289755519190912
0.029673133784764633 0.011395878624742261 -0.02890583438466603
0.02289138846581985 0.02819250257748229 -0.028775238636115842
0.03153071300628012 0.01430033061176189 -0.028796469748154495
0.027873391403861917 0.017718335329266307 -0.028835112074347774
0.021823234779912624 0.017676518930487713 -0.029009187686972866
0.02579617261007542 0.02248883054729753 -0.02880234818908335
0.027861651775000437 0.005449098113662 -0.029072711626453987
0.03455621959680697 0.004619424133182437 -0.02889703403176884
0.01962273800279668 0.02987210381524772 -0.02883636739782309
0.033402451269599474 0.007492926194032169 -0.028874508161717792
0.024936195012862622 0.017573998397188775 -0.028922019954014555
0.033228140900649614 0.010896032443854422 -0.028813690635175408
0.03435538325937954 0.0050260288519170145 -0.03245199844241142
0.030091345039666977 0.01114698443968667 -0.03245199844241142
0.031269856795153324 0.013864090402457452 -0.03245199844241142
0.029228902927336334 0.007268653493938178 -0.03245199844241142
0.032122897790729306 0.006851685293554296 -0.03245199844241142
0.030082854913816466 0.003763937419700143 -0.03245199844241142
0.01891353350912104 0.02517962270917493 -0.032367959193319834
0.017979584158372128 0.020879981537562143 -0.03214856637147441
0.022611685400585408 0.009924756903095907 -0.03233775740991142
0.017364999279379845 0.03383375449180413 -0.031044726180451145
0.021843471854355995 0.01697069819473973 -0.03245199844241142
0.021161385437917964 0.02232200955610235 -0.03245199844241142
0.02788582673093308 0.015476098085230419 -0.03245199844241142
0.02461321449590189 0.016041985248067166 -0.03245199844241142
0.0257162334764901 0.023815051165901283 -0.03245199844241142
0.027425727022404336 0.012801948999561665 -0.03245199844241142
0.02622223014684789 0.005278335515031901 -0.03245199844241142
0.026330219335057123 0.0205021478575731 -0.03245199844241142
0.019448699080950545 0.014063059149146882 -0.029331270859222817
0.01753578875854001 0.017999984357675483 -0.029335407547554433
0.02357189616000953 0.00912593850183001 -0.029127198446911536
0.019726582932320845 0.021519846934783947 -0.029020357879018813
0.021166131306043764 0.011266195342728448 -0.029194319833482182
0.017364999279379845 0.02558320329484817 -0.029212642632191317
0.03433984637740174 0.015964546353557894 -0.03245199844241142
0.018363953089739378 0.036638707657543554 -0.029722652701196298
0.020655608701086407 0.03396014493332955 -0.03139057107427028
0.025218862213383562 0.02953951002591557 -0.03177685040145049
0.028927596984261426 0.0271980006470976 -0.031475065477528506
0.03458238394685986 0.022522212851034312 -0.030007194088233075
0.0334424574142244 0.01982962269447581 -0.03193086215771092
0.03147867650564681 0.02188559710660841 -0.03235223998338048
0.03623100987545275 0.019041295217267835 -0.030611967154550182
0.037235904778331615 0.015511602825513993 -0.031080237707174153
0.025324207939217528 0.032853075448402234 -0.02874699980020523
0.02926838651739925 0.02921376139098298 -0.028746999800205234
0.04073392550733769 0.007470377932807481 -0.02944818964448524
0.039208802135282494 0.01368992958122416 -0.029032219335354055
0.03805871380597135 0.0023360156746045514 -0.031456735051633544
0.03923468410458124 0.005917452304663355 -0.03126592253991814
0.03683220339435752 0.009588760321292985 -0.032396863439336
0.0409408650232882 0.003440564863849939 -0.030242438048375495
0.013232256678039974 0.04042634898679514 -0.005898646700077171
0.014879452451342342 0.03969007483642226 -0.012772889367671823
0.013686616142810592 0.040015268917906105 -0.01996071160459174
0.013276620583940602 0.0407671180999441 0.015008858911771278
0.013825716920536203 0.040406730215621474 0.005993548156731386
0.01551199983805418 0.037262939905607695 0.025785412041408714
0.0036588750688797424 0.03950769945948547 0.0314439982175827
0.00023200000578071925 0.03988882140447598 -0.009505110266972313
0.010746026412596274 0.04018187054388956 0.0314439982175827
0.0024347288769442136 0.042455080185547174 -0.0035439993381512457
0.0004938532132277941 0.04237939300681854 0.016253922770016662
0.0005947965052391379 0.042342861233976424 0.01004512304240705
0.00023200000578071922 0.04175641718653711 -0.02118768459738242
0.00023200000578071922 0.041882924483815615 -0.015617871863484137
0.01551199983805418 0.03658789431613113 -0.0033123953692871053
0.01551199983805418 0.0366003801597375 -0.02615026294993021
0.010306550106353698 0.03714285977955837 -0.02874200046062469
0.014937606268995905 0.03621088856728634 -0.013883399939029557
0.015338502781423149 0.03666130864340501 0.01522584074555634
0.004117828435358172 0.038489864500078644 -0.013470386130649626
0.0049403795539788254 0.038381497925986115 -0.0059861528521514456
0.00839033151672712 0.03745671790206469 -0.016537150312344165
0.000501171789722592 0.03932772272941944 -0.014147180455959835
0.0020531677864699224 0.03915948187331517 0.003204997795749039
0.004993634883573336 0.038239162215638944 -0.017570245789788348
0.0018317781513809773 0.038946873238095356 -0.020372440674630364
0.009066087255015058 0.03726268310938416 -0.019753825822234002
0.0034103475126693434 0.03852418286362011 -0.025159650507101266
0.0048578171280354064 0.03822453899465061 -0.02170604742594088
0.009632151170058893 0.03707856047409536 -0.024373394581653066
0.0082227009753378 0.037528059833131254 -0.013669292182745008
0.0026097002605945598 0.038960406256073346 -0.002946889045670008
0.012626026060059473 0.03635483139294791 -0.0265019781104651
0.006257609185520934 0.0378578845166482 -0.02522288186465242
0.003215854538705132 0.03875589906228164 -0.008548652512113428
0.009623203046090848 0.03804528590535 0.029538532845653605
0.013482036299737496 0.037337422877260606 0.03136117054265388
0.002812720821958341 0.03919655476189601 0.015572981256298114
0.00998216282865592 0.03786618682734501 0.025760535947286667
0.005629292537996163 0.03866767517106458 0.01931965733323919
0.006758718742690794 0.03849061353006518 0.022257615806055606
0.0028195421110149247 0.039501754743517734 0.0281471686358521
0.0023136581501177426 0.03939332251260504 0.01913423542105098
0.004532946041123976 0.03906352818628337 0.02565037958705519
0.0011993382775333525 0.03977200311444079 0.02459864796809891
0.0036392174770325286 0.03917938908712299 0.02233133073601474
0.010666787202686118 0.03744522943430381 0.011520160042089944
0.009234732742412632 0.03790207424349992 0.019849320555718364
0.013863613798918463 0.03695586841220338 0.022137038002782293
0.011609912048554744 0.03731368438078729 0.015358594210176275
0.007203957101459759 0.038141282351512124 0.009159170018193519
0.004015738561630421 0.03881079912524992 0.00856372525003085
0.008423788849569668 0.038026418786881844 0.0171675515252808
0.010956505524741169 0.037146809241942316 -0.001508096096711162
0.009875443082843278 0.03755939213515084 0.008508029885765466
0.004347626444227207 0.038806914394304864 0.012249583885824554
0.010283197557224058 0.037140962252096885 -0.009741609952355589
0.0056438069566321645 0.03834713791805671 0.0021624356698896055
0.01287007093284796 0.037089734809337443 0.017834003498976264
0.012457367796704982 0.03648826570993134 -0.020135297482716526
0.012457301820741982 0.03656851542531497 -0.015717117793160974
0.011335975975102887 0.037009261452040226 -0.00462329312121072
0.007310558686146197 0.038188262914138335 0.012998754430026193
0.013997335930072035 0.03641072136416637 -0.006310242854233114
0.013506490203566235 0.03684658670952272 0.0119231371818286
0.013686247360875058 0.03616579928984342 -0.0234522641942127
0.005348069998687099 0.03833943414099316 -0.0017367617352227662
0.012250433790347697 0.03700690160898226 0.005991886367190885
0.011629015259552764 0.037074792319748966 0.0024284577763679528
0.011895248968420261 0.036739455977930914 -0.012908538630110425
0.007929621700605665 0.037888173188099436 0.0037484537183081774
0.008215676239498516 0.037770385494373754 0.0006236854679850783
0.008218393942223479 0.03768044396907525 -0.004297015759517263
0.005617778146734564 0.03841412968205153 0.005545495292094396
0.0031628896233079767 0.04246700182557106 0.0182990316170799
0.002133248541539276 0.04246700182557105 0.02119106837279703
0.005484745188118731 0.04246700182557106 0.02242102436030743
0.0030536772023484326 0.04246700182557106 0.006332662955940583
0.0016524353608526761 0.04246700182557106 0.013053941577612981
0.003880330541568385 0.04246700182557106 0.02501511181811957
0.0028527252589895425 0.04246700182557106 0.030220066868221415
0.006016857321290849 0.04221888020181127 0.00617133738951765
0.006977834190719088 0.042247529248180184 0.019274403864947633
0.008673478759812945 0.042133093864802 0.030952141841626334
0.0036933887199903344 0.042255885164951844 -0.009915359596870083
0.003617067577242531 0.04216898515529455 -0.013652038134872448
0.0022211288262015683 0.042125377616441764 -0.018487264489179346
0.007275355812178643 0.04185319160431604 -0.0035986763937310273
0.008624559799128469 0.041344465092668474 -0.019784428107289392
0.007588019898639458 0.04161241121739413 -0.01502941768404769
0.00938368537090887 0.041551580604828865 0.001940381328056169
0.008755729009512644 0.041750317252440036 0.007096465408141826
0.007069974302217728 0.04179660746573472 -0.009510636451881119
0.006391128914692016 0.04187677783857509 -0.012352970673863928
0.004693893481307373 0.04231585267277186 0.0024880041904704704
0.003596491696749792 0.042312179509525066 -0.007068934512347832
0.005231872628237193 0.042214664461574 -0.0009322682657464838
0.004613581616413532 0.04244042688798192 0.011613911834456092
0.005222419999294532 0.042411892820796035 0.014510046514406568
0.006462882911449383 0.04242318473694333 0.025874781632277764
0.010838709973261612 0.04161326227895544 0.028079671144952162
0.00974280485143128 0.04134702905423933 -0.0056666640709259215
0.00978728012370372 0.041600782900578816 0.010885899361798608
0.011338149193395323 0.04132620801298667 0.017937061600018095
0.01019335135258765 0.04118505527940733 -0.008755675678543417
0.010278139046327428 0.0415265598271887 0.013910155221529354
0.009719233952234101 0.04177714170075644 0.020845113003070993
0.009514536531057254 0.041896025857461744 0.02507920505858997
0.012390856779146624 0.040700590576059174 -0.003216721031852417
0.012422192877918207 0.04079209299954328 0.002624749162412527
0.011950840289623833 0.040579635703758395 -0.017160875150996013
0.012852320312774425 0.04105627870286552 0.024792574596706717
0.011408125879609845 0.04100860394714159 -0.0005414084354090909
0.01304617428321114 0.04078654823180663 0.012041394423469366
0.011208953254418933 0.040828978775757446 -0.014157569263029603
0.013002714315006032 0.04041964951874987 -0.010098189799983118
0.0022328408614506225 0.04195027942646712 -0.02484569665807662
0.003299182699143741 0.04196881535620614 -0.022038618591080122
0.005468919701270936 0.04196102957824649 -0.017331469646521717
0.005623695603020988 0.0418218951429674 -0.020416216263447265
0.006211564022385291 0.041538636604018894 -0.025755357880278714
0.007467868266828255 0.04147937565134541 -0.022962701022878618
0.01551199983805418 0.03932428760572472 -0.01542135960591274
0.011004546250673694 0.04061480575303272 -0.026271648842666098
0.013842363473274704 0.0398903158999266 -0.02368536763013878
0.014282521181918632 0.04028559762638599 0.009214612569075563
0.015180644832048257 0.04013869730712261 0.022392999205110974
0.015050373196263594 0.04010827774882281 0.017271316213879884
0.015215616154847096 0.03976563370634577 0.00010892614595540973
0.0194097165677582 0.03317923927403776 -0.0177157849781181
0.023159999633956832 0.030897648595664677 -0.013381375142732566
0.02011794777262181 0.03286301885801459 -0.011114681036587307
0.01658369662347948 0.035510557287372346 0.00988616370797409
0.018428703775746336 0.03406571160737014 -0.004241109392203286
0.01736542353820397 0.03493017257254492 0.005504030015396422
0.02013140418058243 0.03293824702692893 -0.006892043171531251
0.02131955694673946 0.03191984821366853 -0.020425240756470807
0.023501849757808137 0.03050366809840745 -0.022367647600438578
0.02154551984657904 0.03167898430975223 -0.025378785621858427
0.017034516522024735 0.03469622777048015 -0.016831153597420496
0.016909281900891877 0.03508733235572154 -0.001092942603417255
0.018982767225904855 0.033343151874058716 -0.023042698320042347
0.017562913256974916 0.03450448934680408 -0.009677595040968413
0.02220200500490841 0.03142512801892789 -0.017279882492160743
0.016899212464752997 0.03472168749747787 -0.01985512299239398
0.020406245711621335 0.03261258646333135 -0.01456608671679516
0.020442758282616966 0.03289015839049985 0.0005960128001800287
0.017326967484691615 0.03511014261840492 0.013356522058016237
0.01742258960330881 0.03451769799364051 -0.013479279609767223
0.01892602742911336 0.0338977618542839 0.003122888853674056
0.027086999267339706 0.02958408166511235 -0.015368682342194356
0.027086999267339706 0.03238047942551172 -0.014230333038036771
0.027086999267339706 0.03098661833790559 -0.0035572312337869283
0.027086999267339706 0.029335625568995674 -0.022278047873183753
0.015514000318944454 0.03673090535833907 0.002856845267951072
0.015514000318944454 0.03695530296392575 0.00641459998235657
0.015514000318944454 0.039006581672143076 0.0292739954699738
0.024849049149245045 0.029900656426099962 -0.0105115118957438
0.01963016853061851 0.03363943503566465 0.011958139999249856
0.02363479509250929 0.0310290776321818 0.006832744373275245
0.024166978638794072 0.03062698013591556 0.003564594004132949
0.01747621054174407 0.0352381761521062 0.023840281696737183
0.023670949149207126 0.030700255842860055 -0.007519378582437514
0.022127484621000015 0.03220583100305951 0.017864767188163787
0.021722787240843727 0.032022481609436354 -0.002572835669710026
0.02197549744641764 0.032424065676401666 0.02364393789630214
0.01988823118378824 0.03368840724406611 0.02180634647655672
0.024287314759761296 0.030939466880632753 0.02173140905231549
0.021692038622619574 0.03229393694027961 0.009249005953270002
0.026333322319073274 0.029017416291604745 -0.008462246039786268
0.020769783239200475 0.033230611454071926 0.02615338659404079
0.02485197701577733 0.030419927604996497 0.013909930220203107
0.023972322039717532 0.03089652933088492 0.010499758774986179
0.024845064895072044 0.030716107961045194 0.027588174307562763
0.024420086079236084 0.030362944781410318 -0.001401393411649468
0.02366982200623429 0.0307686656372428 -0.0043463296874867476
0.021255425079758215 0.032448611647854605 0.0037188311609479847
0.017229710750223053 0.03532699697000744 0.020788200932895008
0.02490636853335796 0.030493878851166417 0.018967629862677395
0.017212663041352688 0.03525114605771877 0.01673447138779846
0.02025429326977539 0.03333448105879362 0.015933623543292946
0.01804268483496252 0.03515075688284483 0.02934547413486305
0.021566528114171507 0.032889543486228655 0.029856129974433054
0.027086999267339706 0.03030257927910135 0.0164113626159032
0.027086999267339706 0.03020798736859274 0.024014778283565755
0.026814682597664993 0.02931759364226562 0.01023528485454982
0.025522748523630952 0.029215933591298936 -0.028742000460624695
0.02153816001707709 0.03585725441277275 -0.026616778970397256
0.01852041090308227 0.03766334600332422 -0.026065208381928242
0.026589258330812483 0.033669084706207594 0.02842131786026282
0.027012933081360577 0.03318388594548298 0.02534495557470547
0.026044638126630108 0.03413646334566442 0.02276334712611673
0.015514000318944454 0.037738844165174076 -0.019885366803746134
0.022247616210184867 0.036715087158511024 0.019789136400559963
0.021615707090607762 0.03728458478316492 0.02833335256233599
0.01807267079276949 0.03898875104982318 0.02447849784929124
0.01936114392217053 0.03767014860035528 -0.014727677290255457
0.019466169065402116 0.037874185660556364 2.7302068372295554e-05
0.020100045880959993 0.0375038966696479 -0.0032176148585832034
0.01962902785011215 0.03790060115300597 0.0061978384819696775
0.018775781982215824 0.038277195781710946 0.003544780609302316
0.018279456958146506 0.038776864853974594 0.01817107884211008
0.017832130059201045 0.039157668068075184 0.02734644982854246
0.018695487442509803 0.03842041290097629 0.009505634050878857
0.01847284350832306 0.0387363700367496 0.021357353517402762
0.020663906577269443 0.03771477884747325 0.025028087450646996
0.02151325342919608 0.03703997991722468 0.013192697035397844
0.021687893265302592 0.0367316361845426 0.0030079735953237943
0.021250474641476422 0.037129148361744774 0.010079107705671435
0.0212775337380795 0.03725385739152543 0.01698666261510394
0.020525397114824918 0.03714685101742973 -0.009745465618084627
0.021758536567750137 0.03614803703041875 -0.023686611484367747
0.019871896322339714 0.0372783480658247 -0.02192880196137674
0.02584619508535014 0.03424880230869627 0.031126986633851668
0.02410100323163879 0.03566028431055019 0.02872338784977511
0.017176382302239217 0.03843768150044231 -0.02321551616928583
0.017345801610019043 0.03885652438375373 -0.0018425614257742036
0.017472788563686864 0.039075347603437206 0.012958219245697155
0.01884602230804843 0.03806852201318272 -0.006472264210821792
0.017847984695059486 0.038437356438850774 -0.011660698411733523
0.018254735082052262 0.03810191747202501 -0.019396362829026036
0.015895576608165114 0.03927754399776941 -0.009197274504478912
0.015743418542407503 0.039169410274684936 -0.004777459605592565
0.022482720039623046 0.03586969668443318 -0.01477131945062162
0.023116823830451397 0.03573659255455415 -0.0007088308331430837
0.02317552676772012 0.03556632289277454 -0.007141022763050632
0.023290855815946622 0.035420414344699586 -0.010542529424524178
0.023056380979613357 0.03594950237589737 0.007754807626855461
0.022415644195768632 0.03581668575520326 -0.019544019943335964
0.025419685870790625 0.033618810704583474 -0.025334886435251322
0.025391949924617983 0.03400346058651499 -0.008880440686863122
0.025933344705588175 0.03399923007101675 0.01059619464226994
0.025592936189907003 0.03419240387924873 0.0069988462352162705
0.02578732599948721 0.033822296368078035 -0.0027409359351517684
0.025302540196484 0.034306810226284415 0.0016426022746270502
0.025144092459662832 0.033923073589364736 -0.021534374882066727
0.026426908833829935 0.03311871568724852 -0.01144580236237647
0.023653900940051025 0.03562730743690796 0.011485613463163792
0.02471593111195385 0.035014161390738194 0.016782400144457178
0.024672132249258634 0.034361007748633876 -0.017466143755299597
0.025189910703041107 0.0347616251142 0.020205107744004296
0.02310420147570905 0.03623473607759456 0.0232936721238349
0.017579911468176994 0.034198767333408917 -0.0257238253609216
0.042430723159110444 0.00648193665698158 0.029513400111522342
0.041871450812401435 0.005185995980739371 -0.007415492008137061
0.042400680042929906 0.004501057452860097 0.015279608055384808
0.04218271995179673 0.004506548074013999 0.004159936708059158
0.04231828812232676 0.005820161250119001 0.019517569465996556
0.042290270009822634 0.006557116517398312 0.022807080731478663
0.04250471855576741 0.005313598671286347 0.025812034693089403
0.04208317986195599 0.004645977258068564 -4.071598563714848e-05
0.04229092424970975 0.004946058027184024 0.012514658193397093
0.040129222039627946 0.010711672455001708 0.0314439982175827
0.03818373987321429 0.009629056007370424 0.029285714879515652
0.03759596496717691 0.011275058940725455 0.025976198197213005
0.038271766808712644 0.01607299968600273 -0.004484865406122223
0.0392969715909777 0.01607299968600273 0.02104809198222444
0.038617407776336925 0.01607299968600273 0.005032567858579924
0.039293132527304736 0.0021829014203800243 -0.007166730404090875
0.039311130519981835 0.0046870128252801705 0.028568908985749316
0.03946660112284894 0.0031102128869247136 0.023523107778167067
0.03856007122622586 0.007515271668346869 0.027253478766043712
0.03703138613121804 0.012982310319967995 0.023022949513468765
0.03828706820869329 0.008119189160527203 0.024500086110329517
0.0367778435627321 0.009958418115742928 -0.025719899770253848
0.03729692510111313 0.007699157250634672 -0.028197005794881023
0.03666574686417463 0.010862903628664261 -0.01954880960943004
0.037718094573237826 0.006257015835385584 -0.024917444848371
0.03809861186916778 0.005501811097431184 -0.014544007230747766
0.03831061906050925 0.0052139131885716485 -0.006966797789896702
0.03757648558677489 0.0077955067443181295 -0.011765786593400902
0.03866840432340987 0.0035514356233626258 -0.010098068662241251
0.03605730182401913 0.01301704622100602 -0.023329538611723207
0.038586464701019105 0.005051438135943154 0.005761728024361239
0.03873808348784655 0.0037610607499375132 -0.003491512571402334
0.03849301209189363 0.005040838137819842 0.0005613727177170205
0.03787393997601422 0.006024220070935421 -0.019633800692418876
0.03927091438204195 0.0025287691279172594 0.008669405385452737
0.03863773118081605 0.003023184535901875 -0.018904650684492756
0.03687823457091221 0.010389489340052257 -0.01445547583815042
0.03948152370455035 0.002454943797486408 0.019067191163621544
0.038971564914883676 0.003928663278902574 0.011410249920388341
0.03742445210026603 0.008016350545604208 -0.017004858563656484
0.037496796390353956 0.008357944684864841 -0.008468658521558592
0.0369986972582729 0.012409296713907308 0.01586232366559487
0.03590559211278552 0.014816791397117722 -0.009093687550373852
0.03819944742655468 0.007897726067307735 0.021063912034892295
0.036250530584797686 0.014452700222002565 0.0034880865589053288
0.03660747807573339 0.013302699771393684 0.007308585038566159
0.03633510096878152 0.013470109315298871 -0.0040552327698243455
0.03741484670301607 0.009111018408150914 -0.002972798066737784
0.03744326181607456 0.010387218668270642 0.01360368990891831
0.037329579953687075 0.009764197256582152 0.0006172965848704626
0.0370859850708464 0.011040558075848615 0.003858173515593307
0.0366451259212133 0.013548756636026248 0.01208196609506552
0.03815176240836955 0.007138503016803486 0.009693137823034628
0.03846292381533336 0.00616536934299261 0.013372816588557983
0.03638215252894713 0.01255540388883094 -0.012630573360273277
0.03613140315909713 0.013277891759822925 -0.016330038583113028
0.03740307575522926 0.010081538703225089 0.007996504342733178
0.038874186092550424 0.004764304709323626 0.016869583323781297
0.03791624663366594 0.008611896474633033 0.015674295119078252
0.03683474292710076 0.013383688272885028 0.019415644582848248
0.03673625009872787 0.01147304371024434 -0.008145086102858216
0.038030032000295956 0.007132374716189636 0.0036513964663288014
0.03759451607342541 0.01019631297558761 0.018748928213454766
0.04252133267129732 0.0021820213579085384 0.023340848425296858
0.036212483867409766 0.015605027170033713 0.014565406232688156
0.03686555224338041 0.01607299968600273 0.0005196249197940341
0.0416170892314236 0.003734139464128144 -0.024765352639705356
0.041523799799305365 0.005769447455933027 -0.021398550428623556
0.04176502863685638 0.007419680123275737 0.0019686584547403546
0.04146780144279909 0.0074241187395851 -0.012986735767433324
0.041155362026731514 0.008004930563818758 -0.024795553951702416
0.04196955420614315 0.006916407570885266 0.008863188563540346
0.04147539383739342 0.00826747353388396 -0.006877611554927889
0.041543731378117336 0.008184711479099192 -0.0039941349675728976
0.041807257409184125 0.008305852255639153 0.011785852885821523
0.0412492386378267 0.009151223098137972 -0.010007235229301317
0.04187269103351435 0.009002570761835416 0.02448926515418978
0.041326753951497125 0.009847194146960597 0.00339187501505373
0.0412587957831554 0.009897490647421653 6.637696269791785e-05
0.041873015382560844 0.008346269635144163 0.016139625139129223
0.042092670041826284 0.00821375778846179 0.02727156955334101
0.04140038486567167 0.009805203999140779 0.007154416233503208
0.04177829638646232 0.009150481451605713 0.02086531457932371
0.03988468575475384 0.01576050645271806 0.029389265156167778
0.03898752421551408 0.015703128045921194 -0.010948308504267694
0.04005781925106874 0.014427799915581203 0.007368333352397548
0.04012052025866274 0.014809432628678822 0.018225267570944618
0.04062999175178383 0.013741423228629736 0.02731058438176202
0.04022672596056184 0.01304998487279527 -0.009051390945888207
0.04082526341172606 0.01281336109142098 0.020946993841005478
0.04019923350780597 0.013369219018023067 -0.0045761235831777314
0.041138310435566254 0.012003672758806582 0.02361691803726602
0.04031191055038852 0.01158298912105344 -0.025045041365292384
0.04094711120363901 0.01185881270146304 0.01024878593376378
0.040822924109979244 0.011129535289700466 -0.00642384830992308
0.04066327506758069 0.011206344239529273 -0.01374608249088368
0.040676308541478294 0.010833223255165952 -0.018251897672115627
0.04065349211266175 0.012118123104643032 -0.00157566799574471
0.040352687038664424 0.011770358708156613 -0.02222337028996143
0.0400298028993367 0.014796570826697077 0.012890290738114867
0.03952562908117552 0.014447117407517052 -0.019948789078642146
0.039245033233288665 0.015037247356470182 -0.023332198131799535
0.039553610425658976 0.01532695641806012 -0.0017938860471317843
0.03977230960055609 0.014940409735295056 0.002236525593273176
0.042759698289734575 0.0022501193670797746 0.02730721741949166
0.04187487457031312 0.0046143173312161645 -0.01054419523922708
0.0417531635925559 0.004768232026965715 -0.015773743788972318
0.042349023465013846 0.003869370107989511 0.009120081539526249
0.041861065437135046 0.0029216693173957494 -0.019473227170686745
0.042191272913778326 0.00307110231398189 -0.0025214078150883126
0.03723872112780159 0.019186677827268385 -0.027068150644323736
0.0365655991413363 0.01607399992644787 -0.025427653463723464
0.033810472809051445 0.0191138948113782 0.013606289669528638
0.03270531374794092 0.019817937055567145 -0.011816001343200629
0.033980849627294946 0.018112313498981434 -0.009096886390215799
0.03500273568465657 0.016422232241113884 -0.0165662976609096
0.029457706771234216 0.025195585974181683 0.012115436245780181
0.03424392646342935 0.018844799535222518 0.02378691686279861
0.031807676502498154 0.021474038936202526 -0.00014179932114080293
0.0340871180158373 0.018569485577971022 0.008994493990616973
0.03151354875928119 0.02269083249820486 0.02378020895298389
0.03461191716920169 0.018197550389749708 0.019945364797666485
0.03478900553744464 0.01652811611442819 -0.022385260214521953
0.035433296046004335 0.016165151928057342 -0.006148995559850627
0.034340186576099795 0.018863113062426756 0.028375239147148762
0.034329707489063735 0.017461637006846487 -0.01384408183248296
0.033464006849447635 0.019269111672075852 0.003683835301316523
0.0315319141261379 0.02210252470994154 0.00701346733969109
0.03419932355344329 0.017461038697361837 -0.019337304901115047
0.036087789908214464 0.016184334384645425 0.021907886467346344
0.032434890554220566 0.02122644875279805 0.01881675339690421
0.031257775659492865 0.023158136578528152 0.026969941131395968
0.028641889905481423 0.02677171330269615 0.024841517707848555
0.03230490698428436 0.020551493219951682 -0.006762850464359526
0.03463363739285114 0.018066492053641955 0.016950524599099077
0.035517436900601884 0.016490634071294787 0.007087358563152821
0.030452183839654944 0.024093897783735718 0.021035527923497548
0.027954857803105047 0.027641714077289978 0.021925563785382383
0.030850342445640028 0.02340489592956661 0.017216171116997532
0.03443057218648481 0.017683830766027482 -0.0029845404212394547
0.031839675386014 0.021840352258556017 0.012122101383254683
0.03561499865456744 0.01697505335676952 0.025625373270235684
0.034160705086818496 0.018161030850593812 -9.166765725087626e-05
0.030233378977108087 0.02401864635242703 0.009603650112740334
0.03501824242390648 0.017342385226593572 0.011515483661165771
0.030192874294072483 0.02324037766894442 -0.022487031731302343
0.032599688217889305 0.019667815513030446 -0.023809594742979525
0.0327066916541795 0.019699897561551234 -0.01618041348415619
0.028048652362887953 0.026561953209721257 -0.01571964526885122
0.02783345793222926 0.027723351568278192 0.01830451994357455
0.028750415076126815 0.02526711871741879 -0.02630034211049534
0.03156523511137628 0.021544884706436115 -0.009486066698520711
0.028887715788379432 0.025876194703964742 0.006358479481452698
0.02983434555325895 0.02410954692403946 -0.008719741915753846
0.028614612381653144 0.025620999905905124 -0.020092582466684238
0.029685433399678142 0.02420757030442297 -0.013591667947502849
0.02996357503924102 0.024134020373892333 -8.062343791065407e-05
0.02887288683456673 0.025580276369735984 -0.006436262581702482
0.02715687001265953 0.028392632781972935 0.005185432393881617
0.0315517076961261 0.021311368295333595 -0.01969082749850478
0.027812470784729874 0.027020077192495943 -0.01125898803597011
0.02755700441571437 0.02798803542388356 0.012590333111457724
0.028857407872698932 0.025692606101525624 -0.002829531311848133
0.027266089616994758 0.027988400661619166 -0.004624313859811047
0.0313003224909103 0.02209726202464993 -0.0029314578112313136
0.028247197121530097 0.026080652565711578 -0.02334264750611228
0.03103787854232174 0.022167623060807846 -0.01564122593951013
0.03029151982217166 0.02375926848706604 0.00425072938449767
0.027091000229120255 0.028197295256308513 -0.026046842490383162
0.027091000229120255 0.02807678407691628 -0.018345821087367997
0.027091000229120255 0.02864910566104768 0.001614419993631249
0.027091000229120255 0.032792219187126194 0.015194409352295518
0.027091000229120255 0.03176728557786513 0.012186068386438242
0.03235441615274434 0.027041500207508375 0.0314439982175827
0.0366805148915792 0.01607399992644787 0.029279519631468864
0.03925161002292449 0.01607399992644787 0.025755741952133204
0.03702908708810994 0.01607399992644787 0.01835163542494687
0.038445560999776945 0.016533920082800378 -0.01753903228444536
0.038932220887845884 0.01741719949396236 0.01338209527004776
0.03845393660178177 0.01735740555691581 -0.014232759081745792
0.032489146138968736 0.021571616157899 0.029459323645245533
0.027934209329659267 0.02788872534648952 0.02776798621262837
0.029392230651298534 0.02614679235328075 0.03083865309905097
0.03144123622761195 0.02913859923901213 0.029121362783045848
0.031166725931926535 0.02954305791469766 0.02620658232536946
0.03839808122413719 0.019236888388889095 0.026808531399059816
0.03817781072592544 0.018727729095839866 0.0030897948725608767
0.038292596625340715 0.018009067182528107 -0.008824322841901981
0.03869401685416553 0.0182026794115585 0.016286587216002735
0.03858311590236334 0.01810344130093953 0.008220579505741996
0.03027880893604911 0.02517521906347198 -0.028742000460624695
0.033603755794074014 0.02516941361078468 -0.02699495808630171
0.031705396822638725 0.027459261806407724 -0.026918822058125756
0.03497629463429265 0.020004959666709073 0.0314439982175827
0.02902924853454344 0.030387687085692804 -0.02473877461825892
0.0274585165293871 0.03153094104806802 -0.026864774440679896
0.031120025607171364 0.029256020355223476 0.008520123570139015
0.030344484509901026 0.029759916506835002 -0.00338922123675959
0.031952258412277876 0.027576627245437316 -0.020450957971712806
0.030635126621277396 0.02962958966977741 0.0032194269257142605
0.03098801932175889 0.02880022892915459 -0.013364226425613357
0.029751417320144462 0.03020207155681731 -0.010413115113184603
0.030861499106342928 0.0288296385512722 -0.017242910910564967
0.029924615962354233 0.029672495070740657 -0.02151886855397133
0.027903191727119928 0.032007914422849414 -0.00028724208115694667
0.02787483587100932 0.03146014982102949 -0.01928252072597218
0.027731499324639558 0.03223600526953425 0.0030607749089978206
0.02852127396064502 0.03136916270088604 -0.006250679430754151
0.02789589325934431 0.03257813659963318 0.0185715751298454
0.029201182047623515 0.031542670055887415 0.027565197691160087
0.030420879943901365 0.0300720966888454 0.013714398456672803
0.029525084465655473 0.031092048665055654 0.02105610265865482
0.029225651729210843 0.03114605917135963 0.009994492961882675
0.02928669903706128 0.030992697968482745 0.0055442337284892455
0.030302295117833253 0.029891155088407083 -0.00019728307079153184
0.03342555253907051 0.0270475746305258 0.02681653725931136
0.03330298635908513 0.026818891846509457 0.01048293128662895
0.03282541880272681 0.02772570542314865 0.02406447476592467
0.03293030148760397 0.02709776791146904 0.003929892464559593
0.03233820899508102 0.027519303474102176 -0.007341918245185672
0.0321383008531363 0.028442298412947282 0.020080069658737626
0.032522780168839235 0.027411313519005078 -0.0028916057415111582
0.0324016551552665 0.028054460266142993 0.017079596660933175
0.03454548873296033 0.024703461339407262 -0.00523228282971391
0.03454872221236148 0.02420861797360305 -0.020319896867563237
0.03276973337646474 0.02659344476999538 -0.023248842821787505
0.03312028847197072 0.026425443894494083 -0.01338111147869444
0.03430354237678198 0.025636441740803352 0.013097169512937367
0.033773719433958405 0.025944473774031376 -0.00015152852423699036
0.035690741010152835 0.023921848404942103 0.029365423549021514
0.03721824916013834 0.021521680680311215 0.02955091789243378
0.03527741361679433 0.024285209252910563 0.017787010187188146
0.03544317400144038 0.02412576206008718 0.02125053928758485
0.03529056210472453 0.023195630579346507 -0.01709732492183008
0.03535300354525813 0.023666980649014215 0.0015566769073644439
0.03655114938565232 0.02192946508844372 0.007492833168656409
0.0352993733079752 0.024476164423877067 0.02516967963076997
0.03489017931209848 0.024555900101182884 0.006372475049488818
0.03682506218190467 0.02186411750594317 0.01968472238181105
0.036383489716702404 0.022376257184280657 0.01331105746995245
0.0373714402147167 0.020869435254888477 0.016122845287513256
0.03595236244424027 0.022240590635452816 -0.013249414407905283
0.03725787746100298 0.02086897441536075 0.010358790222293985
0.03580550834424611 0.02259184497799192 -0.009803297155026012
0.03590525732068714 0.021983072000733073 -0.023612025061980162
0.03668503019446396 0.021304303096926838 -0.005158960099018474
0.036718913970431435 0.021377887302987224 -0.0011638396190673146
0.036542608361016235 0.02184431583823524 0.004359089860651156
0.03717770445202867 0.020172389141349847 -0.010514188891395802
0.03797468708591433 0.018953073177068226 -0.0016102576250014023
0.037057099636986446 0.020070700710105718 -0.018830769408131123
0.03776902660957765 0.01848103906370733 -0.023063827263126932
0.03765223375919248 0.020616742378580848 0.02328561714785662
0.037049358860800186 0.02019746659276616 -0.016118822909809195
0.016511342434209528 -0.03620402674346104 -0.031356370807162144
0.012202580574736771 -0.030266959593052527 -0.029019208036797604
0.016284988124686796 -0.032570687260486834 -0.028558463059383227
0.005578614601325431 -0.03726748396896509 -0.02843423887103526
0.007287868312137976 -0.031107519307955838 -0.02885549525986591
0.008783888941650103 -0.037451366636453313 -0.02832148100289996
0.009637111825815758 -0.033715747169966594 -0.028582585978540756
0.006511832005413027 -0.03464760850951436 -0.02860705634987494
0.0038353874325496853 -0.03304085773675501 -0.028812995617370732
0.0079581878465948 -0.03501252911184714 -0.03245199844241142
0.0065259869239691045 -0.029760344359115273 -0.03160255531250817
0.009694227298737682 -0.030237791757375065 -0.0319323433066996
0.004250635278065198 -0.04087076009625033 -0.028787265100580394
0.015364407230990883 -0.03339706149410199 -0.03245199844241142
0.006243057391415947 -0.039160561087811 -0.031478077059625346
0.0009048149584310341 -0.04055219394591197 -0.029582063177248156
0.008864442091347973 -0.039707026094526365 -0.03067788890817125
0.011427749592202368 -0.03973535877832692 -0.029139722966439782
0.013271012950518715 -0.03769058716149039 -0.03126661719946257
0.008831499422925352 -0.017000270518316294 -0.031989000737667084
0.006280947823015898 -0.02129887670685746 -0.031989000737667084
0.01247972291426306 -0.012429345822968611 -0.031989000737667084
0.013971527828482145 0.002182000083848834 -0.02979645703301367
0.00023200000578071922 -0.012655435029535726 -0.030638383691043936
0.0026230705735740332 -0.0069198322763603624 -0.029209999367594715
0.015715389454371915 -0.029273599413155823 -0.02920999936759472
0.006804947238405652 -0.01922083659003415 -0.02920999936759472
0.0022211829974776026 -0.028375294588377977 -0.02920999936759472
0.0005000608792834925 -0.019999821521122493 -0.029209999367594722
0.010823340520086 -0.01787644625004237 -0.029209999367594715
0.00474016640072672 -0.010027050191140087 -0.02920999936759472
0.01283917768888349 -0.02622809244584321 -0.02920999936759472
0.003346791142528057 -0.022689160402752703 -0.02920999936759472
0.006599791248877828 -0.013877213623487782 -0.02920999936759472
0.013664963746113352 -0.023404760326752014 -0.02920999936759472
0.01598164807621209 -0.025863432926499445 -0.02920999936759472
0.0015730931442435986 -0.01601382250981249 -0.02920999936759472
0.0022617118697679066 -0.003993346081964429 -0.029209999367594722
0.008756430695993998 -0.024129386558201505 -0.02920999936759472
0.003217399558673672 -0.012495127272918205 -0.029209999367594715
0.00032543471278835535 -0.010023780923683244 -0.029209999367594722
0.005098905618594644 -0.016816417745264434 -0.029209999367594722
0.005320633022515056 -0.02661213145164147 -0.02920999936759472
0.00037692324869729706 -0.02625119407414237 -0.031935475177546024
0.00023200000578071922 -0.01569762489952474 -0.031737762548326526
0.014652550900913533 -0.004958884223802524 -0.031989000737667084
0.015785850436647306 -0.002133833098185766 -0.031989000737667084
0.010782223525226843 -0.006508602630482821 -0.031989000737667084
0.006434038352001718 -0.005026560295076262 -0.031989000737667084
0.005905693816432454 -0.010576537520429322 -0.031989000737667084
0.005014820224095743 -0.0021351852542529073 -0.031989000737667084
0.00024020350819262235 -0.02169635173665042 -0.031989000737667084
0.0034019048355516915 -0.02112965800219493 -0.031989000737667084
0.002871892214789854 -0.010886717659880736 -0.031989000737667084
0.0075650000683936715 -0.0076776291685029035 -0.031989000737667084
0.007941921933136378 -0.01356088689182232 -0.031989000737667084
0.0040994943564490165 -0.013968585134399455 -0.031989000737667084
0.012305053496302827 -0.00276365895933808 -0.031989000737667084
0.0023185705164281774 -0.0006124695199402298 -0.031989000737667084
0.003920317388302153 -0.007860741990980366 -0.031989000737667084
0.015973823761283604 -0.0003006565571644598 -0.029420373235470275
0.007699909639582407 0.0002976480199590151 -0.029229345868990952
0.01827197057457511 -0.0064580194852521255 -0.02920999936759472
0.014865205251563431 -0.003411787089735901 -0.02920999936759472
0.015380374505458335 -0.014091817877159567 -0.02920999936759472
0.009348752539275113 -0.002582310995582527 -0.02920999936759472
0.014395185284623916 -0.01816563526314062 -0.02920999936759472
0.018750722160419817 -0.021938125867434575 -0.029209999367594726
0.013586788441792326 -0.01124001235063065 -0.02920999936759472
0.01737105616333665 -0.017203329479554465 -0.029209999367594715
0.015001978316047031 -0.007672881787617201 -0.029209999367594715
0.004093121463588352 -0.0005189610365302377 -0.02920999936759472
0.011875373696866903 -0.014775465471771866 -0.029209999367594715
0.011864847314981046 -0.007831985983568076 -0.02920999936759472
0.009306370349836349 -0.01108075290307303 -0.02920999936759472
0.007971229222021014 -0.005414513619403654 -0.02920999936759472
0.0125353469389154 -3.2603176422349575e-05 -0.031989000737667084
0.009624667712931769 -0.020860530278450667 -0.03198369580742732
0.014304815954430618 -0.01653949880682966 -0.03180979648182339
0.016535578637275825 -0.009137311446703923 -0.0319113282372468
0.012335991462267359 -0.019701794717582335 -0.031836539739370215
0.017246147261921044 -0.013088039663034323 -0.03172590568260003
0.016124533458586474 -0.02006753924052826 -0.03156240351366431
0.018748770057330905 -0.028444714080968603 -0.031092091018871382
0.018735376184943118 -0.02481519079188995 -0.031218302190571614
0.006433257495228498 -0.025312155162663587 -0.03182036924620422
0.003241165079491569 -0.024934403782592207 -0.03196616811267714
0.009499232980340186 -0.0266384681972772 -0.0316060047171687
0.012189510815401955 -0.025012246537871242 -0.031633137284434454
0.02329867982774666 -0.01901344905168066 -0.031845167859430014
0.022024071216182668 -0.022691637476927387 -0.03208385892808741
0.01889956492520271 -0.01895293574232937 -0.03134842098141878
0.02491346073875388 -0.02232901633869541 -0.032368470806961924
0.02666899026509518 -0.019821861702186073 -0.03230463789236935
0.024459949625454634 -0.01634100079536438 -0.03135750987223216
0.024748973573653563 -0.03137972398751479 -0.031032567722285673
0.022300039723133762 -0.033124523141801726 -0.030803590803506135
0.01932104352782247 -0.03325604927164818 -0.0320166371232432
0.03636750728538686 -0.019663802765571933 -0.028763947526584267
0.03453471702726345 -0.022484253904568943 -0.02971020667926063
0.03285648480354052 -0.025063544059184886 -0.02920870820287954
0.02983660798908322 -0.026471840937650704 -0.03132180573603439
0.027242849898782756 -0.024733348537346427 -0.03245199844241142
0.027765464360592657 -0.028939328010697395 -0.03118683684360688
0.03476614622326182 -0.019115761353113075 -0.03145465184426215
0.0324857545314429 -0.021482817111205255 -0.03187796477832737
0.02542665108731642 -0.0321880981165555 -0.02828500047326088
0.027926283795726946 -0.03059318235682659 -0.028899151830094318
0.029212303863021427 -0.02114249271469209 -0.03245199844241142
0.02802603825037205 -0.016677033666093664 -0.03211752520529993
0.02050446565896584 -0.029651968245965558 -0.02850609104573222
0.03080098435556917 -0.018549713267164206 -0.028422244389167965
0.027697533208363604 -0.01688064180520922 -0.02867546555273929
0.025420599934104122 -0.02563810250169822 -0.02840756502375017
0.024826338722342016 -0.018257694468917073 -0.028776966814893043
0.021650415049536464 -0.019534937808035783 -0.02890041964518018
0.022339355634146543 -0.02518577142128998 -0.028604216169120112
0.019432806634939046 -0.02666801935327178 -0.028702956807504426
0.027347277846493906 -0.020532691241505023 -0.028529496801589845
0.024188266180051186 -0.021371250876622384 -0.02867192130533687
0.02836219220770178 -0.02503382836963342 -0.02828500047326088
0.03133127586909698 -0.0216364312723041 -0.02828500047326088
0.023677088855624757 0.024802855426800493 -0.03485828335399027
0.027173880696796493 0.021440567150843422 -0.03546479291590149
0.02934760224477429 0.01935045747090549 -0.03518138535649246
0.022904976481527957 0.02583752732860065 -0.03245199844241142
0.02100365611355515 0.028246793285276642 -0.03245199844241142
0.019076039895887763 0.02923512724712485 -0.0341982108469716
0.028219217561865847 0.02600524766343025 -0.03599324973897265
0.02638955705671239 0.027877089918593494 -0.03435105214288399
0.017364999279379845 0.03161825572825012 -0.034440023526668855
0.024383895187738536 0.029454156768100138 -0.03611818385431924
0.022653625482564242 0.030920050960677504 -0.03329524211712671
0.02041486735183553 0.032509410291105025 -0.0350037125814952
0.025939939149110282 0.023994535622741016 -0.03750119427530151
0.01868959818910546 0.030774360793144585 -0.037281414633305816
0.029794869659780614 0.02394864605560692 -0.03435289394666831
0.020607258429069828 0.027986842137700245 -0.03719357617240784
0.03392094111434042 0.0068272518434956 -0.03683302399201377
0.031191885366598747 0.015259837136290722 -0.03533629875124402
0.030596807696030317 0.01709858418902448 -0.03270465368527718
0.03286491511141384 0.010090295974586348 -0.03622988350502669
0.031079687585299085 0.021782724485259294 -0.03683376813122737
0.03384349950162932 0.012493906939744054 -0.037484499206884146
0.03196063558561821 0.0190613035463291 -0.03751881408246275
0.03572308444113674 0.00921560070713335 -0.03744405885754373
0.0332782568889088 0.016288547661942494 -0.03743883691395525
0.03517043043276072 0.0029664200306113676 -0.036396388630693235
0.033056105167054164 0.010492137585333053 -0.03245199844241142
0.034885097446272814 0.012755499356934893 -0.032451998442411416
0.03640479385229149 0.011421217130629312 -0.034775199498275046
0.035442470832809374 0.014003926966857577 -0.03548688786393604
