-0.01933038457142904 -0.006761563351181861 0.03136183103901885
-0.018530973025180666 -0.007067150219741386 0.023279185141027007
-0.019480528418280164 -0.0048082873369656555 0.02853918182299091
-0.021380507116622375 -0.005472907310307269 0.024641896758081906
-0.0213948709099544 -0.004241343566797626 0.02318494788646192
-0.021827701395710296 -0.004137067269896578 0.026058625242701423
-0.022005912096090003 -0.0026283453405346402 0.02540896368801878
-0.0210099608800317 -0.0043240333751042 0.020631214964919695
-0.021598581893338447 -0.007957436991922733 0.03302497454440045
-0.020100492140387553 -0.007453389270751551 0.02047081062158992
0.005558367934814033 -0.01790055555884785 -0.018631788278555904
0.008790100957590764 -0.016384732175706147 -0.01901579357036382
0.007322963821645486 -0.017186009932103678 -0.01770834377278855
0.002468606674476404 -0.017003201435351757 -0.01651431018198943
0.0014696347714065383 -0.016923838349243714 -0.01785896073287401
0.007644224749705364 -0.015161027561328106 -0.01654203553057187
0.0054298652848493905 -0.015804704472147366 -0.016864615933411483
0.003107712150632534 -0.01634525068669164 -0.018954858941438252
0.004151807558599349 -0.015981145152763176 -0.020581478914638227
0.006991859597620994 -0.015251639324573654 -0.01882444976063364
0.007652006007573729 -0.015001328430058972 -0.020837999880313873
0.0037765624121922185 -0.018183541341559716 -0.019600897393714765
0.0037566981874146785 -0.018509314478648876 -0.01713957574027998
0.009126842460329618 -0.013579758732314779 -0.020837999880313873
0.01314550853387994 -0.010081077777873306 -0.020837999880313877
0.009650171995823659 -0.014350013348182663 -0.016207000240683556
0.008722331138407076 -0.010900563799693773 -0.020655403930624927
0.009926281495010292 -0.01267057057414797 -0.017421847271491323
0.010729744682863553 -0.01105362542968042 -0.01823912340668416
0.011665758028232519 -0.013995772517725803 -0.020837999880313877
0.011368865394401632 -0.014848132630794209 -0.016761835767683912
0.011777681159681476 -0.014383151751730203 -0.018498432833478247
0.013110767419892689 -0.013138820703883586 -0.017434940020023038
0.012834636079673617 -0.009395521249490784 -0.017845915492116178
0.010982078760170154 -0.010029295044820587 -0.019842278886550407
0.014681318908461706 -0.008735000155866146 -0.01795966959656786
0.01415422634577858 -0.011685600480637586 -0.020461247865376706
0.014241167483615513 -0.011914470854426165 -0.018590609316837828
0.01529939536075223 -0.01051720334910816 -0.01779786834657888
0.00865358099349305 -0.012599187903731466 -0.01926920859571786
0.008564000017940998 -0.014357633229993668 -0.018848603045511315
0.003182895273535865 -0.020209016657375782 0.007037670286859311
0.0037947791883158563 -0.019967601268089212 0.004897309003306998
0.0035884607901609804 -0.020749762730383772 0.016562651160042026
0.00486904471722922 -0.020628406829067955 0.018078351792896814
0.0039229539155274445 -0.020200370926226008 0.008873831998271787
0.004369504675985865 -0.020309233643511067 0.011763331013819668
0.002839486484913703 -0.019139817030444043 -0.010574521359355873
0.004450144284208226 -0.02047246515242763 0.014527276712833848
0.0031812451061284065 -0.020949942949222998 0.01860419324037431
0.0036956341688029587 -0.019839176203515732 0.00262763952559319
0.004724557892991743 -0.02078929873209053 0.020206125548624
0.0038300050850545086 -0.017362705216367565 -0.005542757944479101
0.004448335435365536 -0.017040934075808187 -0.008194584307050813
0.0018748541524498108 -0.01843346978428602 0.00363488155215198
0.0028765671099894043 -0.017446280649132152 -0.00758575104447302
0.001887856102863279 -0.017465436025843595 -0.010707722893466567
0.00223595834753997 -0.018497254382613702 0.005827088468199994
0.004144505800441735 -0.017592858527458358 -0.0010384710765415197
0.0056607758070520995 -0.016486243326257158 -0.012261133713581094
0.0033897359150218648 -0.016987037969872117 -0.01264308941107958
0.001990123044014226 -0.01783306086221107 -0.0048915306271438575
0.0016444346457509078 -0.018801626207589173 0.008312681537814278
0.004137228060882852 -0.01697894823537187 -0.010187789853598896
0.0007734179312571846 -0.017939414788736504 -0.007503082524506537
0.0030853341063300666 -0.017688273239330227 -0.0032698153379568046
0.00046482807301765304 -0.018875605492727238 0.005347786927831206
0.0018062527954012123 -0.018100072752970327 -0.0015566029187795505
0.0002280000044265762 -0.018524989862339795 -0.01081101277435112
0.007019000127911568 -0.019636971004809923 0.014790828447597337
0.00022800000442657617 -0.019049577881156573 -0.013887377654352981
0.007019000127911567 -0.017627021693011585 -0.012093697721357953
0.003099494496500775 -0.017003910295217625 -0.014752740704337297
0.0016625847829133532 -0.017346232375334305 -0.013575432062094496
0.005695484997245956 -0.0164163121595696 -0.0152042479426345
0.000381006447576979 -0.019638868662429323 -0.005608071893179339
0.000385356972128164 -0.019853358396507932 -0.002395588133831148
0.0007636513102463312 -0.020212633211071016 0.0026160011296186506
0.005650206383271579 -0.01825157185139164 0.011768976329747034
0.002757582513958342 -0.01921602690409254 0.017131506216460486
0.0037800989449302005 -0.017820164238675728 0.001081024780885701
0.005460286860784447 -0.017796757546337597 0.005168827411630052
0.0063190322203433395 -0.01776648104026546 0.007012382869712414
0.0060036299901381875 -0.01718249838238212 -0.0016496627838417863
0.0067148513811872345 -0.01849465549096092 0.01781983972385438
0.004147899721872489 -0.01902291230962934 0.018182787936786283
0.0038324105775375847 -0.018705601311382606 0.013098648538760114
0.0018177250335922076 -0.01902240751436433 0.012071268435561219
0.0035861353189428173 -0.018337081500045694 0.0075087331627496775
0.0015828634050030878 -0.019200696827306588 0.013848203982898297
0.005588736649521382 -0.017391716878257094 7.061381585558683e-05
0.00664586983452464 -0.018193602343152013 0.013599661079879616
0.0023096979059067627 -0.018799305669525285 0.010366646587107923
0.0030125994853406318 -0.019020439692333097 0.015175276072552604
0.006031555063438125 -0.017468618980147455 0.002262592146592258
0.005740893443460485 -0.018563538208576473 0.016192451245777485
0.0050514095706864805 -0.018195239240684783 0.009444351752402746
0.0042267319526399505 -0.019089675871491633 -0.007014469230922462
0.004288620041188569 -0.01953456993100502 -0.0002614742941640975
0.003973469328994445 -0.019028605856588852 -0.00884116128319048
0.004991999360952851 -0.019805964174330417 0.006304701145176509
0.006225891717727538 -0.01970933550123858 0.010425312364938148
0.005041508333295553 -0.0190538538844051 -0.004468657576044026
0.00507440446324872 -0.018493986803336682 -0.012473114946538697
0.005527772681527308 -0.019090619686741132 -0.0017373289530813272
0.004871852243607414 -0.018376753947874767 -0.01509501700357366
0.00519457391197525 -0.019409869657576698 0.001407021450428229
0.006442378584245759 -0.019153577479723512 0.003531720870029272
0.005921167034679424 -0.018322366695079903 -0.010758856161215354
0.006268700833719846 -0.018537272088056063 -0.006023812444162782
0.006964044796093457 -0.019608843515239317 0.012513634064746908
0.0068245632602519125 -0.01853020028573512 -0.0034060533213899884
0.0062921702501965255 -0.01953331614893905 0.008161821529700127
0.0008980626380980286 -0.019957467138286708 0.021186034117582884
0.0035544558249233534 -0.019316169654489596 0.020241831272916688
0.005946085856337932 -0.018828877509509494 0.020202230753593255
0.000727741160151227 -0.02108299918472767 0.017000485146175668
0.0022838144083307172 -0.02108299918472767 0.020538178871278394
0.0007118020194449243 -0.02108299918472767 0.01947583990631768
0.0013503570757073561 -0.020443799998255026 0.006560776008717708
0.0014408205637908174 -0.020579877987930904 0.009009306699163836
0.0019366424891930122 -0.020910725014828095 0.015445272068128055
0.0010096313705233151 -0.02081566486341628 0.012222946534090626
0.002486704474978494 -0.01943712788367068 -0.006776987482067712
0.0021627133283843728 -0.019368015563235773 -0.008615504079528699
0.002836090471180121 -0.020685604986864982 0.01359442522642709
0.0019151464346887335 -0.02026589693241568 0.00487134306595332
0.002221882943287772 -0.019603074119854305 -0.004795477262929529
0.002418648517889193 -0.01984301957799891 -0.000577862528186983
0.002240007606122968 -0.019744039625376998 -0.0025450961379177607
0.002362341259445447 -0.01880856266019023 -0.015543770593486527
0.003948149784184535 -0.019447954999308084 -0.0026082189727054802
0.002013768255976893 -0.019126003950320696 -0.01207442135846817
0.003794781256737708 -0.02262899421730446 0.03250727577119491
0.006546436851614517 -0.021592183499762 0.03472999855875969
0.002301729985907448 -0.02167489135094981 0.03470428641789333
0.004907235749276058 -0.02051425853514162 0.03429988629566565
0.004862759907121558 -0.02002234478888635 0.031986486781875496
0.0035203682047687556 -0.020101494327623787 0.03038333737289489
0.00548160976824991 -0.019644419783411117 0.029403653090312776
0.0030118513208311055 -0.02052169510119911 0.03357253629376349
0.00645002272613465 -0.01980983542683314 0.032725062719757295
0.007019000127911568 -0.019995421196514873 0.03048764969425813
0.004438042365657395 -0.019362923471977225 0.02318476624214575
0.00415152040820053 -0.022534857450497887 0.03452205094168756
0.004160355961723454 -0.021038926301639012 0.022475366794713857
0.006589828222536408 -0.02086660775649026 0.02432532327348942
0.006694332997492472 -0.019987094813069716 0.021764000877738
0.0033625182093347463 -0.021645199919231004 0.024623165430215394
0.005615911061489612 -0.021486784928501576 0.02608839482179026
0.000845577684538533 -0.022511504473392473 0.028927111475991252
0.002182964412798031 -0.022661534633620646 0.030901277677183567
0.001315181114988678 -0.02293226780590722 0.03399924663283244
0.0020424788222423514 -0.021471314478807443 0.0228761175284378
0.0006801232421199952 -0.02184641706895755 0.02419092495599704
0.002371100636091029 -0.019749286426795385 0.023101999155861995
0.0007574838309029853 -0.0200570216535372 0.02378154566953807
0.0009046424651313976 -0.02081145713709034 0.0326074941875287
0.002988168976586122 -0.020009700851159388 0.028353350831182327
0.0026796014128754216 -0.019861649353263223 0.026045800158234093
0.004316196757127439 -0.019610306578044225 0.026871038883291506
0.001092730851275665 -0.020251272085577893 0.026852295771767343
0.0005394532690795261 -0.020532614265634703 0.02873552436465397
0.00454549184660647 -0.019386307430238107 0.024907982971185745
0.0007798567473397816 -0.020640044603382018 0.030446165665768337
0.005771855562195585 -0.022173037833481915 0.032847411499276745
0.0052101299743768 -0.021857465718069742 0.02800803761575208
0.005949170625288406 -0.021958337358773557 0.030144888842244085
0.0032518783681704253 -0.02234676013963091 0.028946182980322397
0.012507605277229555 -0.016166227756459987 0.007032260411575769
0.011869740795249219 -0.01588534461319279 -0.001543552696290907
0.011975928322308425 -0.01597976734544731 0.0004289751378323209
0.012503216311000931 -0.016765948078527937 0.013851316055341692
0.011982440519475272 -0.016249772708096636 0.003570432295486407
0.012457987309943824 -0.016347653401326108 0.008688995258374169
0.014519754112052214 -0.013983000069856645 0.014019767144258493
0.011436930886185496 -0.013983000069856644 -0.0029744067406556355
0.011779496948350439 -0.013983000069856642 0.0003723809303874861
0.013152786172392732 -0.013983000069856645 0.012898156407610351
0.012436614237625569 -0.014182820496302647 0.010133054455135005
0.011799167771246935 -0.014126675165109785 0.0034968855641954294
0.009044399300351058 -0.015201761989047519 -0.006402010881138327
0.010277125249674775 -0.014742964768974917 -0.0016546849585420262
0.007937531957339074 -0.015455880036411022 -0.012914087325995367
0.011751211236211248 -0.014315417541710672 0.005747725599340179
0.008994687971055564 -0.01510806242880221 -0.008192508283817507
0.009236642969046801 -0.0146685643072217 -0.012240927591765777
0.010665012308903508 -0.01417427211381234 -0.006208293760797951
0.010324753971679045 -0.014512408268088067 -0.004504447688836461
0.009721176131234133 -0.014524172938922646 -0.009862708134457839
0.010624739690100643 -0.01522179550085236 0.008126442849779734
0.007085552901950206 -0.016605137629104316 -0.004878076289069591
0.010329775536355232 -0.016373160132329215 0.021093227072898305
0.009146758440708386 -0.016483703014879954 0.01197463919708993
0.009547199501089874 -0.01607586596417705 0.010037798046204253
0.009244435912650494 -0.016557933179060444 0.013857970021568878
0.011030738813592044 -0.015690533945659682 0.018127078803802828
0.013950209481613875 -0.01408954970524119 0.022618047562851726
0.009688472198677217 -0.016636088824454207 0.01890314310395879
0.007865827840567687 -0.016512871182672452 0.000873711955245807
0.008862744929225579 -0.01552310524095851 -0.0036014651155023506
0.010994768535455612 -0.015184828153262796 0.010946162057621493
0.007890945936172396 -0.01635956001573074 -0.000979964867008347
0.008543820022963005 -0.017501951785270833 0.02037208387730698
0.01291261021904277 -0.014479499645193478 0.018593751716219888
0.00895295601812153 -0.016289018004725712 0.007595040088388955
0.007182429972553859 -0.017227939629381572 0.0044374741803341385
0.012661298129282898 -0.014777075939381263 0.020373750782555967
0.0109047765611576 -0.015433115823850308 0.013505603482639806
0.009167452344681798 -0.01676449837280387 0.015968347986872144
0.007745101802836981 -0.015726071014829066 -0.010879930651545019
0.00811984703296874 -0.01759263994118119 0.0177967397195006
0.009383840736731885 -0.015472390075988558 0.0003876564779819701
0.007429156852976663 -0.018311919434387293 0.021352160363716254
0.010450269465715704 -0.015057793872441997 0.0043364619601653715
0.012582492878295612 -0.01449945436254454 0.015901527389036857
0.007062532672708819 -0.01641213670318782 -0.007702048488048373
0.007481319541013734 -0.017306731526171626 0.008188568482035656
0.010253002300051453 -0.015324622703635916 0.006184541259813947
0.010909366050383588 -0.015581365233619426 0.015557264516172821
0.007562569422135121 -0.01776974340565222 0.015196885158592601
0.009203279931961867 -0.01575716936211707 0.002629110485070007
0.008886905755272307 -0.016142186097521063 0.005010985391226648
0.007260218688205871 -0.01772605458071406 0.011890773405926213
0.007462597093932794 -0.019828061869985574 0.019680598540917405
0.007647382784941141 -0.018775746251582064 0.005264467136417688
0.007019999902695417 -0.018396553190728103 0.009662356714338268
0.007053363636807072 -0.017866155186542054 -0.009234193489495444
0.0071292385037451 -0.018622173161266714 0.0016253243629704628
0.0070199999026954165 -0.01646990942889434 -0.014134206409573129
0.007394268952231665 -0.01725919424375273 -0.015865780149457612
0.015060719325697311 -0.014571909491370478 0.016032899965222835
0.014322065937434496 -0.014828436618805573 0.010052070435491854
0.01528112800959559 -0.014654179525574487 0.018959829950236193
0.013413888050059374 -0.01455357792598061 -0.0015468783062092626
0.01473351698003339 -0.01445536478301174 0.01172798416407417
0.00838574355674162 -0.01933802538196379 0.016396889253159633
0.008872976076447782 -0.019224359153847563 0.01801585037114117
0.008213384130462027 -0.01820428509744515 0.0001089402582019742
0.009245508417309924 -0.018754175833422287 0.014122921130252758
0.0086957583671638 -0.018465671608893577 0.006717280082743156
0.010488287481706996 -0.01858924963326973 0.01992573290365027
0.008873792874368602 -0.018578822153583953 0.009379547445845227
0.008922378792543385 -0.01939946882826867 0.020678416132031
0.00822216895611038 -0.01843779705336544 0.003291504045039179
0.008782286615657428 -0.01883121093967336 0.012168359187662344
0.00983454680785068 -0.017318009476293375 -0.001054844709264072
0.009427690944994592 -0.017977284744382312 0.004928506757712933
0.008121927061905069 -0.01745509121226332 -0.01047860642261017
0.010186273152689832 -0.018105027045484706 0.011575141655326512
0.008585101622944392 -0.017734809477791262 -0.0037738321320847307
0.009680238976661619 -0.016802358927337294 -0.008831027357690946
0.00896163705984488 -0.017330520727761423 -0.006610577124235437
0.010803121671241034 -0.017920448411598115 0.013894303690965124
0.010118757915871359 -0.017000080922120096 -0.0028981788685222094
0.011017550045533776 -0.017096505537599314 0.005498041494181637
0.010342195520731328 -0.017696507217426712 0.007445955594010053
0.011475146759960685 -0.017194307525734115 0.01037085190593518
0.010381080264457379 -0.017311770472968193 0.00303392833211703
0.010335957618246319 -0.017138047140006916 0.0005387562674820136
0.01196272026299824 -0.01753639694974387 0.018483731130239392
0.010046152519256746 -0.016908362433895204 -0.004606973141545765
0.01204078945064448 -0.017667994689701594 0.020726032927736667
0.014495428384397335 -0.015749236090905606 0.02165430312957166
0.009693535540010343 -0.01907404757002453 0.022248592159994897
0.011810002319290157 -0.01783039179978966 0.02249312135792801
0.013655806732638276 -0.014101338433803002 0.0015069850275285668
0.010441108769494653 -0.01399375613727391 -0.014522778952717974
0.012549452803913232 -0.015535586602183026 0.022911064089605117
0.010488985795038226 -0.01645747389117658 0.022851774357554838
0.011237902256020858 -0.01596897027023792 -0.005846077611665129
0.010127895837198414 -0.016232584843708122 -0.01194962647558855
0.009622455569677708 -0.016388152791955542 -0.014318404539259987
0.011050716515044157 -0.01594441863772527 -0.007672525344344823
0.010987969892593544 -0.015491184764647207 -0.013425563558712496
0.012240024226847607 -0.017159715835747873 0.016169390028444964
0.01330958946901437 -0.016035162733935182 0.01249249253296579
0.014199687505817574 -0.01572477994141165 0.01773884831019196
0.012654746187837691 -0.014865009443218072 -0.005923545849288918
0.013879772889023284 -0.015062679535337763 0.007800621254361023
0.013702065090213027 -0.014774137535911626 0.003104905173428857
0.013402827200924065 -0.015272673608831444 0.005444084719420234
0.013772992641537276 -0.016311883575443827 0.02005745614934863
0.0129727727901468 -0.016145976429659717 0.010736131402517453
0.01194366083002493 -0.015628122686833047 -0.0038373000563232907
0.011555786162028682 -0.015332818892914936 -0.01042044760998433
0.0167136993782934 -0.012272006245396108 0.012123865973323933
0.012531995039824323 -0.013967021173042455 -0.01512564868257708
0.012406799584550966 -0.013905144617382965 -0.011571166433584423
0.011912388528132813 -0.013789335016839491 -0.007724888168752996
0.013649350801032262 -0.013977936301623112 -0.003934786799667341
0.017319142459516313 -0.010898923010651292 0.013716794949677907
0.017561664873901407 -0.007501000072807074 0.001352615545352359
0.018432373931910113 -0.009330850564425985 0.013011044438921204
0.01719940042847476 -0.009132950392378178 -0.0046891182187159845
0.017478715822589516 -0.009600492307747472 0.0020452450181964992
0.018320056510231837 -0.00916572347029276 0.010130420350377886
0.01730027824453323 -0.009579355527664285 -0.00041977872048535626
0.018027385981107744 -0.009479428452608532 0.008393290908475251
0.017169372494709286 -0.008815764339340016 -0.0071799234044193335
0.01771886694761518 -0.009569165979215893 0.004967155813203477
0.017659864451849444 -0.007627308207952517 -0.005780076603187056
0.01786376429063833 -0.007921631998637779 -0.0026711065672418996
0.0172231571337165 -0.008096873755942025 -0.009900750723844394
0.01454890796856308 -0.01215011533840401 -0.013546799319628922
0.013995023274052559 -0.01243606424237816 -0.01574397785769054
0.016114712230984606 -0.010662002389310645 -0.007322972126633265
0.01582332335694063 -0.010224262843303578 -0.013870541475956417
0.017020537073552482 -0.011118285991105122 0.0066534305905629025
0.016994220118802358 -0.0098926728265552 -0.0023010707619176367
0.01733294770327459 -0.011062662235627274 0.009971937448101598
0.01638923117115067 -0.011185918729358903 -0.0003681376526891676
0.01597548177408039 -0.010262534715107591 -0.011793392924783624
0.017018729684488372 -0.010672097600657513 0.0034858455435033556
0.01656679085661267 -0.00878336865614316 -0.015199752157935731
0.016041180583491476 -0.010442371061405878 -0.009744999650882333
0.016168795637159047 -0.009773019974930389 0.013193876523597058
0.012956205201862508 -0.012844356573791071 0.0031491431092457566
0.014908505225929906 -0.011097941858523877 0.01006532853030161
0.016214914584145222 -0.008639081566808449 0.0068285551042665225
0.011461001515807997 -0.012958405027097462 -0.009605702215562225
0.014003129262703183 -0.01144927526361044 0.004062681740452817
0.014715616846257185 -0.011713697589702823 0.012083684769719586
0.014972303316346943 -0.010228996502237023 0.005342370959940373
0.013021940018929472 -0.012373285310492253 0.0008689379684087184
0.011926265858423749 -0.012938835494857644 -0.005539723325829591
0.010966199051116263 -0.013259053891769615 -0.012224008221773774
0.015392766597716776 -0.010081101667366171 0.008223107815789735
0.014199270098936938 -0.011895504234497378 0.00854714853555797
0.015096430843405896 -0.009604510778329373 0.002652263214304982
0.012486436534920452 -0.012347678474020306 -0.0041042573733891426
0.013873168043243287 -0.011270097551920929 0.0018014021864077626
0.01644606526712684 -0.009001836705976771 0.011119118326774622
0.013121644746172022 -0.011816729344594634 -0.0016267831725743209
0.013220160630373663 -0.013002968688292699 0.006490400747362144
0.013823671419659019 -0.012733065605172577 0.010274006540208425
0.014623710173408862 -0.009892093982465459 6.024198128055762e-05
0.013210920239568356 -0.011076007676587337 -0.005465444684583273
0.015065229372288545 -0.013717058299295252 0.006845944834388963
0.014412291327853191 -0.01265854909237197 -0.010464198079349162
0.014319669672364655 -0.013023034476249536 -0.007747419277401956
0.013929129208496673 -0.012985033033251022 -0.012119926025217593
0.014259531533396371 -0.013297948275992776 -0.005598944120211151
0.013303914440126524 -0.013923932042299544 -0.008993120172219525
0.012953129502275498 -0.010381570329309446 -0.015862948968300664
0.011995825306413401 -0.011773658966727267 -0.013236991445532333
0.013375725393463756 -0.010054813627690326 -0.013693012419993914
0.014163591661231245 -0.010200973620250823 -0.002405572007210009
0.011572911858228821 -0.01209790745903554 -0.015171598341917787
0.016415686601605185 -0.008002731919675623 0.0030671311732266074
0.015791074296229366 -0.007928100288629896 -0.005459050539438856
0.017073248604474203 -0.007837827022195966 0.009549552866171655
0.013878330451143579 -0.009807578560540053 -0.009979372030006213
0.014933542212324728 -0.008735749979711192 -0.007843757430357446
0.013065194639077479 -0.010976014803261925 -0.008117384532465338
0.014894762756866707 -0.008489714360113577 -0.010845431345327287
0.015510090348288968 -0.008565931216702218 -0.002418392472578869
0.014397002107514961 -0.008917966944435026 -0.012644980152298842
0.014736728518038585 -0.00832816045607757 -0.014463823379457808
0.016371950501655658 -0.007767414041992788 0.00011362855482040506
0.014575814315328658 -0.009409451885877808 -0.005389397126863211
0.014366536814030087 -0.008922286580980383 -0.016207000240683556
0.014822234903485818 -0.012063953607157268 0.013939690581775134
0.016046358919907758 -0.012035840723740593 0.0020766698518370295
0.016088857136182754 -0.011296926059818989 -0.003097727673563128
0.015900897247434678 -0.011346488349075189 -0.0049512214556947315
0.016269417390871923 -0.012101797522087617 0.0052022806277000865
0.015178006120615109 -0.01293669408601514 0.000389154496728294
0.015280026688345442 -0.012566873752788553 -0.0018473018579266962
0.01594060480143018 -0.013144689240898823 0.01078707424445213
0.018701452387792906 -0.01037668853507883 0.018581581627257114
0.0190842759615713 -0.010414005104478064 0.02132475093129418
0.018484442777924263 -0.010039903185025317 0.01594827740421878
0.02007933445757171 -0.00874126324255379 0.03442100062966347
0.020524327448773104 -0.0075010000728070745 0.032063826340537026
0.017680362908725104 -0.013983000069856642 0.0338000458137096
0.01722626131821046 -0.012111383102178713 0.03424555739021262
0.015781375549537215 -0.013621528472287191 0.03305034201461572
0.016284618863529377 -0.013150823602039856 0.01537049816173575
0.016641302740271473 -0.013309242418607876 0.018108292049797324
0.01717146759330138 -0.01366275552394573 0.023327421129392643
0.017764797564568422 -0.013771998065684129 0.027926248941096948
0.01681059978710668 -0.013649637129203904 0.02092095962035773
0.019577372782764845 -0.01227673748729903 0.032965882017702314
0.018446575325091842 -0.013680785960105246 0.03164460188484496
0.014322044973788297 -0.012965745305750337 0.015577504323514334
0.01584300689614113 -0.010553403403699887 0.015223939752279477
0.014866375948055555 -0.013983000069856644 0.02077533526200032
0.020441667399960835 -0.0075873558487944285 0.024653111489861587
0.017843689500607125 -0.007619781766653275 0.015552118056154557
0.0175137986724788 -0.008291834251623031 0.017427939642931094
0.014558602029225575 -0.012653019391815273 0.017377909680207446
0.017298075687642134 -0.008827821863825823 0.019635027815763203
0.016270337720178017 -0.01017301839186374 0.01787542708086038
0.017777309029327802 -0.008344140038918244 0.021914068629054095
0.018371421194844025 -0.007942543504089428 0.025327900487304093
0.01570234955074279 -0.012437205967419835 0.02760491413601595
0.018532295965879634 -0.008140922941575734 0.028024170924850423
0.01700338955423624 -0.010052328115953552 0.025323917786873817
0.017533532902729132 -0.009931952953216909 0.02953516058582809
0.014907467075410479 -0.013424112807297895 0.02615975985961511
0.016667343577235018 -0.011064865373806323 0.028307378904540423
0.01671268259218955 -0.01190863150924035 0.03267267874505276
0.016234247164505822 -0.012074831364522063 0.029907172357881796
0.018494545330881296 -0.008943289067651497 0.03247296834771319
0.01569898228497489 -0.013243415801515095 0.03121028964658792
0.014600685022465056 -0.013720598240770557 0.024277646023493783
0.015420731912633255 -0.012040867259467404 0.022291140686228388
0.016473940552842098 -0.010238889071611974 0.021193162121139312
0.015056533650340442 -0.01232094703881036 0.020393003967853936
0.016644129181787034 -0.010294857303420536 0.023320838835797143
0.0158462549913233 -0.011739086013924992 0.024677941965498648
0.018893789181276655 -0.010919285014932306 0.03442100062966346
0.021081083733154423 -0.008606850837313638 0.030401498782584364
0.02095852525784534 -0.008434524707820079 0.028081632089140565
0.020424071776421866 -0.010264762659902572 0.030975367927874236
0.02110325009317049 -0.009221799164383341 0.03273108152698647
0.020522340965141966 -0.010695208866019578 0.033846280216139876
0.019326660841185707 -0.008556845182140189 0.016678625152791435
0.019479030309904995 -0.010576540400648888 0.024611339096341334
0.01956241874053208 -0.0086742590006006 0.01872772130310437
0.019549126974237083 -0.011129337550690151 0.026981251229694286
0.019948591617415905 -0.008889559531249057 0.022162264921879813
0.020137126510407246 -0.010350550866898593 0.028797760406387256
0.019465879262569537 -0.012082079652214478 0.030740329715293724
0.018666145300446378 -0.011808059725446934 0.02354792148200306
0.018382759112044147 -0.012772041511920655 0.02549922237005639
0.018280786375126694 -0.011570295003570593 0.02005662380976434
0.017787837413245484 -0.011648147206672153 0.017284924733441797
0.016378074518055917 -0.005968941370602063 -0.008061992473051137
0.0164776457789145 -0.0061299368459318306 -0.006402254139232162
0.016574341448989734 -0.004375344179885881 -0.00952473501193561
0.016700121852136682 -0.0024548742065525703 -0.012689869461130123
0.01655501808083957 -0.0066983397673104714 -0.004014284394254563
0.017050586138046362 -0.003607601287875783 -0.005396074400195845
0.017563515913285775 -0.006007720776409962 0.0070454047391333655
0.01703030137934195 -0.0018454618908960224 -0.010018582927016139
0.017249863876481836 -0.00370767014877992 -0.002624690013011033
0.017160274366148535 -0.005705497424660719 0.0011903822217394673
0.017432953597477895 -0.005134141063615868 0.0032278210705942983
0.01647931360109301 -0.003939790733166357 -0.011807147979005029
0.01678566487941081 -0.0013151938941541456 -0.014430152240164808
0.017020795246229035 -0.005386265983652453 -0.0013667362631553763
0.01721369020377613 -0.006850459576103014 0.004703395846622303
0.016898207293773948 -0.004832228555522886 -0.0042916847434874275
0.016740890237580207 -0.007499999832361937 -0.013505923347773653
0.01727702315521941 -0.007499999832361937 -0.01159873617881303
0.018792937798899588 -0.00039999998989515007 0.007252851830634083
0.018649736270235476 -0.007499999832361937 0.013098566928851186
0.020188937762691764 -0.004104640120520627 0.012081277980756032
0.018816149249324822 -0.002906712930089118 -0.009242606318305525
0.019000580329288943 -0.004235610346310907 -0.0033844677241960637
0.01816701533662253 -0.004693911945310353 -0.013293686526880403
0.018564978580030405 -0.004680057953592813 -0.008037536781455518
0.019325046770128904 -0.003808141713395383 -0.00016563282025445786
0.019008283012059368 -0.003435208419917828 -0.0053333698593718195
0.019588632154330057 -0.004173583966115238 0.004275801068906645
0.018202930796427146 -0.0037902966763202076 -0.015131969778583224
0.018461795160878456 -0.004055323998697616 -0.011010660648931529
0.02049719341689409 -0.0018049734129238343 0.011924897294873699
0.019412661341572837 -0.0012098698369288228 -0.002894250535110573
0.01861415974670542 -0.001734855285609503 -0.013643401674555716
0.018835075507085616 -0.0012080226523542856 -0.010733554782656404
0.01846323184272816 -0.0016999258246704037 -0.01569765742288827
0.01913661835795741 -0.0011687215305512914 -0.00664761173454822
0.02004803440524162 -0.0012880033115698145 0.00574363981752711
0.019484409945027648 -0.0023646620351510258 -0.0012918790031493143
0.020625985382965326 -0.0023370778018318274 0.014387287045345469
0.02117735175427942 -0.00195773607739923 0.02120067100547183
0.02071274822603692 -0.0029700124785912068 0.016896573549144145
0.019695516267797766 -0.0029360886170361543 0.0028038355086543914
0.0203069715931454 -0.0025161489077338774 0.010361297464080007
0.020898497830646776 -0.002713141062117284 0.018924113654285722
0.020136032764280998 -0.0027555520638586225 0.008501676168149216
0.01593494111879154 -0.006089014126926553 -0.014141470447381446
0.01619797227287202 -0.004411893803484668 -0.014812316549038274
0.01619269717784154 -0.005787064622560967 -0.01086940840151726
0.019063635890699274 -0.004096343368041881 0.020802783822404122
0.020009149642946086 -0.0068830955353622655 0.019047680794998554
0.01905337728134358 -0.007432506685323425 0.009386176878682555
0.01826372290580442 -0.007468399600718968 -0.0008597834431674866
0.019656780566574446 -0.007002285138417259 0.015034300168424934
0.019027579993083972 -0.0071362670370139596 0.007440925721173914
0.019424162953263886 -0.006899640761556963 0.011402940682564972
0.019000349759761774 -0.006714877161001763 0.005049826204012289
0.018631009212151012 -0.00600756141206419 -0.0028334664683774763
0.01874410315966206 -0.007017805224705283 0.0030729067740348087
0.018538946248475373 -0.005847873708587698 -0.0047253446704947875
0.017652931724753206 -0.006090989500834178 -0.015100189318933768
0.01811294656568724 -0.006093956642470702 -0.009145112440020805
0.01964601311587414 -0.005637463345099111 0.009377353270349496
0.018918963565448005 -0.0056630427865953905 -0.0003647709855417866
0.020199692449526102 -0.005696076449206231 0.017047114070960434
0.020199325985809122 -0.004763376796454262 0.014047741378692254
0.019020956592846625 -0.005866428393473761 0.001666375360582787
0.020481988415103545 -0.005086477062057563 0.018904522907438662
0.01959175885372502 -0.004855042111828524 0.006132289498273316
0.02039037966397438 -0.00597476271312705 0.02064115549775515
0.020862025164671984 -0.0035446098995401652 0.020612842958081454
0.016475928352703326 -0.002615279791391312 -0.015868913032077252
0.018793230723005476 -0.004493139156986686 0.018611053946478454
0.01912678283620546 -0.002687534980537017 0.01837616528669537
0.01862655190486553 -0.006359355683858694 0.020988943934605424
0.01841798340807742 -0.006331782834821664 0.018423484781228315
0.01853619455628728 -0.004996497424003917 0.016709526547582048
0.018231322534241166 -0.0030379139328136516 0.00803532086280024
0.017191201048123776 -0.002140297417342066 -0.0072579493553502055
0.01834827802409515 -0.0010730630491180657 0.004607375052169831
0.01741705958717155 -0.0016642424387587917 -0.005609014552984118
0.017680618314770143 -0.0018116916629803566 -0.001933164535751878
0.018653314735754687 -0.0029426778802403805 0.013095242438580665
0.018695158934005016 -0.002094612207805552 0.01150727196408532
0.017539284187102457 -0.0029931762549599145 -0.0007632590861288919
0.017862298791648985 -0.00309165749527685 0.003536915729568231
0.018989502522788006 -0.0024659189677006584 0.016127377244912783
0.01786355532558556 -0.0043116817756561655 0.006592784607447913
0.017884831110390513 -0.00513745529661403 0.008917546803298579
0.018616618250379083 -0.0014084519852010182 0.008811561047836496
0.018176938637992527 -0.002562740578457375 0.0061685919952548405
0.01810128475143031 -0.004868431777860569 0.010964310329735178
0.017472920435865156 -0.0004451117204239391 -0.007945666959058935
0.017975325336652675 -0.0014027355307961523 0.0007472187416838333
0.017486737381657486 -0.0039091941298149465 0.0008596879112500169
0.01813625342149253 -0.0054945899061951175 0.012963550151786286
0.01833496481885854 -0.005243999827070482 0.014833529771636121
0.018112281113844945 -0.0015228669350924645 0.002765760783333003
0.022009996177921376 -0.004525998918330725 0.027502578361302547
0.02147904024999361 -0.00039999998989515007 0.032843658861071705
0.021324096081611347 -0.0018434927475571357 0.023087941592861604
0.02158957623568434 -0.0028981063458175804 0.02452690679242699
0.02099956703920305 -0.003611270072030098 0.022655673380633075
0.02053333537319758 -0.007499999832361937 0.02663773462290505
0.019768035551391276 -0.005937977458115968 0.032700793562238886
0.019206185042470365 -0.0062774198721048165 0.028433548644837953
0.020172555657056227 -0.003928211754953221 0.032676227723107285
0.01941544070890148 -0.006371219855405205 0.030409163776626776
0.019917149404643314 -0.004112214891547648 0.03078852123669543
0.0191245115374879 -0.00501847076869291 0.02468561349101556
0.019350999558069567 -0.0036684128398182187 0.023601909995761505
0.018945496910820085 -0.005640672306631735 0.0226472316437251
0.019592581470322626 -0.003052635036095151 0.02563546132029001
0.019445564672241983 -0.0044466048408841104 0.027111809181079576
0.020284382446205933 -0.0023173919184266063 0.030801449829164773
0.018922454160867744 -0.006383461950900885 0.026077472181839083
0.019848101798237792 -0.0034983890868926578 0.02903541460720388
0.020088116614014634 -0.0008911941159104358 0.025935843476826363
0.020307631790695085 -0.0014046681547740846 0.029128187720141707
0.021016166493990237 -0.002004227203002212 0.034161272293871336
0.02254044784393857 -0.0033399476636584787 0.03442100062966347
0.01985819032778275 -0.0010384279315363127 0.02223188713240673
0.02160268669277307 -0.007499999832361937 0.033867702351555
0.02041200205889482 -0.005523196547191126 0.03441825911930366
0.021805895389134147 -0.0004169284289400291 0.024812456323711606
0.022485928493363956 -0.0008411175973168693 0.03072244015281789
0.022683710116949987 -0.0022083600968796735 0.03301721974298742
0.022762407281269825 -0.0005620429023722777 0.03436795453972105
0.022171088871060746 -0.0017078374310317984 0.026828807907125714
0.022324785910693038 -0.0023164965286711914 0.02865327029736297
0.022485876716979707 -0.0031515858906495534 0.030587358824046278
0.021362264743852874 -0.005937169991147542 0.025778564794741117
0.021101440438743613 -0.005347807228159649 0.023939472990265345
0.022051119313437673 -0.00599120846585763 0.032079270802362246
0.02206113121550326 -0.0053554059220965785 0.03012850147302795
0.021600002368929734 -0.0065134018583551745 0.028268022522206872
0.022433159301047677 -0.004900872389488609 0.03373436560715052
-0.018242721847407536 0.005618960938406691 -0.01121118311393892
-0.017810546341264995 0.005357007722014892 -0.018392207522729343
-0.018655157601323615 0.000606208701011603 0.008119178729742816
-0.01683201999813302 0.002095947452617965 -0.010648788131150555
-0.01743757625987105 0.0033587686380588417 -0.0009267601486571322
-0.019335072310026177 -9.340904485738918e-05 0.014832576882937426
-0.018898949067579003 0.0005796123308457557 0.010971416570472832
-0.018106162183447308 0.004512532294554717 0.009329892664891447
-0.01818901867429499 0.0003005280492568244 0.0019580044941212016
-0.01845805193894258 0.003001442763300739 0.010524083307676164
-0.01877021379962704 0.004973280727006153 0.01815714620585187
-0.0185061907910074 0.0005228571917768013 0.006178668164836086
-0.018141378521719716 0.001507686805263344 0.0037860693890506506
-0.019510127649220534 0.000995701468193226 0.019080003028532008
-0.017324272456210023 0.0013311773687150617 -0.006300877423673412
-0.01694201673289406 0.0005712718730535141 -0.012363960065748658
-0.017766775010164534 0.003071753848744352 0.0024263613827278027
-0.018497869163233788 0.004291189730975271 0.013558196930307707
-0.019042681371527825 0.001983987384384523 0.015471275877078463
-0.01671817680643023 0.0006462990746337014 -0.014882338615871437
-0.01827212531663632 0.002868304848159484 0.008044352427762884
-0.017427193298294612 0.0019703162746055876 -0.00380602703203182
-0.0178182110053593 0.001578212662028085 7.51689103931719e-05
-0.016503227238834527 0.0010749548538758226 -0.016592962979460415
-0.01791023724750939 0.004453651575011629 0.006878393731823275
-0.019040059213107932 0.0029205000429336223 0.017298647301936955
-0.01779639764318398 0.0009284635594935297 -0.0014742611462274591
-0.018685055161982957 0.002509364573281518 0.012252470073425586
-0.016799092752638436 0.005406896376911135 -0.006581169960153907
-0.016159427487496235 0.004449378743742441 -0.01637264212515871
-0.017721817963723293 0.004399437576815306 0.004398733781670035
-0.01815760323672715 0.005570472696525548 0.011752191364432486
-0.016301829283859294 0.0013430894743383858 -0.018562523442108306
-0.017107654891023748 0.0048007046340265425 -0.00326394968539471
-0.01711077805100822 0.0036299048090081215 -0.004763511849048949
-0.015912687763420894 0.00525950629304821 -0.018596899481317607
-0.017481089658691253 0.004049742172701232 0.0007278837863686754
-0.0164382148148275 0.0026337326827198396 -0.015044617966140351
-0.01649589725344717 0.004306037551283278 -0.012073940331932523
-0.016253041947700733 0.005072183256123996 -0.014304289124472905
-0.017171536318891525 0.005487128177842467 -0.0015083902437018938
-0.01660682535128279 0.002427577117312664 -0.013067290109858607
-0.016815824342074206 0.004296555082876255 -0.007819654457738946
-0.01842070661896218 -0.0003346808997651792 -4.179550844025243e-05
-0.017735475501286506 -7.00795515903549e-05 -0.0073738835299515726
-0.01789485368804026 4.542682961465353e-05 -0.003797411272062669
-0.015923000584454887 0.004985811264516302 -0.02145499922335148
-0.015958832826978908 0.003835873728482259 -0.019942884437176053
-0.016126500071125455 0.0009808649017912844 -0.021383200112799008
-0.018795655831844033 0.006371638762298365 0.01939507223736321
-0.01915021147371527 0.00461654458245299 0.02064889179486975
-0.019342044713832014 0.0025165887914278566 0.019799690328991683
-0.01923172396450771 -0.00039999998989515007 -0.005325620486724643
-0.02051227171534993 -0.00018021828688486412 0.010534220671409134
-0.019814472245190937 0.0038133947085223236 0.004559743549400299
-0.020466444150117606 0.003674878139421852 0.013846373866479626
-0.02065180717976845 0.0035019232492410814 0.01617954061093433
-0.01924953017585128 0.003358502762590657 -0.004809165754963413
-0.019992439226484554 0.0036877076037236884 0.006892632606494701
-0.020410075682952538 0.003051470360896818 0.011582512561631677
-0.019639954055190926 0.0032047447775891058 0.0005891838091496683
-0.019158226916926563 0.003141601205261569 -0.006653011098220319
-0.020704876753955014 0.0031157842580395692 0.020756557828605783
-0.018472206117217015 0.0008493872834124803 -0.020034447900613345
-0.019238386946039222 0.0003138537523812616 -0.008921525231184037
-0.01999790292572782 0.00021363757309650553 0.002262376106504897
-0.01874231884533815 0.0007568367446575762 -0.01683113559663456
-0.019506763831081474 0.0016906620051000225 -0.004207602367244934
-0.019573887095109332 0.0027575237179567917 -0.0012857002655719298
-0.019072899695623646 0.0025044830685997718 -0.009073142343991867
-0.018691911494610608 0.0020266475206252217 -0.015514327394171572
-0.018476133246481695 0.0021790795462024357 -0.018393013323027566
-0.01910234223398382 0.001441123469483187 -0.010576338057039326
-0.019431110106380815 0.0012829222313099462 -0.005874787161925199
-0.02079128433677753 0.0017443085294042819 0.01543847744157885
-0.019040134018366333 0.000800050535740598 -0.012273648455814279
-0.020961130695623328 0.00025793832428215656 0.016898825107466472
-0.02002840093272768 0.0018558744310667513 0.0037725579431244546
-0.020313056387931114 0.0017972860080379708 0.008112281338073866
-0.019725307352070055 0.0005931147372924225 -0.0018790902796399032
-0.019817394015784147 0.0011556591228903319 -2.2834367108792372e-05
-0.020676068320683295 0.0011677211569964142 0.013214975066969115
-0.020914574200298866 0.002168377365663187 0.01766771876986181
-0.020244961197459204 0.0003831443863367009 0.005963173831849316
-0.01923933306397308 0.006329187425226699 0.005851917639262296
-0.01742943835494698 0.006140863975065361 -0.020036578204703268
-0.018079618120690998 0.003741918827476717 -0.020077326958310937
-0.020043082425293124 0.004319634200011601 0.009266797222902325
-0.01875363114376826 0.004066517356563095 -0.009826048676071415
-0.018695727975449765 0.003716269108905634 -0.011883089200427042
-0.018260300547361816 0.0039626198010297865 -0.017155756995026597
-0.01810609587037295 0.0050181738001185625 -0.015595148982467971
-0.018636182701846485 0.0034827479365311643 -0.013550079412585446
-0.01953003482182368 0.0043350584459615335 0.0020812509929197236
-0.019228864321172472 0.004098780505987158 -0.0030053237839748493
-0.018661384189621037 0.005116811742040914 -0.007354662638569272
-0.019935708579261142 0.006135418963847254 0.014681965660505735
-0.018816464301615654 0.005056302451903808 -0.0053907173665768485
-0.01998175372364226 0.005360129551097235 0.012318127025030316
-0.019546887504940245 0.005941368339516262 0.008412455249177001
-0.020569979974600323 0.004925305686089103 0.01896854926739609
-0.020685534095909744 0.004169435695029951 0.034459329493791206
-0.021254672516500088 0.001419650705274466 0.03449192821607308
-0.02073595456573526 0.006391999777406454 0.02572554354781565
-0.020571061849622086 0.006313036508215075 0.023323432557510685
-0.021788351981337398 0.0059945405522718945 0.029677454481840095
-0.02056991599386736 0.005300284187706499 0.021502291464500122
-0.021475744291192457 0.0042724290148121215 0.02445871320359433
-0.021939301596499823 0.003689284859859529 0.026331020235746377
-0.021787880535021512 0.0053477809573586315 0.027218836220803528
-0.022188221127536063 0.0038382374593932357 0.028492238804749735
-0.022383736281106303 0.0038825945047686215 0.030557083230070305
-0.02283505367240741 0.0014514587597000569 0.033065838351737493
-0.022674323570992885 0.0013623571202150265 0.0311523891792986
-0.02217860914487146 0.005332831264501461 0.032877143489199456
-0.022739466820122844 0.0034729773632480162 0.033560130256150636
-0.019239310514610797 0.004370070781147306 0.022768063375441412
-0.019810992775942143 0.0013690834874322093 0.022623102863594556
-0.022096857813190544 -0.0003570722182793986 0.02570277788417321
-0.021321685293194226 0.00010311381843356426 0.022019606219143333
-0.022401947070002065 -0.00039999998989515007 0.028488548529057356
-0.022268568956249228 0.0014118406573613233 0.026707914481304443
-0.021605964859617778 0.0023069164058468375 0.0234754565510062
-0.02247972741506009 0.001455516608034994 0.028883070327249127
-0.01964739502494046 0.006095635092812522 0.030237248273007836
-0.02014897423582646 0.006367983996444757 0.03440586474307935
-0.020095824232587652 0.004988227943627363 0.03292208856856697
-0.019156089793854747 0.005941625333973961 0.024985840879132335
-0.01957969732855167 0.004547991012885118 0.02721688868806334
-0.01997300135965422 0.002577043577628442 0.02824609315964529
-0.02006360254977547 0.0007633485434982033 0.026389997569084556
-0.019421761684113407 0.004080497989525055 0.02486547437244606
-0.01977410206003742 0.004487973459835797 0.029132993393697612
-0.019736223021537814 0.0023865238600319968 0.025506506916500134
-0.020197628760858552 0.002406869995055728 0.030184367381722282
-0.019961823591197046 0.00444396869383038 0.030975334217854474
-0.02028412302471 0.0004603267096471567 0.028085452124193874
-0.020309876302270685 0.003020605004015484 0.032195930351464466
-0.02057907534041497 0.0005278979654899638 0.031040902102445395
-0.02273090201393579 0.0003838425449554336 0.03471525696847252
-0.02211859328445815 0.005146250445383494 0.0347215615467413
-0.01733252088153023 0.010855146109361398 0.00865024929708046
-0.01738718276696501 0.011682275428562164 0.015680281369404716
-0.016773614221886644 0.010743771483549849 0.001052536916989667
-0.01623279780225881 0.01029770291597921 -0.008904964680182426
-0.014591000042855741 0.012755247075115295 0.017149656153020387
-0.01459100004285574 0.011989223190978499 0.008847911937725933
-0.01459100004285574 0.011099415418036279 0.0017664940700008753
-0.014591000042855741 0.012507818040028831 0.013953258595310557
-0.0163951364746519 0.007371753285890196 -0.0017029974611325327
-0.017484421938727304 0.0073934990601257885 0.013183874101886936
-0.01620971689205925 0.006935960707801276 -0.007787794562635329
-0.017291159938259984 0.008418437728720245 0.018996833938942356
-0.016952904180916033 0.008449865899151775 0.014687768296516303
-0.01623840640037754 0.008174985171399422 0.002781348691995698
-0.01872760391328962 0.00653548435585797 0.022919260590039514
-0.015835468933844844 0.009779043720362732 0.010522100455173402
-0.016137782447866712 0.008579430830850276 0.0047462221477859706
-0.015392085538708303 0.011728362509581803 0.02055392495512655
-0.01648284072307092 0.008291305200247567 0.007037712048233012
-0.016656724124359642 0.008561787993648661 0.011608297391855156
-0.016301307446039043 0.00705750609770946 -0.005552278121067191
-0.015206304683253992 0.010176018764988045 0.005288921066986908
-0.015442243249071896 0.010795676956662354 0.013566782370835532
-0.01724820115695824 0.00657386741326317 0.003258907844273514
-0.015597803767690762 0.010942975196848989 0.016877684625063217
-0.016006794753376234 0.010949823608256469 0.022456399200950272
-0.015850349088594444 0.006931707702072552 -0.01267513977894996
-0.015234555484284252 0.01174991188998351 0.018603944693315208
-0.016281749974032596 0.010198543466253467 0.019995315334715748
-0.01556402943803439 0.008521073313364337 -0.003480485664665434
-0.018007797830769334 0.007555651849450631 0.021583304483067556
-0.014867964699911489 0.012781185107924654 0.022128571691403084
-0.017620690551621722 0.006884080694167895 0.010837676112202384
-0.015920037997576374 0.01021306637941396 0.015230609994580872
-0.017127341477561384 0.00701702619086711 0.005268674046277663
-0.015602304478731052 0.009880818829053558 0.008210119852606286
-0.017544038356133614 0.006551495901249201 0.007069636768697301
-0.01742045125282575 0.008732226464130497 0.023321179919487185
-0.01663918274513337 0.006749411743606034 -0.00352187122492258
-0.01686922316457251 0.008810095495954852 0.016518067016485467
-0.018288340166108488 0.006492697523273437 0.016636459135442674
-0.016140883839180758 0.008078111523734872 0.0006684763695634279
