0.00293553306341 -0.0174369731518 -0.0333233861721
0.0118122128417 -0.011869484948 -0.0344190020338
0.0112244506547 -0.0134194643198 -0.0333907214438
0.013004192729 -0.0117859362481 -0.0328481293841
0.0140581585043 -0.0106239624534 -0.031717830289
0.0147960949955 -0.00810116390797 -0.0342221586648
0.0150402526473 -0.00527672285747 -0.0346386995731
0.01622151128 -0.00110734743303 -0.0346913200586
0.0137536810007 -0.00974896523026 -0.0343408991434
0.00239021828665 -0.0127200894838 -0.0347299985588
0.00432886566312 -0.0129912075363 -0.0347299985588
0.000441348708156 -0.0130647086869 -0.0347299985588
0.00118703685452 -0.0156811091551 -0.0346407056299
0.00607627092619 -0.0155739252111 -0.0345732848538
0.00345284890428 -0.0152034838862 -0.034675437216
0.00690373832139 -0.016839780905 -0.0264907260307
0.00590591541813 -0.0168147453621 -0.0322548813813
0.00646057929537 -0.0167276016938 -0.030519443942
0.00765766261401 -0.0167038245153 -0.0234684889298
0.00786805964944 -0.016200108949 -0.0287056917277
0.00769852149043 -0.0160269143459 -0.0321354459023
0.00770961961092 -0.0156807408944 -0.0338447897169
0.0169872378556 -0.00450210799265 -0.0296713825633
0.0175043016386 -0.0037985255032 -0.0247796529162
0.0173990814697 -0.00348889169444 -0.0268557617399
0.0167794030004 -0.00391815493225 -0.0331928792076
0.0178239997476 -0.00120698529783 -0.02309618756
-0.0148607786281 0.0105210730777 -0.0225934632722
-0.0153144015858 0.00936906366369 -0.0263944708567
-0.0148769363225 -0.000399999989895 -0.0278469900824
-0.0142820002511 0.00458765072195 -0.0338513312232
-0.0142820002511 -7.32773590796e-05 -0.0314589124914
-0.0142820002511 0.00583817008765 -0.0321043000218
-0.0142820002511 0.00208696543751 -0.0281363554885
-0.0142820002511 0.000993633007129 -0.0336692623824
-0.0142820002511 0.00184200783183 -0.0314072537304
-0.0142820002511 0.00338394202224 -0.026718156653
-0.0142820002511 0.00964282297833 -0.0313841272405
-0.0142820002511 0.00947768984123 -0.0282930595759
-0.0142820002511 0.00864263913275 -0.0241738565018
-0.0142820002511 0.000967349822883 -0.024379732628
-0.0142820002511 0.00279962942883 -0.0242428672779
-0.0165417103699 -0.000399999989895 -0.0244731642886
-0.0180691195963 0.000973019649586 -0.0259380636486
-0.0175673241974 0.0017432468068 -0.0319383184211
-0.017853728579 0.00186797450382 -0.0277826115331
-0.0177944383236 0.000736306879302 -0.0300753391278
-0.0181763118521 0.000862841435589 -0.0238894172479
-0.0182834415304 0.000817973155317 -0.0218495775585
-0.017978280204 -6.39693668052e-05 -0.0275148562742
-0.0167118730464 0.0057044906433 -0.0313341904685
-0.0166963991356 0.00640599276541 -0.0277202885071
-0.0158637230711 0.00745406608042 -0.0327129569736
-0.0151599716439 0.00324356904455 -0.034729000181
-0.016617220433 0.00531104812227 -0.0338592338443
-0.0145798069812 0.0105251399224 -0.0250155041562
-0.0176219817503 0.00375082776118 -0.0264423609479
-0.0179436830961 0.00265234581212 -0.0246382103665
-0.0177139006349 0.00427951572823 -0.0234695008338
-0.0172522962092 0.00419185805568 -0.0301969447473
-0.0171269155743 0.00404159219353 -0.0323627056069
-0.0172221264686 0.00597161501518 -0.0229546271266
-0.0169854489435 0.00607068585956 -0.0257689627427
-0.0147795704087 0.00408970973046 -0.0223000240937
-0.0156110553528 0.000906740751075 -0.0221143387749
-0.0148811224792 0.00581772188522 -0.0215713019308
-0.0168624890776 0.000201436121813 -0.0343043316821
-0.0162760303226 0.00203621560226 -0.0346319391559
-0.0151913121377 0.0062817697678 -0.0346577073138
-0.0157177284559 0.00840490942213 -0.0288923179067
-0.0161341572828 0.00815262311534 -0.0246793394986
-0.0167023679311 0.00739833867126 -0.0217552677233
-0.0156266905092 0.00832877234656 -0.0307177022837
-0.0119246937534 -0.0136415419924 -0.0310915417765
-0.0154812483472 -0.00040099999751 -0.0300485185139
-0.00996099971235 -0.00397390270537 -0.0253491572081
-0.00996099971235 -0.00972923110394 -0.0273421960308
-0.00996099971235 -0.0111625797572 -0.0229651439663
-0.00996099971235 -0.00782727381608 -0.0241625006295
-0.00996099971235 -0.011355214057 -0.0259457805257
-0.00996099971235 -0.00583396866354 -0.0256471415842
-0.00996099971235 -0.0125566804646 -0.0243985853896
-0.00996099971235 -0.0141294847894 -0.0280234737827
-0.00996099971235 -0.00811809751419 -0.0286957186687
-0.0133140002701 -0.00040099999751 -0.0339792020469
-0.0121054752852 -0.00040099999751 -0.0271502675445
-0.0113267171442 -0.00040099999751 -0.0327990313851
-0.0154467284223 -0.00040099999751 -0.0330393220941
-0.00996099971235 -0.00612055053183 -0.0296214809883
-0.00996099971235 -0.00442467555471 -0.0302580387275
-0.00996099971235 -0.00465569126897 -0.0275702768676
-0.00996099971235 -0.00162537679558 -0.0259170355142
-0.00996099971235 -0.00186522604577 -0.0306377686049
-0.0151566423583 -0.0070326472068 -0.0223820004612
-0.0114884823467 -0.0126831152343 -0.0223820004612
-0.0150808413987 -0.0102840096162 -0.0223820004612
-0.0166698458013 -0.00040099999751 -0.0286826819655
-0.0171828494879 -0.00040099999751 -0.0314361126844
-0.0112865153532 -0.0132087783162 -0.0340435560123
-0.0142905989127 -0.0112732830263 -0.0282669716512
-0.0131749718066 -0.0121303508712 -0.0329876706942
-0.0142541163475 -0.0108755635235 -0.0319730702804
-0.0132611606979 -0.0122513013988 -0.0310615810624
-0.0143945630951 -0.0109226600577 -0.0300857738321
-0.0161062317191 -0.00891783003937 -0.0236140047051
-0.0106152785857 -0.000484363425211 -0.034376081787
-0.013142679321 -0.0129803062916 -0.0252973464983
-0.0142687514351 -0.011727021523 -0.0246101181252
-0.0130583803534 -0.012758768311 -0.028628602871
-0.014046809999 -0.0121466808723 -0.0229500222556
-0.0169406376097 -0.00040099999751 -0.0225999710918
-0.0181069051087 -0.000779134387119 -0.0256696953436
-0.013478642591 -0.0108573595953 -0.0342310804196
-0.0151123653198 -0.00230791306422 -0.034729000181
-0.0127030775377 -0.00263121810065 -0.0347205823861
-0.013497133888 -0.00437442317314 -0.0347098140438
-0.0144206779222 -0.00592210386703 -0.034706647346
-0.0102825603135 -0.011348110913 -0.0344797583521
-0.0112394986179 -0.00429491952676 -0.0346453166202
-0.0125988773359 -0.00823079756445 -0.0346083219867
-0.0105555742861 -0.00910603858597 -0.0345314739769
-0.0137143996687 -0.00144449574819 -0.0224704540607
-0.0116517294531 -0.00417575163311 -0.0224341420968
-0.0100389318264 -0.00288889045699 -0.0225688731708
-0.0119664275796 -0.000958502641544 -0.0225731648172
-0.0156590028786 -0.00166317984735 -0.0223820004612
-0.0110581187846 -0.00674675397896 -0.0223820004612
-0.0127051038642 -0.00561486713676 -0.0223820004612
-0.0177954689419 -0.00188291522543 -0.0297053834428
-0.0174488733733 -0.00322102212945 -0.0327940650178
-0.0169912859514 -0.00656223907946 -0.0268766262117
-0.0173968844626 -0.00616786093289 -0.0229652679694
-0.0169489831334 -0.00581795249109 -0.031585532557
-0.0176196380435 -0.00517718214416 -0.0246960705205
-0.0169197098785 -0.00541114152079 -0.0334708735971
-0.0180878151007 -0.00314588884063 -0.0231270715842
-0.0176307613237 -0.00373047912879 -0.0289930101158
-0.0179105900626 -0.00303616853908 -0.0264270523164
-0.0153199958376 -0.00984286895464 -0.0283660477389
-0.0154593109087 -0.00931541116364 -0.0309906158191
-0.0152533734264 -0.00889886457464 -0.0337438814694
-0.0148512221702 -0.0107770194011 -0.0262650584389
-0.0165135306823 -0.0079500880559 -0.0253095831998
-0.016748622477 -0.00669813263792 -0.0295032710915
-0.0163601444249 -0.0070584171832 -0.0326744360696
-0.0162637679067 -0.00813227519633 -0.0277080831245
-0.0174340011201 -0.00147877664902 -0.0336676040055
-0.0157071210344 -0.00416773305718 -0.0347034012386
-0.0117777765679 -0.0143247361865 -0.0245964687308
-0.0119903120696 -0.0138745491292 -0.0278289096618
-0.010323039556 -0.0149758815128 -0.0298765972568
-0.0152349970936 -0.00662630782269 -0.0192949995399
-0.0162065988613 -0.00438182466241 -0.0192949995399
-0.0106530794287 -0.0131388823006 -0.0192949995399
-0.0104790410487 -0.0118514932156 -0.0212498997209
-0.0137179215029 -0.0087873938104 -0.0223820004612
-0.0125915104103 -0.0106133970336 -0.0223820004612
-0.0162502643884 -0.00417300294749 -0.0223820004612
-0.018282205064 -0.00139245079719 -0.0216819129911
-0.0110606272151 -0.015097979831 -0.0193445367041
-0.0145817832336 -0.0115886521301 -0.0211292294046
-0.0112831556407 -0.0148134350373 -0.0213917571234
-0.0180252333556 -0.00468271809102 -0.0201862248385
-0.0173910949607 -0.00673710863412 -0.0192949995399
-0.0173040321379 -0.0066632716076 -0.0211396442138
-0.0159401662898 -0.00961532292432 -0.020909752385
-0.0152699952107 -0.00317520387791 -0.0204395439029
-0.0144827487123 -0.00385514837286 -0.0220844759097
-0.0142655387747 -0.00516466794276 -0.0201991074702
-0.0164586768032 -0.00192643988072 -0.019450460847
-0.0131819328222 -0.00777223158585 -0.0197055070078
-0.0109829592658 -0.0101343560435 -0.0212143454777
-0.0121324927658 -0.00807698563909 -0.021130505499
-0.018099163274 -0.00313371100005 -0.0193741760221
-0.00945902139024 -0.014184547581 -0.0343786144142
0.000228000004427 -0.0153320943088 -0.0232706684837
0.000228000004427 -0.0153754950483 -0.021397796377
0.000228000004427 -0.0169859418978 -0.0237602969805
-0.0038414284612 -0.0134036244162 -0.0313993092783
-0.000357984189971 -0.0134530400547 -0.0331073874257
-0.0022134661308 -0.0133928947931 -0.0281393033329
-0.00573384364098 -0.0133844790551 -0.0313952682369
-0.00224936961288 -0.0134131778325 -0.0306164278248
-0.00314438979798 -0.0167291328856 -0.0192980002612
0.000228000004427 -0.0181147225499 -0.0212852184423
-0.00166205697193 -0.0133670000359 -0.0240249079178
-0.00561755115522 -0.0133670000359 -0.0280405724072
-0.00996000040323 -0.0143537815498 -0.0324279380589
-0.00346373561968 -0.0134033253501 -0.02206964031
-0.00856057173408 -0.0137071819421 -0.0244465481633
-0.00981880920397 -0.0136634724494 -0.026261099503
-0.00966339054799 -0.0141053080887 -0.0215235015158
-0.00730805865305 -0.013917316892 -0.0209170862861
-0.00724934559256 -0.0137274656518 -0.0228168769045
-0.00698491301659 -0.0133776239088 -0.0261484588212
-0.00365741043989 -0.0133670000359 -0.0242839720182
-0.00801852012002 -0.0133670000359 -0.0279345431336
-0.00198851530948 -0.0185430959046 -0.0206836530415
-0.000464444232399 -0.0181307383521 -0.0269455044375
-0.000352450009493 -0.0179137476437 -0.0303266204261
-0.0013622413729 -0.0184194422644 -0.0225402977426
-0.0017488510929 -0.0177832434756 -0.0318122700653
-0.00240600625316 -0.0179316812911 -0.0294606941483
-0.0081593018304 -0.0167310006123 -0.0198214133008
-0.00893064395733 -0.015887075759 -0.0291484993576
-0.00876239912678 -0.0158333841557 -0.0310155684434
-0.00986065852693 -0.0155333548806 -0.0259460959973
-0.00993663066786 -0.0156532484172 -0.0225720188518
-0.006457419919 -0.0174776570331 -0.0213185214144
-0.00824839947254 -0.0167140372311 -0.0217654264516
-0.00548643562093 -0.017917559117 -0.0198521079375
-0.00798643490372 -0.0166197589969 -0.025197945805
-0.00762638537992 -0.0166394123367 -0.027330592286
-0.00562369241418 -0.0167403781638 -0.0335132284759
-0.00306179453175 -0.0175157891398 -0.0332316107313
-0.00777414465592 -0.0161754822648 -0.0326571432643
-0.00655649105839 -0.0173528650761 -0.0242822960211
-0.00742194813021 -0.016536341711 -0.0299762462231
-0.00103891353601 -0.0148339828893 -0.0201402856844
-0.00180815142255 -0.0135601530716 -0.0214051803878
-0.00320393103899 -0.0149290587438 -0.0197049652146
-0.00498410914252 -0.0141646030953 -0.0203035293793
-0.00748407573049 -0.0147497575625 -0.0193681431519
-0.00258974364543 -0.0181770519541 -0.0257415903219
-0.00385451931799 -0.0181014467529 -0.0240768506676
-0.00466978197369 -0.0173678324647 -0.0317275291346
-0.00425231476359 -0.0176092221803 -0.0296692277991
-0.00406729119557 -0.0182478105554 -0.0213953597629
-0.0039334224325 -0.0178674485576 -0.0270744803177
-0.00620378489727 -0.017348745141 -0.0259912778158
-0.00507695340855 -0.0178785929441 -0.0227714263724
-0.00581472618531 -0.0173296638686 -0.0280304632082
0.000174042103236 -0.0144223335337 -0.0288845867853
0.00022500713217 -0.0134100413952 -0.0224001066307
0.000109122410571 -0.0139428810465 -0.0312473797612
0.000226786963794 -0.0158786793042 -0.0305214128539
0.000228000004427 -0.0173923108468 -0.0337122967156
-0.00117233297168 -0.0151655020044 -0.0344253445052
-0.00718534761501 -0.0139405384308 -0.0344218920632
-0.00380018008288 -0.0138429138809 -0.0344260640925
-0.00386852837682 -0.0166195149028 -0.0344195585321
-0.00714768806917 -0.0157732930309 -0.0343655202655
-0.00896386265595 -0.0072867587747 -0.0220927336797
-0.00847220929863 -0.00500443050133 -0.0220761203561
-0.00204051191793 -0.0133659997955 -0.0334435284734
-0.00317773190886 -0.0133659997955 -0.0258831721404
-0.00627748410931 -0.0133659997955 -0.0330332052235
-0.00809819257675 -0.0133659997955 -0.0321394522885
-0.00106998045252 -0.0133659997955 -0.0258967937375
-0.00398627300778 -0.0133659997955 -0.0293839855226
-0.00107751620521 -0.000482702317897 -0.0327167000314
-0.00181507553027 -0.000435786876875 -0.0284909622581
-0.00134939102819 -0.000460471439285 -0.0306192044379
-0.00177243020505 -0.000411907945019 -0.0258277859134
0.00020605051887 -0.00042420678751 -0.0247476605922
-0.006084040956 -0.000411697234662 -0.0310891616574
-0.00996000040323 -0.0107603773372 -0.0290938531448
-0.00996000040323 -0.00436644350385 -0.0236313221946
-0.00996000040323 -0.00833293148986 -0.0258129101058
-0.00996000040323 -0.0102565302298 -0.0315758774701
-0.00996000040323 -0.00681340905054 -0.0272415980686
-0.00996000040323 -0.0120088875585 -0.030775183509
-0.00490758938767 -0.000399999989895 -0.0235302748975
-0.00810741471161 -0.000399999989895 -0.0259382567512
-0.00798599451169 -0.000399999989895 -0.0280769696043
-0.00782031898916 -0.000399999989895 -0.0314031944968
-0.00769436114434 -0.0133659997955 -0.0305739455922
-0.00845662444748 -0.0122196954757 -0.0344718914707
-0.00895833857269 -0.00824343870704 -0.0344545734985
-0.00957913978599 -0.00605577997839 -0.0344331449246
-0.00626365043146 -0.0104935777722 -0.0345475876915
-0.00838273797267 -0.0101816198561 -0.0344744418552
-0.0070285372563 -0.00849601095821 -0.0345211856267
-0.00996000040323 -0.00163596810083 -0.0240161978267
-0.00996000040323 -0.00663541805961 -0.0317391369529
-0.00996000040323 -0.00844851248716 -0.030477835786
-0.00996000040323 -0.00400461814147 -0.0321018708328
-0.00535804296857 -0.0133659997955 -0.0257068184381
0.000228000004427 -0.00900989424023 -0.0278714129313
0.000228000004427 -0.00556741574419 -0.0233196885006
0.000228000004427 -0.00741842995121 -0.0234637118481
0.000228000004427 -0.00464238772063 -0.0254096774235
0.000228000004427 -0.00771589867707 -0.0301776052756
0.000228000004427 -0.00568075348214 -0.0277921289076
-0.00306834080141 -0.00141323445003 -0.0334820322406
-0.00714002692734 -0.00103323398296 -0.0337308124853
-0.00519048407467 -0.0024986712065 -0.0338015780497
-0.00192146033188 -0.00584312633498 -0.0340514914369
-0.0039852162917 -0.00544340286044 -0.0341469454795
-0.000259099940867 -0.00444389773121 -0.0337199635422
-0.00339764003921 -0.00341213116948 -0.0338024206469
-0.00159042144299 -0.00270636363534 -0.0335626341173
0.000208846264525 -0.00658106552463 -0.0317280267448
0.000194103075532 -0.00635337940903 -0.0334807966562
-0.00511162682309 -0.00898372029885 -0.034583506663
-0.00286910766728 -0.0109994096435 -0.0346577822298
-0.00112312144675 -0.0113333798764 -0.0346985600419
-0.00345679069926 -0.00819549216659 -0.0345099939969
-0.00916754023389 -0.00232290935537 -0.0340654071431
-0.00813286753631 -0.00511971810188 -0.0343941827676
-0.00524217744765 -0.00701393220673 -0.0344647458662
-0.0019199641162 -0.00930911799722 -0.0345627751689
-0.00588867295996 -0.00448995480972 -0.0341480911141
-0.00996000040323 -0.00916492041156 -0.0226868184683
-0.00649274266654 -0.0109207038615 -0.021958015092
-0.00989521379135 -0.000399999989895 -0.0293058997857
-0.00996000040323 -0.00232629976622 -0.0288712407682
0.000228000004427 -0.0114759606817 -0.0229460660119
0.000228000004427 -0.0123488926141 -0.0292800800587
0.000228000004427 -0.0109821873309 -0.0266924322743
0.000228000004427 -0.0120858875912 -0.0312031028851
-0.00149593357408 -0.00194633327601 -0.0219638460796
3.12109336601e-05 -0.00667319297486 -0.0214793113112
-0.00320538110122 -0.00563565733271 -0.0216487618627
-0.00212192185014 -0.00390511849317 -0.0217904331139
-0.00228637598359 -0.00846288233031 -0.0215369880789
-0.00419462952985 -0.00913738540772 -0.0216092518564
-0.00186421140972 -0.00670684691894 -0.0215517552512
-0.00472301623144 -0.00689964362196 -0.0216756660394
-0.00151311422681 -0.0100317838794 -0.0214724455436
-0.00223744459042 -0.0119277520488 -0.021468487055
-0.00510382474013 -0.0127440767241 -0.0224569042024
-0.00955513934496 -0.0133659997955 -0.0296220988008
-0.00856227554759 -0.0115471974117 -0.0240606649535
-0.00769347813587 -0.0024852592402 -0.0221111107683
-0.00608588383965 -0.00120638259694 -0.0221951669867
-0.00586471996568 -0.00469447452859 -0.0218007405565
-0.00424392557203 -0.00360044491925 -0.0218680638793
-0.0036479648854 -0.0010657674535 -0.0221294359176
-0.00649740781196 -0.00712973638905 -0.0218249525304
-0.00691498135248 -0.00874371245388 -0.0218696588388
-0.00389985091548 -0.0113492076291 -0.0215816621007
0.0122095786885 -0.00551675029155 -0.0200783690839
0.0136354238203 -0.00738257486852 -0.019467698155
0.0136865027329 -0.00707166518724 -0.0174062788815
0.0165718630132 -0.00117939860151 -0.0162070002407
0.0161769064528 -0.00354018520307 -0.0162070002407
0.016100272495 -0.000399999989895 -0.019091116313
0.0139964052373 -0.000399999989895 -0.0186444282669
0.0118383806076 -0.00430572473565 -0.0188477093271
0.0148445778136 -0.00180716471302 -0.0171510889034
0.011998068038 -0.00099459249492 -0.0190580505599
0.0145378502724 -0.00501982135758 -0.0169675882354
0.0149925976986 -0.00789807398665 -0.0163389890801
0.0128500789075 -0.00249381985713 -0.0183392209557
0.0167653996522 -0.00754359171224 -0.0192674463001
0.0178664421702 -0.00308915881124 -0.017897437478
0.0175414402901 -0.00592001808325 -0.0170646409257
0.0174755855721 -0.00571790442533 -0.0186816892613
0.0169955065913 -0.00636182699168 -0.020696226406
0.0179603585198 -0.00228638344029 -0.0198769304037
0.0167376837105 -0.00781103255889 -0.0163000619505
0.013239917815 -0.000604598230457 -0.0206951872257
0.0149260469292 -0.000399999989895 -0.0206155624493
0.0166214787141 -0.002848162609 -0.0208379998803
0.0135117925011 -0.00263831259999 -0.0208379998803
-0.00850569908116 0.00203714647457 -0.0224520640882
-0.012031538631 0.00762700010091 -0.0275365050647
-0.00561485340614 0.00762700010091 -0.0269213459389
-0.00516423347525 0.00762700010091 -0.0287085550563
-0.00980332545561 0.00762700010091 -0.0271196709341
-0.00716639295336 0.00762700010091 -0.0297231421991
-0.00788638144419 0.00762700010091 -0.0274560902995
-0.00285999989137 0.00455826889085 -0.0226336625377
-0.00285999989137 0.00119767424891 -0.0281349463474
-0.00575551014318 0.00762700010091 -0.0320498319501
-0.0109562008645 0.00762700010091 -0.0317283257191
-0.00907178804819 0.00762700010091 -0.0328647382286
-0.00886232163281 0.00762700010091 -0.0310212435089
-0.0128147951152 0.00762700010091 -0.0309860031736
-0.00524850885491 0.00762700010091 -0.023599532783
-0.00366299199909 0.000905315648949 -0.0224275677171
-0.0036275410805 -0.000383847628275 -0.0294816948707
-0.00512852481497 -0.000376224136018 -0.0257416749567
-0.00664466149907 -0.000387451405199 -0.0247284661588
-0.00319120302793 -0.000343061243161 -0.0242880070017
-0.00546190905715 0.00543590109723 -0.0340269606427
-0.00403547140894 0.00296539857655 -0.0335768443151
-0.0118502207032 0.0045457844787 -0.034729000181
-0.0104961944745 0.00602667373578 -0.034729000181
-0.0125755277846 0.00699100159623 -0.034729000181
-0.0104941881665 0.00310902313396 -0.034729000181
-0.0119637867739 0.00137809331041 -0.034729000181
-0.0128364132554 0.00313223479001 -0.0347162444952
-0.00387006225998 -0.000399999989895 -0.0315630076227
-0.0093304864157 -0.000399999989895 -0.0325236114427
-0.00568230331095 -0.000399999989895 -0.0282997392557
-0.00957513190253 -0.000399999989895 -0.0273405695732
-0.00839077510136 -0.000399999989895 -0.0235542642567
-0.00793737953063 0.00604174764008 -0.0346441708706
-0.00645347843308 0.00278308597573 -0.0340993951635
-0.00752071719614 0.00423893908394 -0.0344150503666
-0.00427634573931 0.000681724619911 -0.0335299685487
-0.00824587789915 0.00218765872976 -0.0343687261679
-0.0101146897931 0.00140186865783 -0.0346353877667
-0.00878279615192 1.03050027429e-05 -0.0342779380647
-0.00672710977969 0.000744761888453 -0.0339734680644
-0.00285999989137 0.00309810242126 -0.0288215502842
-0.00285999989137 0.00394906030717 -0.0325933371757
-0.00285999989137 0.00287025156233 -0.0309775864313
-0.0111004355808 -0.000399999989895 -0.0305339419717
-0.0113549315687 -0.000399999989895 -0.0251526963778
-0.0126777568317 0.000312841146296 -0.0234337289843
-0.00603442039911 0.00439610883413 -0.0224146760161
-0.00485754294799 0.00579409862909 -0.022529317368
-0.00684389483163 0.00655852898107 -0.022723803348
-0.00739345462924 0.000388111273258 -0.0223820004612
-0.00587325213872 0.0023880738066 -0.0223820004612
-0.0142700173118 0.00336962294303 -0.0297339453678
-0.0142779235149 0.00113592893339 -0.0266068305582
-0.0141996895694 0.00134011220869 -0.0297643153684
-0.014206502001 0.00347665779899 -0.0322228686813
-0.013271843313 -0.000383854408375 -0.0290288773898
-0.0132836626949 -0.000399999989895 -0.0252510569558
-0.0139464375323 0.0059528251631 -0.0267585717029
-0.0142810000107 0.00537256090062 -0.0300626918741
-0.0123072419065 0.00630127353472 -0.0246971733801
-0.0126560971507 0.00417688864912 -0.0238912812995
-0.0126235486322 0.00236453580217 -0.0235887243902
-0.0107318336373 0.00563689676093 -0.0232846693671
-0.0109300257668 0.00380135406946 -0.0230956151956
-0.0105459194341 0.00133473396634 -0.022695218546
-0.0091121927791 0.0065195363268 -0.0228751671593
-0.00917149495917 0.00406724002455 -0.0226745052855
-0.00990544119225 0.0123912742708 -0.0214549992234
-0.00285999989137 0.0144273223234 -0.0232216843836
-0.00285999989137 0.0100453735867 -0.0243349658168
-0.00285999989137 0.0158163218535 -0.0282145028442
-0.00285999989137 0.0140448251451 -0.0252336955492
-0.00285999989137 0.0122625402206 -0.0290295027758
-0.00285999989137 0.0127358721688 -0.0226630068154
-0.0109251813506 0.00762700010091 -0.0339462337207
-0.00714646840598 0.00762700010091 -0.0337908811709
-0.00285999989137 0.00919280092777 -0.0264438726153
-0.00285999989137 0.00796460784006 -0.0245839768507
-0.00285999989137 0.00979742037726 -0.0330751538092
-0.00285999989137 0.0143071255416 -0.0332699428581
-0.00285999989137 0.0117458378931 -0.0323187917441
-0.00285999989137 0.0131683260338 -0.0309313483387
-0.00501255625506 0.00762700010091 -0.0339891343742
-0.00447906314121 0.00762700010091 -0.0303353762326
-0.00320184554046 0.00762700010091 -0.0278590604701
-0.00363297204865 0.00762700010091 -0.032628725726
-0.00894313308819 0.00762700010091 -0.0249699652101
-0.01131210606 0.00762700010091 -0.029622894139
-0.00670923212259 0.00762700010091 -0.0253667164567
-0.0137692498043 0.00762700010091 -0.0332618432254
-0.00949230596906 0.00762700010091 -0.0289617928288
-0.00369871159164 0.0173258453567 -0.0245994054848
-0.0141909723382 0.0101811622453 -0.0332163506605
-0.0122702049642 0.0122854429426 -0.0326784854056
-0.00322554812347 0.0156610810727 -0.034729000181
-0.00605685922814 0.0114758333421 -0.034729000181
-0.00321408929622 0.0123066673189 -0.034729000181
-0.00801638644234 0.0108754752393 -0.034729000181
-0.00603079658613 0.00928790802011 -0.034729000181
-0.00590860803077 0.0134033367884 -0.034729000181
-0.00976419033311 0.0100449125528 -0.034729000181
-0.00373244217227 0.0106078900923 -0.034729000181
-0.00845058019368 0.00846561522295 -0.034675142181
-0.0090567715817 0.0154320203837 -0.0236554290953
-0.00881644469002 0.0152198768479 -0.0282434996022
-0.0090562490187 0.0152656822388 -0.0259141503835
-0.00766943635891 0.0160711247667 -0.0248747234912
-0.013191152272 0.0122207726931 -0.0215716163651
-0.0106634389247 0.014159180269 -0.0216707370603
-0.0105002656598 0.00897181285869 -0.0218695237056
-0.00800174366538 0.00840883402558 -0.0222775171131
-0.0142820002511 0.00792901093875 -0.0274149398438
-0.0129300723803 0.00768975484113 -0.0257460792094
-0.0139620281018 0.0088986854932 -0.0221418843543
-0.0136356501887 0.00762700010091 -0.0291925044545
-0.00373504214023 0.0171400007673 -0.0273010815853
-0.00328027258194 0.0169163352873 -0.0315519420744
-0.00497224162263 0.0165501632192 -0.0314544605215
-0.00595345722348 0.0161371352248 -0.0332619056061
-0.00708522368644 0.0158046475658 -0.0316659051457
-0.00727979730864 0.0159057600352 -0.0294062863327
-0.00738758120886 0.0160636405269 -0.0268768221406
-0.00624579490058 0.0168577923153 -0.0214951689682
-0.00554365477833 0.0167483646541 -0.0263637241823
-0.00593587968211 0.0167678551502 -0.0242770205137
-0.00556990586424 0.0165249456686 -0.0296401316182
-0.00468165550219 0.0172178536038 -0.0231617719969
-0.0118144158276 0.011800524718 -0.0345490287087
-0.009718878778 0.0119974672832 -0.034729000181
-0.0118834038934 0.0100821610788 -0.034729000181
-0.00834598265965 0.0133234694432 -0.034729000181
-0.00541154422233 0.0151942714338 -0.0345657714155
-0.00541008924974 0.0144591766561 -0.0214549992234
-0.00632506973049 0.0125617233279 -0.0216591669344
-0.00773690629928 0.0100877354568 -0.0219144155523
-0.00448614086599 0.0101068254058 -0.0223414435969
-0.0082607546119 0.0117319316182 -0.0215511734626
-0.00450904086084 0.011931171621 -0.0220123335999
-0.0104493201865 0.0106248279859 -0.0214592614101
-0.0060544011911 0.00918067109152 -0.0222993250608
-0.0119013668573 0.00798557439964 -0.0235492409152
-0.0128726111889 0.012716197394 -0.0235188709826
-0.0120016764021 0.0132262446589 -0.0263444773842
-0.0111980465479 0.0137799505238 -0.0278649003853
-0.0114045798251 0.0139067265618 -0.0240238090717
-0.0140480387577 0.0110095967489 -0.0271432384915
-0.0139193829655 0.01094249734 -0.0292246235015
-0.0128723876988 0.0119432621488 -0.0303640661637
-0.013239242506 0.0120741557538 -0.0259910781568
-0.012795467433 0.0122661885216 -0.0283541914368
-0.00889332744688 0.0150062525574 -0.0304223388845
-0.00831601754381 0.0150757602823 -0.0334878077611
-0.0105641533756 0.01440714488 -0.0259759185926
-0.0107143110909 0.0139473521134 -0.0298649432534
-0.0110584901458 0.0135028111851 -0.0321193234166
-0.0104420733407 0.0134506020015 -0.034085924323
0.00350345734716 0.0116048397768 -0.0233925798199
0.000629207875374 0.0122555249455 -0.0236868474931
0.00701900012791 0.00403750113647 -0.0234308027646
0.00701900012791 0.00269058122289 -0.0250872069947
-0.00285999989137 0.0106460327017 -0.0284485770354
-0.00285999989137 0.00785546412824 -0.0309142719696
-0.00285999989137 0.00189194037355 -0.0326042968726
-0.00285999989137 0.00632278183469 -0.0294861921154
-0.00285999989137 0.00569505170047 -0.0276339362501
-0.00285999989137 0.00977690213283 -0.030566819386
-0.00285999989137 0.00623959547038 -0.0319547122148
0.00339062862061 0.013801000081 -0.0344842658838
0.00286602735133 0.013801000081 -0.0294759748633
0.00701900012791 0.00070074541074 -0.0247389995011
0.00252502547392 -0.000399999989895 -0.0321700873076
0.00481531114984 -0.000399999989895 -0.0322196080757
0.00413515947606 -0.000399999989895 -0.0302991662352
0.00201827642551 -0.000399999989895 -0.0284010564177
0.000290349473796 -0.000399999989895 -0.0314355214356
0.00219394174177 -0.000369984453084 -0.0245971941869
-0.000419100757058 -0.000360817523502 -0.0269097737142
0.00469702774314 -0.000399356059842 -0.0241565356428
0.00224849565116 0.00195272714361 -0.0336372574396
0.0058378585346 0.00447004062849 -0.0341211512381
0.00376063226596 0.000426701178273 -0.0333439151502
0.00406372228337 0.00265552487181 -0.0337723536302
0.00103327454272 -2.69439531968e-05 -0.0332567126356
0.00610859827416 0.000996958207909 -0.0334535335358
0.00701900012791 0.00640622598785 -0.023803922558
0.00701900012791 0.00384439799422 -0.0327853669429
0.00701900012791 0.00117474322577 -0.0310354745873
0.00701900012791 0.00284511925124 -0.0281170840046
0.00701900012791 0.00538052667585 -0.0315789853384
-0.00285999989137 0.0111663151762 -0.0259773520547
-0.00285999989137 0.0127324214301 -0.0272628446662
-0.0011865081106 0.013801000081 -0.0279201311007
0.00701810279879 0.0117006234271 -0.0253341163941
0.00413649180748 0.0130442676296 -0.0253952551001
-0.000354523576538 0.0120808245552 -0.0347282631837
0.00171785799013 0.0129530374311 -0.0347284793822
-0.000510245715504 0.00826114123177 -0.0345747021805
0.00264720234549 0.00526979340516 -0.0342261774039
0.000554507801426 0.00442460024792 -0.034028852759
-0.00135574268829 0.00511829370839 -0.0340706616977
-0.0022341199305 0.00933637844263 -0.0346804749901
0.00174651444666 0.00814356523298 -0.0346316319775
-0.00277929413348 0.0075747608065 -0.0343955920797
0.000709534416115 0.00635360198905 -0.0343261681385
-4.12851106825e-05 0.00244460327214 -0.0337092160793
0.00595718500395 0.00762503535469 -0.0346925393121
0.00428338795319 0.00656015149789 -0.0344758115753
-0.000311804641033 0.0102293841373 -0.0347281652232
0.00595989370642 0.0106094306566 -0.0347284515578
0.00364209038429 0.00863041142611 -0.0347280451402
0.00288653228458 0.0105988076486 -0.0347283399555
0.0052727721685 0.0130333546728 -0.0347288232965
0.00658143662529 0.00509500336651 -0.0219092968848
0.00405513186038 0.00495519606037 -0.0220012477692
0.00617967811352 0.00704364607582 -0.0221812686017
0.00166647163898 0.0083590132419 -0.022549905735
0.00200633562345 0.00646204227522 -0.0222873811554
3.36356803814e-05 0.00814727921982 -0.0225934884658
0.00360680526943 0.00826981087013 -0.0224536138578
0.00562434481703 0.00341145025117 -0.0217312173052
-0.000308438083271 0.00339650959127 -0.0222087673845
0.00156453057534 0.00417975052326 -0.0220828928519
-0.000473102555791 0.00576862126442 -0.0223555896876
0.00286426942342 0.00289560470436 -0.0218938957846
-0.00216004917836 0.00286068479233 -0.0223464700178
-0.00285999989137 0.00678248043613 -0.0232919746957
-0.00285999989137 0.00427476995068 -0.0264128646784
-0.00285999989137 0.00121017782018 -0.0303881054282
-0.00285999989137 0.003772031693 -0.0243601298261
-0.00285999989137 0.00538690154508 -0.0250107215631
-0.00285126542267 0.00164823386084 -0.0241850178883
0.0055612121202 0.00125786390407 -0.0215919391387
0.0013234676002 0.00200547056931 -0.0219900192249
-0.0010169667329 0.00114686298432 -0.0222389091883
0.00381392579938 -0.000151571401103 -0.0217826486083
0.0070188527167 0.0079947751911 -0.0289830419779
0.00701892921507 0.00733144005996 -0.0271157912122
0.00693745810882 0.012351612173 -0.0341080871158
0.00269764460903 0.0136799912274 -0.0267110912538
0.00701850936687 0.00989160151824 -0.0263820718886
0.00701859819481 0.00913050615157 -0.0243876736437
-0.00154533742108 0.0122405909203 -0.0238873648874
-0.00139729962361 0.0099658056306 -0.0230750719191
0.00194911145077 0.010329234246 -0.0229977611137
0.00561567055601 0.0101426037639 -0.0228443140531
0.00694369781096 0.0111065246407 -0.0234933481135
0.00528684650036 0.0118793960416 -0.0238515977064
0.0026973925183 0.0129127306962 -0.0241786774087
0.00149345597705 0.0177557227259 -0.0232922216675
0.00169956645846 0.0169836063788 -0.0328850232916
0.00178861385954 0.0171690672875 -0.0304744266763
0.00146524697454 0.0175955112414 -0.0253372116274
-0.00285999989137 0.0177137833193 -0.0202399072176
-0.00285999989137 0.0159311296028 -0.0259811224253
-0.00285999989137 0.0164475951707 -0.0232000621446
0.00424099992961 0.0150682703013 -0.0272136692845
-0.00285999989137 0.0149759752661 -0.0303975947601
0.00156123919504 0.0149683053227 -0.0347299985588
-0.00127509656757 0.0138020003214 -0.0343453102457
-0.00136373891319 0.0138020003214 -0.0320902186357
0.000389573391252 0.0138020003214 -0.029870406849
0.00101268327491 0.0138020003214 -0.033242841758
0.00331384739124 0.0177396372577 -0.0200060496914
0.00347267096255 0.017516873084 -0.0224598551481
0.00398740519116 0.0177286248965 -0.0178942744508
0.0010173688438 0.0138020003214 -0.0279560914857
0.00249281189613 0.0138020003214 -0.0316275532683
-6.69468724599e-05 0.0138020003214 -0.0262007280758
-0.0024273801006 0.0170117904943 -0.0158990006894
0.00276625047391 0.0154792480262 -0.0192855304638
0.00122111477969 0.0139292440982 -0.0249095356258
-0.000211364281446 0.01418474224 -0.0229708420268
0.00180177392481 0.0146510361699 -0.0222073332465
-0.00115094177835 0.0158967077031 -0.0347299985588
0.000455813643363 0.0181230008602 -0.0168497938919
-0.00105583449787 0.0181230008602 -0.0161235003972
-0.00172163955797 0.0180685834729 -0.0187095683459
-0.00278225934905 0.0171375917478 -0.0298314513508
-0.00176297293035 0.0176613123606 -0.0241863328922
-0.00161333716784 0.0173382705177 -0.0283425851084
-0.000785123200993 0.0175760175002 -0.0258967883912
-0.00108919532948 0.0171891411367 -0.0305585920471
0.00308717529136 0.0174408924568 -0.0244245802808
0.00335435174789 0.0170529885966 -0.0287654799801
-0.00164757150477 0.0169509161529 -0.0328792289532
0.00331110864939 0.0145808594145 -0.0248537773988
0.0039791103088 0.0153348774074 -0.0219032008406
0.00331293291864 0.0159775946227 -0.0345914470801
0.00410236892345 0.016682573195 -0.0306025012919
0.00127188777035 0.0149657548886 -0.0205784428386
0.00130477416268 0.0163186424443 -0.0168027255338
0.00040238086209 0.0157042549527 -0.0185807951746
-0.00174475195248 0.0148500367147 -0.0211857264514
-0.000934181483978 0.0161738850287 -0.0175231290522
-0.0010188792342 0.0154384818221 -0.0195033283957
0.000574787575985 0.0180555135776 -0.0195993058836
-0.000727633109195 0.0178917953675 -0.0218343124241
0.00023919527735 0.0173923799653 -0.0286521043458
0.00204218038359 0.017361798388 -0.0276394090176
0.00186531086182 0.0178889411972 -0.021028700158
0.00188257479598 0.0180711953162 -0.0186019803256
0.00921665202181 0.0156165513887 -0.0189341257992
0.0084229375901 0.0155822811191 -0.0248583228899
0.00946868373556 0.015166403701 -0.0224016375877
0.00764638602474 0.013801000081 -0.0254195390047
0.00572028173147 0.0169482915647 -0.021559634512
0.00617741033936 0.0171861990752 -0.0171053834347
0.00550566804695 0.0171952441568 -0.019308760018
0.00838332348625 0.013801000081 -0.033881782957
0.0064776375772 0.013801000081 -0.0328897185524
0.00908033421067 0.013801000081 -0.0239829842585
0.00656426680522 0.013801000081 -0.0305856142254
0.00734710837232 0.013801000081 -0.0283387533322
0.0077494390565 0.0160968179958 -0.0227558954243
0.00680159367774 0.0163417405701 -0.0246116383351
0.00701584377255 0.0159898399508 -0.0278164991139
0.00490683437796 0.0162078288806 -0.0332772693448
0.00531657610445 0.0165762410304 -0.0274387146414
0.00627554059431 0.0160874740939 -0.0298618651299
0.00476258429541 0.0140052280755 -0.0294613519282
0.00571888821871 0.0151266780033 -0.0187221636688
0.00660724275872 0.0141328033342 -0.0224892925591
0.00803974565628 0.0143376574203 -0.0163608379549
0.00573628562056 0.013982688616 -0.0263879644381
0.0074502429616 0.014188819253 -0.019318523631
0.00566680619333 0.0148240314393 -0.0209379569211
0.00494144641616 0.0148034591756 -0.0234797297754
0.00437877447456 0.015874335733 -0.0181138554595
0.00634064034894 0.015178196538 -0.0163146815118
0.00424099992961 0.0149925698255 -0.0315889527105
0.00424099992961 0.016463214591 -0.0255500061402
0.00491481844721 0.0150652834944 -0.0346847282016
0.0106366132431 0.0144949775076 -0.0202228976038
0.00980766359555 0.0142900692754 -0.0290575617383
0.00833069888203 0.0162314049346 -0.0175459509827
0.00940815467153 0.0155534249622 -0.0158990006894
0.00823739118437 0.0160337765009 -0.0208190852347
0.00793044739006 0.0152480461196 -0.0313847197506
0.00781136703037 0.0154908706111 -0.0292925184785
0.00661422643119 0.0148784947505 -0.0344315031439
0.00949662069616 0.0147662641321 -0.0264997058505
-0.0124992970213 -0.0169881457603 0.0147244318912
-0.0126352942649 -0.0159832833569 0.00211511466421
-0.0126205821428 -0.0158447749034 -4.3451202271e-06
-0.0122678842436 -0.0170444028837 0.0128790843793
-0.0132459211142 -0.0142919998616 -0.00462483740843
-0.0116619019472 -0.0174991518618 0.0226819999516
-0.008275846439 -0.0170272040807 -0.0177840021829
-0.00721535239996 -0.0175650672314 -0.0157544518042
-0.00864488990348 -0.0193930936228 0.0191623704873
-0.00862871974626 -0.0193405410807 0.01700557638
-0.00765334532012 -0.0198908288971 0.0208266078267
-0.0105477037585 -0.0185518638564 0.0200703001072
-0.0143177548535 -0.0144893949309 0.00683344267352
-0.0150860998876 -0.0148824775966 0.0213467936506
-0.0151982075553 -0.014903965322 0.0195012003741
-0.0112119712981 -0.0159293314475 0.0216969834197
-0.0130404206373 -0.0148477946073 0.0223848673871
-0.00964093205474 -0.0169369897205 0.0219840925862
-0.0113497513721 -0.0154345180117 -0.0171666452003
-0.00948615591044 -0.0166841545317 -0.0158452848096
-0.0102382684135 -0.0164409655354 -0.0131595433713
-0.0103729610179 -0.0167234256734 -0.00865990299064
-0.0110617211047 -0.0161447726271 -0.0104346968339
-0.0112230579413 -0.0164165375831 -0.00542745336152
-0.00781316895962 -0.0177039129328 -0.0124903249988
-0.00817525844316 -0.0191890642211 0.0107589169495
-0.00866715010297 -0.0177779736496 -0.0069061124131
-0.00814542499826 -0.018193706754 -0.004286858779
-0.00802828613358 -0.0190173584724 0.00694413624547
-0.00835384303537 -0.0184377910805 0.000644135646242
-0.00799194515058 -0.018756372858 0.00290119218262
-0.00864173292593 -0.0149518472858 -0.0178805286319
-0.00842297714325 -0.0154468493795 -0.0106592872909
-0.0123793418624 -0.0145663374387 0.0127173161833
-0.00991998269591 -0.0148085666286 -0.00754020576051
-0.0118423127306 -0.0145545299508 0.00707960446358
-0.0103153791114 -0.0142994168475 -0.0131077699852
-0.0112370015301 -0.0146379145301 0.00253972513162
-0.0129910719191 -0.0143497566466 0.0148222238533
-0.0103358916782 -0.0147661310492 -0.00414201707272
-0.0104986913187 -0.0145899235592 -0.00580703333421
-0.0110712519562 -0.0148443853924 0.00474294636243
-0.0113007722297 -0.014410517629 -0.00108470859558
-0.00909558205761 -0.0148191780508 -0.0156554175592
-0.0134051698681 -0.0147863452475 -0.00280414109495
-0.0118822939609 -0.0151795980933 -0.0152274721449
-0.0121381633902 -0.0152562007111 -0.0117549067763
-0.0122008619907 -0.015590629926 -0.00738320341937
-0.0106082786188 -0.018402616021 0.0175991204541
-0.0088904187736 -0.0191680270758 0.0151046563077
-0.00876372340174 -0.0185633060344 0.00521441200953
-0.00904552264993 -0.0173982120314 -0.00961460302524
-0.00878596676802 -0.0180308557012 -0.00237534866519
-0.00959722195345 -0.0180075938609 0.00347533604808
-0.010075296975 -0.0180143256148 0.0072210367172
-0.0101601214461 -0.0183662363272 0.0129966705173
-0.0102928284565 -0.016904827726 -0.00684989268739
-0.00943288662178 -0.0175004616401 -0.005154095932
-0.00897291432628 -0.0171204923255 -0.014174200036
-0.00932739021684 -0.0171003647377 -0.0116701427832
-0.0103474296682 -0.0174047753097 0.000684511770344
-0.0109820397097 -0.0179971187443 0.0145263971427
-0.0111101386507 -0.0173254914583 0.0061264066151
-0.0106400506566 -0.0178795903952 0.00980113746007
-0.0111522024314 -0.0170400318124 0.0024455753109
-0.0119626817586 -0.0176676480464 0.0195895683998
-0.0119721935594 -0.0169380330267 0.00853783444709
-0.0114263303163 -0.0164488303798 -0.0031363589789
-0.0122949039685 -0.0164334857442 0.00461075375967
-0.0120309242348 -0.0170703831749 0.0108813996365
-0.0111075121297 -0.0167982750728 -0.00128959242257
-0.00765023929566 -0.0181048246918 0.0209328357973
-0.00957688299274 -0.0161892604711 0.0108526491134
-0.00773443370475 -0.0163384485313 -0.00379803238527
-0.0109088097197 -0.0157560864954 0.0167025393491
-0.0104958233312 -0.0161498729711 0.0186702268297
-0.00992721741745 -0.0158251939343 0.00874597026365
-0.00700169751247 -0.0177647492528 0.0102975253554
-0.00882903099006 -0.0169886335478 0.0156733837492
-0.00689131892858 -0.0159829083956 -0.0166788243546
-0.00856845450347 -0.0166077077956 0.00774226512594
-0.00720994095632 -0.0179016578217 0.0141944626257
-0.0116949018022 -0.0147444006992 0.00913677984211
-0.0085888570742 -0.0169758288306 0.0132935413776
-0.0113450489918 -0.0153268255727 0.0144301918109
-0.00833322562473 -0.0156580108041 -0.00824660519936
-0.00715283505815 -0.0181490548622 0.0172785238299
-0.00854937237547 -0.0157051977251 -0.00558509163456
-0.00987764134216 -0.0156812769947 0.00619581717642
-0.00705799280323 -0.0165773110065 -0.00649401562351
-0.00808239895004 -0.0167533179666 0.00542579782993
-0.00880277282431 -0.0159007008803 -0.000421835914297
-0.006983478164 -0.0179200708986 0.0123947932861
-0.00949744259218 -0.0157742301193 0.00407859715482
-0.00771218293854 -0.016789567313 0.00257334263396
-0.00691420558238 -0.0171789275383 0.000960849968019
-0.0100940662875 -0.0152010829732 0.00117386792662
-0.00770207003281 -0.0157140057844 -0.0131941453612
-0.0127661918222 -0.0147766282119 0.0193892999332
-0.0115218153844 -0.0149834596594 0.0110402081214
-0.00656499993056 -0.0179095946922 0.00755109903405
-0.00659003930603 -0.0167115334302 -0.0101521687609
-0.0138370397719 -0.0162219124331 0.0203168922231
-0.0137675408907 -0.0150579066391 0.00392020065332
-0.0138570888602 -0.0154868993618 0.00990757613064
-0.0137647946208 -0.0157434954184 0.0118121450257
-0.0139275149713 -0.0157939619471 0.0142692852222
-0.0131978893477 -0.0158073655973 0.00611157723426
-0.0131350321367 -0.0166883303981 0.017933845026
-0.0138303266031 -0.0160216501185 0.0163603205378
-0.0131240468626 -0.0169385535074 0.0216243175399
-0.00234735714026 -0.0226920016925 0.0315145275444
-0.00150668824824 -0.0225514087042 0.0297299675689
-0.00129783800621 -0.022321847039 0.0270505388195
0.000228000004427 -0.0223754039757 0.0346561698455
0.000228000004427 -0.0214220922878 0.0200138208373
0.000228000004427 -0.0208492444306 0.0271840623206
-0.00641108939473 -0.0202516727444 0.0159741551451
-0.00575080417295 -0.0209556447256 0.0203362890777
-0.00631187427375 -0.0205325941936 0.0182065776613
-0.0058086991155 -0.0214887481472 0.0253096018821
-0.00409974989286 -0.0214671408923 0.021536023927
-0.00448632245238 -0.0210818765094 0.018567059206
-0.00422016943357 -0.0219343194838 0.0263146133991
-0.0050430095929 -0.0219742765271 0.028348400305
-0.00402131256181 -0.0217064209688 0.0237032995586
-0.00458391882409 -0.0205389191521 0.0134884551498
-0.00410355847875 -0.0209685959176 0.0167012260238
-0.00551400931529 -0.0208485517965 0.0346717199882
-0.00362440395398 -0.0207185791149 0.0343938050448
-0.00118940804061 -0.0214190625469 0.0345290775582
-0.00624943430993 -0.0196541442879 0.029890880165
-0.003847520045 -0.0200418279274 0.0302787809763
-0.00538364348407 -0.0199733169518 0.0315153600954
-0.00463344553054 -0.0197325235848 0.0286421903294
-0.00609056308141 -0.0200724941188 0.0331659362866
-0.00230596122633 -0.0205885650028 0.0329928348497
-0.000349570116504 -0.0209967627694 0.0144094175036
-0.00150128061272 -0.0214402409641 0.0188203483512
-0.000618711926623 -0.020755422376 0.012232508696
-0.00178704727727 -0.0217198569009 0.0214915969563
-0.00253824744075 -0.0220455524663 0.0247074273034
-0.00239173103222 -0.0211912999417 0.0167277747369
-0.00251752683107 -0.0208094855306 0.0132089330663
-0.00291933506404 -0.0209486755619 0.0149079068417
-0.00419743686142 -0.0202326647867 0.0100505579518
-0.0018256711657 -0.0199441924744 0.0100330002606
-0.0049875281113 -0.0192061665842 0.0226451584565
-0.00480634256898 -0.0189140742293 0.01758803921
-0.00518685442755 -0.0189549252157 0.0192378060109
-0.00427212319321 -0.019210019217 0.020807096149
-0.00494149124292 -0.0187631540383 0.0155821518221
-0.00145605462016 -0.0192279549578 0.0136152862683
-0.00237810230071 -0.0192241356857 0.0160022255451
-0.00303679501097 -0.0192691206044 0.0184549504066
-0.00506882276222 -0.0186031213163 0.0134127511674
-0.0056051601702 -0.019251339385 0.0249918669892
-0.00522743185003 -0.0185007477588 0.0116308664839
-0.00206692549633 -0.0191033986603 0.0116593494116
-0.000531115119505 -0.01953016426 0.0158920584126
-0.000506155453209 -0.0199905876882 0.0229745052167
0.000139769681974 -0.0198454453594 0.019011352024
-0.00301341679953 -0.0195568226783 0.022876287763
-0.0012139599244 -0.0197135130991 0.0205461256295
-0.0013287493615 -0.0201543494619 0.0267729122475
-0.000765847377827 -0.0204335949801 0.0287847719961
-0.00127029969609 -0.0205408516744 0.031033301556
0.000130481425559 -0.0202868681998 0.0252864485288
-0.00258065175204 -0.0200833830668 0.0285323532949
-0.00276267295205 -0.0197459527171 0.0250811297456
-0.00351122975086 -0.0224038015523 0.0296092064602
-0.0043880235732 -0.0226414242993 0.0340927663917
-0.00448870119219 -0.0223862894986 0.0313629589183
-0.00630904916719 -0.0222522149878 0.034110064748
-0.00653474511891 -0.0199354440827 0.0136297537809
-0.00654537901042 -0.0208619224611 0.0230282853338
-0.000482586798439 -0.0212430465944 0.0167435593085
-0.00076746111155 -0.0218994380117 0.0229673606116
-0.000714362980581 -0.022148012863 0.0252918833182
-0.00205781108941 -0.0229116399828 0.0341847145193
-0.000944442529261 -0.0227883104081 0.0326934359873
-0.0207877245624 -0.00911323244889 0.0298661978066
-0.0153527656186 -0.0125196128689 0.0246297895691
-0.0178011582505 -0.00969584549313 0.0303904396189
-0.0179808930389 -0.00895240945011 0.0272598713825
-0.0166560060329 -0.0109671252747 0.0273684065362
-0.016870687524 -0.0103616875006 0.025501814008
-0.018859655487 -0.00818534673676 0.0309607136909
-0.0182467542012 -0.0094704065619 0.0331428160011
-0.0157577694528 -0.0130372337775 0.0312580987668
-0.0163186229149 -0.0118054924401 0.0292968259376
-0.0162025011016 -0.0127999527397 0.0338248847066
-0.0169717753884 -0.0112509106407 0.0319176113957
-0.0156526856086 -0.012428904385 0.0269479220152
-0.0198406079746 -0.00811699964106 0.0329606610153
-0.0176422476216 -0.0110456003661 0.0343419655724
-0.0195628357377 -0.00923344732902 0.0229324680844
-0.0188011137934 -0.0101748778012 0.0214499869278
-0.0192432201809 -0.0127737906309 0.0343961098454
-0.0179957535489 -0.0142776252849 0.0347107528646
-0.0168603347383 -0.0142909996212 0.0298045747022
-0.0167734564989 -0.0103201267571 0.0237908835392
-0.017878451703 -0.00872154635237 0.0246368090221
-0.018067955577 -0.00835760056264 0.022074268499
-0.0155161607627 -0.0121372200621 0.022773543572
-0.0164194198473 -0.0108212290805 0.0213877922465
-0.0174843824827 -0.0130755902292 0.0238108900837
-0.0176173221793 -0.0124528988057 0.0221965963908
-0.0162557085358 -0.0135223013763 0.0205290000886
-0.0168417384949 -0.0142909996212 0.0252518762045
-0.020550614373 -0.0103309486586 0.0338552194622
-0.0199268639565 -0.0113251648169 0.0324662489804
-0.0208544423199 -0.00941051012125 0.0319505639774
-0.0201843196623 -0.0100709390078 0.0280455144153
-0.0186736425304 -0.0122192601027 0.0262324616584
-0.0184507533271 -0.0131398220661 0.0295667726708
-0.0187526837113 -0.013051007439 0.0316259392757
-0.0176077693737 -0.0139684514805 0.0276035680536
-0.0195406518419 -0.0114284803627 0.0291363493716
-0.0192898922659 -0.0107080922545 0.0248078407942
-0.018664458386 -0.0112686777049 0.0232624723461
-0.0169074264134 -0.0142909996212 0.0317130465869
-0.0213339922492 -0.00812567401951 0.0342777134261
-0.0200511696841 -0.00955924366952 0.0257720851146
-0.0191784233007 -0.00647220496632 0.00306482035287
-0.018788704369 -0.00732256802818 0.00165309324859
-0.0193060695678 -0.0077671301475 0.0114819595188
-0.0190693264558 -0.00725071085059 0.00540197163168
-0.0176023154191 -0.00811699964106 -0.000325470340731
-0.0176037711718 -0.00811699964106 0.0109912185562
-0.0158354332595 -0.00811699964106 -0.0154416875097
-0.0178373542674 -0.000399999989895 -0.0150057835462
-0.0193130093751 -0.000399999989895 -0.00569593808533
-0.01703213706 -0.00369236062451 -0.00968089940919
-0.017269083521 -0.00175619380527 -0.0129522096295
-0.01667746802 -0.00460587190603 -0.0117118615255
-0.0175704525073 -0.00194638167515 -0.00785304291592
-0.016955121954 -0.00485228183272 -0.00676546079404
-0.016230023228 -0.00524634174855 -0.0160613090273
-0.0187384722083 -0.000976646870175 0.00595185177511
