0.022074276408091866 -0.0621223040120094 0.051843252823376144
0.02783226721054207 -0.05736065343757846 -0.007908624413985193
0.02991389233181968 -0.05715105601467135 0.0018887274469836998
0.02370850257954392 -0.059723926395671166 0.013141111142724139
0.03206765992962302 -0.058126688591156064 0.03679220442551753
-0.044640468020453614 -0.02913954066163215 0.07025273568094995
-0.04007925201937129 -0.037563132620944364 0.07266522588118914
-0.0466239228045931 -0.023968047996871796 0.0723832866322414
-0.049519631710710506 -0.014646118942345101 -0.0039968879332417315
-0.05033134835883549 -0.015399144648865742 0.06025705053912228
-0.04878909182666931 -0.016919354928455088 0.00577081052275763
-0.048291137203672785 -0.019044534716278348 0.025615593323160178
-0.047048895733524186 -0.023404271175389377 0.05354601169303663
-0.04801208229087511 -0.02159045996461895 0.06777417613597851
-0.05039499434901857 -0.012250622026400605 -0.008178766810451423
-0.05127080931251498 -0.01028775362549759 -0.0024244763370940554
-0.050832444145988136 -0.011624243455970589 0.002804932908446923
-0.04980313075309711 -0.016425160802503773 0.05317144931479066
-0.04959032046856166 -0.015127191399139041 0.011116203561498925
-0.04474959840830182 -0.029705909810386375 0.06474659895752942
-0.050124514956794056 -0.01622958075820586 0.06730209203966346
-0.049205911356377016 -0.016506745744493737 0.0204565489697566
-0.05136178251871021 -0.011540063762911074 0.03152954929618935
-0.04819495068931093 -0.018868024952442893 0.01600242528552128
-0.05028461780026254 -0.013614809522052474 0.016678228822775962
-0.047666084451531324 -0.020836396070369818 0.03046525411556753
-0.046604390332599874 -0.024118491970465387 0.04416588881936062
-0.04822640421598941 -0.020279296003861642 0.05015101888982851
-0.04826345760616515 -0.01954713785516919 0.03552557118422134
-0.04774543301807797 -0.021931228486795688 0.06013886840789621
-0.04649625675938699 -0.024137729996703022 0.03834477537068469
-0.05033395275353238 -0.014692552551872021 0.044222360944527694
-0.05066429171976355 -0.013011896386900371 0.024853758302458246
-0.05150044835959051 -0.008764738678052063 -0.02401340169522842
-0.0403355904413655 -0.016760502732349306 -0.11225660581110541
-0.042208587808803 -0.01594817139635832 -0.09828034417755425
-0.049197345335124376 -0.009247886654712604 -0.0594460076717514
-0.03815359085982714 -0.02498608214181202 -0.1021222505876063
-0.0433650277979523 -0.014751375162664327 -0.09217404956997975
-0.044335711279405894 -0.016904766175742124 -0.07558837887638867
-0.043182356100704485 -0.012536902553694138 -0.10186098973775128
-0.03973516572365286 -0.020642314517791784 -0.10359486116876057
-0.051203819038179686 -0.007709777293116332 -0.046897520780722894
-0.047336689662622854 -0.01090099486305555 -0.07025956571315557
-0.0428694011156197 -0.01738957742745354 -0.08707842812535035
-0.039013703687542055 -0.020959424253507962 -0.10896312684769682
-0.04569895086897635 -0.01192255535568808 -0.0813507601814633
-0.04143965301256391 -0.015777303556779088 -0.10584844309350736
-0.03742164529525786 -0.025301896085363696 -0.10758994682555902
-0.03924437260303428 -0.03692122283262419 0.046039624378504396
-0.03958331924805553 -0.03215670068915705 -0.007070310674703706
-0.038094966966607816 -0.03199475922409506 -0.036706712095166176
-0.04067619141895835 -0.03344219381538051 0.029234993887454843
-0.0412959918106866 -0.03206351949598964 0.023547902750330477
-0.03844255490653725 -0.035106971836508294 0.008543021417110705
-0.03648541694422948 -0.03326435704327303 -0.05074501398645574
-0.03850444287747108 -0.03759265832491466 0.04068047420111545
-0.03880137313826597 -0.03517081086573091 0.015997040442564975
-0.04242646291459403 -0.03224989359817782 0.04684815653511361
-0.03931111041916939 -0.032948674351775786 -0.002247803753122203
-0.041744737904866755 -0.03500199301733539 0.06850869371036858
-0.042544506236717496 -0.03161672066577971 0.04114476491545656
-0.04256826431512492 -0.03270876211373811 0.05520010414681342
-0.03637628479277967 -0.03276384338972961 -0.05900994986475277
-0.03875796717546891 -0.03151704534015605 -0.03035991688065184
-0.03517638599507564 -0.03144692480932682 -0.0976929939452261
-0.03736623050506918 -0.03238905977487278 -0.045313206797721564
-0.0390298402806859 -0.03210830908494476 -0.017943820219310153
-0.03866872808738946 -0.03572803608931757 0.02048264543394905
-0.04004692994875899 -0.03713497049685348 0.06359646266186572
-0.039655019268302075 -0.03163087109690955 -0.012295386099012741
-0.04028040859549705 -0.03191945195107413 0.0029069148142253157
-0.04221598077221935 -0.029145320985978065 0.00847704379272271
-0.04340614055470396 -0.023850933526836968 -0.024878614933768
-0.03582549174356445 -0.030819753571896688 -0.09308040115264446
-0.04389368300929874 -0.021284147543285628 -0.04271749518398099
-0.041198763540654715 -0.02731462404017791 -0.029689623568321645
-0.03698051082451694 -0.029581666724991962 -0.08453825895536093
-0.03609695935917527 -0.029432517402671082 -0.10257293393118276
-0.04341871838925585 -0.020007862202820977 -0.06496010968112798
-0.050691676060069385 -0.00956440011177991 -0.0389448274034396
-0.04461019631119801 -0.027121347311496537 0.03187428277598996
-0.04279966962678457 -0.026659747051171384 -0.006717640957244551
-0.04038261952255523 -0.02935433647743408 -0.02350540016866438
-0.04677774740784796 -0.016530851453553423 -0.038821240967527954
-0.04418782864059599 -0.021537329142140217 -0.03457839971757459
-0.047895262743530516 -0.017404393033538027 -0.008826038799309944
-0.04799019937977052 -0.018029635149015063 -0.0004972163401373237
-0.04088021722913951 -0.02483212228897933 -0.06167037230022039
-0.04670867980629116 -0.01988308863651174 -0.004941877853986821
-0.03971952747806174 -0.027584830246715406 -0.054429002390687056
-0.04549787803106065 -0.023671491899495314 0.012230388409787088
-0.04261835944626814 -0.03102143383200349 0.03565912956760578
-0.0447691928186296 -0.02361338392646945 -0.0019623972175875914
-0.04631512515242094 -0.0166412685715243 -0.0462865055915118
-0.04260315687981732 -0.02786492313630913 0.002262191381316083
-0.04064196127872033 -0.02459727050782012 -0.06857535515013508
-0.035230626073641254 -0.030376632077623963 -0.10881770300246583
-0.03908049028912533 -0.0269061150108034 -0.07346120147342824
-0.04067120970397962 -0.027724276798949756 -0.03522610996114262
-0.05088175915925154 -0.010003913585009051 -0.03079080519511288
-0.04684981322374344 -0.020862393154500298 0.007962396241601168
-0.04733769783142637 -0.016860328616783438 -0.024926975868243176
-0.03784932973365713 -0.027005575909366027 -0.09536749297466114
-0.046539045559044964 -0.014849483067931123 -0.06090929890054142
-0.04868477607924383 -0.013963746193316518 -0.030203257291844997
-0.04873108712592699 -0.012699944382561362 -0.04259797055331667
-0.04594160961246596 -0.015438869223957161 -0.06586293332988984
-0.04416576305145026 -0.030563564121738575 0.05970050447081914
-0.04074925059791227 -0.02365904210890613 -0.07641794481356473
-0.04173034778475526 -0.02133234719224958 -0.08253793180433283
-0.048535711860895024 -0.012451263097567725 -0.04884870669636009
-0.04223119951325713 -0.02960984155145361 0.013633810677575256
-0.04327972531631635 -0.019574495243740088 -0.07209729780990083
-0.03952403082792155 -0.024984870772420027 -0.08534821639910875
-0.04117342244756224 -0.026215416850473083 -0.041693293635161284
-0.04436241893332527 -0.025113361450101162 0.006190651779041944
-0.04737055151686563 -0.01396112185827772 -0.05472885067188443
-0.044562737032588 -0.02910855794062196 0.05183655280437982
-0.04444621163150623 -0.019089954387934982 -0.055436282062179695
-0.04299217308483491 -0.022278438057630055 -0.04909160889873847
-0.03958979630794274 -0.024299983254066293 -0.09130715273529515
-0.04438199934929149 -0.026505082606972534 0.021155572914878223
-0.047978130153070446 -0.01620605830058565 -0.019852529919400695
-0.041729326943850384 -0.030933930870366153 0.018168988826771613
-0.04334181878153606 -0.02470275493041818 -0.017141537648573478
-0.04340735181890336 -0.028706403750675416 0.026080545434033025
-0.04511216907079414 -0.022324006461139724 -0.009095366927720252
-0.04594427933310069 -0.02425881431179092 0.026712958657464404
-0.04691745034411076 -0.021892534123448083 0.020029950716427047
-0.04904285323139266 -0.01493650395236601 -0.013323679781687584
-0.03693507065164366 -0.030464563614343007 -0.07612321634984197
0.03333387625807909 0.03983075639900105 -0.1210109943444008
0.04879542322825817 0.02724847195006274 -0.12101855625419243
0.03945431169187052 0.038893376235808304 -0.11935487697199919
0.04139848153287099 0.03258037043289563 -0.12129707642311233
0.0440826789083404 0.03881537279367868 -0.1178436322071073
0.028752832904483466 0.04232665978185143 -0.12151430946525903
0.04600997018745756 0.03195517724054437 -0.12001599093850579
0.05351246775993587 0.025762854864992336 -0.11828042628736841
0.0581517195759236 0.02444702987518546 -0.11509233964990864
0.05228715437177641 0.032303074897757196 -0.11576503534717085
0.05238581041910421 0.015442304555868197 -0.12109616519979383
0.0602724780944585 0.004078437170218065 -0.11810114575875225
0.050613377168851045 0.022132301684437947 -0.1215778394124467
0.05661872430843895 0.016474088056169553 -0.11915866179414222
0.054016449419203964 0.002219007889262407 -0.1209801570432679
0.053894349275232775 0.01047886301258778 -0.12065239910985535
0.054824479471102396 -0.0070262377283687345 -0.121047290968487
0.060411007426273686 0.010049462993894198 -0.11776295949939061
0.03709346236128894 0.028431272598728567 -0.1218860000371933
0.042064149853166685 0.010316797564975461 -0.1218860000371933
0.03887085750811091 0.020314317705012238 -0.12188600003719331
0.0469310174289246 0.008265417674288053 -0.1218860000371933
0.04707726169468152 0.019089966589059995 -0.1218860000371933
0.03699651931682049 0.03465709278102376 -0.12188600003719331
0.05314482369734267 -0.012398658280438245 -0.1218860000371933
0.04955793759654969 0.004057948650567709 -0.1218860000371933
-0.002969412375639994 0.06042211661652681 0.07030497768789445
-0.007135683873930127 0.05923764939347886 0.05823928801341482
-0.006563153814160698 0.059361057012417354 0.06719659547691059
-0.010618107629872961 0.058123084963298835 0.0712437603717423
-0.012853707555640836 0.057493983398706046 0.06356820367540832
-0.01428998171046081 0.054710702677329213 0.01904020057122461
-0.013187043495944021 0.05406570322673733 -0.0034805313430022536
-0.012010734561247408 0.05547725303141267 0.014349812584773535
-0.013976217010873229 0.05313444986695384 -0.015128957399625146
-0.01192131213837299 0.051514526402410055 -0.06542414329034733
-0.010390502448051042 0.05416238130253731 -0.026056150847732974
-0.012332465718552165 0.05739162881006647 0.05532869774686007
-0.010620923058828283 0.05692447709274981 0.0310205971153189
-0.01419245337794233 0.05609506564835243 0.0457806813755761
-0.009929631243855132 0.05752299741157785 0.03689415591618218
-0.012056328158667615 0.05320939337400181 -0.030456767104175005
-0.012395625886741906 0.05215875063250259 -0.04842674709371353
-0.010580191009438538 0.05563160373101561 0.004892401518817539
-0.014891664369688971 0.0549696886404619 0.029474485065799333
-0.015351022433964507 0.055864067127838785 0.05132725725334139
-0.01117008143318965 0.05631520835320891 0.023687441147313026
-0.012275871534821414 0.05669600984970328 0.04096680794397738
0.004357210919925969 0.05993936542348873 0.0137239902799166
0.0028840151465653334 0.060404008877156454 0.03316828004353692
-0.0016994287211196616 0.060628806637661604 0.06310179168722804
0.0005218414873881354 0.060192499990411534 0.04039987177497859
0.0023720612610268295 0.06003881917249083 0.02674093054263002
-0.003708529188653421 0.05915075395889687 0.03675415092567246
0.0045784563007818125 0.0589943354840621 -0.011107324760191165
-0.00044922544949048925 0.05874796322398917 0.009386610109500544
0.005462732670324322 0.057942870554060416 -0.0421191892090052
0.00620927801720536 0.05838527426890809 -0.03500288206211394
0.001397190837634562 0.058147495137451974 -0.01543711754306025
-0.006836098055902556 0.058670674929697866 0.04132117805598791
0.005548665060344321 0.05874306294483962 -0.022542720150436353
-0.0009594986617382948 0.059186899083089814 0.023080978096527136
0.006568992190585439 0.057981245173423915 -0.04702497696080291
0.0010010090709976203 0.05878159277083088 0.0025379429361906767
-0.008072058134404245 0.05884222979697319 0.05217017856841866
0.001247422940665724 0.059431470162745456 0.017500369075331944
0.0007025871719398683 0.05841379863191047 -0.005086960972754951
-0.0011230128627004825 0.060573348966343726 0.05865673580143921
-0.029222798762534752 -0.04328723685370394 -0.036867522886474324
-0.025622279591768785 -0.05034199443832117 0.03939842643001874
-0.03288934592396378 -0.040516960750523336 -0.023480759873296272
-0.033346935855860224 -0.042655057624477494 0.02942769365040448
-0.035875335413335784 -0.040714409619748954 0.03803388256876215
-0.03309616217506828 -0.044642633078304204 0.06560430170326663
-0.032121336814170925 -0.04421609538482477 0.03805271571872172
-0.035136620361566256 -0.041898389577192136 0.04824695960365653
-0.02870477935711606 -0.04703457831294944 0.030469447324914523
-0.024361707204824348 -0.05233582187919689 0.05627847768139663
-0.03274469728282833 -0.04198717586845578 0.0040649983271147695
-0.02606459233751361 -0.05035380432501177 0.04815082967474434
-0.02866957424770334 -0.045857728727645375 0.005515535470256492
-0.034814269264734826 -0.04246624528223796 0.05375990766774889
-0.031094647589086734 -0.04449612467831849 0.024078857327686345
-0.03134320345501519 -0.04243237970465705 -0.013711679676884685
-0.029565137959063834 -0.04379574086612227 -0.019792246811940542
-0.03562948259716635 -0.041192557913760516 0.043167898704774756
-0.026636704941081727 -0.048084777190221785 0.012349894685165556
-0.02864820729572071 -0.04848286667856568 0.059257220621914436
-0.03089679558558734 -0.04436368256857788 0.017540687511408578
-0.028895994835257285 -0.04797238129944297 0.05349335647015842
-0.032071199163101 -0.0422691550126129 -0.003074290310100411
-0.0343278167161162 -0.04102863046907178 0.014746134333763192
-0.03723346958052398 -0.04095972519651904 0.06922084600000661
-0.029292739475983955 -0.047040705874623126 0.041906455197277495
-0.030365845776206248 -0.04359855196755817 -0.00845672401819084
-0.034422022762083296 -0.041271580862021616 0.021570086751298862
-0.02821232636102599 -0.04585046378306393 -0.003430420051614813
-0.03200668543511723 -0.04468389170538403 0.04549711164986526
-0.028625950090730674 -0.04739820149094415 0.036454016048739324
-0.03227060124367545 -0.04269191270535959 0.009482480418501495
-0.029669324434826463 -0.043138222969786866 -0.03135163250293159
-0.026668064234542533 -0.0429417080854758 -0.07531305529804991
-0.026814830345721002 -0.04579281463128295 -0.02504071893991895
-0.022270971241509632 -0.049349338811311746 -0.022121277664226818
-0.025622674008312578 -0.044571903025102014 -0.060853184163299254
-0.02033052522121711 -0.04675334164732636 -0.09074981683470061
-0.025480163386190177 -0.04938482496216611 0.019074524012805967
-0.029803437043586928 -0.041327179647734635 -0.06307061600998569
-0.029291331719051253 -0.042826757207822724 -0.04408327427987685
-0.019212702776025322 -0.04843440966791013 -0.076342245627224
-0.022310772227437565 -0.048359194510385214 -0.03843190649677315
-0.021457504500641517 -0.04861683514690033 -0.04484981481776487
-0.020703499738800247 -0.04889134663329954 -0.04972565077301517
-0.023648159480975272 -0.04501627227396135 -0.07828286656683854
-0.024763627223359688 -0.04704549418943982 -0.029714167777832517
-0.02556290501771834 -0.04554766521324059 -0.045039360337774004
-0.025935412282920126 -0.04556567738785906 -0.04002162889182039
-0.02436234875701814 -0.04487817054998598 -0.07159422445096304
-0.026849541830445387 -0.0465493801747638 -0.011754081926838782
-0.022505759108995098 -0.047095387334846084 -0.05742677177847004
-0.02178659249781624 -0.04722879807255559 -0.0642580320870712
-0.025780252945421963 -0.044097841749406626 -0.06691020375671314
-0.02435764173888497 -0.046041462147187864 -0.051899400759552135
-0.020747453358890444 -0.049894100973766294 -0.03214147009043453
-0.024999160458230273 -0.049063461953511925 0.007533093652034969
-0.02377885718032766 -0.05212016019855921 0.04400455879719997
-0.021742226672002138 -0.05036336334124924 -0.01158979457032069
-0.02404218526053497 -0.050966359966849256 0.02774221997037926
-0.02947902131006147 -0.042177232840918996 -0.0527390384703765
-0.023150620827065593 -0.04485746215174095 -0.08727307636940478
-0.028131900884766303 -0.039084204279172294 -0.10540088330541873
-0.029108355814273224 -0.04141025373661618 -0.06983337820996775
-0.024556379513256257 -0.04331354879384772 -0.09154910201654835
-0.023043121296228493 -0.04355409016507314 -0.10320163654182782
-0.02531561920991187 -0.04206647980874116 -0.09843551486321955
-0.029471243611115413 -0.038606429401485245 -0.09808176899396712
-0.029429704208625986 -0.040321351943529635 -0.0790905695309759
-0.018558722271089463 -0.0472730701303187 -0.10375083229129675
-0.021086234707539474 -0.04552900317495536 -0.09946181707041006
-0.027324677273320882 -0.041336026945752086 -0.08761231588461087
-0.03129332359318086 -0.03634912695504116 -0.10260846898279961
-0.0318082582534151 -0.035223059126623775 -0.10759049456410023
-0.030687859252234176 -0.03870904559906465 -0.08504085345293944
-0.03087734330745573 -0.03772321015103851 -0.093334077454276
-0.036346754854283896 -0.03747271879393495 -0.0002585564179840138
-0.03309941399795359 -0.035908977795028905 -0.07907345313669817
-0.03392846963005914 -0.03416523490863562 -0.08605678204098241
-0.0376500100681145 -0.03833126426531146 0.03429360074835779
-0.03288888922190067 -0.03857779444786819 -0.049144683695875345
-0.03620032518610677 -0.036903119081806365 -0.010125112612558808
-0.036224847503243125 -0.035704666816946534 -0.02483772259981264
-0.03322997895690475 -0.03617486819307557 -0.07333673126726925
-0.03464104600488106 -0.03762076360789238 -0.029395573657493863
-0.036263651325240814 -0.03963470361227743 0.02557613533413497
-0.03367040126117103 -0.03616993292763544 -0.06539234112158465
-0.03855768456227358 -0.038851270923909456 0.05737220704078488
-0.0337512602204012 -0.038549527186684265 -0.03382443888313301
-0.033344652056922566 -0.037559552977909375 -0.053738038231488414
-0.03551580418665118 -0.03318162840686979 -0.06964025374449281
-0.03835761228803196 -0.03865806506540725 0.05129119054091304
-0.0340704225060368 -0.03930605154890801 -0.018453343956203353
-0.03406783870681492 -0.03759235641936781 -0.04017570198025179
-0.035212413160094866 -0.03869229408150751 -0.005455129243455523
-0.032098161096285306 -0.03897789570613943 -0.05845939172555592
-0.03664561416470081 -0.0357931399595861 -0.016069208606859786
0.05169716843463052 0.03801538191851735 0.07527458473540534
0.009860763992144854 0.058234074781860184 0.07408266661292165
0.05569802746144298 0.03416198628178589 0.07550814032844894
0.002458242714410816 0.06121734563680979 0.07390877761832369
0.032905701578625095 0.04872892335647138 0.07463757319979682
0.02327562973879089 0.055199129427891416 0.07425009846982444
0.046017128667741436 0.04056288015797211 0.07512506423860923
0.06065033798487396 0.03420599827726667 0.07240341502503218
0.054165558648108646 0.042810292470895975 0.06726814971616424
0.05119261506176277 0.04340508567087689 0.0721819381641855
0.0428817443457953 0.05335477823862881 0.06793850806573346
0.04554999777162533 0.049344051987862896 0.07107202972814071
0.05405300140833889 0.04488677477206831 0.06299776691049798
0.04056930800206886 0.05334800186976413 0.07277907848078764
0.047912607397460324 0.05040107438158203 0.0638480647745542
0.057992386547755605 0.038528404032920814 0.06857215237436165
0.02896363324209824 0.058300106610403246 0.07403552326573032
0.037090063762044656 0.05249200955342971 -0.014748750053981113
0.03941647028353405 0.053225100868466865 0.02715561975440872
0.03608486205630689 0.05323834067399203 -0.007863958432129933
0.03464433556727026 0.05238644102101442 -0.043166742554969544
0.03943462735557066 0.05476834424564733 0.06362660395836708
0.03689746166076096 0.055429885683633565 0.052272096668368746
0.03773360436620904 0.05369909679216482 0.02045193029122891
0.03720313873167047 0.05219554977948379 -0.020518771104924748
0.0327273552065437 0.05094678978043394 -0.0973390071988337
0.039039606835288954 0.05059455932592795 -0.03867946233875162
0.03791029561851824 0.050612911233483944 -0.050224092106111846
0.03502646427000682 0.054440495359252175 0.009172164279529188
0.042672881751543316 0.050093722694368965 -0.011923173689472046
0.03857677803608582 0.05393705576897864 0.03498748188401421
0.0393091411724075 0.05403218665967758 0.04499032683569878
0.04449520626478393 0.05207785895290469 0.05404499811053712
0.03794276903706467 0.05522168563764936 0.05846295427182249
0.0417737195714948 0.05273194383013974 0.04056052750420598
0.038622856480477176 0.052620607248209786 0.004529172315308402
0.03792293053400343 0.05145562614713222 -0.03027963209383531
0.04274864026036777 0.05123510431883871 0.015711726714608583
0.03678764812414851 0.056146732646952864 0.06795913043245909
0.0419924508772317 0.05084469672031737 -0.0014851288291332278
0.03511273844268676 0.05068214575923255 -0.07826388195999798
0.043534714423966926 0.05056719809319282 0.008346751558930351
0.03582010897624976 0.051321771866129 -0.055726129946229774
0.04488256803108655 0.0516719283811545 0.048610285375693764
0.035174666070650985 0.05106755663496455 -0.06854695005477403
0.04320539486310337 0.052931853908437784 0.060442531889739234
0.0426322891378751 0.051980845646487625 0.03200867736547759
0.04203505427416522 0.05176902013537854 0.020695584621243997
0.03928055059106152 0.05256808436963352 0.010269139948816699
0.03632488879961581 0.05079263965314537 -0.06281186908404106
0.0339362857719486 0.055940480060968106 0.03665071986428414
0.029518079743904996 0.05794872016360906 0.04719179144030111
0.029310840191881897 0.057452422009967155 0.03295519355974381
0.028663953532548817 0.055805140946348995 -0.013931191141914198
0.02929101161471946 0.05841455367749032 0.05677983477159192
0.02831211840992661 0.057625709741083615 0.02833616344843059
0.027403588698016863 0.058502601478014005 0.04207738367166525
0.032269397619265984 0.05265716459355108 -0.06018214983626187
0.029250983429769003 0.05484991731852724 -0.032505083220616425
0.029607815643335887 0.05645866382609674 0.01082299354442886
0.030302380774056337 0.05642448290338258 0.016189048557406605
0.03197492331333249 0.0547887058218584 -0.009643427871247837
0.029382304728485853 0.055891919990580054 -0.005334595691534731
0.03363886982709205 0.05448454798138887 -0.0023331336459318716
0.033589021580374065 0.05305457035728851 -0.03845291683572684
0.030698861955524837 0.0526111108827901 -0.07539277637931761
0.031042841693420947 0.05216510018279882 -0.08343953892762658
0.03274981686560635 0.056645430527951436 0.04361402536326897
0.03441920272129329 0.05444967398031725 0.003783549593462457
0.030664627716806225 0.05302613424128591 -0.06534575669015813
0.03222776737282704 0.05787277325886729 0.06955823743731376
0.0321747520545475 0.05313264890940917 -0.0491677088574261
0.033783383508838354 0.056937639986266414 0.06015773642483228
0.030101839795514305 0.058462364845254945 0.06523229271182787
0.034471558239501106 0.05548326714595726 0.030037229170749226
0.030802483548485228 0.05652080057539859 0.023069524107401967
0.03308345066429079 0.05369269607762563 -0.027060285838073392
0.002944183201989278 -0.042962152741903833 -0.1218860000371933
-0.01729226296950455 -0.019931725748529642 -0.1218860000371933
-0.00019356160457517863 -0.03885348708389531 -0.1218860000371933
-0.023672127632639463 -0.015669510616183616 -0.1218860000371933
-0.0016583361095896094 -0.029078234175837776 -0.1218860000371933
0.008567911630814213 -0.03978671905581361 -0.1218860000371933
-0.004379859329429101 -0.035936378814890056 -0.1218860000371933
0.002105930553198219 -0.033425123571723156 -0.1218860000371933
-0.007872074095026348 -0.030133553816919838 -0.1218860000371933
-0.013561613920392235 -0.0259178962797783 -0.1218860000371933
-0.0163333065752345 0.04788985488409226 -0.09459565985970357
-0.019896732462758478 0.044948510776345665 -0.10793687414416653
-0.021245379343906797 0.046424405566273766 -0.07607130452124211
-0.02475244842704437 0.04580374672897518 -0.05677699659416951
-0.01792322030886784 0.047974947870928514 -0.08062369161765193
-0.0245522055145263 0.04377266317314806 -0.08734260730608284
-0.020735463673051274 0.04528446222308933 -0.09641631239959098
-0.021821899221920904 0.04665324155778165 -0.06818216161293587
-0.014568370419516584 0.04777139813229229 -0.1104478398360449
-0.021967909506177143 0.04551032379787417 -0.08330590624844189
-0.020098402879271577 0.046097091512379486 -0.08994232157170359
-0.021684851342160257 0.044256815366123047 -0.10344961278682613
-0.014267928000124976 0.04869061841874482 -0.09975280646013067
-0.014923883138909006 0.047915953580111095 -0.10553388599705586
-0.02231145078726088 0.04328498175064363 -0.11227745090351973
-0.026992317458857246 0.03470224792535158 -0.11541290426395107
-0.03146807992834305 0.03448826681538063 -0.11145169303784566
-0.01370323929313787 0.04730837991450951 -0.11505558253945337
-0.017217809136298633 0.04285284905619094 -0.11613476898913812
-0.02236518466873924 0.03760426456500536 -0.11696727574124965
-0.023394077206452875 0.03026823704695692 -0.12081674344464129
-0.036584559710432965 0.036058716201866334 -0.012354975762999279
-0.035356805255778286 0.037115345505090006 -0.023624688449878976
-0.039178275211134095 0.0378528420296122 0.07227272215673174
-0.036544805956242696 0.0364757523007841 -0.006937147378232901
-0.041432059101060195 0.03145540014143791 0.025623355192687294
-0.03489519523937312 0.03467328744736078 -0.0707513173339779
-0.0390353473211301 0.03223196781139565 -0.015803369500420713
-0.035953822035366 0.0352722244686153 -0.038224579401328354
-0.04195016448643228 0.03149926461585967 0.03777711489390504
-0.035575523821962135 0.03867269316896206 0.004750816428292309
-0.04512178635711832 0.02908798934095809 0.07169766796621094
-0.03989764439153813 0.03511684137964532 0.046899125179236806
-0.03786660762144716 0.038333160440145966 0.050436423903473526
-0.040596056281586475 0.03105162006044748 0.0009821813543963026
-0.036913580303782216 0.034179501708844165 -0.03344401830807382
-0.03943364051010236 0.03351431717746399 0.01240097334917261
-0.045195934588348335 0.02774106635460075 0.05299628373673393
-0.038278913113560645 0.0342291391734056 -0.002412224478482647
-0.041548147437923 0.03165028019350885 0.03114186101973465
-0.036511314361519255 0.035776193382499266 -0.018247145230436128
-0.04346588315234697 0.03001440647448682 0.04896503785337823
-0.035225368529651295 0.03537092354939454 -0.05289020057727987
-0.04155411825251835 0.030657479505206406 0.01627754710292743
-0.04270135160827762 0.03238825467452252 0.06786647896974599
-0.038792220447435605 0.035997101008510106 0.035678455374894044
-0.03575722543820678 0.036164553163443254 -0.029105872483541843
-0.03755137623721929 0.03750086861630137 0.030872665946028503
-0.03806621530813925 0.03588040828561649 0.01781353807243695
-0.037869276638758706 0.037693100544566205 0.040827201609669544
-0.03795799664445022 0.039280602601548274 0.0667749387468645
-0.038223267822783284 0.038293821712961716 0.057752632646632676
-0.03664082426454109 0.03745983017985076 0.010057441832717201
-0.0393833183326989 0.03321296653170799 0.0067328180281987435
-0.041435693367845784 0.03374371736397286 0.06027011548585761
-0.03609152256932968 0.0289131178379256 -0.09775234764589541
-0.038563560797401544 0.022282381234308448 -0.10668102013083874
-0.034606349256752815 0.032829358359602386 -0.09283839263427351
-0.0337908106458465 0.03234182632208468 -0.10775578705978361
-0.03702718630982524 0.026176407633111506 -0.10264755651296001
-0.036610613752171034 0.026040855361049952 -0.10950952347218483
-0.03553591397448513 0.03184551471695731 -0.08611579807916936
-0.032343631915957 0.03906227206749595 -0.05158669487768004
-0.031242861372692103 0.042755910326839786 -0.015282516495069006
-0.03044793764529477 0.04410539090588454 -0.009575194869405461
-0.035226202348011534 0.04059633565236625 0.02774741170596212
-0.033782811665867114 0.040220302877211844 -0.005875173224318849
-0.03285161962807887 0.04043556362058077 -0.020441079531970826
-0.03311705981906917 0.041464966501948065 0.0006861586688063255
-0.030157137141498782 0.04483139837122879 -0.0038715401240132247
-0.03362372055910184 0.04358082245174648 0.0433625059798949
-0.03406928613653685 0.041739068214040324 0.023272531812120145
-0.033573277818533906 0.0415181609916428 0.010291540244839574
-0.03251663293780454 0.04314215728220718 0.015235593208886393
-0.029563076601945376 0.0441566048795276 -0.025802703815610242
-0.028198732347591668 0.04617918902631944 -0.02057564028795266
-0.03364371864773112 0.04319413805132511 0.03772943460565385
-0.031584774775554915 0.04105166121278429 -0.03522679312684591
-0.03258251782210996 0.03942724505132514 -0.04131063884104945
-0.03472595874540211 0.0430301179246349 0.055998911947940676
-0.03351402089710199 0.04022571263150347 -0.010962458965690883
-0.03548228845278891 0.04243173457035546 0.061238105742765996
-0.033732465196828106 0.03684381645018382 -0.0593908721174135
-0.03327096002378903 0.04325197505111705 0.03145773635756774
-0.035303980757379894 0.03987822902240178 0.01806821615630489
-0.0421453764584844 0.02874600769756413 0.005330051087408513
-0.04225797121032626 0.02378853545279596 -0.035056326585534384
-0.04478373155873849 0.019777402064368108 -0.023751281825479323
-0.04398045018343049 0.020519799369461997 -0.03190993548966272
-0.04595000600679452 0.02195575967778066 0.01595731772030468
-0.04155013415640074 0.022154895409464647 -0.06182220214003739
-0.0389718367632591 0.028507271799661633 -0.054042637256008996
-0.044397822015838154 0.021913760627744527 -0.012442199579246981
-0.04554416287374407 0.02069213598728405 -0.0021868723812147224
-0.046611615571221655 0.01971901619510549 0.008769764829004678
-0.04647900123124318 0.024767165578483952 0.049570401100130605
-0.04467368837639436 0.02584296569214983 0.026162972916169487
-0.04169669087531358 0.027484600629395735 -0.01356911871268655
-0.048175924408858435 0.017006094395612098 0.013814844338778888
-0.04238019141116815 0.02202216626611585 -0.047962998120111566
-0.04153940049740254 0.02578930527795089 -0.030916968004454308
-0.047090228000127424 0.013872917440805089 -0.03260837201799468
-0.041461583680909964 0.02901404307773458 -0.004729094862858475
-0.039445261676461126 0.026871254955460836 -0.059489403933970585
-0.044186914433232506 0.02755951208275935 0.03205767001196763
-0.043211763855868765 0.02824991925456989 0.020349334272442333
-0.037918887220880534 0.03206901963018671 -0.042586747305909146
-0.045488238685225627 0.021526273571144474 0.0039404582581124906
-0.03733048616985284 0.030759678241477524 -0.06442003832783645
-0.04319195631533265 0.023529369608620794 -0.020401571579051057
-0.04628068182489917 0.021890858985889855 0.02137561605911257
-0.03722685118073188 0.031541924432654876 -0.05959862865119234
-0.03731143514466246 0.030180747511286462 -0.06971802361683282
-0.04485470219358365 0.027623285773360644 0.04466692984997648
-0.04673252101265915 0.025919171212508932 0.06400777627288827
-0.04835802104276997 0.015706187246807436 0.005981288458291881
-0.04673069305699623 0.013987566255104129 -0.038122321484407334
-0.046353108419990026 0.01731642848748392 -0.016458762962769637
-0.04728030454766453 0.014921790295600246 -0.020199588923200847
-0.041878603399639905 0.023757109124494188 -0.04217850053146519
-0.04791393208812673 0.010698506494819595 -0.04489118370136208
-0.037574310629813104 0.03208406390048255 -0.04868277694340218
-0.0399663279000752 0.028020892726115656 -0.04023907522082132
-0.04645862750822896 0.02361270595855036 0.039323801069717335
-0.048941601844234184 0.0095123119291667 -0.03647647467559378
-0.04403441683190876 0.025230581726913705 0.00937447586098758
-0.04222635692089017 0.025010866819585933 -0.025168118722088233
-0.03938600949279404 0.03070939773234771 -0.027717340848607674
-0.04659364579276042 0.017850838848149652 -0.007540590872460376
-0.044634295452728116 0.01847908594000132 -0.03756034827563863
-0.04300607309770322 0.01964935477611014 -0.0569602885139964
-0.03984022819362373 0.02759603528379224 -0.0461525067628288
-0.0445625663613378 0.022172563125549577 -0.007251563237445866
-0.04538789583271422 0.016267990633619795 -0.04286662316543913
-0.04093812013110405 0.02423844620065 -0.0550495564068333
-0.04694754257625831 0.014833105508263078 -0.02696978300954933
-0.041023658672177485 0.02812205606417737 -0.020272799577079594
-0.04527860166471111 0.013544552543946708 -0.06571306457550731
-0.04753252080305641 0.010834084308325638 -0.050236729330602505
-0.04148769044966227 0.018750060239673502 -0.08718278185041785
-0.04415736230335849 0.01475826955784089 -0.07436133733333594
-0.04093638312188753 0.022508138405807697 -0.06914362929063972
-0.03692952707976895 0.029992524042804187 -0.07785806650196687
-0.04091263796801662 0.01907214726526773 -0.09373643104748512
-0.03886737465185348 0.023170107663942435 -0.09622701246932742
-0.04611786895671709 0.01107982692853446 -0.07021326793267993
-0.043763827261013716 0.014849960635979167 -0.07975401021031145
-0.039215674241299854 0.025765019756643404 -0.07258432317110293
-0.04079176190046588 0.018618213650413645 -0.09879225348879597
-0.037791551095809894 0.027199245039448757 -0.08432579125160605
-0.04122731903412762 0.020713588311991573 -0.07733292080281856
-0.04241233925343709 0.018910319809945016 -0.07186300114671659
-0.043670880953302633 0.013878221487271998 -0.08803245303805543
-0.045261077545394636 0.015045726541248115 -0.05539667443173407
-0.042248651942116536 0.014956331415972187 -0.10225595076268534
-0.04594685821146566 0.012889386317908608 -0.060077759486238703
-0.04361162536177096 0.017683929454462975 -0.062106381177917835
-0.03945290694274269 0.022950480837257932 -0.08879005566173981
-0.041271501923964095 0.01612488303597577 -0.10901149457875647
-0.026503817237270553 0.03967220523918683 -0.11215910263403532
-0.0330629484935153 0.03428709837904349 -0.09816027031143507
-0.029021612142251435 0.03743286350577936 -0.10856793449208257
-0.031450807584910964 0.03539775176624948 -0.10380489158455172
-0.0285487008114051 0.040487683949006856 -0.08070456490694128
-0.02861043867212094 0.03992414190271633 -0.08626657366554223
-0.032693086101943915 0.037778284389763 -0.06438888970627565
-0.029696623465960227 0.04042016794199589 -0.06860770050335077
-0.02453773114088357 0.04210703485317835 -0.10762208944228055
-0.026541896183055292 0.04373234821875734 -0.0671601818479193
-0.02685773136659548 0.04027561266677729 -0.10198069426645502
-0.03193713802910228 0.036450660628163316 -0.0875793609194727
-0.027566259292101734 0.04447685823187342 -0.047436029024063714
-0.03069310089064255 0.038923122100389604 -0.07406724645570825
-0.02638843755095876 0.04153299727286362 -0.09328083051380927
-0.029131830087250173 0.04237264237222034 -0.05326402824852716
-0.026623965834834118 0.04291861622826052 -0.07527069813869024
-0.030117663181804352 0.037898424587455105 -0.09187650922171373
-0.027848938048155972 0.04560278375195257 -0.03177973359781405
-0.03262292523842451 0.03630533931043723 -0.08151739776707219
-0.029160939173248444 0.041691071758846704 -0.06050078426369965
-0.02709327858170196 0.04566620131732677 -0.03953239258354987
-0.010323013682563869 -0.052890731644144325 0.07383074469025573
-0.029989827916960303 -0.03560672193162294 0.0737163875719333
-0.037321407680027396 -0.03343582566057714 0.07360142028841096
-0.02073977549457174 -0.04106704582460732 0.0738153631099514
-0.036618110404165315 -0.01870206362197176 0.07386543253533116
-0.0214448389137528 -0.04617465039321468 0.07371429517150108
-0.03363490119635865 -0.03874714674246622 0.07358778422414608
-0.047931907443626735 -0.0037889382115838532 0.07388379475378008
-0.04029621670254148 -0.014273780699513313 0.07386429168213109
-0.02477104366650488 -0.03601939649962783 0.07381740029281289
-0.013394255952675968 -0.05717960658275366 0.07367540948752105
-0.004260836103282072 -0.057072371942071515 -0.03048933997737463
-0.004632774901951728 -0.061803036326385855 0.06637796588631245
-0.0053505584731912545 -0.05572967385994363 -0.051625955275837014
-0.005164537442228873 -0.056073473649753354 -0.04571925620248145
-0.006192461970179985 -0.060047935469488695 0.03946873492470277
-0.005934856624357247 -0.05742252571549397 -0.014562629151135908
-0.006596320515891866 -0.06161931259125675 0.07313582109438012
-0.0032655116563116487 -0.06043272234834178 0.03162003595825235
-0.005912131158336443 -0.060385634473361816 0.04475147945513031
-0.004309680149972563 -0.05388177222734962 -0.09422762349031859
-0.004614998866854141 -0.05481492439197298 -0.07388633587904621
-0.004683421691072046 -0.05800011158098119 -0.009632939045601963
-0.004271614422129087 -0.055442578800031575 -0.06312292248633194
-0.005177622681489474 -0.06105485255984869 0.054268411702783785
-0.0035844573825273784 -0.05902891283814837 0.005158281498810251
-0.0061067196110490985 -0.058986833007546126 0.017728788419114336
-0.003547696568285447 -0.05854731616867555 -0.004697247917844732
0.02214151796688075 -0.031132620481465534 0.0748661558502365
0.03583185688358136 -0.01294352600396265 0.0754547149438715
-0.027646809913177403 -0.00214806528312865 0.0743293109761229
-0.018134636248634522 -0.03453496884486443 0.07397929754693777
0.030920501569356138 -0.011105169455593677 0.07538455090682905
-0.0391979816172485 -0.0013825724359706121 0.07410431215815182
-0.010384166001195192 -0.026268694686876395 0.07427826064629237
0.06226276657066094 -0.019442508760249267 0.0758895243171443
-0.00857691782349213 -0.030848491327542246 0.07423828367693916
0.04466304348678028 -0.01755751451774046 0.07555882314693055
0.022373344071093947 -0.022317342164558718 0.07501952286498359
-0.01859837366745914 -0.012380804365121362 0.07434318254016271
0.005195153751162978 -0.04990358592288977 0.07420072913370854
0.0007799127043488837 -0.010557043454340477 0.07477302977348917
0.020646898928245807 -0.017225455131513828 0.07506979593135586
0.03352878193296364 -0.031815599440202236 0.07508916978035221
-0.007494883945090404 -0.0418373341740834 0.07407533814078046
0.006121684099182706 -0.028633577029079007 0.07457834384763606
0.008950235475282679 -0.03898439870219576 0.07446212334889604
-0.02284342676150797 -0.003488727590055019 0.07440564052577703
0.045211623566148496 -0.03278242517526329 0.07531348669092613
0.02013366648393544 -0.04368361575082513 0.07461324056734638
-0.00331553276602589 -0.014088156503832858 0.07462916074285204
0.008730610625872832 -0.022730104983663 0.07473158632926166
0.01332449879367752 -0.024029036075006033 0.07480430465647997
-0.020736169634476005 -0.022943058479645808 0.07412111368246058
-0.030792709481951536 -0.009655692701082722 0.07413796923983697
-0.015098185962137863 -0.005085047282778085 0.07453824968044337
-0.024360935177896788 -0.019393877861136728 0.0741062856639648
-0.033806017011710175 -0.01436807063289572 0.07399647569690332
0.013321918657884934 -0.030509555595937383 0.07469501432977213
-0.004838343375593742 -0.008256392116145535 0.07469609931381557
0.0170351812271115 -0.035048003377877286 0.07469498966470836
0.0113034061968326 -0.01828958520440035 0.0748594248024017
-0.04308967891794028 -0.007293900694403988 0.07392451794576381
0.01631530272262901 -0.04671873592675799 0.07448343874739377
-0.013984339261800684 -0.021298307599877286 0.07428789531439924
0.0593617102089502 -0.024122732863350246 0.07575088463569134
-0.02004669703585748 -0.007806732171235484 0.07439045525252408
-0.031229555317382498 -0.02131894844217348 0.07393237355251583
0.028241618034245033 -0.03125785857302956 0.07498967941356502
0.050498091680814663 -0.01930112359367692 0.07564960818608063
0.010264281407541237 -0.01317611018914948 0.07492421746681585
-0.0010576795261938894 -0.018426931715544794 0.07460252692460416
0.022493577342816047 -0.011229643054865894 0.07520889603819385
-0.008665072746707496 -0.020780228662077346 0.07440618112662377
-0.0006021128111767488 -0.024750832036629596 0.07450531237173774
0.003991935746352776 -0.043252538800954386 0.07428805989971782
-0.028187755314619287 -0.028757499254447507 0.07386963495011079
0.02599771027955439 -0.026572304709968783 0.07502244582995679
-0.0014499129272706446 -0.06023575770671034 0.020106279126478954
0.00397724314400291 -0.06189532679241255 0.031227057382573233
-0.0006620036897472265 -0.06233324238450701 0.058530758774133274
-0.001222071593374216 -0.0581782379021166 -0.021602855717741228
0.0015252957726814692 -0.0565639571572816 -0.06463678139163144
0.00517663655285188 -0.05886183970190755 -0.033732301124819786
0.0056649519254404245 -0.06099157406761915 0.006534112319336108
0.003955535737179036 -0.05942562113774938 -0.01765287712433433
-0.002024769304276541 -0.05564112082121911 -0.06868460613069287
0.007922427231862919 -0.06064433258209158 -0.009411778542134867
0.003139077281217725 -0.06023000765255283 0.0015728817866259431
-4.406955589879091e-05 -0.057025408051996185 -0.04918840192341299
0.00724338580894361 -0.05969140814175978 -0.02557994100929073
-0.00014355173587177826 -0.055695368290856404 -0.07515990967152185
-0.0003766474210853748 -0.05753452400773028 -0.03775920814476058
0.0037158411309939033 -0.060009041600970287 -0.005123258434698023
0.0007817931156988724 -0.06235433885117138 0.05315389662184038
0.00042726696261477656 -0.05793876635181157 -0.032971030146053806
0.0020333735317153573 -0.058595707916134984 -0.026392419963042354
0.0007564120294468791 -0.0618343837722979 0.042946578192992135
0.0011596331503215406 -0.06030934037143204 0.011090955044172183
0.002740259159014598 -0.05942089062891962 -0.01286876528245633
-0.0011438956958642536 -0.059293082522555815 0.00018747929184539242
0.003807645157175526 -0.061332093528366174 0.020740519682862106
0.00032552612179034606 -0.06080748398320148 0.024315648088049372
0.007734705171420967 -0.06031537272015408 -0.015180610754446289
0.0025168302941813766 -0.057829502414233604 -0.043524551110122475
-0.003130437028050061 -0.05598669987719133 -0.05739482718468907
0.009259760294703642 -0.06211817862697252 0.03628952152465961
0.004778081344362316 -0.06251736459053837 0.06133348148929166
0.014374900403041176 -0.06212956933878308 0.03653655467404106
0.008613786663256334 -0.06221546749475849 0.04235338724828285
0.008038463110017203 -0.061792866864111395 0.016314894615028597
0.0023816731811982707 -0.0625871589526698 0.06585604827875756
0.004794682514999253 -0.062129592523603866 0.03739238568586254
0.013216546085713998 -0.06253103093496498 0.06142461726990453
0.018302032925302147 -0.06223340641362082 0.04259683580370697
0.017133854534451237 -0.06239161070500163 0.05246796697413283
0.012852929565445752 -0.06205396624515151 0.03200483395143037
0.008980093617319624 -0.06169992297483459 0.010492904031085291
0.011790005875119101 -0.06232613186520245 0.04890212965119338
0.013424534259565859 -0.061872527474239235 0.020752496500729974
0.012581570664121026 -0.06163594180359965 0.006221749626962017
0.01870542792780439 -0.06248293447838741 0.05796580066191394
0.006353217516280656 -0.0623314562976378 0.0497157135674192
0.013384894466029721 -0.061978814256843325 0.02731778513341635
0.006882355977702941 -0.06243093284930028 0.05580983792175985
0.01291539197548858 -0.062421806446014055 0.05470835877232974
0.006510554836252381 -0.06195178825864743 0.026262379142320012
0.017864596582973343 -0.06231413334164766 0.04761963039953913
0.00814941450457351 -0.06198393722726414 0.0704140345009717
0.02008069702421991 -0.061333562522023516 0.06550027807987793
0.014373366300450597 -0.06183248429157101 0.06646007623719012
0.001144060914008629 -0.06257475232161401 0.07175188874175731
0.02942027532848369 -0.06001670391839191 0.06763502249114921
0.020204330625405435 -0.06061464933353533 0.07072273719748383
0.0428569617754451 -0.04031157138418921 0.07479481941230057
0.028785783944628825 -0.05926395022504575 0.07357513008300737
0.029960161247564582 -0.051019370307328546 0.07418641955783023
0.02384044602587456 -0.054676346128685833 0.07400661811475884
0.05572001273535209 -0.03195098014335535 0.07522428287764361
0.01528946417377792 -0.05475070089006333 0.07414043903191128
0.033607727229307015 -0.05763255089126159 0.07362121187586684
0.02561956864962933 -0.04903776611999649 0.07440876494410537
0.04125300394250105 -0.045117613465384405 0.0744534775898107
0.03890133917253219 -0.052008664930652884 0.07396489723876765
0.023371326778460804 -0.043998001221608234 -0.12135939277293117
0.022860177682707747 -0.04841314244086242 -0.1173477996973515
0.027847544206712815 -0.04770766919682203 -0.11704073859616863
0.017709303426167635 -0.049315824590429255 -0.11750286352036336
-0.000966788264959147 -0.053269160335311004 -0.10979358068292046
0.008019760770135317 -0.05710868228223795 -0.0632573068127648
9.357507509957525e-05 -0.05380587835383762 -0.10314856620981258
0.004283274340326584 -0.05654514642009916 -0.06836168172419371
0.005072551948657519 -0.05473389917527173 -0.09390450641899338
0.004240107848343727 -0.05374724108726404 -0.10691746746914547
0.006218520473503911 -0.05608094435956837 -0.07614518393317987
0.0052914189618639 -0.05421433092872336 -0.10122624994892221
0.0028489766935877875 -0.055661124177934285 -0.0795295017420097
0.0012813282133005985 -0.054906262246993784 -0.08882084055855419
0.0033989933921377796 -0.05731498394341849 -0.05711337218688111
0.007415928709705846 -0.05796246293411278 -0.05105153006078926
0.008728213912688817 -0.05878909177762173 -0.040588131564308405
-0.0013901355161570301 -0.05142515232592451 -0.11494186006847928
-0.006853716083676163 -0.049413425338457106 -0.11511116817025767
0.029392441064946786 -0.05121433722907638 -0.11264223373616372
0.018946336856961284 -0.05225821556411313 -0.11369055135123603
0.021099632133067883 -0.05436077372028171 -0.10738681155185609
0.013875562604530366 -0.05230269920752033 -0.11541351954619974
0.02407706022977017 -0.05160737028626826 -0.11353846981081064
0.02096586449072476 -0.05482955547484926 -0.1018279549815901
0.015639685286613622 -0.05774225661696652 -0.058912443794212135
0.01541218540317507 -0.055221231804069404 -0.0933076742640248
0.01620135882919944 -0.05447338171329136 -0.10399773657750794
0.01187134342332123 -0.0566351811590142 -0.07193172060037756
0.01329289955442573 -0.05707356776777108 -0.06673610992142993
0.01913307500218146 -0.05559042463288171 -0.09036646567995474
0.01225197201573762 -0.06047278071091798 -0.01959350217411066
0.010542639524458516 -0.058422982928838824 -0.04669325334739907
0.01320648159172053 -0.059268129696455216 -0.036633257272046416
0.010911876118712312 -0.05486104421551401 -0.09568257886564059
0.008476690802618767 -0.05344627617016984 -0.11367328998996422
0.010497463231170534 -0.059706822146427335 -0.029085860643415565
0.014129324803126899 -0.05828603879633776 -0.05060713408252087
0.008599176213836492 -0.055557888507350994 -0.08482513170166021
0.011213572192950197 -0.054398914187920366 -0.10218275149984751
0.012250834208649872 -0.060119624203227 -0.02442920702056028
0.010694327170244714 -0.056002971470893295 -0.0799206521121421
0.011663609779029027 -0.05786620203671185 -0.054955267186432934
0.013214724526483574 -0.058811769031201444 -0.042887637496068845
0.01608614146925161 -0.05633361463044475 -0.07845703160969553
0.012591982056785899 -0.053877578038045146 -0.11010567722731932
0.013401467432421684 -0.05556026834830566 -0.0875219060509238
0.018479828057847633 -0.04343915942876276 -0.12188190414041376
0.012088702301033717 -0.04378147792885211 -0.12168603629227075
0.006105206081132059 -0.048452488398118415 -0.11901337685659949
0.012444202110192221 -0.048264326164814894 -0.11912103955005404
-0.002337497893311435 -0.044825934899001 -0.12060460759394895
0.0009444834825666907 -0.04845416439635761 -0.11871500000256094
-0.01429580374569969 -0.04595140690302765 -0.11651532455560615
