0.00883690094283 -0.00288377621796 -0.0335119999945
0.00899097317598 -0.00533551367916 -0.0335119999945
0.0107971070482 -0.0028163364714 -0.0335119999945
0.0109404027303 -0.000903202907086 -0.0335119999945
0.0108481999192 -0.00436874437888 -0.0335119999945
0.012306403714 -0.00318921271247 -0.0335119999945
0.0127542752253 -0.000532085128444 -0.0334291131294
0.0139088993718 -0.00262081303448 -0.0331402196208
0.00587491200067 -0.00849799998105 -0.0333784735494
0.00818268974564 -0.00662257060404 -0.0335119999945
0.00987143897796 -0.00728087975881 -0.0335119999945
0.00839745404496 -0.00807783807423 -0.0335119999945
0.00681604398549 -0.00698274814952 -0.0335119999945
0.0154579998925 -0.00173146147721 -0.0299658120889
0.0154579998925 -0.00041213032564 -0.0289221415669
0.0154579998925 -0.000399703132029 -0.0272861193131
0.0154579998925 -0.000216067976605 -0.0316291109371
0.015005541324 -0.00374110148765 -0.0268897417395
0.0151473896411 -0.00347003295426 -0.0304803735312
0.015192929288 -0.00305779974179 -0.0288712692613
0.0154105876998 -0.00226069743621 -0.0312273549917
0.0153054822023 -0.00199587769656 -0.0261849717252
0.0153537347136 -0.00201888865966 -0.0279084765005
0.00876362442339 0.00120699999388 -0.0269371617852
0.0143189844515 0.00120699999388 -0.0257116833082
0.00889509471748 0.00120699999388 -0.0255312808943
0.0128765830274 0.00120699999388 -0.0261587507266
0.0110803829489 0.00120699999388 -0.0259154397906
0.0100887883982 0.00120699999388 -0.027516855414
0.00995003372629 0.00120699999388 -0.0300348359674
0.00513461370022 -0.00302089847427 -0.0256710818852
0.00764177942923 -0.000417087715093 -0.028878329879
0.00423095008997 -0.00430510012973 -0.0266371483946
0.00558002030086 -0.00294803353963 -0.0286330541582
0.00604740140445 -0.0019943988079 -0.0263567257157
0.00700385162775 -0.000949494115513 -0.0272635955156
0.00663982642032 -0.001623538666 -0.0286148033888
0.00900108048436 0.000908490056404 -0.0311458351798
0.00283179232527 -0.00602042796712 -0.0264570041794
0.00522746807441 -0.00312268523749 -0.0270066163864
0.0143190967803 -0.00610779634495 -0.0322677056435
0.0147468164512 -0.00501254259166 -0.0306601315727
0.0149200840638 -0.00402669955771 -0.032054116303
0.0024441386282 -0.00721942067445 -0.0295275112487
0.00143980751489 -0.00773473976521 -0.0260782910408
0.00831494057931 -0.000115972444156 -0.0319457598876
0.00351573599235 -0.00623514324427 -0.0313234816047
0.0032901423942 -0.00590090159605 -0.0285970119239
0.00676863775368 -0.00189956017967 -0.0309298364848
0.0043558038152 -0.00472055619584 -0.0295090031505
0.00243768091034 -0.006797392686 -0.0276605484168
0.00531523832614 -0.00401556783088 -0.031881489287
0.00411590607789 -0.00471755763609 -0.028138238567
0.00585920549431 -0.00290644955063 -0.0301497509544
0.00141946405295 -0.00816671993109 -0.027658149627
0.0136981004213 -0.00738229407602 -0.026312631082
0.013625477029 -0.00750357277733 -0.0280292120849
0.0130320233076 -0.0084946211749 -0.0294923852346
0.0143974651659 -0.00577671678831 -0.0269276252779
0.0148186109026 -0.00473292386119 -0.0280865169487
0.0132155493639 -0.0081763668219 -0.0322659058961
0.0138801983956 -0.00703719538951 -0.0300029546822
0.0143965510616 -0.0059355524648 -0.0291494381981
0.0128505922345 -0.00485809114589 -0.0332883162249
0.0126065581429 -0.00641353669048 -0.0331741922649
0.0113173054051 -0.00561676662623 -0.0335113994709
0.00997266676802 0.000389503188932 -0.0334937405428
0.00772902705417 -0.00201020863681 -0.0332677168729
0.013677688422 -0.00167004720195 -0.0132614353678
0.0141880309688 -0.00302919022059 -0.0140190829023
0.000293999997666 -0.00549786939647 -0.0166624289
0.000293999997666 -0.00689382515892 -0.017130781535
0.000293999997666 -0.00574137774002 -0.02011775862
0.000293999997666 -0.00418921706484 -0.0192730640818
0.000293999997666 -0.0014232900542 -0.0210705279663
0.000293999997666 -0.00764482041897 -0.0213881790709
0.000293999997666 -0.00596595999472 -0.0216092100528
0.000293999997666 -0.00550168010319 -0.0232072554513
0.000293999997666 -0.00332767305971 -0.018078411955
0.0075273026319 0.00120699999388 -0.0208965035594
0.00967881843512 0.00120699999388 -0.0158175707845
0.00711228501412 0.00120699999388 -0.0174231607639
0.00759859654818 0.00120699999388 -0.022477903685
0.0114160441446 0.00120699999388 -0.0201761988578
0.00507689863521 0.00120699999388 -0.0223245958431
0.00593608251706 0.00120699999388 -0.0198179932924
0.0117151922722 0.00120699999388 -0.0218165335756
0.00782858479995 0.00120699999388 -0.0190567024146
0.00448067884782 0.00120699999388 -0.0188609275553
0.00297229318194 0.00120699999388 -0.0221257990387
0.0108558328179 0.00120699999388 -0.0230309138649
0.00587026693972 0.00120699999388 -0.0182275665261
0.00452489154257 0.00120699999388 -0.0174645449026
0.0138695640607 0.00120699999388 -0.0237732168476
0.00880540658597 0.00120699999388 -0.0173014115902
0.00170825243267 0.00120699999388 -0.0211481879678
0.0123443107872 0.00120699999388 -0.0232495865587
0.00882288509054 -0.00849799998105 -0.0235740963458
0.00177821119878 -0.00849799998105 -0.0234405818245
0.00547175408382 -0.00849799998105 -0.018392838294
0.00365307956857 -0.00849799998105 -0.0227606621341
0.00356502289796 -0.00849799998105 -0.0211565720834
0.00489851706418 -0.00849799998105 -0.01969780588
0.00490713501119 -0.00849799998105 -0.0218483178295
0.00638237536453 -0.00849799998105 -0.022282866004
0.00145966828843 -0.00849799998105 -0.0148258083649
0.0107372752596 -0.00849799998105 -0.0237132968225
0.0122279938712 -0.0043111248343 -0.0247169993818
0.00403148844842 -0.00703994799968 -0.0247169993818
0.00828935639307 -0.00727968948541 -0.0247169993818
0.00675246862269 -0.00503360795188 -0.0247169993818
0.0122866510086 -0.00150182428225 -0.0247169993818
0.00695266851484 -0.00651546380908 -0.0247169993818
0.0109216457128 -0.00641782642147 -0.0247169993818
0.00872723897688 -0.00423139087639 -0.0247169993818
0.00846418183146 -0.00849799998105 -0.0205713016091
0.00845239708621 -0.00849799998105 -0.017261794031
0.0107688546369 -0.00849799998105 -0.0137518921057
0.0111526542619 -0.00849799998105 -0.0180211954838
0.00640686813552 -0.00849799998105 -0.0144789172935
0.00946455633043 -0.00849799998105 -0.0146694637344
0.0112590069809 -0.00849799998105 -0.0164203706549
0.00690718691722 -0.00849799998105 -0.0164990960147
0.00277828820336 -0.00849799998105 -0.0139296741577
0.000293999997666 -0.00564437444733 -0.0150962966766
0.000293999997666 -0.000191609981273 -0.0144283477878
0.000293999997666 -0.00281325278649 -0.0164646581643
0.00633249370063 0.00120699999388 -0.0144780654265
0.00479387442724 0.00120699999388 -0.0144237946208
0.00206765361928 0.00120699999388 -0.0177426848622
0.00133805579373 0.00120699999388 -0.0193951708659
0.000344934629302 0.00120699999388 -0.0184975450389
0.00323063447831 -0.00507044956892 -0.0128889996558
0.00348098295558 -6.38681564572e-05 -0.0128889996558
0.000879703943513 -0.00188382754739 -0.0128889996558
0.00459512901589 -0.00196418208747 -0.0128889996558
0.0108665801773 0.00120699999388 -0.0150009647545
0.0142914786881 0.00120699999388 -0.0188775113331
0.0148384489167 0.00120699999388 -0.0216473483111
0.0123814875441 0.00120699999388 -0.016625979575
0.0129796274856 0.00120699999388 -0.0204751677375
0.00864115426411 -0.0008271511171 -0.0247169993818
0.00506061779094 -0.00422363286672 -0.0247169993818
0.00330431955417 -0.0056199843787 -0.0247169993818
0.00697556948984 -0.00219059515108 -0.0247169993818
0.00254310502056 -0.00706871606181 -0.0247169993818
0.0102533670588 -0.0016882914504 -0.0247169993818
0.00640931977475 0.00120699999388 -0.0233522961982
0.0089611828999 0.000205627068977 -0.0128889996558
0.00912874584237 -0.00294401939755 -0.0128889996558
0.00315108399202 -0.00638070583672 -0.0128889996558
0.00653094390325 -0.00592338797424 -0.0128889996558
0.00866418358503 -0.00528431268191 -0.0128889996558
0.00813979580999 -0.00116006226473 -0.0128889996558
0.00731153519529 -0.00431452232948 -0.0128889996558
0.00699889330679 -0.0028238154983 -0.0128889996558
0.0107576523112 -0.00363827250118 -0.0128889996558
0.0115520705864 -0.00205597818289 -0.012981125803
0.0121420768173 -0.000630663953726 -0.0130565850306
0.0108002787138 -0.000488972105593 -0.0129740245446
0.0151753059448 -0.00229282319281 -0.0242251415112
0.0149021252182 -0.00375006141325 -0.0204208739963
0.0150963497712 -0.00265329168317 -0.0217933776913
0.01542460814 -0.00067875643775 -0.0244353337615
0.015297407577 -0.00146165415651 -0.0224385016594
0.0150010306712 -0.00291977983771 -0.0178923075535
0.0151939075998 -0.00190268800055 -0.020271987755
0.015131561824 -0.00184055512854 -0.0161831932767
0.0152129887454 -0.00152386469887 -0.0181448549604
0.0120654407236 -0.00609529700841 -0.0133228019653
0.0148013136537 -0.00432475457611 -0.0230716747483
0.0146592417106 -0.00482059361643 -0.0246200030575
0.0124608784218 -0.00849799998105 -0.0219450333394
0.012438933981 -0.00743218464701 -0.0141036241932
0.0153732439427 -0.000107964915387 -0.0227858717748
0.0151631524895 -0.000684037975811 -0.015213163631
0.0152134827599 -0.000442387258516 -0.0168344733619
0.015296691297 0.000163411185886 -0.0195606203818
0.00381862921121 -0.00826435246996 -0.0129594454189
0.0103873212751 -0.00587205299322 -0.0128889996558
0.0075576776938 -0.00721768380574 -0.0128889996558
0.00634303570646 -0.00780435461269 -0.0128889996558
0.00973716214904 -0.00783914160796 -0.0130687966632
0.0148083575574 -0.00332833984027 -0.0158192502118
0.015004227797 -0.0020590618508 -0.0147457106248
0.0146122906722 -0.00470418565226 -0.0194787616832
0.014371201442 -0.00555369842371 -0.0222366689738
0.0145352410219 -0.00501746384622 -0.0210062104225
0.0146885993279 -0.00438092042037 -0.0177649964216
0.0142389162531 -0.00556369046491 -0.0167252749818
0.0135708183149 -0.00708307036004 -0.0160688407163
0.0141783247503 -0.00561505366886 -0.015329296012
0.0139236792146 -0.00642856766932 -0.0187034649784
0.0135031658356 -0.00748407508783 -0.0226003624586
0.0138737709987 -0.00677847214706 -0.0237304183697
0.0133800946449 -0.00760905708063 -0.018832796832
0.0137412217792 -0.00694508428072 -0.0206657007059
0.0127396065074 -0.00848441543768 -0.020184755099
0.0129448619729 -0.0081727615614 -0.015195165025
0.0130842815622 -0.00802089831941 -0.0170269478435
0.00550762883176 -0.00156303739755 -0.024566021761
0.00657410175812 -0.000266280983954 -0.0245732696402
0.00170354198404 -0.00510505897381 -0.0242376330675
0.00206383898249 -0.00254020838301 -0.0236462376759
0.00150693294181 0.000319164286467 -0.022654963321
0.00128140351234 -0.0066840701098 -0.0245323403886
0.000943986318376 -0.000944884900439 -0.022812961318
0.0005208368127 -0.00380244339444 -0.0234643214557
0.00379067954813 -0.00196326188065 -0.0240831698246
0.003271084599 -0.000442978417467 -0.0234787246265
0.00507804701323 0.000655671223071 -0.0237977313601
0.0145391133873 0.000873356724655 -0.0140953695592
0.0123949911344 -0.00377959123284 -0.0130152115812
0.0134114004932 -0.00479815765076 -0.0136801723191
0.0030269317015 -0.00758306806623 0.00800687558967
0.00314288976692 -0.00394799979404 0.00867476091289
0.00217416063942 -0.00594072118441 0.00197100010701
0.00332599994726 -0.00548419396236 0.00928584155697
0.00332599994726 -0.00626548003762 0.010654417687
0.00332599994726 -0.00593635122191 0.0126832572351
0.00271544679014 -0.00499681376098 0.0141009995714
0.00110188094243 -0.0054751495416 0.0141009995714
-0.000320451412806 -0.00487586809632 0.0141009995714
-0.00182899995707 -0.0058615013868 0.00386672492067
-0.00182899995707 -0.00660340751907 0.00244606996991
-0.00182899995707 -0.00620498052443 0.00541088227816
0.00332599994726 -0.00522036467395 0.00438910650492
0.00332599994726 -0.00716028951927 0.00438955690153
4.34519327229e-05 -0.00819400046021 0.0107167268578
0.000227892978987 -0.00819400046021 0.0129780388526
0.000758251071238 -0.00818991035848 0.00830005097833
0.00169535728898 -0.00794295120727 0.0102983219475
0.00121231126787 -0.00809186934805 0.00580921249736
-0.00182899995707 -0.00561723799039 0.0111950877871
-0.00182899995707 -0.00750286293935 0.00398965825233
-0.00182899995707 -0.00521741344774 0.0136600676068
-0.00147366438983 -0.00819400046021 0.0124953453798
-0.000872424673539 -0.00819400046021 0.00715362350633
-0.000223431634269 -0.00819400046021 0.00425105164355
-0.00117306361218 -0.00819400046021 0.00867222274575
0.00267302065628 -0.00400687704876 0.00420728957491
-0.00092112247239 -0.00468653467791 0.0122305708672
0.00207872916729 -0.00410899480419 0.00757845123403
0.00084253841688 -0.00434351146987 0.0101883831031
0.000380592941258 -0.00442269510924 0.0128472392239
0.0024516046321 -0.00401517955592 0.0113882213533
0.000940799207221 -0.00433176784987 0.00860697667219
-0.000938857899751 -0.00481557580429 0.00692329258871
0.00136635676153 -0.00431821124569 0.00374409761277
-0.00143529049819 -0.00499003731275 0.00491159558051
0.000646414719469 -0.00441602556692 0.00703959723781
-0.000408313810854 -0.00477116727443 0.0033869044794
0.00123376740225 -0.00431247921334 0.00530164891581
-0.000332126814059 -0.00460911333137 0.00911127882406
0.0029419161429 -0.00761018299759 0.0119621881314
0.00273703725779 -0.00766876124546 0.00648111969953
0.00121161131858 -0.00810490564717 0.00331692980654
0.00332699995488 -0.00609049297587 0.00723467287085
0.00332699995488 -0.00514129278956 0.00602678024994
0.00332699995488 -0.00715695966467 0.0025731154703
0.00401875557031 -0.00558856560525 0.00197100010701
0.00418483591731 -0.00463739954941 0.0141009995714
0.00464031885557 -0.00314625527665 0.0141009995714
0.0042844561414 -0.00606251074166 0.0141009995714
0.00510619742765 0.00109822343612 0.00459226868554
0.00511128158367 0.00111177746179 0.0102236427642
0.00389355939255 -0.00213458983718 0.00316632188767
0.00469591967777 4.4499297959e-06 0.00794289229191
0.00487851653 0.000491241132502 0.0117849356614
0.00402547315942 -0.00178291640776 0.0059013029424
0.00417697907399 -0.00137901160068 0.00730088514947
0.00454154832013 -0.000407093960097 0.00611381467804
0.00449458420992 -0.000532297190131 0.00417241606571
0.00489365634254 -0.000819483471732 0.00197100010701
0.00521340793636 0.00120699999388 0.00750660827599
0.00693363222692 0.00120699999388 0.00702421478821
0.00628941228218 0.00120699999388 0.0113595683252
0.00697689875477 0.00120699999388 0.00983956213343
0.0078027632578 0.000844031231908 0.0141009995714
0.00332699995488 -0.0043204640167 0.0101883832935
0.00381927243054 -0.0023326339937 0.0108402702025
0.0034722519325 -0.00325776782565 0.0120880569213
0.00357911832158 -0.00297286905859 0.00726843446347
0.00360522934682 -0.00290325878203 0.00491192081918
0.00452948370578 -0.000439257428746 0.0101556655755
0.00470749919621 3.53201646282e-05 0.0138817866465
0.00335006088129 -0.00358352113438 0.0134480418694
0.00404104374337 -0.00174140625466 0.0135938202893
0.00425849064862 -0.00116170710192 0.0122284759164
0.00370617059174 -0.00263415605975 0.00917940263133
0.00657552710551 -0.00161947332975 0.00197100010701
0.00527137957744 -0.00606596302541 0.00197100010701
0.00622832666196 -0.00529198758771 0.00281684909741
0.00561352248426 -0.00590745383233 0.0105923242302
0.00569406204195 -0.00582680138885 0.00878041139127
0.00537869624882 -0.00614221373348 0.00387988357434
0.00628499350128 -0.00523535091804 0.00486622194292
0.00810434766524 -0.000188199531983 0.0127358181341
0.0080088411142 -0.00104311907035 0.00971643461734
0.00815810045748 -0.000337267395123 0.00687447674146
0.00800254804047 -0.000933336754274 0.0115103065049
0.00425771883472 -0.00686488503196 0.00563047315402
0.00437297818734 -0.00683437583917 0.00780458281184
0.00389514630351 -0.00709665305716 0.00965198109643
0.00387842901274 -0.00712101795725 0.0131519220809
0.00428629117817 -0.00685143064322 0.0116195390513
0.00532523813979 -0.00617974258666 0.00666203601432
0.00741885309796 -0.00315930357823 0.00202677604998
0.00704226780142 -0.00408063310214 0.00323207799197
0.00794918799624 -0.00173344211669 0.00250244305288
0.00796887152777 -0.00136633898331 0.00787689883175
0.00811041003871 -0.000842396071689 0.00424212807516
0.0076843266177 -0.0024221631279 0.0113990042062
0.00772138584663 -0.00219139251525 0.0130434324331
0.00760559863479 -0.00279518894262 0.00357565913369
0.00758846356988 -0.0027585053497 0.00945611348312
0.00774964325802 -0.00239221440309 0.00617836487876
0.00815972718561 0.000612448374468 0.00367488232339
0.00814012067045 0.000470044329336 0.0109769793753
0.0081789996475 0.000323741530483 0.00542805095271
0.00696912890164 -0.00411234126637 0.00790942087575
0.00713958906572 -0.00387529206547 0.00484632796996
0.00720319658944 -0.0037103310261 0.00645501425962
0.00591574490788 -0.00559824912313 0.012111276094
0.00642536795581 -0.00491308790686 0.00997548443348
0.00636610593506 -0.005128302797 0.00661043498293
0.00687768747142 -0.00415855297405 0.0119831810216
0.000122868433369 0.00848599988967 0.00892844711359
3.14457946216e-05 0.00848599988967 0.011852541572
9.27480026649e-05 0.00848599988967 0.0103650505615
-0.00182899995707 0.00552970044285 0.00529395153606
0.000510493819621 0.00712862814956 0.0141030000523
0.00271999998949 0.0065464506927 0.00806819832728
0.00114445361116 0.00682903446545 0.00470199994743
-0.00182899995707 0.00670394026905 0.0120739999105
0.00169084840311 0.00827511466401 0.00960879755834
0.00214106835565 0.00814088687928 0.0110740150326
0.00139601325696 0.00833305874203 0.00587912094239
-0.00159319332366 0.00848599988967 0.0123433588986
-0.000495537186531 0.00848599988967 0.00595433526487
-0.00162573479045 0.00848599988967 0.007564700017
-0.00137359868257 0.00848599988967 0.0105502080328
-0.00135476282889 0.00848599988967 0.00920005943591
-0.00170620360269 0.00539792131926 0.0095540298221
0.000449119103119 0.00525375487178 0.0124046405785
-0.000369140683854 0.00525198870301 0.0109813318904
-0.0011008808404 0.0055011612413 0.0125019298558
-0.000431562193994 0.00501332246371 0.00821547985965
0.00271999998949 0.00578728023393 0.0116504998702
0.00271999998949 0.00637285550873 0.0101184773979
0.00228563068405 0.00511662094822 0.0130308817812
0.00152857476294 0.00505844491347 0.00617260110787
0.00139643590412 0.00504829069021 0.0084403540924
4.68744876068e-05 0.00494458351392 0.00650250223028
0.00107960189339 0.00502394355031 0.0101429985699
0.00134989393319 0.00837346203226 0.0128011616529
0.00122402275509 0.00840487800601 0.00777455345879
0.00418721326907 0.0072401503394 0.0117108440557
0.00401091777989 0.00738460800382 0.00758617171343
0.00526258636445 0.0044908680588 0.00470199994743
0.00558096907923 0.00120699999388 0.00609958979027
0.0059642520576 0.00120699999388 0.00893338087613
0.00669328054546 0.00120699999388 0.00529723174989
0.00478894463847 0.00405632499945 0.0141030000523
0.00544234463201 0.00149319324901 0.0141030000523
0.00614757869759 0.00120699999388 0.0128608742736
0.00454863421271 0.00614120653195 0.00470199994743
0.00381153039628 0.00458145344727 0.00470199994743
0.00341393497193 0.00380624034301 0.0120314514035
0.00440290564427 0.00232298803207 0.0135751637175
0.0040019122641 0.00292439551001 0.0105616267108
0.00350704570581 0.00366659342014 0.00816160765848
0.00318914336234 0.00414338145722 0.00965752015889
0.00332642650169 0.00393748502431 0.013399394103
0.00271999998949 0.00702672240881 0.0065590407098
0.00271999998949 0.00664984959823 0.0129385550438
0.00271999998949 0.00785135830353 0.00525770813219
0.00787500012666 0.00150037964054 0.00862501524417
0.0074875526539 0.00327154227054 0.0107868697819
0.00769155064554 0.00219003432852 0.0124760080585
0.00775943468286 0.00236776159366 0.00749018197001
0.0041227241875 0.00725355644421 0.00546708381659
0.00519245060217 0.00663533592751 0.0099430800049
0.00586919498226 0.00618317441653 0.00614702319041
0.00504725995716 0.0067321619306 0.00836051693839
0.00660735820602 0.00509316973145 0.00521506352577
0.00699862051061 0.00440902538489 0.0118982281489
0.00700876937463 0.00439127952012 0.00755777749159
0.00779576530091 0.00235557394255 0.0048853778742
0.00753678420195 0.00313209038017 0.00939879976207
0.00727022018702 0.00393134306732 0.00544302458555
0.00565239336737 0.00632814318044 0.0117579490746
0.00701669911612 0.00437741391706 0.0133630605498
0.00634401109364 0.00555364710433 0.00915222368052
0.00644310862426 0.00538036944752 0.0105502984938
0.00402149087058 0.00299754307582 0.00581300671482
0.00434159800403 0.0024445693074 0.00704645116084
0.00444328782117 0.0022624230842 0.00873599848471
0.00317843509041 0.00415944165954 0.00592358501441
0.00457563042218 0.00206393644119 0.0118290010166
0.00294502600077 0.00784736879032 0.00920409947591
0.0120402468889 -0.00376537982684 0.0174380000681
0.0112298746807 -0.00554644002938 0.0174380000681
0.00467807116416 -0.00806837999665 0.0174380000681
0.00924514804137 -0.00757038800641 0.0174380000681
0.00222059957895 -0.00933523507416 0.0174380000681
0.0109255237857 -0.00304000009783 0.0160648410671
0.00904395001325 -0.00304000009783 0.0150802610151
0.00271242905682 -0.00672004231375 0.0141030000523
0.00123898337933 -0.00944483844962 0.0142530553532
0.00289614765405 -0.00856595030883 0.0141551592638
0.00241743112327 -0.00384830532321 0.0151345909445
0.00129520130115 -0.00459577362972 0.0156003265194
0.00089999998454 -0.00819724169526 0.0155351904786
0.00089999998454 -0.00636782766885 0.0159095779913
0.00812902910343 -0.00304000009783 0.0169405033054
0.00727859315827 -0.00304000009783 0.0155561882994
0.00290703541823 -0.00376933745719 0.0165563252318
0.00845241163425 -0.00901935526372 0.0144049561593
0.00649248048078 -0.00861281471249 0.0142955226306
0.00987333679599 -0.00688998428419 0.0143807379254
0.0114213591969 -0.00656222900457 0.0152513638673
0.00449132688235 -0.0119063532353 0.0174380000681
0.012647778994 -0.00552634843776 0.0167662640658
0.00660587262904 -0.011382972057 0.016880576177
0.010458112244 -0.00766003377081 0.0160071747955
0.00226804803448 -0.014107365557 0.016161576462
0.00162199962411 -0.0136289152247 0.014804739176
0.00900270136729 -0.00544997864008 0.0142815193413
0.00573570996467 -0.00725239952685 0.014201935243
0.00702219637014 -0.00542219345532 0.0141879148003
0.00716309397707 -0.00374364155386 0.0141265405504
0.00804894294414 -0.00691144478432 0.0142961486799
0.0056783758983 -0.00461321932026 0.0141030000523
0.0112199285654 -0.00513500795618 0.0145033290751
0.0106293519103 -0.00356562883299 0.0144668648451
0.0100588277496 -0.00388835716529 0.0174380000681
0.00828103680473 -0.00437548956583 0.0174380000681
0.0033123300866 -0.00695272699149 0.0174368594958
0.00289231037729 -0.00501210731531 0.017263157391
0.000927656474876 -0.00755289023603 0.0173436802814
0.00453872267512 -0.00450117139017 0.0173200664564
0.00089999998454 -0.0124726512407 0.0163011107563
0.00089999998454 -0.0108922863503 0.0169376348845
0.00918846248018 -0.00888620835924 0.0159451982306
0.0061974682183 -0.0116433046446 0.0151193509568
0.00749349516207 -0.0103882443735 0.0151464872734
0.0040246610208 -0.0136442302972 0.0156942304982
0.012474313351 -0.00433654224462 0.0149837857874
0.0133848169355 -0.00450766155915 0.0163285372594
0.00271597275776 -0.0126471203416 0.0143937205977
0.00215929375101 -0.0107799664108 0.0142737571136
0.00606937550511 -0.0100852092855 0.0143499240988
0.00492908921944 -0.009161055487 0.0142535441991
0.00458777043608 -0.01068884857 0.014323851657
0.00446475678754 -0.0123873218014 0.014505061658
0.00461062834741 -0.0135172759514 0.0191085242869
0.00304626998713 -0.0137928361788 0.0174390003085
0.00107431005445 -0.013834285142 0.0174390003085
0.000900999992155 -0.0120939884866 0.0180994221368
0.000900999992155 -0.0125756481797 0.0240973754858
0.000900999992155 -0.0108121076162 0.0198215278536
0.000900999992155 -0.0128057518281 0.019716541543
0.000900999992155 -0.0103738569571 0.0221608725351
0.000900999992155 -0.0107980065839 0.0258950073463
0.000900999992155 -0.0123846222437 0.0264293171944
0.000900999992155 -0.0117052008722 0.0305715154666
0.00375939886409 -0.0104095767477 0.0174390003085
0.00217464147626 -0.0108166191025 0.0174390003085
0.00248707634543 -0.0122752218727 0.0174390003085
0.00800615115809 -0.00647528159534 0.0174390003085
0.0051726051548 -0.00978850250176 0.0174390003085
0.00640426891865 -0.00701144261272 0.0174390003085
0.00970810451461 -0.0059785725916 0.0174390003085
0.0072428780206 -0.00809093981512 0.0174390003085
0.00828389227661 -0.00924895019704 0.0174390003085
0.00957945133639 -0.00303900009021 0.0285713628552
0.00484392699198 -0.00638112458597 0.0174390003085
0.006518548038 -0.00557485494962 0.0174390003085
0.00195702951966 -0.0102599860118 0.0325587708515
0.00865235843355 -0.00462496059391 0.0327829956895
0.00278587857571 -0.00717295781269 0.0193811372608
0.00193331018142 -0.00790935403997 0.0184712390967
0.000900999992155 -0.00957523674985 0.0239430553429
0.0020937349595 -0.00834210048685 0.0238983593211
0.00350016614997 -0.00786653982199 0.0279348899684
0.00377478147391 -0.00701700810972 0.0246148245622
0.0022894231909 -0.00881737817186 0.0273996755059
0.00963849880301 -0.0033389379979 0.0322393911634
0.00560486031604 -0.00583506499838 0.0268098201665
0.00525149987673 -0.00672391859168 0.0299728111836
0.00411655306554 -0.00712598857196 0.0268148498669
0.00775822168811 -0.00465046504742 0.0305117200498
0.00304315091009 -0.00874709030408 0.0305650136589
0.00126998997067 -0.00934172437156 0.0254491830951
0.00656877775639 -0.00569508276276 0.0305858936747
0.00443748869209 -0.00766725555855 0.0312638418623
0.0049589913285 -0.00670466535293 0.0284917689543
0.0069108698774 -0.00569007962272 0.0321685748532
0.00319608610359 -0.00835234483999 0.0291415123223
0.00589163739572 -0.00658079670861 0.0322081688133
0.00619001495221 -0.00571645309309 0.0289195072049
0.00194741970328 -0.00944222779005 0.0291827511285
0.00841657487028 -0.00303900009021 0.0244285952314
0.00299052418289 -0.00918451478205 0.0323817818521
0.00749970588997 -0.00335385643966 0.0219154503164
0.00640036854434 -0.00409073691462 0.0207537187722
0.00509700672692 -0.00594248466194 0.0249493333615
0.00242774360489 -0.00770337263766 0.0219672942055
0.00624975499945 -0.00480602590198 0.0240948253548
0.00871454707103 -0.00304818028158 0.0260972234298
0.00341654512856 -0.00699018187967 0.0227250429816
0.0072998846756 -0.00458084046154 0.027932095077
0.00626864843976 -0.00452180214341 0.0225675346779
0.00445763264437 -0.00621097068471 0.023361569192
0.00322003747574 -0.00684666567122 0.020949188332
0.0014524095141 -0.00842519301687 0.0213243796777
0.00745657912014 -0.0039284668785 0.0249791093191
0.00444166456743 -0.00574464669279 0.0206267513381
0.00521917368834 -0.00538882654742 0.0223904439005
0.00635586873572 -0.00498139481737 0.0256114166725
0.0081777187261 -0.00403606154353 0.0291083350818
0.0112743847958 -0.00303923705514 0.0283677388427
0.0112462783511 -0.00303930989482 0.02526447833
0.0101315056598 -0.00303926347646 0.01898716073
0.0129806094904 -0.00303979199468 0.0187205390536
0.0117448187435 -0.00303951004033 0.0209336540522
0.0115351700636 -0.00303950765104 0.0195008227555
0.00982096762798 -0.00303905710811 0.0249357514706
0.0104404317837 -0.00303911879569 0.0269957034672
0.005376052445 -0.00791757305351 0.033017120194
0.00801374831565 -0.00618003374173 0.0332295290012
0.0128246291107 -0.00313511172849 0.0332886799445
0.00184224098773 -0.0116213383955 0.0331105656424
0.00700932670138 -0.00730281622938 0.0332805557058
0.000900999992155 -0.0135119620925 0.0274850950348
0.00914164441207 -0.00926082698793 0.0319725087274
0.0115477412665 -0.00692349425589 0.032291651822
0.00557109497233 -0.0126916098774 0.0320376936148
0.00664163751756 -0.0116368384675 0.0218862022773
0.00595821029164 -0.0122812944468 0.0203629408098
0.0100419363632 -0.00845299138259 0.0308919236538
0.0122997845752 -0.00619290472995 0.0276376067457
0.00916066882702 -0.00919275125773 0.0231546276418
0.0115654666905 -0.00689354143044 0.0265191701777
0.00981213260001 -0.00860254694068 0.0261319775994
0.0103073503345 -0.00817098084316 0.0294760678661
0.0105999460581 -0.00785205928119 0.0274072342271
0.00946975843457 -0.00896397885932 0.0278096343657
0.0083353110096 -0.0100540825135 0.0265682736302
0.00852840997221 -0.00982901947681 0.024279915075
0.00993981828741 -0.00845436784996 0.0246594700345
0.00911877088567 -0.00917363458987 0.0212685499368
0.0113610735915 -0.00684620377621 0.018269904845
0.0123514705747 -0.00593457141335 0.0205152527355
0.00915324928542 -0.00907394269979 0.0192619909129
0.0101315916546 -0.00808101395399 0.0186456160603
0.00807639430664 -0.0102312077564 0.0219146993114
0.0125493811228 -0.00568319257359 0.0188407964177
0.00766225079589 -0.0105913666588 0.0203300659109
0.0101999330218 -0.00815837367552 0.023103607671
0.0133656692035 -0.0049606705652 0.021576413352
0.0123540898974 -0.00609500753192 0.0255169837812
0.011328893206 -0.00710267441426 0.0251561932417
0.0110805447773 -0.00719999677713 0.0205659186585
0.0115194201198 -0.00683392490912 0.0227236039925
0.0125763393324 -0.00580127922811 0.0232858007053
0.010276459342 -0.00803569524621 0.0216745510354
0.0135418797141 -0.004822455679 0.0251282274851
0.0139010074934 -0.00374498539463 0.0199623853327
0.0138547332504 -0.00391069405123 0.0181995363814
0.0136843930547 -0.00453173188593 0.0234376739966
0.0137034164426 -0.00454013721582 0.0267564967805
0.0134949954883 -0.00442841610584 0.0328241566362
0.0133032640651 -0.00519202040746 0.0316264356814
0.0111980508322 -0.00729837329974 0.0308933090791
0.0122179872821 -0.00627791033458 0.0310368902788
0.01282691586 -0.00566887169274 0.0294359511044
0.0118135608569 -0.00668276039758 0.0292059076652
0.00180297249185 -0.0144614297865 0.0269402034923
0.00110172534802 -0.0142671507155 0.0239065873393
0.00118442638463 -0.0142679970573 0.0201863876657
0.00730352218661 -0.0110518594061 0.0316412443919
0.00599816204855 -0.0122905986084 0.028586847152
0.00915588860702 -0.00929389951915 0.0297072175071
0.00457748162251 -0.0136243961792 0.0244760929109
0.00572049476507 -0.0125350341897 0.0237232189067
0.00837824619791 -0.0100376489001 0.0308710877175
0.00470477636016 -0.0134891540153 0.0209137716316
0.00556361906608 -0.0126975656172 0.0270793587203
0.00551909666124 -0.0127527751871 0.0303009708615
0.00536343434395 -0.0128825322902 0.0257566799952
0.00671181620145 -0.0116026477195 0.0261693535437
0.00431542437593 -0.0138948904931 0.0298299277947
0.00844207527886 -0.00996597524265 0.028120553413
0.00482272219457 -0.0133838484018 0.0226110050363
0.00462943118661 -0.0135909073112 0.0284449882738
0.00668339825581 -0.0116452549713 0.0300664935386
0.00736284358354 -0.0109901387948 0.0277293952005
0.0122071085957 -0.00544427003025 0.0332288452848
0.00888041931262 -0.00872904328772 0.0331734387369
0.00984927491563 -0.00744745506057 0.0333240299175
0.00402623069887 -0.0123068856498 0.0332334321506
0.00212477346412 -0.0130001074905 0.033208606959
0.00471237623109 -0.0108340250591 0.0332861772379
0.00734798018669 -0.00894193618322 0.033353935445
0.00973453840765 -0.00560309076988 0.0334452408917
0.0116374680488 -0.00397881219452 0.0334966810042
0.00317119784502 -0.0111984316059 0.0332678588111
0.00558550134592 -0.00954004215927 0.0333308783033
0.0135929881162 -0.00303994942775 0.0271434805837
0.013092084938 -0.00303979324946 0.0285405810156
0.0126069237829 -0.00303965070607 0.0312115459271
0.0131226775409 -0.00303975503571 0.0212443965457
0.0128686991561 -0.00303968475117 0.0232973718683
0.0137131781065 -0.00439211698199 0.0289534686992
0.0136756637337 -0.0040522536125 0.0307492199361
0.00197426516382 -0.0144023609987 0.0225294947033
0.0024216029833 -0.0144863226544 0.0253794630009
0.0020987752534 -0.0145322459376 0.0294005640173
0.00301557635678 -0.014454390373 0.0236802136725
0.00237904020742 -0.0143052516129 0.0190177679394
0.00233759681151 -0.01436882111 0.0210500401357
0.00255919834877 -0.0144936031828 0.0308262705148
0.00358510635871 -0.0140399044613 0.0325409052533
0.00208858928751 -0.0142717270238 0.0322854722317
0.00477684476724 -0.00546029821009 0.0191415189006
0.0069244857769 -0.0038110138669 0.0183351685932
0.00600476864946 -0.0121573152379 0.0185856900907
0.00447387836062 -0.0134800112238 0.017699001707
0.00781587307919 -0.0103502569222 0.0182953948483
0.00360639868336 -0.0142254440538 0.0219470245791
0.00388997303827 -0.0142098870679 0.0273812881811
0.0047475976875 0.000504399229512 0.0164743159398
0.00555701511566 -0.00303900009021 0.0155661112373
0.00833692505281 0.00181399995927 0.0162063091907
0.00467045896798 -0.00303900009021 0.0171103297492
0.0122907731292 -0.00263802819541 0.014501812409
0.0124657510645 0.00172891886482 0.0159882347891
0.00900863129272 0.00181399995927 0.0147641666378
0.0119334520642 0.000856422657027 0.0145925595892
0.0101862223553 -0.0021893488149 0.0174380000681
0.00677752941075 -0.00153778758358 0.0141030000523
0.00614665160433 -7.16272908285e-05 0.0141030000523
0.00824793917462 -0.00154264045406 0.0141559153189
0.0101686810381 -0.00205781911668 0.0142738732104
0.0100502390094 -0.000359303694868 0.0142635523825
0.0116790626469 -0.000903312114924 0.0143912294354
0.0135387500546 -0.00252505295601 0.0173364608188
0.0133166072706 -0.00116795707561 0.0166963323837
0.0134323300253 -0.00303295279312 0.0157906791526
0.0129189690507 0.000229298098886 0.0154055869587
0.0133160364373 -0.00164865132626 0.0153234283272
0.00967309167618 0.00181399995927 0.0173765531077
0.00692864779094 0.000162506728278 0.017313648487
0.00954882631364 0.000521596271797 0.0174380000681
0.00902967684786 -0.00149094411257 0.0174380000681
0.00730266620312 -0.00147658158286 0.0173472971968
0.0062494277206 -0.00261454268147 0.0172663609847
0.00448636291717 -0.0015142861471 0.01666928233
0.00400899500144 -0.00246043583102 0.0154897855519
0.00432892797929 -0.00090877162828 0.015157181235
0.0122602231118 -0.000507990897913 0.0333942615436
0.0112824264368 -0.00303900009021 0.023883684265
0.0127774301504 -0.00303900009021 0.0255994434794
0.0101032419068 -0.00303900009021 0.0205161608959
0.0119652712744 -0.00154758975777 0.0174390003085
0.0111273912523 0.00181399995927 0.0259719097245
0.0107621074144 0.00181399995927 0.0187839241218
0.0100481729974 0.00181399995927 0.0239124595639
0.012042872154 0.00181399995927 0.0212921575519
0.0109412573128 0.00181399995927 0.0203099270753
0.0113428523386 0.00181399995927 0.0280289373529
0.0109272816988 -0.00303900009021 0.0316926185547
0.00880219685336 -0.00303900009021 0.0184432126383
0.0120480914531 -0.00303900009021 0.0297580473456
0.0100363234431 -0.00303900009021 0.0230280794355
0.00938577036973 -0.00303900009021 0.0218085344769
0.00933728163151 0.00181399995927 0.0256301970318
0.00965152006792 0.00181399995927 0.0281880417192
0.00918044111586 0.00181399995927 0.0224821723099
0.0104467444039 0.00181399995927 0.0295311894151
0.00927192392393 -0.00109551950808 0.0301475108714
0.00898285910085 -0.000877059508079 0.0288148849268
0.00964234411493 -0.00245538627177 0.0306889502716
0.00891877316088 -0.00166697465296 0.0276140800479
0.00845363721322 -0.00120179548226 0.0255924822971
0.00897217121582 0.00106927657058 0.0308588039962
0.00936287145886 -0.000339517771207 0.031457450197
0.0112326818813 0.00038201697802 0.0174390003085
0.00906425979996 0.00181399995927 0.0189225054439
0.00992632412222 -0.00131669797372 0.032587708536
0.0136369997635 -0.00276939623422 0.0243369995742
0.0136369997635 -0.00274523756274 0.0319943953562
0.0132411218053 -0.00106816793647 0.0323359962298
0.013459147735 -0.00161010873476 0.0217999221961
0.013476869251 -0.00180657558076 0.0200705385412
0.010324990195 0.000299633083021 0.0332871191541
0.00819513421129 -0.00108266841999 0.0186906251457
0.00834729791312 0.000194649594425 0.0190075769489
0.0081478159958 -0.00091601675356 0.0211141402634
0.00828852944156 -0.00099375278876 0.0237288557473
0.00879429066482 0.000863739907868 0.0289805080057
0.0085563535968 0.000503187472821 0.0255138476763
0.00812080335159 -0.00181666589933 0.0223887246502
0.00845170449432 0.000724034315496 0.0232529308909
0.00798712243726 -0.00200339937336 0.0201086390421
0.00837120076131 0.000976149182906 0.0210921802231
0.0126254407054 0.00141045324645 0.0199338100505
0.0126094354093 0.00131397642541 0.0179466938215
0.0133545375996 -0.00132884643607 0.0290707214391
0.0127424562281 0.00083760654815 0.0288562420648
0.012864922722 0.000654101935902 0.0220037302536
0.0128179827732 0.000670595031232 0.0261154868645
0.0131805443334 -0.000657389415947 0.0274756999339
0.012846567131 0.000358797767249 0.0319356962323
0.0128449529128 0.000654239757804 0.0239427666626
0.0133103325223 -0.0010748928337 0.0260014734748
0.0131296024887 -0.000264225464702 0.0205812195436
0.0133087556882 -0.000993115015578 0.0233506137613
0.0132033655044 -0.000467738186468 0.0183550297778
0.0125239342078 0.0013657540954 0.0328919053305
0.011499695734 -0.00252819831821 0.033105209764
-0.010453494466 0.00865544153285 0.0257011633581
-0.0103536644411 0.00875491536048 0.0273402642645
-0.0112371711238 0.00481318104669 0.0232009999454
-0.0053923149383 0.00895366353861 0.0232009999454
-0.0129254229695 0.00511342430975 0.0232009999454
-0.0121017983631 0.00349823977552 0.0232009999454
-0.00902173116579 0.00624671384951 0.0232009999454
-0.00871637259991 0.00817174426164 0.0232009999454
-0.00647122743924 0.0100029995665 0.0290224756194
-0.00713348630637 0.0100029995665 0.0312519840237
-0.0086160428288 0.0100029995665 0.0277916771435
-0.0116992383692 0.00181499996688 0.0267915038832
-0.0145669998601 0.00408180235782 0.02718297833
-0.0145669998601 0.00356386646623 0.0256037974447
-0.00909415273966 0.00978656710267 0.0263084653962
-0.00905718434727 0.00981443085882 0.0245231850168
-0.00969778327542 0.00933159968401 0.0285555263628
-0.00765067263886 0.00544649907385 0.0233597395431
-0.0134270084731 0.00181499996688 0.0303782841932
-0.0119311233258 0.00181499996688 0.0249578591444
-0.0130957196925 0.00181499996688 0.0238411864521
-0.0145669998601 0.00294722316369 0.0316472130479
-0.0145669998601 0.00421186888459 0.030570771135
-0.0145669998601 0.00258817118149 0.0243735496913
-0.0145669998601 0.00294068563236 0.0283279521308
-0.00883519039826 0.00392848688054 0.0250152031429
-0.0101652869143 0.00235697151078 0.0245677186268
-0.00614003240918 0.0071128288834 0.024349684957
-0.00415229420935 0.0100029995665 0.0243890027785
-0.00546624332771 0.0100029995665 0.0256878735823
-0.007251268027 0.0100029995665 0.0250948852839
-0.00732507207686 0.0100029995665 0.0329382896419
-0.00564573725432 0.00980484623569 0.0333590018076
-0.00704989130803 0.00717792737999 0.0330172698757
-0.00927543121875 0.00460820796885 0.0330673767088
-0.00801238725851 0.00593936799598 0.0329752573134
-0.0106712755113 0.00366301404694 0.0333007442475
-0.00954825798584 0.0059895981053 0.0334466209549
-0.012246581967 0.00266495031599 0.0333302313849
-0.00933965769371 0.00776129927289 0.0335119999945
-0.00766701937154 0.00847393340954 0.0335119999945
-0.0122150455877 0.0047124253736 0.0335119999945
-0.0110225755597 0.00557214351107 0.0335119999945
-0.0138593922164 0.00243360462583 0.0333630343297
-0.01109283605 0.00195954724162 0.0325639509392
-0.01013470248 0.00287046063725 0.0319564194735
-0.0137117203611 0.00488681317576 0.0329986792098
-0.0123040488914 0.00638049675832 0.0332103732047
-0.00901900312131 0.00929193020301 0.033076347577
-0.0049446519105 0.00852517663696 0.0267425419459
-0.00510151825386 0.00833983830503 0.0250122245808
-0.00794813033295 0.00497655257334 0.0259060674214
-0.0068179411107 0.00631187652325 0.0259270418031
-0.00505724325021 0.00874400672771 0.0323473520646
-0.00445790352954 0.00933670805475 0.0306825740949
-0.00722656675367 0.00614351019654 0.0313904623731
-0.0088459556237 0.00422520343732 0.0310282012004
-0.00532826824805 0.00825855323677 0.029764882882
-0.00744414533009 0.00579207424149 0.0299045437684
-0.00563423181737 0.00800372879356 0.031347222229
-0.0045753523638 0.00909391595731 0.0290661418496
-0.00642872911443 0.00694309313764 0.0293366473416
-0.0103888370093 0.00210776508689 0.0259251763885
-0.00971512186743 0.00314939799252 0.0300908791299
-0.00578000995934 0.0076137766352 0.0279639817921
-0.00820685065604 0.0048313035892 0.0287982575414
-0.00773910848387 0.00528457594851 0.0272814150908
-0.00886944498851 0.00399696476866 0.0278066568641
-0.0103897920342 0.00221824754222 0.0277481536123
-0.00896721364115 0.00379961241799 0.0264475768765
-0.0134657186647 0.00564555490669 0.027581065643
-0.0140948224836 0.00501686593028 0.0290207848915
-0.0123566222489 0.00675391996421 0.0298349763143
-0.0133902361241 0.00572098767281 0.0314422733874
-0.0137811685999 0.00533031298491 0.0260649996578
-0.00955773345742 0.00939041080154 0.030826797983
-0.010634070491 0.00846099847536 0.0298396144354
-0.0111326341867 0.00791478503784 0.0323856035653
-0.0116411474421 0.00746882579345 0.0258001559328
-0.0114021525788 0.00770769439097 0.0285087171637
-0.011975437159 0.00713474463939 0.0240426114636
-0.0118483091573 0.00726189476357 0.0311590340806
-0.0127163804335 0.00639434445693 0.0252844492687
-0.00226766596853 0.0140366471071 0.0314244529489
-0.00182899995707 0.0121596583774 0.0320051344936
-0.00182899995707 0.0118796953161 0.0300322965589
-0.00712756940582 0.0115453188142 0.0232009999454
-0.0046989692369 0.0109828846983 0.0232009999454
-0.00406095854553 0.0126803076483 0.0232009999454
-0.00182899995707 0.0123974307999 0.0259957242918
-0.00743849693783 0.0100029995665 0.026570977128
-0.0057237083667 0.0100029995665 0.0306419647469
-0.00800245919111 0.0107829600399 0.0241645666591
-0.00844793406476 0.0101733529407 0.0302597823057
-0.00299527719808 0.0101407071611 0.0285629093709
-0.00308198842657 0.0101768446016 0.030458963773
-0.003210256456 0.0126597294733 0.0335119999945
-0.00487565790389 0.0134549010021 0.0331903163621
-0.00710521539384 0.0116473392543 0.0325069608168
-0.0049112863044 0.0139200977983 0.027208334667
-0.00590456625936 0.0129555321435 0.0318895141599
-0.00711929111883 0.0118088201973 0.0290249080101
-0.00588369390122 0.0131804661398 0.0300937354136
-0.00758008686035 0.0112914892412 0.0277652785188
-0.00386344463783 0.0100157751371 0.0318807158135
-0.00323282785791 0.0101057360637 0.0264743543424
-0.00587212334793 0.0100029995665 0.0242793324803
-0.00507349000573 0.0100029995665 0.0279955301554
-0.00395629466447 0.01412404718 0.0295386090759
-0.00353577249935 0.0142273558989 0.0276080914582
-0.00463150334042 0.0140032903712 0.0308768601129
-0.00401709495506 0.0142421290844 0.0241603788387
-0.00324548370075 0.0141924969266 0.0260306933421
-0.00214918117632 0.014024913741 0.0297390118632
-0.00269549358341 0.0103739792542 0.0327354667917
-0.00417692228231 0.0114256449117 0.0335119999945
-0.00604619206481 0.0113585867883 0.033420230466
-0.00639255760756 0.0125975841464 0.0275904928799
-0.00548630471018 0.0135453042754 0.0285898311278
-0.00620432016634 0.0126713953247 0.0248328907001
-0.00702027435359 0.0118928746909 0.0257350133986
-0.00481339864104 0.0139692926927 0.025469471757
-0.00219073780669 0.0136389112114 0.0329237638201
-0.00363737871821 0.0139806166841 0.032483167844
0.00349127537047 0.00272302385275 0.0167143626448
-0.00182899995707 0.00692507850341 0.0151407493379
-0.00182899995707 0.0101147577288 0.0160936680392
0.00590851233374 0.00292939598733 0.0141030000523
0.00546868875213 0.00523748719893 0.0174380000681
0.00306629530679 0.0089016180934 0.0174380000681
0.00526068174815 0.00375136781841 0.0174380000681
0.00588935714683 0.00827797448204 0.0174380000681
0.00290338011211 0.00714485606415 0.0174380000681
0.00385987654191 0.00526935883086 0.0174380000681
0.00115967894723 0.0105368560013 0.0174380000681
0.00545407247711 0.00674840575839 0.0174380000681
0.00757199991494 0.0111177315144 0.0172214446378
0.00708417936797 0.00739752344644 0.017367997975
0.0071320964553 0.00352483708682 0.0172379691167
0.00757199991494 0.00629168044375 0.0161859643277
0.00757199991494 0.00488715398234 0.0164140759453
-0.00182899995707 0.0116870463695 0.0164171891042
0.00436329631436 0.00209756573845 0.0154891526401
-0.000301090767185 0.00485481149516 0.0143256649633
0.00308837749255 0.00285120484476 0.0151732946419
0.00137988308632 0.00386114224266 0.0141068966403
0.00591855278024 0.00181399995927 0.0158905365172
-0.000746842432902 0.0122324339128 0.0174380000681
0.00167738126478 0.00574865563756 0.0174380000681
0.00082167198605 0.00722240756862 0.0174380000681
-0.000600128407418 0.00952886861948 0.0174380000681
-0.000852784530558 0.00630091999044 0.0141030000523
-0.00123139902946 0.00811146821412 0.0141030000523
0.00366512452452 0.00539011414425 0.0141030000523
0.0016837373002 0.00592380964643 0.0141030000523
0.00741413116264 0.0023787108442 0.0141030000523
0.00676773629884 0.00855436068732 0.0144514753822
0.00613372398142 0.00682963479554 0.0142388519161
0.00712316455297 0.00997642217586 0.0146086351351
0.00461151930255 0.00961962930768 0.0143726894927
0.00451738183153 0.00765314206263 0.0141439529041
0.00326265736356 0.00940765983659 0.0142458571733
0.00183610231653 0.0077186366403 0.0141030000523
0.00520108822057 0.00553508984431 0.0141030000523
0.00176875252929 0.0108633250232 0.014310892656
0.00116549783168 0.00932413873827 0.0141986060138
0.000401552771218 0.010583166112 0.0142742328162
0.0068057741375 0.011352338416 0.0149537320538
0.00529235785268 0.0116010268335 0.0147991508619
0.00437563273513 0.0123696578412 0.0157992623378
0.00211688317324 0.0124997360996 0.0147700413249
0.0034223425729 0.0121128781342 0.0147457403071
-0.00156585644719 0.0137944178617 0.0152260578251
-0.000731202074089 0.0123567790548 0.0144607668953
-0.00104036133169 0.0100236846992 0.0142237727572
0.000672120882579 0.0121243680859 0.0143827637377
0.0038662352838 0.0124469483534 0.0172113751619
0.00167651283597 0.0131877824311 0.0164081474072
0.00581331419427 0.00218056071058 0.0172264891322
-0.000693475509654 0.00617353617728 0.0171892665252
0.000698846569474 0.00426372140545 0.0152629703689
-0.000839657327154 0.00517317280099 0.0158476259923
0.00172399117868 0.00389987992592 0.0168920429768
0.000271177493098 0.0048020417814 0.0168865078796
-0.01424307783 0.000976532781668 0.0177680274543
-0.0141014464238 0.00052576525122 0.0205954320622
-0.0119610496426 0.00181299995165 0.0208737681798
-0.011928504518 0.00181299995165 0.0162241906721
-0.00957181110849 0.00181299995165 0.0152650768734
-0.0100669544012 0.00181299995165 0.0170154212852
-0.0129385773569 0.00181299995165 0.021904078552
-0.0105160318544 0.00181299995165 0.0192027844413
-0.0131860725408 0.00181299995165 0.0200678014726
-0.0120520279224 0.00181299995165 0.017970407601
-0.0104485878247 -0.00819300021976 0.021409116819
-0.00980288964476 -0.00819300021976 0.0227427429625
-0.0107917237583 -0.00819300021976 0.0239047830401
-0.00999394801469 -0.00819300021976 0.0198242953558
-0.00824350424111 -0.00663303541828 0.024111000821
-0.0123576523437 -0.00153317238391 0.024111000821
-0.0114828205132 -0.00267581552592 0.024111000821
-0.00962829252316 -0.00606317820439 0.024111000821
-0.0110135794428 -0.00637609128292 0.024111000821
-0.0111446954551 -0.00427151299909 0.024111000821
-0.0109911415024 0.000364727651355 0.024111000821
-0.0126043996515 0.000275733189676 0.024111000821
-0.00666809414264 -0.00662609294106 0.0235757158062
-0.00881010900325 0.00181299995165 0.0183701026035
-0.0140955335317 0.00148466799007 0.0157117325805
-0.0115314914125 0.00175045046265 0.02320050388
-0.0087618746216 -0.000541502921347 0.0231172733332
-0.00966393995198 0.000607718936929 0.0237146737117
-0.00723540047462 -0.00374932895844 0.0228425018454
-0.00797404465226 -0.0025558308384 0.0231845326257
-0.00883373326728 0.000885118198739 0.0223867747208
-0.00926177862901 0.00181299995165 0.0199263216208
-0.0103406062832 0.00181299995165 0.0211095627783
-0.00794884599908 0.00114730297391 0.0207734547112
-0.0063671904555 -0.00465045213895 0.0219600620316
-0.00637628742121 0.000615637188101 0.0180284103919
-0.00698617310602 1.99124438833e-05 0.0196945033073
-0.00751322153451 -0.00099437422076 0.0215089329723
-0.00671833282805 -0.00259990383296 0.0211240405755
-0.00577200017869 -0.00478614582792 0.0170266244779
-0.00577200017869 -0.00696095914223 0.0151204210646
-0.00577200017869 -0.00611534518721 0.0165067971751
