-0.011783094352178398 -0.0067624532033290115 -0.013335353125823918
-0.011981330910891057 -0.003015657700141463 -0.013145639576857614
-0.010688836263815461 -0.0015760739588458216 -0.013027783327985541
-0.009208891138031186 -0.001360920376770997 -0.012922019056745072
-0.008520632663443248 -0.0053964169898349824 -0.0129770348437528
-0.009230640971038734 -0.002863659364122014 -0.012959049899226893
-0.010331944887823845 -0.00375915482630961 -0.013045875099384456
-0.01037693883226597 -0.005431059137201258 -0.013088311931469209
-0.007127047140578687 -0.006566416294522563 -0.012927321106071494
-0.009399132464479182 -0.006920309485919463 -0.013085743360069794
-0.014896520973816548 -0.004475120894008081 -0.022422786070051312
-0.014654907347949381 -0.005198065928191624 -0.01759962500738268
-0.014946481789448986 -0.004324521523458716 -0.020945223129370867
-0.015476999804377556 -0.0013666340160830841 -0.01711521949375181
-0.015267203467273841 -0.0027235031857941357 -0.01553118633368026
-0.015289377190273998 -0.003032220161459223 -0.021815523937026883
-0.015365772503667418 -0.002514926499434372 -0.023254941698427664
-0.015446811513516071 -0.0021590405278724086 -0.02014959861971026
-0.015249929514337391 -0.0030807406954615727 -0.016900371016993293
-0.0153265765684345 -0.0028263742326059917 -0.018643692922341096
-0.013154043518794997 -0.008341849174405658 -0.020461749573120084
-0.013465129588015188 -0.007874963521376808 -0.016888191277975258
-0.013496268329696068 -0.007747535767942809 -0.02222465140329115
-0.013653329543082918 -0.007524645294580801 -0.019514396711505403
-0.014334400687043839 -0.0060989548114598995 -0.019413854538981215
-0.014095611805785254 -0.0066194587761085645 -0.018023554758277275
-0.014175495911901915 -0.006383387028989101 -0.016041231999635624
-0.014170067491257831 -0.006538229698621053 -0.021660092169163227
-0.01470861908950391 -0.003970590411580931 -0.014750977335702832
-0.014571149965007775 -0.0010079426207842469 -0.013876769588571678
-0.013642495044472569 -0.0022825763346608166 -0.013571111230945586
-0.0029657351196827222 0.0059681120821254326 -0.03273745520389311
-0.00039958669319031115 0.008450100976589893 -0.03265356727990929
-0.005977604278444656 0.003164964421650076 -0.032945676915916045
0.00029399999766610563 0.014262784726819381 -0.025540469523844683
0.00029399999766610563 0.012015008927556982 -0.030143638081598055
0.0002939999976661057 0.009921185579145926 -0.029820328093420414
0.00029399999766610563 0.013294750710176708 -0.02693024365698172
0.0002939999976661056 0.012911963258020166 -0.02884819134366324
-0.007609318618638349 0.0071884803985289 -0.02350500039756298
-0.01199421352228688 0.001740232739377457 -0.02350500039756298
-0.0038131259276101446 0.009120838110698918 -0.02350500039756298
-0.010741634606444945 0.0011421847795162945 -0.02350500039756298
-0.013869028410809616 0.0010188149309331312 -0.02350500039756298
-0.014244290813951148 -0.00030899999546818435 -0.031837756490467835
-0.015140781204327797 -0.00030899999546818435 -0.024510452939223035
-0.013747134249497037 0.003937980035078156 -0.02350500039756298
-0.004246024344136031 0.011894778502657187 -0.023505000397562984
-0.014106664726643774 0.0024093372942018115 -0.02350500039756298
-0.009815988060145525 0.008522324636210728 -0.02350500039756298
-0.008002924125230147 0.008603825580037482 -0.02350500039756298
-0.01249608895359397 0.003028203101501187 -0.02350500039756298
-0.011660028456613934 0.0061060541543338145 -0.02350500039756298
-0.005452613771152328 0.01031432027673628 -0.023505000397562977
-0.0122116262676329 0.004452329011980645 -0.02350500039756298
0.00029399999766610563 0.011311002755967331 -0.02570298904996035
0.00029399999766610563 0.010579670289836663 -0.02686155693916353
-0.001207124028506734 0.009705155951558613 -0.02350500039756298
0.00029399999766610563 0.010213898119510439 -0.03200137490402208
-0.005813347300832686 0.01231506742681817 -0.023505000397562984
-0.007457773808554316 0.012275273705413255 -0.02350500039756298
-0.010572550311687306 -0.00030899999546818435 -0.030643819881641377
-0.01170954136320906 -0.00030899999546818435 -0.02910528533612078
-0.011702618725304422 -0.00030899999546818435 -0.026825767770204952
-0.0044873538011913515 0.004352339394800642 -0.030421922634935948
-0.003290546873950638 0.005575617355436574 -0.029970800361911062
-0.007309940850981657 0.0019117314256513866 -0.02588172684078654
-0.005000534761645276 0.004094075696326261 -0.027257640964806647
-0.005155559421980714 0.003830124229569764 -0.028646437468320303
-0.006855850004878778 0.00209899950362042 -0.029201932787075394
-0.006966587120693426 0.002128379583385252 -0.027445866598358192
-0.0012238291227759045 0.007666911203071236 -0.02945830271018393
-0.008014473663621301 0.0008191713002227669 -0.030843930956995003
-0.006165375560821492 0.0030705163532198623 -0.025590219314058964
-0.008301029332763167 0.0007334470429586896 -0.028339474048852925
-0.0021675053321956045 0.006825000174847048 -0.02826751426779365
-0.005470615702763562 0.0034065386592352503 -0.03004590791333192
-0.003874261859443481 0.005153196717063303 -0.027994046402569243
-0.009907436648447222 -4.001883887845662e-05 -0.027912867937798104
-0.008459585348694966 0.0010912628900821033 -0.025803149580481688
-0.009860617401902973 0.0004481145936374878 -0.02550002428379148
-0.008997926169170518 0.00013444668544316802 -0.029371645131787746
-0.010325882379923544 0.0014012678692950375 -0.033511001616716385
-0.011615003687176629 0.0025352891902709032 -0.033511001616716385
-0.007046790012620201 0.005791982720038645 -0.033511001616716385
-0.00925766681102809 0.0028061184472094537 -0.033511001616716385
-0.010565048252222094 0.003641880536243808 -0.033511001616716385
-0.0037143041927794242 0.007709599701479126 -0.03351100161671639
-0.009344995224785338 0.004310533625718161 -0.033511001616716385
-0.007198700220742062 0.004455268226624986 -0.033511001616716385
-6.925457360793566e-05 0.012863512682751925 -0.033363306282366605
-0.0011620718680423253 0.011754800025738588 -0.03344479705966242
-0.002739514763397407 0.011207632238375146 -0.03349227316306183
-0.008832670479468485 0.006546957863609083 -0.033511001616716385
-0.0034223574733899757 0.009491016446280021 -0.033511001616716385
-0.0059958696175392 0.007878541473105804 -0.033511001616716385
-0.004755519340958681 0.009766270062086885 -0.033511001616716385
-0.0068847096865404045 0.009526508497902791 -0.033511001616716385
-0.0077959373654163285 0.007605997743105996 -0.033511001616716385
-0.0018825087297086713 0.009728459729088078 -0.033511001616716385
-0.0015396614389471162 0.00725853392954049 -0.031009148715940096
-0.005957671666142809 0.0028409936617139623 -0.03134393622310442
-0.004699035144492112 0.004099496297747537 -0.031809776238272795
0.00023800017567490413 0.009036006448011068 -0.0309480819935705
-0.008979407744130025 -8.638535409097428e-05 -0.03188884356286688
-0.001776685300817758 0.0070546007659752575 -0.032504902676410846
-0.007224448705676038 0.0016365959679254757 -0.03195173761410793
-0.010686162227732162 0.011420110751429829 -0.027845276424160202
-0.009887951270776341 0.012155059501315043 -0.02900138119059312
-0.010733035555232577 0.011321319239204222 -0.02518498886541716
-0.009951051729195044 0.012133470515933989 -0.030611305471297708
-0.009809643749434053 0.012172422103203169 -0.026564082549743413
-0.011698212533122102 0.010441863249505768 -0.0322577572683613
-0.011048188576318965 0.01109224464466937 -0.03070799349682921
-0.011400947052619216 0.010739292191808577 -0.02650290360102645
-0.012117767331327335 0.00988169732222047 -0.03010900608044144
-0.012194220668332149 0.009767111852544783 -0.02487159052802925
-0.012557649224403392 0.009222418403933666 -0.02627937474882154
-0.009992648290973884 0.011966232172426448 -0.03298396909686463
-0.015476999804377558 0.000117403871678662 -0.027255892794511526
-0.015476999804377556 0.00018227007207344265 -0.029085706185846837
-0.015476999804377556 0.0007345442380311017 -0.03119445751890862
-0.015130074589913247 0.0035028023520481625 -0.031867659728009125
-0.015156865111082257 0.0033882638193137578 -0.024338785257282558
-0.015358422304159685 0.002589810357364098 -0.030401950718350827
-0.0072883001052639635 0.013639908177923337 -0.024228051347832083
-4.998672081878028e-05 0.015423928606182621 -0.0296009155312953
-0.0007868210734208005 0.015403475342818034 -0.02440836299321267
-0.013256109804367634 0.008060285490928383 -0.0235904222672311
-0.014997807023461299 0.003953220699463789 -0.02562373809846652
-0.014616120723331539 0.005186895988224899 -0.024256481168372937
-0.014973238703516974 0.004125645532459382 -0.029616699372366738
-0.015010709484598777 0.003950390286636997 -0.027375447378693435
-0.014424347015048512 0.005865455197889597 -0.026145525489845955
-0.014484790200173781 0.005696730582602695 -0.030779953051267045
-0.01470943650563026 0.005023901694950408 -0.03210644135788497
-0.011612754794990007 0.009287054313130507 -0.03309359744167925
-0.0006470922017547059 0.015461999922990799 -0.02829323052707845
-0.001412172025894978 0.015461999922990799 -0.03244105354597265
-0.00013593625479623177 0.015461999922990799 -0.031406949200726744
-0.013516431346482253 0.007785218012751987 -0.030801620816880773
-0.012714206150819168 0.00898766346723252 -0.03175977238615056
-0.012825092746420977 0.008821521534662842 -0.02834652850220975
-0.013587055126725004 0.007608282222674914 -0.027143661681832344
-0.013312990840071447 0.008060986072898197 -0.02557681973089916
-0.014013562380259033 0.006808324493555321 -0.024723047457145524
-0.013907291700533049 0.007073416281316602 -0.02918032436993042
-0.002077261033758665 0.013675092250781635 -0.03331737703779063
-0.004344451570149522 0.013295164987157274 -0.033309371611033894
-0.007190910689041969 0.013670150856590995 -0.032772387956957215
-0.005950979735109331 0.013122076014197754 -0.03328391597504822
-0.006945297897789436 0.0120339251269066 -0.033341753745842556
-0.008476652159717976 0.011791404699227822 -0.033280749315549224
-0.002895032297442499 0.015121516707525689 -0.032882072251329546
-0.01141092874855388 0.0004346000245876838 -0.03350053290111839
-0.01355787321098081 0.001233243277735953 -0.03337321985001011
-0.01469071504993682 0.00047418954174447753 -0.03325817296927583
-0.013578554802269022 0.0027649989712238278 -0.0333665548934859
-0.015080132231155743 0.0020061778557404733 -0.03310927416659147
-0.008852316470644626 0.012970213601311766 -0.029916964556936702
-0.007743879711138418 0.013555654940962523 -0.027678932420049707
-0.007789569113164734 0.013505128537039189 -0.02601569797200347
-0.008720829163606647 0.012964326102857802 -0.02464102765833563
-0.009339788646297028 0.012626182283968211 -0.03192574245512978
-0.007625516024805058 0.013623214613479939 -0.030583779805301192
-0.004594724424542311 0.004617728391106206 -0.025901731994816397
-0.005337039055423729 0.004120882580096427 -0.024455242441304422
-0.0033152534799700296 0.0058716699431235544 -0.026758240716556442
-0.0015873963032170704 0.008443914849547167 -0.025060485192423005
-0.0014179347678211509 0.008078283017808045 -0.026941392739386116
-0.0006701921511637694 0.009599008544598407 -0.02494551293991233
-0.0036038009060215532 0.006359728680565653 -0.023817920307603636
-0.00229321834226792 0.007323349932478194 -0.025910017436457093
-0.00015982001884779602 0.00918930302104716 -0.028338807489691194
-0.0025896601011139993 0.00747623116166864 -0.0242185928638443
-0.004034159073009389 0.005503339640126437 -0.024904699854485807
-0.015476999804377558 0.0006704431439697139 -0.025732110536900665
-0.015476999804377554 0.0014909799604319474 -0.027736171591126967
-0.015476999804377556 0.001706400922658194 -0.029221257386443662
-0.015371807020927771 0.0024117221220287433 -0.025816110824363272
-0.0068296508937066396 0.014001997526918853 -0.02857674840580255
-0.006457353555723742 0.01414158984035351 -0.026864077330659483
-0.005463234559041731 0.014451282831350573 -0.03259705498329176
-0.0041746382681710015 0.014895361122914562 -0.031734085390401914
-0.00545147676049455 0.014483027956447857 -0.030919139208891156
-0.005139777025810741 0.014633214355415272 -0.028131265558898985
-0.004686299385046631 0.014762836712010285 -0.029435063537452358
-0.005710779161967629 0.014403794794682515 -0.02546610559892929
-0.0042972953532208705 0.01490079005797484 -0.026290810238248166
-0.003411022682375941 0.015048021536666354 -0.024759128021197528
-0.003341864188206466 0.015099122292503297 -0.02732647391064256
-0.001974908897146844 0.015340141212917864 -0.025403094431051813
-0.001655494886440701 0.015423386402434642 -0.027103500756870322
-0.002217783456897577 0.0153670344302049 -0.03131101217419325
-0.002865106679772841 0.015209999606492684 -0.02879667690560548
-0.0017826775003032622 0.01542859504832874 -0.029488700653620366
-0.010223644140216608 0.0076403524929340725 -0.033489463166553365
-0.005697761146344331 0.011049508697418768 -0.03350933734943433
-0.00987475551462041 0.008994452498819316 -0.033409412760899676
-0.008637260175266146 0.00986436402572658 -0.03341949988333922
-0.012416865436487278 0.004717795989065779 -0.03342496470408207
-0.011336848578621002 0.005611423715139766 -0.03349152948294194
-0.014043631443432203 0.004240883146532191 -0.033278983470445944
-0.010243855075099055 0.010360825307152818 -0.03326328968406568
-0.012316162452855734 0.007034840556763979 -0.033281611459354536
-0.013492468013494588 0.0059063196506041644 -0.03322873045312495
-0.0082279529176729 0.0010648027131410472 -0.033005799295724766
-0.001943183366729061 0.008175320527844759 -0.03342569759882086
-0.007837824996958039 0.002597867893616541 -0.03347836501861576
-0.015442696881887662 0.001988063243428526 -0.020142888509435495
-0.015308917024793586 0.0026552022797548596 -0.018558853113667707
-0.009017150595887738 -0.00030899999546818435 -0.018415403075822116
-0.012911086407473939 -0.00030899999546818435 -0.02187466396215259
-0.015474508606583169 -0.00030899999546818435 -0.018194984608963606
-0.013675125885785828 -0.00030899999546818435 -0.020220728013071412
-0.010979480920397655 -0.00030899999546818435 -0.018775356817975965
-0.014089956389600207 -0.0003089999954681844 -0.018590889408226296
-0.0027870386818295914 -0.00030899999546818435 -0.022191978320193883
-0.011067352124505134 -0.00030899999546818435 -0.022159119642241307
-0.011072445890644482 -0.00030899999546818435 -0.020440955735004124
-0.012289641328052445 -0.00030899999546818435 -0.018367039894025505
-0.0039206124282999254 -0.00030899999546818435 -0.018352660187289368
-0.0007489109701050874 -0.00030899999546818435 -0.01954202528188442
-0.0019315102948912837 -0.00030899999546818435 -0.02070661416795478
-0.007377294612156873 -0.00030899999546818435 -0.015832195869955556
-0.007846857709686121 -0.0003089999954681844 -0.017523060566960763
-0.010270298316216403 -0.00030899999546818435 -0.014855466801514425
-0.008787036917212871 -0.00030899999546818435 -0.014868644339328042
-0.006280861049073592 -0.00030899999546818435 -0.016829488718923907
-0.00571783619450468 -0.00030899999546818435 -0.01826494603977502
-0.001147363637608843 -0.00030899999546818435 -0.014874320458635348
-0.012156206677200177 -0.00030899999546818435 -0.01518925432942047
0.00029399999766610563 0.0013393836548999713 -0.019916470077036327
0.00029399999766610563 0.002919161175566057 -0.017029830280926823
0.00029399999766610563 0.0023063781884665483 -0.015099290626662952
0.00029399999766610563 0.005152152762102721 -0.014646326480827709
0.00029399999766610563 0.00528366659265085 -0.01707837096206262
0.00029399999766610563 0.009391820198961835 -0.013870554332856593
0.00029399999766610563 0.0010940078361672374 -0.018458078539444873
0.00029399999766610563 0.0076413825762174 -0.018365392427188872
0.00029399999766610563 0.010787834746892145 -0.01933125239967554
0.0002939999976661056 0.009965392071409035 -0.01667552856230529
0.00029399999766610563 0.011680844499009115 -0.020514433855288425
0.00029399999766610563 0.014119465346023412 -0.019710187233474803
0.00029399999766610563 0.005791150797928849 -0.018465157651478378
0.00029399999766610563 0.012996380852418245 -0.01632033936381881
0.00029399999766610563 0.008330680478297783 -0.01954635414848535
0.00029399999766610563 0.012567470869618914 -0.01761476944708704
0.00029399999766610563 0.012549061758498528 -0.01923222394674707
0.00029399999766610563 0.00665285974475942 -0.019654134592836256
-0.008329797418302247 0.010051583810047083 -0.023504000157117844
-0.007157977873460365 0.010892053793324617 -0.023504000157117844
-0.00907538605711346 0.0060367501146462 -0.02350400015711784
-0.010311941384941455 0.006947144836720378 -0.023504000157117844
-0.011592803334816451 0.007704986199031854 -0.023504000157117844
-0.0030380870867512174 0.013459956795596575 -0.023504000157117844
-0.013683808448518032 -0.00030899999546818435 -0.014801242635281969
-0.012833748980669366 -0.00030899999546818435 -0.013192352922218032
-0.009033099954229028 0.0019820987622500563 -0.023504000157117844
-0.010503726392714442 0.002609019807425672 -0.023504000157117844
-0.006451658912128128 0.004428077279085205 -0.023504000157117844
-0.007986646726290647 0.0036787391712837037 -0.023504000157117844
-0.00972378175593322 0.004502286124411456 -0.023504000157117844
-0.007936934969968664 0.005060826152945761 -0.023504000157117844
-0.005154945055736538 0.007040376675543971 -0.023504000157117844
-0.00537406004008789 0.005600084393631117 -0.023504000157117844
-0.005152074798804454 0.00878576734330597 -0.023504000157117847
-0.006510899039806169 0.008099098531376999 -0.023504000157117844
-0.0013737733874213595 0.012808812946224143 -0.023504000157117844
-0.0032096617367811347 0.01062735712676088 -0.023504000157117844
0.00029399999766610563 0.014559971275239673 -0.01682292404822885
-0.004672161915747817 0.013224582073267025 -0.023504000157117844
-0.010816836154788227 0.009612507767418853 -0.023504000157117844
-0.002626757625538775 0.01510160131235613 -0.023504000157117844
0.00029399999766610563 0.013355531312195778 -0.023486792798368364
-0.004400027954069401 0.004652243252503714 -0.023420124001375275
-0.0013437931351372259 0.004779779071895528 -0.022966646677479066
-0.0028511178537768186 0.0012469104421789184 -0.02269398323202959
-0.0028342061167350966 0.005102711305506726 -0.023242876335389885
-0.001020826430610213 0.0023489675548611765 -0.022569113784509647
-0.004562645804715604 0.0013567987723729297 -0.022973869082886653
-0.003092044807447924 0.0026954622243172545 -0.022938358887541886
-0.0020921983106118496 0.006514149778322577 -0.02333023108947599
-0.0016618066918238502 0.0004138369367503428 -0.022391260988380055
-0.001190023717492869 0.00824306897568063 -0.023438274607036805
-0.004759990279089014 0.0030256218217300903 -0.023243023802990714
-0.0015800628371525653 0.011140313570894605 -0.02350400015711784
-0.007109189910661276 0.00237783315112176 -0.023504000157117844
-0.008898184520412153 0.011578469073992894 -0.023504000157117844
-0.010860333315890279 0.011280666940052066 -0.020845933337523232
-0.010697586078843468 0.011443414177098876 -0.016818921228909677
-0.011766631213615075 0.010374369042327268 -0.01759356971450592
-0.01137213803144704 0.010768862224495305 -0.019225883460276448
-0.00965624642930301 0.010591117486269433 -0.013823140664839709
-0.00870408257353761 0.012208091343528285 -0.014517592302528498
-0.010141890809770068 0.011504135208455404 -0.014917534056934315
-0.005640091797744463 0.013985175283432039 -0.014666722314534395
-0.0025274402532136538 0.014516981576958706 -0.014307561826728201
-0.008443734689352304 0.013072444960720195 -0.022315242669913703
-0.009729723235352556 0.012186448980207222 -0.022195614470179193
-0.008781258404479752 0.012911940560418202 -0.020404043170694004
-0.010192675902971415 0.011876278919215954 -0.01827019629076424
-0.0014507263940940938 0.0037750718264066333 -0.012888999655842783
-0.00010863828958552419 0.0028332219360114102 -0.012888999655842781
-0.0014535761213176292 0.006621490911747185 -0.012888999655842781
-9.133122766925495e-05 0.007817941049203293 -0.012888999655842781
-0.0001329842163287162 0.0006588393957993407 -0.012888999655842781
-0.004111304117030375 0.004156229655317194 -0.012888999655842781
-0.005284291749831475 0.0058010637220590345 -0.012888999655842781
-0.0019140363321711192 0.0022102952277246388 -0.012888999655842783
-0.015476999804377556 0.0006159818127025409 -0.016622124646511662
-0.015476999804377556 -0.00018269184511003275 -0.02024598576314517
-0.006054153092443708 0.001265735711799706 -0.012888999655842781
-0.005075819238194932 0.0028337056697254393 -0.012888999655842781
-0.0031125449183886473 0.0005827201207084592 -0.012888999655842783
-0.006234809249888068 0.004506037006649202 -0.012888999655842783
-0.00364645958194301 0.002318822508273437 -0.012888999655842781
-0.00701807939905022 0.002316339668504271 -0.012888999655842781
-0.009385541798246907 0.003870239105306926 -0.012998308385007946
-0.008614459033719268 0.005048407561605564 -0.012975724745794118
-0.008920225224922366 0.001991426283710133 -0.0129277568852208
-0.010317703799859218 0.005500835215776527 -0.013100230207597707
-0.0088776259941534 0.006642070350349534 -0.013054845808748959
-0.008801769999518705 0.00813388631266597 -0.013116314789756594
-0.01323387476195119 0.0032067736577993415 -0.013487712637294997
-0.013065576160367475 0.00173376392868316 -0.013330957011962961
-0.01017356046776234 0.00025200232698005764 -0.012978821044367206
-0.011685233176868702 0.0006553058836432102 -0.013100910859061093
-0.010901149617327615 0.0023657355881909446 -0.013063680036434617
-0.012074334034084913 0.004127126140214713 -0.013178121534798451
-0.013467548851017887 0.007790102640495578 -0.019340746516976322
-0.01277121608378141 0.008949531743847572 -0.018788712795209984
-0.012707555276490866 0.009055197794769028 -0.020220904347979046
-0.012708650695408389 0.009054167200702092 -0.016683102866015848
-0.01292342263504814 0.008695490980843771 -0.021626695252930112
-0.01495435170805754 0.004288152866953689 -0.02037702350420067
-0.015000279539201106 0.003988382164693448 -0.022578057712893486
-0.01383732460437097 0.007167837067115763 -0.017121694236804874
-0.013802575864829175 0.0069973829901669345 -0.023069129835191427
-0.013836278411003503 0.007022785324157294 -0.020769468495717782
-0.01451010289736452 0.005683020625984202 -0.016381004113633447
-0.014469184241682451 0.005728366478339392 -0.01998504058234933
-0.014543514992689374 0.005522613940949578 -0.022333862177115606
-0.014390186400756604 0.005934925521338355 -0.018362045032560607
-0.012094009831485538 -0.0002470690750903195 -0.023504000157117844
-0.005074537680217944 7.254299158064256e-05 -0.022734442758392377
-0.009873145622373174 -0.00017019478339592206 -0.023261095225932484
-0.006879572919994578 0.0009038724735234543 -0.023157502214170483
-0.008518825195764232 0.0007554324984200991 -0.0233214374447561
4.102294850605404e-05 0.015430614917778862 -0.01999866298268164
-0.00011615549059562695 0.015447930023116046 -0.021463681783584713
-0.000702851034769327 0.0154619999229908 -0.016408209279640155
-0.001279701003805079 0.015373617280330298 -0.02250339742269654
-0.0012565482238060448 0.015445956488569933 -0.018912214458230707
-0.0069521801178691 0.008945558936278951 -0.013068656487049588
-0.007149978073763049 0.007486129285771795 -0.01299195707754782
-0.006952178849088054 0.005981685628303529 -0.012900617663581254
-0.005999976153213292 0.010403802493149521 -0.013122236948269243
-0.006105940105646743 0.012400914109548695 -0.013550665678107216
-0.007370388692833367 0.011340592064338165 -0.013382570746827513
-0.0010284302581583334 0.014459828316563603 -0.013932409273536514
-0.003478592982970018 0.013509379197229606 -0.013705820653085832
1.0741272812575574e-05 0.012515065291633242 -0.013137991515460004
-0.00272575276388225 0.011282060336833932 -0.013086337933496239
-0.0014838687387428333 0.012729635341085312 -0.013173388176098115
-0.00345620992729219 0.01010829754970782 -0.013038495157635575
-0.0023569992011578398 0.00899823389443859 -0.01295025935444664
-0.0046054334584309685 0.0075089363744378634 -0.012925116963799997
-0.004960641384853992 0.009069362021196167 -0.013019351107260173
-0.004531909546773421 0.012263762881764038 -0.01318331463732463
-0.012723996999761514 0.00834408750766726 -0.014761873046320824
-0.01185820710930134 0.009818714861595437 -0.015167365894489639
-0.014837492031805745 0.00423656047193038 -0.015724057068776352
-0.0138173087642794 0.0071082253161348355 -0.01569649883796262
-0.014631216743430337 0.0018318323581117985 -0.014010422813630321
-0.015314690621894 0.00019823625752122469 -0.014996229493896288
-0.014110495298083205 0.004273696942978779 -0.014186764681996051
-0.01517598984438006 0.002622227708579109 -0.015441790899478981
-0.004368883831273259 0.014705024711982744 -0.015399969335161724
-0.002939318480109703 0.015178416948733477 -0.016276456067352004
-0.002563675941128516 0.01525361013091247 -0.020591441677906847
-0.004068065016192881 0.014951716311150665 -0.017108947360624897
-0.0028206442902986312 0.015202132570026826 -0.018362370903919917
-0.001529785500320898 0.015094111939749584 -0.015316307102804154
-0.010182181440851833 0.00906011468604781 -0.013386931901595383
-0.011439325685363374 0.009204486380758804 -0.013900496263415357
-0.011100320798175986 0.007565026613738792 -0.013338105985352358
-0.011723938134221852 0.005790281605415076 -0.013232813232732897
-0.012691457240141812 0.007059341635295405 -0.013898058342397638
-0.013708931615910662 0.006051112225912994 -0.014400392186658187
-0.004576043129926913 0.014740124555849686 -0.021372005681423258
-0.004277462948356231 0.014794528264697075 -0.023140913726425415
-0.005818013948726354 0.014341459130220268 -0.02270532016394956
-0.0064090156949822615 0.01411361285034099 -0.01728492740553684
-0.006698746687814173 0.013997381039115 -0.016007540633824178
-0.005805934061897212 0.014355597740966425 -0.020126250605436186
-0.005596428280558371 0.014439081065321671 -0.01879895973543471
-0.007626930847029515 0.01311260755861694 -0.01484499013732718
-0.007988414477376532 0.013441465347533831 -0.01784995486315034
-0.008650635968039456 0.012972916498306244 -0.016065400052681922
-0.007111740391731763 0.013832737700417676 -0.019662933306335777
-0.007026635012578883 0.013866892250345875 -0.021143433116595688
-0.011943564849788238 0.010195778582004832 -0.02097734480273704
-0.012322473626602288 0.009581953062894392 -0.023167287508203765
-0.010982628728319201 0.011158256067321503 -0.02245409327771782
-0.015254508811343631 0.002923698161161326 -0.021706465400183183
-0.01496101386797537 0.004389810673987518 -0.01742915374958489
-0.015476999804377554 0.0010065022468462783 -0.018974783945344898
-0.015476999804377556 0.0010314685648890275 -0.023493054312047474
-0.015476999804377556 0.0006658529140712501 -0.02209524231359329
0.0046707685389662775 -0.007340458896210591 -0.03351199999451637
0.011427924744432728 -0.008497999981045723 -0.025980072937232385
0.008876389621312876 -0.008497999981045723 -0.03128821803086596
0.01013670928020564 -0.008497999981045723 -0.030569610891776903
0.006879486514541673 -0.008497999981045723 -0.02871044848053666
0.0045236305898129405 -0.008497999981045723 -0.030880866099568253
0.012685620268321514 -0.008497999981045723 -0.024958683100601047
0.005095069594411049 -0.008497999981045723 -0.029469800963537948
0.00854040321960238 -0.008497999981045723 -0.02654142864294008
0.005490159095738673 -0.008497999981045723 -0.02794004988394703
0.003649844199734761 -0.008497999981045723 -0.029110007166781766
0.005791830765122355 -0.008497999981045723 -0.025885515154970024
0.002529020736324788 -0.008497999981045723 -0.025847072004624102
0.006835515140132221 -0.008497999981045723 -0.02690279395436454
0.007606260856993032 -0.00455519354284866 -0.024716999381780624
0.009400514942662516 -0.0029305663589054027 -0.024716999381780624
0.0092012521852465 -0.0042349603232159526 -0.024716999381780624
0.008599910625145571 -0.007042064369697342 -0.024716999381780624
0.007206477121409063 -0.006022415134113761 -0.024716999381780624
0.007110592410187752 -0.007404965111750154 -0.024716999381780624
0.005378962155990202 -0.007558519048224347 -0.024716999381780624
0.01136763077998211 -0.00742020493592231 -0.024716999381780624
0.004044933852072245 -0.007253327162433417 -0.024716999381780624
0.007732951650677854 -0.0008144851723731459 -0.024716999381780624
0.005120238092212491 -0.004380858150738605 -0.024716999381780624
0.015457999892532825 -5.489471624385025e-05 -0.02738078806668848
0.012600050213837692 -0.00338320407760555 -0.024716999381780624
0.010795869074022116 -0.004011975958168894 -0.024716999381780624
0.010951472700982129 -0.00023458546645043182 -0.024716999381780624
0.005666748644184003 -0.008497999981045723 -0.03211043263170057
0.007956569056109647 -0.008497999981045723 -0.032301618432120996
0.0042459326578133255 -0.008497999981045723 -0.032228839749825364
0.015280823380965676 0.0004310902209335984 -0.024863421883668135
0.012884756833145466 -0.00013379766740576393 -0.024716999381780624
0.015306312544560236 0.0012069999938830733 -0.0264879297887277
0.011256585198995894 0.0012069999938830735 -0.030410795302983486
0.009484286129076633 0.000779898884000349 -0.03294237728421694
0.013827164110720335 0.0010727201283953487 -0.03309431468664012
0.011770506632275152 -0.0028526543699026402 -0.03351199999451637
0.010477553551578457 -0.003518389633905427 -0.03351199999451637
0.010372302704220113 -0.0018401546685423071 -0.03351199999451637
0.007707780261455463 -0.005019567544163755 -0.03351199999451637
0.011295190555932467 -0.0006310601938743581 -0.03351199999451637
0.008317947981635765 -0.0034139982909772203 -0.03351199999451637
0.0067135087163154765 -0.006526032379027729 -0.03351199999451637
0.012076790653017623 0.0007571840982994241 -0.03351199999451637
0.009119859780965496 -0.005171229340294507 -0.03351199999451637
0.014683291594817535 -0.00335491111345402 -0.0329464622955875
0.013486283989315399 -0.001120168745183438 -0.0332459603859005
0.013334594737630281 -0.0034151363616016723 -0.033283913896798745
0.009028834947677136 -0.008425695269139846 -0.03351199999451637
0.01034559346327718 -0.006138195795410956 -0.03351199999451637
0.00839434252256905 -0.006636440706564082 -0.03351199999451637
0.015457999892532825 -0.0008870370828277342 -0.028557317693741795
0.015457999892532824 -0.0011252550100772016 -0.030938879042742503
0.015457999892532825 0.0003289852914325189 -0.029608883435620532
0.015443450076652073 4.9578230451656664e-05 -0.032419733514816376
0.015084634198980967 -0.0037042997302058366 -0.029862899085754294
0.014888409062820355 -0.004226904190394872 -0.026149519793554402
0.01501991261995023 -0.0037587643850429 -0.02763676198864779
0.01517579894277541 -0.002754831879858798 -0.02647767689381529
0.015368999257851845 -0.0015502314982360616 -0.02559808281806411
0.01531935599770376 -0.0022995891349021774 -0.028463093328131652
0.011764153442054007 0.0012069999938830733 -0.026321605896587306
0.00988630863867559 0.0012069999938830733 -0.031153440033938253
0.011903240734566653 0.0012069999938830733 -0.027867592060964
0.006751346124318116 -0.001490434412332616 -0.02865135659630788
0.0060124213939184434 -0.00222536383131566 -0.027506731445690307
0.005842657526284697 -0.0026918363274108697 -0.029070704521258074
0.007601009397349801 -0.0005539473840429543 -0.029406363139770342
0.004871328569966303 -0.0037676066678247046 -0.028239414506259147
0.00384456949168364 -0.004589974446863812 -0.025428368649965123
0.0019449191103461465 -0.006953424199565444 -0.025395756332125773
0.007930040764998671 0.00036375905860663784 -0.026291615359277223
0.006150265060376863 -0.0017361819007653324 -0.025559034678402946
0.003867259058453654 -0.004882607505995255 -0.02739833238594706
0.008274205839631416 0.00011793540572498765 -0.03043489290548872
0.004713662040110091 -0.0036877635630000348 -0.026542491305547235
0.008011839518486098 0.00015460025535339106 -0.02820161784158984
0.006766619080236793 -0.0011764316404657034 -0.026840791372826682
0.014747882854731146 -0.004850017747855869 -0.03125891992871984
0.01529893499741062 -0.002836942902916667 -0.03145876970399826
0.0026685826756747823 -0.007008842477692008 -0.02988448985243569
0.003892958796514314 -0.00585173419752474 -0.031795549022048716
0.0018578976342160628 -0.007744595130046889 -0.028487317750908986
0.005540206536373454 -0.0034519708215478874 -0.030710326321563744
0.006674232377163288 -0.0019666829809921785 -0.03068665048433194
0.0030215731834370204 -0.006199317797762306 -0.028371266036377123
0.0015048933281626524 -0.007861276194438143 -0.026995471953608803
0.00426887578681411 -0.004864725865065672 -0.02964230359498158
0.0024624096028574628 -0.006525383564262556 -0.02662075232255387
0.006419593084201948 -0.0026207156471441365 -0.03208211903014341
0.0049978326131167265 -0.004366694420470775 -0.03160795614991467
0.003024244302058522 -0.007230742112609975 -0.032558378224221134
0.007993738503608506 -0.0006205765254152447 -0.03230652656245112
0.013144243301457087 -0.008307217438013863 -0.027241561422196657
0.014235680218150993 -0.0062119158645826 -0.026773061306627866
0.01439552569695145 -0.005444939718063826 -0.02505652473059038
0.013836672591496846 -0.006721787309628227 -0.02498628673491529
0.01351676267904174 -0.007656976568708675 -0.031496345324300117
0.01391262979893184 -0.007003124563264081 -0.028131467084274997
0.013757522428466954 -0.007254258718964237 -0.029863736797232976
0.01440998363403988 -0.005906681762939049 -0.02932145047322116
0.013620199530081412 -0.0048067409639979426 -0.03310069593872819
0.012765453809294405 -0.008411267855860821 -0.032710920890797385
0.010840147890735341 -0.00788373075411772 -0.033356580866881654
0.011843014049845915 -0.005178522418556539 -0.03345719376052086
0.013551179439322679 -0.007193700556313423 -0.03281361720013325
0.008160594400830414 -0.0019066403965074048 -0.03342480002874233
0.006285958524908059 -0.004123238039698303 -0.03330508558423195
0.004957160218395441 -0.005742300220424691 -0.03323481485150501
0.014423623049704671 -0.0016271257023471237 -0.014000062608961012
0.00029399999766610563 -0.0032626376865007717 -0.02126058026776685
0.00029399999766610563 -0.006946339136850631 -0.020593903039376808
0.00029399999766610563 -0.006972951435992445 -0.018692795406319167
0.00029399999766610563 -0.004140358045582112 -0.01775244872925657
0.00029399999766610563 -0.003320628769753372 -0.019747940385437483
0.00029399999766610563 -0.005039950364634603 -0.020750836163177223
0.00029399999766610563 -0.0014603391473214493 -0.019618217703250052
0.00029399999766610563 -0.005634949045812356 -0.01788764807804257
0.00029399999766610563 -0.007842163938631394 -0.013684094373027719
0.00029399999766610563 -0.0024404736218588733 -0.01861608085088632
0.00029399999766610563 -0.0068245682988064835 -0.023330922650659766
0.008926569176051962 0.0012069999938830733 -0.019076007881032107
0.009589810517588575 0.0012069999938830733 -0.01538319027323188
0.009114628160441654 0.0012069999938830733 -0.021148598183659884
0.004714253843707885 0.0012069999938830735 -0.019655233242577622
0.012595287737971923 0.0012069999938830733 -0.023824749502415404
0.006463558033782377 0.0012069999938830733 -0.017195716968132338
0.003552698788224907 0.0012069999938830733 -0.018530831325880244
0.007465549253485659 0.0012069999938830733 -0.019792194036363068
0.006239354523038746 0.0012069999938830733 -0.022743103217464228
0.009131100683395054 0.0012069999938830733 -0.013926310733135331
0.00911351069437616 0.0012069999938830733 -0.02300342740455778
0.014002831236565106 0.0012069999938830733 -0.024481072134845683
0.008656887078336319 -0.008497999981045723 -0.02468673829194932
0.0064734500609704695 -0.008497999981045723 -0.01957074950411527
0.0039013634892515847 -0.008497999981045723 -0.019475393303632606
0.0015859396549813335 -0.008497999981045723 -0.021407476967137337
0.006797897743784563 -0.008497999981045723 -0.02231354142656565
0.007573114355289205 -0.008497999981045723 -0.023658843401410827
0.0022995220914041985 -0.008497999981045723 -0.01988425149229772
0.010414042043277352 -0.005605748734269022 -0.024716999381780624
0.014476491495708503 -0.0007430470019578407 -0.024716999381780624
0.0055722503228632135 -0.006031817133307492 -0.024716999381780624
0.012555311490801387 -0.005747008903313132 -0.024716999381780624
0.011749132765280241 -0.0016082858500955366 -0.024716999381780624
0.01307041091681492 -0.0019198168528469124 -0.02471699938178062
0.005547719811131284 -0.008497999981045723 -0.013486286394843193
0.008125668939594823 -0.008497999981045723 -0.0198923657810625
0.010777198484449267 -0.008497999981045723 -0.020166336148938445
0.009429535330529825 -0.008497999981045723 -0.020694300434186512
0.011430076273464804 -0.008497999981045723 -0.017513510504072807
0.0076684541035828705 -0.008497999981045723 -0.015564747063666444
0.010820102113250666 -0.008497999981045723 -0.01873575537904179
0.005742503416982095 -0.008497999981045723 -0.015284862933812088
0.007180582444510736 -0.008497999981045723 -0.0142422983109964
0.00489661393860862 -0.008497999981045723 -0.01684695618507556
0.00029399999766610563 -9.48341550199871e-06 -0.01506564259630644
0.00029399999766610563 -0.0013446109445529443 -0.017592699433975945
0.00029399999766610563 -0.0017470938432994118 -0.015972055319314324
0.00029399999766610563 -0.0033995985795917372 -0.013481874595190308
0.00029399999766610563 0.0001272554655412882 -0.016659220104357633
0.00029399999766610563 -0.001379172747485791 -0.014313218558341228
0.0017595485115581343 0.0012069999938830733 -0.01582550164788321
0.005043608349465118 0.0012069999938830735 -0.016450587447103336
0.0019205115821876605 0.0012069999938830733 -0.01871219837036439
0.0034454856982364763 0.0012069999938830733 -0.015900918449057385
0.0050533037643024975 -0.0023797098208803024 -0.012888999655842783
0.0022450277943782604 -0.003567365406251955 -0.012888999655842781
0.003427250288368867 -0.00034206043556222 -0.012888999655842781
0.005346975765220487 -0.00033796096698663226 -0.012888999655842781
0.0013296546989980532 0.0011847986382525488 -0.012888999655842781
0.010897003489172835 0.0012069999938830733 -0.016469862683443692
0.013192174138798137 0.0012069999938830733 -0.016299388153595544
0.01272269033126489 0.0012069999938830731 -0.019729056137456565
0.008321007870961203 0.0011071824409804617 -0.02471699938178062
0.0029261885665161054 -0.006026944948544455 -0.02471699938178062
0.006380875802668794 -0.002966335379023105 -0.024716999381780624
0.007795372225433424 -0.0026905824359668698 -0.024716999381780624
0.010008641812612847 -0.0014807787112067316 -0.024716999381780624
0.010300559972737619 0.0012069999938830733 -0.02401499407490585
0.00756332378317836 0.0012069999938830731 -0.02337613838499923
0.0046595927631877185 -0.006949605455705356 -0.012888999655842781
0.004293351948977143 -0.005342529463908817 -0.012888999655842781
0.009250620792299824 -0.004557137637218647 -0.012888999655842781
0.007284507033208423 -0.0006827631042925562 -0.012888999655842781
0.008604960231763104 -0.005979269160520119 -0.012888999655842781
0.007563407941726924 -0.003914542486918305 -0.012888999655842781
0.009115234857909084 -0.0028749579455186543 -0.012888999655842781
0.0027188086581333747 -0.006322416364953063 -0.012888999655842783
0.006030207751194544 -0.003479050139510086 -0.012888999655842781
0.009380248354169847 -0.001145568268591903 -0.012888999655842781
0.014432574230034394 -0.002662368370280956 -0.024716999381780624
0.010825592933160107 0.0008048322185874132 -0.013009707320155073
0.012783791194121347 -0.001586181499433393 -0.013072702567877405
0.010870972049316708 -0.002015799853947353 -0.012938382422529525
0.01187693331131472 -0.003346418179256846 -0.012968051196837683
0.011426075639404468 -0.0006641074196351081 -0.01300965925340854
0.012800857221566271 0.0002848640731780447 -0.013123048749030109
0.015215419559689303 -0.002018103647555939 -0.023450873718923362
0.014935745422691646 -0.003701404374619958 -0.023756813982785355
0.014979945202259414 -0.0033185568110454854 -0.021144994165962588
0.015157671491613057 -0.001933672559924954 -0.018465330823226232
0.014933374858857401 -0.0033549936813448825 -0.017723764996986077
0.015229131445731205 -0.0013054455849035168 -0.01721206128158693
0.015272089157701193 -0.0014384569751452465 -0.020795335057051573
0.01474717461035551 -0.004328823136265692 -0.01960467699252233
0.014494856697323085 -0.005260545341839838 -0.023476237496961865
0.012488661684918786 -0.007058285309724698 -0.0139349859332981
0.013391463176201239 -0.00578442654571338 -0.014095276682823428
0.011219476630256237 -0.008491852220244143 -0.013500901300101798
0.01540353666662521 -0.00028882751807491334 -0.023471653401770307
0.015365631815982645 -6.251673931859119e-05 -0.022044226168949927
0.015164801055375385 -0.0007837874018079096 -0.015242409799459686
0.01531245890605634 -0.0002040511973657119 -0.01997033774365842
0.01524421114520287 0.0005298210846852801 -0.018007096567096068
0.015202004279998751 1.8815464130051492e-05 -0.016579133708494384
0.006366791341705516 -0.007264095079126636 -0.01288899965584278
0.008519779538763077 -0.007541411159272101 -0.012888999655842781
0.010964010500779008 -0.006784533409277241 -0.013073087629855974
0.009916079890004967 -0.007784447361958774 -0.013091141973225102
0.014941065639088726 -0.0026376407963658826 -0.015405042651592699
0.01460634335446244 -0.004443657567101144 -0.01662917715560112
0.01447162676933557 -0.0038770427594157966 -0.014809913597353924
0.014268665616777454 -0.005518624408216232 -0.01728081390812187
0.0144371141482552 -0.005284576275877067 -0.020912591818269596
0.013980930073331083 -0.006322202643426721 -0.019128244102763807
0.01393624576453935 -0.006206106566400166 -0.015717969226977622
0.013942041140058203 -0.006615962807140477 -0.02292935089201325
0.013795235566980908 -0.006850987203198379 -0.021101599159743196
0.012736144987249638 -0.008487871263169602 -0.02107509457128223
0.013201043016050084 -0.00792914605690861 -0.019660314810945954
0.01331469753851268 -0.007877550105988895 -0.02339376529892596
0.013135433545430534 -0.00791096761980758 -0.01601697463970297
0.01330954738212701 -0.007710338427432741 -0.017964073959578285
0.00038461332868123345 -0.0051401317103596175 -0.023576636810371795
0.003580779867345322 -0.000626447267408854 -0.023637205824730147
0.00417638600164972 -0.00210464417823665 -0.024256223178278406
0.006324383369717758 -0.00010536716737041428 -0.02444185725695913
0.0015354885063910884 -0.005596207649335025 -0.024316574882455692
0.0010331703765465543 -7.060900366417412e-06 -0.022581982747468143
0.002302397605300593 -0.004238919244193502 -0.024203177329186247
0.002817445091209401 -0.0027358708829752637 -0.023961856505891548
0.0011225223811465498 -0.002737842988439339 -0.02337543049942133
0.001988045775501044 -0.00139683951691336 -0.023300731695181934
0.014237491661990887 -0.00030043725145348604 -0.01379408121894755
0.011540217403885404 -0.005406406764238091 -0.012892755641716077
0.01324452713837029 -0.002991627666206948 -0.013271702381473417
0.013559961971918897 -0.004468315115080535 -0.013691642633426423
-0.00034383408689187944 -0.005600657063546186 0.0019710001070052385
0.001135523020951986 -0.00570934555946211 0.0019710001070052385
0.0033259999472647905 -0.004815886080791037 0.008837640662482996
0.0033259999472647905 -0.006154957388468678 0.012979795632404215
0.00041100821213729973 -0.0076589529254582536 0.014100999571383
0.00223006422480845 -0.005721916010365404 0.014100999571383
-0.0010121644437716488 -0.007068244407509558 0.014100999571382998
-0.0018289999570697544 -0.005556964547147376 0.003528861114138293
-0.0018289999570697546 -0.005878632967581566 0.0052837032738189006
0.00252935638478413 -0.005809532735579125 0.0019710001070052385
0.0033259999472647905 -0.004691439351794686 0.0028570444976421198
0.0033259999472647905 -0.007107374279806891 0.004558811929263908
0.0033259999472647905 -0.006418893572303715 0.009255202538666631
0.000637128886457163 -0.008194000460207462 0.010077398540874515
0.0005411601619552106 -0.008194000460207462 0.004159546409689519
0.0005641603810686495 -0.008194000460207462 0.007874329209073574
-0.00016224467594527293 -0.008194000460207462 0.011131501465206141
0.002723595370120394 -0.007671686517992035 0.012537195154599987
0.002061481048027588 -0.007852088989668042 0.010179236862896618
0.0010707381709212677 -0.00808679834612354 0.0122881688792752
-0.0018039015245993376 -0.007916098700248269 0.010750804057360609
-0.0018289999570697546 -0.006768561569911872 0.01253402328630294
-0.0018289999570697544 -0.006589643825215907 0.00937752862708482
-0.0018289999570697546 -0.006302839883375029 0.010973874165742473
-0.0013319941231522076 -0.008194000460207462 0.00820791497791593
2.8760492173217304e-05 -0.008194000460207462 0.005688747898313212
-0.0014129644549417827 -0.008194000460207462 0.006224277383910137
-0.0009925635895618509 -0.008194000460207462 0.0038040924929910987
-0.0015646949960510998 -0.008155305412607113 0.012502816235347977
0.003138402947568015 -0.00394799979403615 0.004322082932717312
0.0014904853291223196 -0.004203198841109328 0.012284715918600161
0.00042901168885739157 -0.004410445109555008 0.013355466683720339
0.0023636510947188504 -0.004022075073995921 0.013524096439153657
-0.0005394387623570583 -0.004611700468630306 0.011907858590911782
0.0024692763702679225 -0.004040099807240869 0.005718983188374255
0.0018967216014548055 -0.0041323888277322775 0.01018070451866847
0.0021051026775766625 -0.00410421355335814 0.007478538348755622
-0.0010690189223621278 -0.004817028569007577 0.008168891672041757
-0.00019942465108130553 -0.004654217950209525 0.005976395909064339
0.0007375693656205154 -0.004493535259416443 0.0030236034699972396
0.0007105164232784894 -0.004393078482554328 0.007316162695026955
0.001245616192611463 -0.00432844796601037 0.004543688881645891
-0.0003649446613536513 -0.0046077764763430805 0.009493516995701093
0.002866270377617749 -0.00763181136786451 0.0029700748911297157
0.002259904853018123 -0.007805181258955196 0.008366477039843973
0.0014372437909610325 -0.008040393606866234 0.002791148245425569
0.0023008296074954093 -0.007793480197567636 0.006573070935472433
0.0020051678660416806 -0.00787801475937235 0.004860510317281418
0.007194610724773602 -0.0035742380087785243 0.011387529868846821
0.003326999954879284 -0.005464252772059033 0.007506058305210854
0.003326999954879284 -0.005390011393591351 0.005490370738592196
0.003326999954879284 -0.006315269706193419 0.003229535579371093
0.003326999954879284 -0.007085142348646255 0.007620169100861288
0.005539312788575803 -0.0017925824007756837 0.014100999571383
0.004319135374892774 -0.005486714108351117 0.014100999571383
0.004133090883796479 -0.0014960146301902745 0.0058190560102100814
0.004585211685651282 -0.0002906902983915206 0.004758022608855048
0.004661630827125524 -8.696189161129856e-05 0.008676262539920298
0.004293083908870422 -0.0010694837445318817 0.002943550906760545
0.004733515940627665 0.00010467909469764566 0.006839499862691048
0.005751831682507888 0.0012069999938830733 0.0062314832766012015
0.006778468300348186 0.0012069999938830733 0.005021467548974002
0.0053867907146918454 0.0012069999938830733 0.010739611647155813
0.006688404426548703 0.0012069999938830733 0.0020146588446842855
0.006346197037505344 0.0012069999938830733 0.008782753929847578
0.0076215787928526225 -0.0010107424133307943 0.014100999571383001
0.003326999954879284 -0.0037565341380506293 0.009795951232080977
0.003326999954879284 -0.00537044542538733 0.010346451261999847
0.003326999954879284 -0.004072378759454478 0.011483871507330318
0.003734197186295751 -0.00313712790714499 0.014100999571383
0.0037304803765803433 -0.0025693477716750837 0.012297639880341405
0.004207091427033339 -0.0012987340472934115 0.009098723050471722
0.0037895585925721 -0.0024118491321035414 0.010303506916592733
0.0035672159688060973 -0.003004599948526282 0.008388800236726777
0.004836454952469925 0.0003791077322559826 0.013754112738927871
0.003624230442384798 -0.0028526031105414315 0.005955848362212442
0.004646746441861015 -0.00012664268411095744 0.010788764521278879
