-0.0385039934731 0.0461932943818 0.0155089106352
-0.0453501331515 0.0464085083113 0.00796482049371
-0.0306149004307 0.0466481534332 0.00820243912014
-0.0274736439591 0.0466101756496 0.0102805724009
-0.0507912118925 0.0461963826446 0.0106915021166
-0.0485370143216 0.0461277330296 0.0131251362314
-0.0326256740581 0.046398783021 0.0131022397349
-0.0325365351619 0.0460751955647 0.0205028038069
-0.0344711698711 0.046633655049 0.00704262840715
-0.03064597378 0.0463364695987 0.0152855864312
-0.036638116527 0.0460847329953 0.0187010681529
-0.0335658451131 0.0461846484888 0.0176135549982
-0.0389703327966 0.0463361772475 0.0120761655987
-0.0423588034834 0.0462069994757 0.0137076414624
-0.0332687448356 0.0465161937454 0.0101810616706
-0.0606957451797 0.0460161475864 0.0109677937123
-0.0399207884101 0.0460486848878 0.0182534207121
-0.0271172219816 0.0467462674605 0.0073202883879
-0.0416095307987 0.0463758853593 0.0101526110918
-0.047844134408 0.0463008894732 0.00945110401284
-0.0243618224416 0.0468260977965 0.00656757064975
-0.0541327734477 0.0461242931776 0.0110415463073
-0.0512840251086 0.0460395227781 0.0140718548225
-0.0278012017773 0.0464368749618 0.014099028613
-0.058351185991 0.0461355236368 0.00915613348893
-0.030065530596 0.0465125215576 0.0115022014853
-0.0450400092928 0.0462387324656 0.0119494026445
-0.0362495576017 0.0463408015064 0.0130220575974
-0.00492823848508 -0.0467288846372 0.0164544528067
0.00131199726289 -0.0466409704596 0.0171363935518
-0.0228434720976 -0.0466278123232 0.0227531492432
0.0070317361913 -0.046896771869 0.00990402648337
0.0194205378053 -0.0461584671379 0.0244267156794
-0.0166256986834 -0.04683167349 0.0166245647734
-0.009637924292 -0.0469246554264 0.0129167163725
0.0196859285721 -0.0462830747624 0.0214577232929
-0.00576401837932 -0.0465606671103 0.0205674834848
0.00655791956597 -0.046279791438 0.0244199686988
-0.013279006356 -0.0464881697904 0.0239127221549
0.0100892392316 -0.0468923950804 0.00933421941709
0.0231784711076 -0.0461915938895 0.0228269231785
-0.0442075416948 -0.0469258236926 0.0204878691903
0.0014656677681 -0.046895638002 0.0111539402996
-0.015738458551 -0.0467087194025 0.0193015832509
-0.0285710911352 -0.0469210210537 0.0171631421796
0.0128247490272 -0.0462830478512 0.0229664470967
0.00951544928595 -0.0465934545932 0.0164431692511
-0.054668302815 -0.0469221133185 0.0228738257107
-0.00871933294973 -0.0464471032804 0.0238697566941
-0.0198469300945 -0.0468888026782 0.0159981375213
-0.0344194775252 -0.0467627963541 0.0221445311437
-0.0190917851587 -0.0467546354127 0.018966114774
0.0136986349069 -0.0465281338178 0.0170495018337
0.00437503444048 -0.0469581868201 0.0090534055549
0.00510909778443 -0.0468172720033 0.0121836298918
0.00258179136343 -0.0467422584028 0.0144913471719
-0.0122392083261 -0.0467956514225 0.0165018340525
0.00522731262651 -0.0465134847261 0.0192536904839
-0.026174276068 -0.0467436211097 0.0207801331214
-0.0315462778327 -0.0469832871492 0.0163626430727
0.00782897321912 -0.0463980100883 0.0213791679179
-0.0114443822812 -0.046574239555 0.021499000783
0.0161131417383 -0.0463189967531 0.0214039386931
0.0179286159744 -0.0464500426033 0.0179438482531
0.00197064886471 -0.0463930861044 0.0227818517355
-0.0467783727766 -0.0468406935981 0.0230414603403
0.00869482552644 -0.0467175095096 0.0137257945985
-0.0182257122276 -0.0465995026817 0.0223994337698
-0.0248311978967 -0.0468579144978 0.0178151898816
-0.00167947278432 -0.0465598189975 0.0196895063659
-0.0304316146496 -0.046840791999 0.019446125495
-0.0406645183075 -0.0469623906992 0.0188549546103
-0.0145388118909 -0.0469644647293 0.0130640477009
-0.000760584138828 -0.0463617723114 0.0241136261542
-0.0575455263966 -0.0469366119388 0.0231675753622
-0.0378041782795 -0.0469068762839 0.0195229873772
-0.0350311580468 -0.0469263308037 0.0184590440511
-0.00173983430377 -0.0467960456251 0.0141848514831
-0.00536779614497 -0.0468867532946 0.0128634778615
-0.0497696701851 -0.0469393948736 0.021393427725
-0.0296127381914 -0.0467198915505 0.0220902002644
0.0101434195786 -0.0464591550227 0.0194421900958
-0.0395458196747 -0.0467138391033 0.0244148797299
0.0122820823495 -0.0467127177533 0.0130492401016
-0.00963099484442 -0.0467068894192 0.0180019015081
0.0114251175629 -0.045912392797 0.0258232626145
0.0475434656815 -0.0455862813251 0.0257677155468
0.0279118556705 -0.045938631185 0.025095752057
0.0593368012201 -0.0453728623849 0.0261784076534
0.0442356084579 -0.0455073665136 0.026209027016
0.00228601728583 -0.0460169210857 0.025749048941
0.0388854223199 -0.0456184843932 0.0259653758436
-0.064526087931 -0.0469067972414 0.0247014778453
-0.0241950588995 -0.0461670873447 0.0261463204134
-0.0360244952508 -0.0465341190802 0.0251205783635
-0.003599720929 -0.0461388213631 0.0254823303432
-0.043061243184 -0.0465763695357 0.0252167046585
-0.0720458716113 0.0223245884109 -0.0266060681656
-0.071592376035 0.00592011080659 -0.0269397523157
-0.0719153634556 0.00998992935951 -0.0266175993316
-0.0716083237288 -0.0288649749024 -0.0265355703036
-0.0719072390464 0.0329551600078 -0.0268817073342
-0.0703853796375 0.0404493969276 -0.0270576663146
-0.0672764114914 0.0428773675155 -0.027277080594
-0.0720553143014 0.0447588786825 -0.026491944165
-0.0709334679421 0.0138227114974 -0.0272823343301
-0.0695058593284 -0.0310668144408 -0.0272590152819
-0.0701703789377 -0.0403367177359 -0.0269350985604
-0.0699514358335 -0.0196476333609 -0.027237533373
-0.0690249613309 -0.0452453069807 -0.0272616233032
-0.0701469418867 -0.0356374401629 -0.0269950470777
-0.0705722035823 -0.00785113802832 -0.0271619650279
-0.0691094791609 0.0331272868621 -0.0273160003126
-0.070324841356 0.0298960956013 -0.0273160003126
-0.0706169997968 0.0182897836504 -0.0273160003126
-0.0678445072211 0.0257966361085 -0.0273160003126
-0.069513061467 -0.00316487466695 -0.0273160003126
-0.0693395050404 0.00799815416466 -0.0273160003126
-0.0690222641158 0.0113507203357 -0.0273160003126
-0.0677900740136 0.0174466559787 -0.0273160003126
-0.0693371950861 -0.0256774209252 -0.0273160003126
-0.0675294188086 0.0297579134944 -0.0273160003126
-0.0684660060502 -0.0171334625562 -0.0273160003126
-0.0686199984696 0.00507348801987 -0.0273160003126
-0.0696191725364 0.000618663845248 -0.0273160003126
-0.0679913665693 0.0378559111214 -0.0273160003126
0.0733201574102 -0.0375954409329 0.0123122154826
0.0728725667788 -0.0445374963153 0.0165154276811
0.0727689798929 -0.0414945482744 0.0218896254998
0.0729373006646 -0.0417114031852 0.0176323739077
0.0732413727125 -0.0404670340415 0.0114904411796
0.0731173799532 -0.0396960356315 0.0152051605684
0.0731107115185 -0.0430971372062 0.0121460874241
0.0727729898342 -0.043958784038 0.0194603628199
0.0729465582275 -0.0391874992208 0.019798733288
0.0733131146868 -0.0422576912474 0.00806830504523
-0.0730254210402 0.0171691295097 -0.00610320972667
-0.0731987623836 -0.00253995647141 -0.000110002560941
-0.0730702160361 0.0202882966341 -0.00455444077484
-0.0727836073608 0.0229817522743 -0.0144638203421
-0.0733352221757 -0.012065107691 0.0046080398169
-0.0731410312931 -0.00618951224627 -0.00210603177441
-0.0728826706484 0.0296880923868 -0.0110387470523
-0.0733195791551 0.0237664379966 0.00406718867561
-0.0730400297336 0.0269159270082 -0.00559812003238
-0.0729551833635 0.0268024010928 -0.0085316491216
-0.0731721273675 0.0120471013544 -0.00103089751871
-0.0726489389581 0.0364930236752 -0.0191199261507
-0.0732676076095 0.0441637716529 0.00227029341012
-0.0732119286672 0.00785912079106 0.000345216395801
-0.0732271043693 0.0399174541479 0.000869910184584
-0.0732579701256 0.0116200618938 0.00193708128462
-0.0726211523965 0.0336986408935 -0.020080635333
-0.0729664751906 0.0323653808136 -0.00814123874455
-0.0730406672912 0.0235557169078 -0.00557607673299
-0.0731700596799 0.0345232028843 -0.00110238698623
-0.0733031343343 0.0302561487519 0.00349861561726
-0.0726201947024 0.0392728641959 -0.0201137472186
-0.0729944341347 0.0118872488448 -0.00717456950677
-0.0729593065662 0.0205879302887 -0.00838909104857
-0.0730121008046 0.0416649054344 -0.00656375150782
-0.0729567994654 0.0144037981628 -0.00847577304955
-0.0727995731053 0.0306707768714 -0.0139118111533
-0.0727134681104 0.028354026143 -0.0168888566884
-0.0727224865079 0.0436158291825 -0.0165770492236
-0.0729314335858 0.0355797347992 -0.00935278812266
-0.073285307565 -0.00981181930986 0.00288226224618
-0.072611356313 0.0432225581104 -0.020419330975
-0.0728107547986 0.017998200792 -0.0135252086089
-0.0727119196041 0.0313531243671 -0.0169423956711
-0.0729331119944 0.0408175152924 -0.00929475782279
-0.0727576357158 0.0342730684286 -0.0153617795118
-0.073282269972 -0.0145802589887 0.00277723869146
-0.0732070336047 0.0299113123597 0.00017597157773
-0.073255783749 0.0273030892465 0.00186148819255
-0.0731777405543 0.0166599765248 -0.000836823844998
-0.0730370818777 0.0360197317288 -0.00570004096438
-0.0728735952868 0.0133937669628 -0.011352524027
-0.0727165572026 0.0394246255429 -0.016782052567
-0.0733386926503 0.00314478609371 0.00472803007731
-0.0731074508686 0.0286397368648 -0.00326706143157
-0.0731205661531 0.0146345014745 -0.00281360575127
-0.0729355182175 0.0236508626852 -0.00921156362789
-0.0729653035942 0.0380760549621 -0.00818174621943
-0.0731897625253 0.00478809355883 -0.000421169039491
-0.0728466295509 0.0384832122115 -0.0122848534888
-0.0731499978144 0.0232872431635 -0.00179601790991
-0.073187666776 0.00122677450024 -0.000493628726026
-0.0732866926681 0.0353925451252 0.00293015162783
-0.073136171573 0.04038868935 -0.00227405464081
-0.072838465322 0.0251303516333 -0.0125671284189
-0.0730963325604 -0.00276690354036 -0.00365147246248
-0.0731080206153 0.0317988388612 -0.00324736266985
-0.0730528801745 0.00685720577359 -0.00515382121247
-0.0728421526931 0.0348392883315 -0.0124396390451
-0.0731905105317 -0.00920536681771 -0.000395307017712
-0.0732985471292 0.0166928148144 0.0033400148457
-0.072916510656 0.0173711525169 -0.00986874241408
-0.0733139530341 -0.000434369516862 0.00387266780717
-0.0727924208522 0.0414471244269 -0.0141590974256
-0.0732786157556 -0.00500560428987 0.00265089562787
-0.0731080544089 0.0375536689673 -0.0032461942694
-0.0730841005204 0.0116169886669 -0.00407439032045
-0.0733247072754 0.0141225890368 0.00424449137049
-0.073215512049 0.0213145247137 0.000469110375934
-0.0729386982221 0.0446219026374 -0.00256924587043
-0.0719314690184 0.0456244221326 -0.0229350553739
-0.0725790344981 0.0449788880961 -0.0113183749871
-0.0733430013061 0.0142061128671 0.00931419656199
-0.0733430013061 0.0382185122442 0.00657849996374
-0.0733430013061 0.0342162328733 0.0114416063832
-0.0733430013061 0.0211303944503 0.00554276973338
-0.0733430013061 0.0264714018696 0.00575087913945
-0.0733430013061 0.0064079453191 0.00579132298351
-0.0733430013061 0.00918355232842 0.00849951705349
-0.0733430013061 -0.00940292891267 0.00562412530484
-0.0733430013061 0.041624148809 0.0134203353958
-0.0733430013061 0.0372779404351 0.0103466566106
-0.0733430013061 0.0238375187042 0.00993984155112
-0.0733430013061 0.0105681229195 0.00583219615202
-0.0733430013061 0.0435064506132 0.0102966194486
-0.0733430013061 -0.0056293164775 0.00613132036507
-0.0733430013061 0.017037508969 0.00933404480211
-0.0733430013061 0.0319795205345 0.00822201572041
-0.0733430013061 0.0404666113248 0.00498729902245
-0.0733430013061 0.0341383243523 0.00621322606543
-0.0733430013061 0.0292020929355 0.00712681908454
-0.0733430013061 0.0284389906028 0.0108761763803
-0.0733430013061 0.0162209073904 0.00640938537692
-0.072539969425 0.0450211353259 -0.00527852869927
0.0657680908346 -0.0390214801711 -0.0266172102129
0.05070425784 -0.0187248466042 -0.0270754178697
0.0504794782808 -0.0151046600807 -0.0270864453925
0.0483540363003 -0.0210560635967 -0.0271399617426
0.0684478684541 -0.0409301940483 -0.0265378472515
0.0450516638942 -0.0215676779228 -0.0272341458108
0.0507955235963 -0.0245054217084 -0.0270654954353
0.0441779523281 -0.0159578983312 -0.0272663210743
0.0564112240774 -0.0289765658119 -0.0268985883597
0.0481929778571 -0.0176149687241 -0.0271489332444
0.0428301083365 -0.0241166052473 -0.0272947199374
0.0442625619373 -0.00730535576653 -0.0272748207958
0.0463298610829 -0.0123870731439 -0.0272090377103
0.0538371585742 -0.0230712661634 -0.0269799639511
0.0591195945827 -0.033328665337 -0.0268153179972
0.0491450040122 -0.0292655233032 -0.0271068787815
0.0523873309623 -0.031263160526 -0.0270112494364
0.0435174342941 -0.0115141167091 -0.0272909014959
0.054818283778 -0.0333418015137 -0.0269388170401
0.0469391145661 -0.0241717492475 -0.0271766568293
0.062450487328 -0.0346720694677 -0.0267179718
0.0555866592536 -0.0261539137074 -0.0269258318079
0.0585397629061 -0.0268921857193 -0.0268400984969
0.039336581225 -0.0112315852494 -0.0273160003126
0.0391574823873 0.000451837274248 -0.0273160003126
0.035883694016 0.00143644207535 -0.0273160003126
0.0331330720692 0.00287707511289 -0.0273160003126
0.0397722714245 -0.00348428454289 -0.0273160003126
0.0348787711043 0.00614598719268 -0.0273160003126
0.036355582579 -0.00333038106022 -0.0273160003126
0.0413202376221 -0.0155354835395 -0.0273160003126
0.0414052495248 -0.0206606036994 -0.0273160003126
0.0416193611068 -0.00605559212082 -0.0273160003126
0.0415321815729 -0.00941203820853 -0.0273160003126
0.0603233792926 0.0389988378663 -0.0266303732775
0.0448109042816 0.0182030918382 -0.0270664827858
0.0613684391918 0.033374076027 -0.0266679558588
0.0424156910505 -0.00201314084014 -0.0272958986101
0.0473619142222 0.0166062909824 -0.0270425789263
0.0527348297208 0.0326034093068 -0.0268077087842
0.0413448157972 0.0195401088136 -0.0271068965831
0.0583562443433 0.0290653098595 -0.026755218898
0.0496692206302 0.0224909596264 -0.0269511062506
0.0516675480188 0.0124299959273 -0.0270163509342
0.0658661728778 0.0416175563343 -0.0265204081524
0.0507359780097 0.0287903990264 -0.0268747058068
0.0633257458655 0.0357116760399 -0.0266156582059
0.052231420593 0.0239816145016 -0.0268976040547
0.0457292759719 0.0221139672292 -0.0270151235746
0.0465115662195 0.00443402810355 -0.0271716346775
0.0465672423395 0.026301516761 -0.0269623604862
0.0545325943333 0.018473678361 -0.0269148090203
0.0373490330974 0.0114032821525 -0.0272457296947
0.0400259507996 0.0248446589983 -0.027076565116
0.0495569725438 0.0254335332655 -0.0269247818783
0.0362067260269 0.0157396621891 -0.0272219181685
0.0547612437169 0.0218472554527 -0.0268791486215
0.0551045509021 0.0264537982878 -0.0268299783266
0.0395386616655 0.0282109738104 -0.0270519537849
0.0384210626069 0.0210044471886 -0.027137779454
0.0548868827715 0.0364880580765 -0.0267376794286
0.0506027348381 0.015705645391 -0.027001460824
0.0479051325124 0.0289344959502 -0.0269167471163
0.0479918817388 0.0124446370909 -0.0270725825222
0.0447981040864 0.029934941294 -0.0269548621437
0.0405932978575 0.0112869926477 -0.0271970830278
0.0426095478197 0.0272150760007 -0.0270143497035
0.0376991015046 0.00808685243592 -0.0272719700268
0.0349842200601 0.0195855871565 -0.0272040111531
0.0515703280325 0.0202129702881 -0.0269436619413
0.0579943009678 0.0352418294807 -0.0267019009983
0.0575992530113 0.0253945955588 -0.0268018141416
0.0344968499731 0.0229104786015 -0.0271797958721
0.0404187185089 0.00749475669292 -0.0272359044544
0.044260641632 0.00705852643409 -0.0271811412916
0.0440084665902 0.0125976564316 -0.0271322149496
0.0321123801356 0.0202044408623 -0.0272421562307
0.0432000322584 0.0236774056411 -0.0270390116
0.0539671434544 0.0298969671325 -0.0268146049069
0.0408182144814 0.0149446694436 -0.0271587721047
0.0316555887178 0.0139797127852 -0.0273084899733
0.0457533418145 0.0103342795658 -0.0271270273921
0.0576304196032 0.0323697003946 -0.0267348560253
0.0423377560363 0.00285333518516 -0.0272507111748
0.068678690273 0.0460043747274 -0.0264177194771
0.0577409401647 0.046463480278 -0.025961625932
0.0305959258843 0.0461231926979 -0.0263025759147
-0.0042239444307 0.0462737874418 -0.026155533936
-0.0548829194646 0.0458514567542 -0.0250776353463
-0.06737121371 0.0455576939878 -0.0248397410972
-0.064580055338 0.0457328982482 -0.0243343879395
-0.0177421591158 0.0462107352537 -0.0262191508546
-0.0303623935866 0.0462530861363 -0.0243006560255
-0.027585052028 0.0462216817034 -0.0251251569633
0.00556081676558 0.0464967688512 -0.0258906971615
-0.0222745841839 0.0463816613406 -0.0236293870979
0.0114140622223 0.0466282566801 -0.0248681982903
-0.0379475048426 0.0460526909639 -0.0260446235414
-0.0383313615329 0.0462655280431 -0.0230193976659
-0.0461618057149 0.0460526140714 -0.0249040706689
0.0719805151338 -0.0163890330092 0.0267752846848
0.0723271789086 -0.0131728596215 0.0249436627582
0.07226512404 0.00200879680746 0.0231278577231
0.0721069990274 0.0217403078902 0.0213308280528
0.0718493396901 0.00198881126509 0.0261521739002
0.0719743820911 0.0190713158208 0.0226930002265
0.0719336578171 0.0070114558075 0.02478955164
0.0723724186832 -0.00201271430017 0.0229486330407
0.0720729918617 0.015303825006 0.0225389578247
0.0719420728606 0.0100338864972 0.0242771320751
0.072190324618 -0.00925787201333 0.0253535898566
0.0723710180003 0.0260504538773 0.018768775606
0.0723176283863 -0.00658276394318 0.0240291131043
0.0724642997788 -0.0325645577732 0.0255303313986
0.0725198504607 -0.0273695599344 0.0246430494459
0.0727746076944 -0.0335280340213 0.0217238619262
0.072454616171 -0.0357206145521 0.0257713132796
0.0728652583451 -0.0304620061843 0.0204834888408
0.0727345779264 -0.0380395046614 0.0223926895677
0.0730580901452 -0.0365041486414 0.0183268376191
0.0730322328152 -0.033284407744 0.0185236173146
0.0732010013845 -0.042162315453 -0.00239632455461
0.0728915202671 -0.0441860710013 -0.0102199303047
0.0725410686158 -0.0232339959543 -0.0220866943613
0.0726340316173 -0.0298154376216 -0.0195624180148
0.0725713431686 -0.0345103679948 -0.0217583478373
0.0725291100856 -0.0416367511404 -0.0234519963673
0.0727453224793 -0.0367305615534 -0.0164883703668
0.0728540254115 -0.0300923368033 -0.0127618297772
0.0724883666881 -0.0327538934739 -0.0242340637206
0.0728815805693 -0.0346831121529 -0.0121563210647
0.072529907812 -0.0189486632158 -0.0222008065323
0.0727348854867 -0.0231082957891 -0.0160753211858
0.0724811262541 -0.0289744278231 -0.0242540664075
0.0726405900792 -0.0223807605737 -0.0189573276423
0.0728114390954 -0.039723009148 -0.0146017989132
0.0731082574787 -0.0359866354609 -0.00520418277438
0.072480613377 -0.0153263397147 -0.0235321654943
0.0729589701641 -0.0321650251647 -0.00962261586325
0.07294400746 -0.0382802123693 -0.0104167461965
0.0730382853282 -0.0390915395181 -0.00753981275664
0.0731702770989 -0.0391395677255 -0.00345321453225
0.0728960494707 -0.0410434445602 -0.0120518923999
0.0726532511462 -0.041499569019 -0.0195986063352
0.0724518607477 -0.0262220100925 -0.0250119410674
0.0730411417084 -0.033801497333 -0.00716535034606
0.0727217882341 -0.0395345623583 -0.0173690562935
0.072563242939 -0.0373211994177 -0.0221612467466
0.0730945171985 -0.041337033375 -0.00591909850239
0.0726622858329 -0.0344360162044 -0.0189368631249
0.0725892770371 -0.0167608597108 -0.0202432391105
0.0727854249494 -0.0276499456316 -0.0147550874907
0.0727665294903 -0.0335281267048 -0.0156582451317
0.0725949811204 -0.0267378120342 -0.0206058581837
0.0733284507292 -0.0419207928851 0.0025503777643
0.0237612117912 0.0444461785519 0.027198825831
-0.00515408742397 0.0453877761073 0.0268280520077
0.00749261233715 0.0451401253325 0.0269720179147
-0.048452758265 0.0450048323139 0.0264715966942
0.00377716518172 0.0447291658885 0.0269833444828
0.0208750860353 0.0448070705254 0.0271322298334
0.030341729708 0.0445679645238 0.0272439997643
0.00868634195842 0.0349354723362 0.0272439997643
0.00449193173147 0.035192721962 0.0272439997643
0.0280763699426 0.0424131210052 0.0272439997643
0.0387535836439 0.0435550175728 0.0272439997643
0.0146829454862 0.0381167893589 0.0272439997643
0.0224942799477 0.0418319694258 0.0272439997643
0.0355688179395 0.0441653048111 0.0272439997643
0.018393124902 0.0412594074361 0.0272439997643
0.0330076818213 0.0419538734731 0.0272439997643
-0.0164023562575 0.0341824499911 0.0270839994363
-0.00759522293725 0.0315183084044 0.0272435669878
-0.0125138443386 0.0349661919089 0.0271023675818
-0.0515923078312 0.0408595920322 0.0265518644544
-0.0153145218967 0.0289522960568 0.0272339467142
-0.00886541581507 0.0341057884996 0.0271620061028
-0.0273802714246 0.0317481494904 0.027038033524
-0.0061889769304 0.042082202963 0.0269770241452
-0.0588506960498 0.0447266927568 0.0263759411061
-0.00966227426199 0.0368398648689 0.0270813207074
-0.044415662132 0.0383439913499 0.0266910500869
0.000209517311558 0.041827800715 0.0270482788569
-0.0234749404378 0.0260209463268 0.027229588332
-0.0185364285705 0.0292062172471 0.0271947235914
-0.0464538152454 0.0412533953081 0.0265931938807
0.000993008116122 0.0349278411589 0.0272395306701
-0.0434858609612 0.0413373476954 0.0266208788517
-0.0351138987754 0.0321526147295 0.0269493335085
-0.0314489346479 0.0426749199543 0.0267066628582
-0.0127459266446 0.0430195949035 0.0268860229892
-0.0279680655961 0.0360458526222 0.0269179047341
-0.0286081337377 0.041303222273 0.0267717475603
-0.0380060803537 0.0336366355457 0.0268807461151
-0.0453054476235 0.0441535382708 0.0265277026979
-0.0201419612517 0.0433390261426 0.0268029854132
-0.023668932965 0.0382287628436 0.026903231298
-0.0263663766823 0.0447412273286 0.0267029845737
-0.0150311195869 0.0407238219566 0.0269239953107
0.00244947751662 0.0379229800892 0.0271746206831
-0.020690633153 0.0384151644417 0.026928298137
-0.0210840281408 0.0326633879505 0.0270771764007
0.0104244789497 0.039481844149 0.0272135815695
-0.0176130692626 0.0375923858294 0.0269811827435
-0.0247377653961 0.0293167762897 0.0271292785371
-0.036105915875 0.0402419761559 0.0267243735262
-0.0404426217341 0.0367094038631 0.0267745331794
-0.00881659730701 0.0407968281993 0.0269846953387
0.00345808658681 0.0416757165882 0.0270850645844
-0.0340309936707 0.0350957590683 0.0268820398008
-0.021780992755 0.0296015030486 0.0271515155688
-0.0321127440783 0.0327232483367 0.0269644204133
-0.0380369706186 0.0435683760892 0.0266165158827
-0.0114148919715 0.03197209782 0.0271930074925
-0.00245379248072 0.035385143776 0.0271926361908
0.0131683865502 0.0430896336826 0.0271453683417
-0.00562881562009 0.034582696252 0.0271819568124
0.00694957743906 0.0389810544617 0.0271918634936
-0.0123003388209 0.0400390473718 0.026969717255
-0.0322349408868 0.0376389172288 0.0268325632955
-0.0209424668318 0.035367412577 0.0270067484961
-0.0170205052826 0.0433677446815 0.0268336853675
-0.0247596151758 0.0416911393985 0.0268002309488
-0.0294178792752 0.0288350729396 0.0270949051882
-0.0389812674824 0.0391593817665 0.0267241591436
-0.00379268525401 0.0398743869623 0.0270598467635
-0.0729169396226 -0.0315977965748 0.00470495552182
-0.0729434276526 -0.0290350383947 0.00895574243139
-0.0727535407757 -0.0343923518775 0.00741116698395
-0.0727873725305 -0.0351385130921 0.0039061709097
-0.0724591451474 -0.0406592870455 0.00954851947774
-0.0726608025014 -0.0375358308196 0.00548533225656
-0.0726241188743 -0.0359238056077 0.0110705964637
-0.0731104194461 -0.0260307690529 0.00651958445525
-0.0727710835283 -0.0323106079687 0.0110809772468
-0.0731200940411 -0.0269332546377 0.00398554859059
-0.0724889814415 -0.037179627895 0.0156546311228
-0.0725358341077 -0.0418929331062 0.00262092129774
-0.0726126844518 -0.037365723888 0.00848959779413
-0.0724091269526 -0.0426587567523 0.0071282383224
-0.0718329319654 -0.0438306548149 0.021886879836
-0.0721840049261 -0.042898337446 0.013379706232
-0.0721260489895 -0.0411461583625 0.0190208944808
-0.0724082278086 -0.0396525234624 0.013837512713
-0.0719741890489 -0.0439292002609 0.0174110849939
-0.0722829286694 -0.0460119561494 0.00347778895926
-0.0725220398432 -0.0276535729473 0.0169788510982
-0.0728559870576 -0.0165343038751 0.0147293077881
-0.0724372798574 -0.0335466895203 0.0171309582833
-0.0728316772598 -0.0130369195952 0.0154804903326
-0.0723631579327 -0.0246870579454 0.0191752878361
-0.0724323204 -0.0306795036737 0.0175779581264
-0.0720839644346 -0.0319069019795 0.0213391964709
-0.0722527024899 -0.0277873521679 0.0199981061571
-0.071946772587 -0.039715777603 0.0218213145015
-0.0727278014719 -0.0206806589885 0.0156094040262
-0.0721880427485 -0.036710509497 0.0195102479457
-0.073320622813 -0.0180818261903 0.00613595253177
-0.0732432108785 -0.00328899856917 0.0117758757569
-0.0731751142267 -0.0225029479715 0.00752306044468
-0.0733030687586 -0.0127084770306 0.00799210345853
-0.0729900272291 -0.0244714565088 0.0103325240747
-0.0731419330835 -0.00811081444843 0.0122425339522
-0.0728432189059 -0.0277321396794 0.0120750988669
-0.0727337236241 -0.0261285663755 0.0145285885707
-0.0730188963524 -0.0182785820139 0.0115771578009
-0.0726881124873 -0.0294346204839 0.0144143769659
-0.0731605831087 -0.0164393929607 0.00952147294823
-0.0726655384283 -0.0326788756281 0.0138980986556
-0.0237059226589 -0.0454896384013 -0.0267018472528
-0.00174072148115 -0.0453086139555 -0.0267361140034
-0.0372955697229 -0.0456944766251 -0.026584607336
0.0510959783496 -0.0452268643116 -0.0264526537926
-0.0602735796818 -0.0457480828711 -0.0266892040824
0.044028737842 -0.0452629629195 -0.0264645371656
-0.0538959257742 -0.0454664110085 -0.026936159416
0.0650829510252 -0.0450793919243 -0.0259277412153
0.0327289420542 -0.0457464883971 -0.0254369107112
0.0294249117421 -0.0458187335133 -0.0252674079292
0.00254130461981 -0.0457478218845 -0.026164089616
-0.0657129037743 -0.0460680383863 -0.0263869440845
0.0361681525338 -0.0454352234777 -0.0263000464755
0.0214731708195 -0.0458046308344 -0.0258711409115
-0.0296191167307 -0.0460626962198 -0.0260088132354
-0.0129570786509 -0.0460745252603 -0.0258115673849
0.00695375291002 -0.0458924079521 -0.0258873460659
-0.0186562108957 -0.0445954812529 -0.0271858284148
0.0589988810754 -0.0449232051976 -0.0264644543697
-0.0052246123417 -0.0443683346494 -0.027145878374
0.0688953231941 -0.0443188104129 -0.0264510877197
0.0468207559315 -0.0443766170593 -0.0266522927088
-0.0328009299565 0.0375009448745 -0.0273160003126
-0.0547623587661 0.0439656818626 -0.0273160003126
-0.0195084942965 0.0328473852811 -0.0273160003126
-0.0241798291315 0.0345975157954 -0.0273160003126
-0.0135219717306 0.0320772236153 -0.0273160003126
-0.0622182321679 0.0436267008069 -0.0273160003126
-0.0038117688024 0.0288059787963 -0.0273160003126
-0.050264491883 0.0410378056402 -0.0273160003126
-0.0462792384825 0.0397681123937 -0.0273160003126
-0.0585243929521 0.0445491662822 -0.0271508244507
-0.048759451858 0.0450100094295 -0.0269202745738
0.046096218748 0.0457858495853 -0.0265285400701
-0.0132080191412 0.0455818792745 -0.0266329608869
-0.0516823645203 0.0443375267987 -0.027256660701
0.00859192359322 0.0451761707867 -0.0268348953326
-0.0012334482263 0.0459525654596 -0.0264471427591
-0.0341872564942 0.0449839501473 -0.0269327603251
0.0231213223335 0.0454790477533 -0.0266828729878
0.0520726994235 0.0459647493037 -0.0264388528111
-0.0255681905252 0.0450760213462 -0.0268863739121
-0.0216961233289 0.0455635793745 -0.026642460003
0.0371099254295 0.0456020331732 -0.0266208095675
0.0425568117158 0.0459726581323 -0.0264352912881
-0.00986098602857 0.0451801914327 -0.0268336463162
0.0574821820115 -0.0457983248348 0.0189628197213
0.0648060587981 -0.0458423543624 0.0127822774056
0.0636275055625 -0.0457394972647 0.0165967351996
0.0618102333399 -0.0459512240424 0.0115745950993
0.0577815013583 -0.0459703965068 0.0136967647239
0.0616803141598 -0.0457193624059 0.0184881246828
0.0491161422308 -0.0459535258079 0.0199722552162
0.0658389882318 -0.0455438440445 0.0208827176081
0.0549715975334 -0.0459334959612 0.0166571253191
0.0626688412615 -0.0460423425194 0.00831913204171
0.0589043333072 -0.0458543018909 0.0163662381655
0.0527020399795 -0.0458903082084 0.0194422592197
0.067395676268 -0.0453985864708 0.0241215296689
0.0338841223906 -0.046526148313 0.00957622340534
0.028767810367 -0.0465965226682 0.0103061056444
0.0188121994285 -0.0468380834043 0.00773902294858
0.0369499077445 -0.0464917053779 0.00884439022328
0.047144934219 -0.0461507824401 0.0150386690879
0.0320360915788 -0.0466343865934 0.00668349824578
0.0421713938102 -0.0463457194542 0.0109260512435
0.0471977327119 -0.0462429877423 0.0114893625451
0.0443266542997 -0.0462531041201 0.0130184748609
0.0511926368917 -0.0461230160075 0.0133975625531
0.04301068166 -0.0464127282526 0.00781253120214
0.0255019985201 -0.0466536727141 0.0103059269726
0.0154532861435 -0.046900704123 0.0075924353706
0.0228314708831 -0.0467416177071 0.008735119016
0.0419284543434 -0.046257743114 0.0144409862356
0.0577162452738 -0.0461156283683 0.00932865507058
0.0333306612638 -0.0464547450878 0.012666610244
0.0534147280916 -0.0462114876745 0.00854389353944
0.0458803576298 -0.04638233527 0.00705712902876
0.0433961355289 -0.0461642028076 0.0170271948192
0.0367885168959 -0.0463419028598 0.0146612398016
0.049373166964 -0.0462597439435 0.00940000290865
0.0552182196456 -0.0461143778863 0.0110421958199
0.0382746780718 -0.0463973780876 0.0115558964241
0.0464464081619 -0.0458377900605 0.0229510496573
0.0319190872762 -0.0460123378843 0.0240996124068
0.0374372971523 -0.0460041346908 0.0226638128759
0.0649136038558 -0.0453617595727 0.0258632247496
0.0515122002906 -0.0456798054946 0.0242213345411
0.0560454642771 -0.0455213661772 0.0256516220828
0.0568813586317 -0.0456735535039 0.0227945611313
0.0610005798875 -0.045561040457 0.0235530655224
0.0409590533142 -0.045867338307 0.0240108173197
0.0427690681262 -0.0459774267384 0.0215996423805
0.0369320844537 -0.0462131899341 0.0184026224392
0.0337693718767 -0.0461096067878 0.0218288197289
0.0186196940312 -0.0465703784784 0.0149376598205
0.0258588252509 -0.0465494540723 0.0133784904058
0.0216747171261 -0.0464084743827 0.0180072283259
0.0258165678227 -0.0462510456184 0.0206572361424
0.0323799715812 -0.0463511615487 0.0163436634664
0.01755797112 -0.0467533427761 0.0107856250553
0.0310007974896 -0.0462112254833 0.0201454286626
0.039645254101 -0.0461954398447 0.0180595266317
0.0282772862996 -0.0463695797077 0.0170675692412
0.0213412919949 -0.046677454913 0.0115524522178
0.0642185876843 -0.0423555579597 0.0272439997643
0.0537244991413 -0.0405953277523 0.0272439997643
0.0216952326431 -0.0346968219535 0.0272439997643
0.0180461942658 -0.034199357846 0.0272439997643
0.0564649737538 -0.042389690531 0.0272439997643
0.0602834776722 -0.0420406811472 0.0272439997643
0.0281562201363 -0.0356591474347 0.0272439997643
-0.0218612862113 -0.0298348351458 0.027050780531
-0.000810688267437 -0.0317103824521 0.0271724585931
0.0307582042825 -0.0439427830426 0.0269495278011
0.0452644254421 -0.0415571661288 0.0271916756506
0.0365276706576 -0.0433393070115 0.0270309728861
-0.0145193232014 -0.0282404059822 0.0271899938037
-0.0180599453486 -0.0450313527345 0.0264332985889
-0.00109768182317 -0.0404575156467 0.0267932380414
-0.022186475382 -0.0263031685872 0.0271996505731
-0.0227310371662 -0.032891776632 0.0269108526492
-0.0227016686995 -0.0400083347514 0.0266048509395
0.00226185309524 -0.0326580333324 0.0271612153929
-0.000336137496538 -0.0367488169859 0.0269601760098
0.0355500057888 -0.0405437540655 0.0271418884445
0.0222677042854 -0.0440724861127 0.0268623107419
0.04124970298 -0.0425670050717 0.0271096130204
-0.0214705052697 -0.0359739160813 0.0267903226377
0.00105132444227 -0.0427008068572 0.0267173531217
-0.00403242808655 -0.02933411698 0.0272437523198
0.0190217829198 -0.0416458890722 0.0269355381484
0.0198348672042 -0.0381325252419 0.0270945647998
-0.0129877597054 -0.0342374292663 0.0269466182717
-0.0179651128903 -0.026624961654 0.0272263889277
-0.00964933479099 -0.032797532467 0.0270406873337
-0.0069637511867 -0.0436179364334 0.0266008177504
0.0521987955928 -0.0431446831938 0.0271900246382
0.012643177427 -0.0369568128196 0.0270760183791
0.00668845918126 -0.0323983726706 0.0272149518743
-0.0137656018379 -0.0315517534802 0.0270547261767
-0.011904904157 -0.0369571810394 0.0268399764542
-0.0106260739532 -0.0455289260552 0.0264833594574
0.00774422553047 -0.0401709212109 0.0268905861561
-0.00464680242326 -0.0390272365574 0.0268206704697
0.00971207973283 -0.0375774141121 0.0270211267371
-0.0171770470473 -0.0331521093683 0.0269530491601
-0.0091914943116 -0.0356000069045 0.0269244758539
0.00780286030629 -0.0447312541902 0.0266948812495
0.00304156532605 -0.0373195611096 0.0269680882913
-0.00760461923233 -0.0290718737042 0.0272206927314
0.0127954269376 -0.0397230518172 0.0269584281979
-0.011801823736 -0.0408300930676 0.0266742842684
-0.0152887229396 -0.0370678291354 0.0268026794519
0.0337280529826 -0.0380677254647 0.0272309345396
0.0282273061851 -0.0397595540722 0.0271052323813
-0.0204078828526 -0.0420660702584 0.0265383440429
0.0484229618941 -0.0415362241377 0.0272229458053
-0.0152155213274 -0.0424967864986 0.026569730545
0.00655367631419 -0.0357914614604 0.0270676234132
0.0158307757443 -0.0419101925585 0.026893481944
0.0108970450626 -0.041955339886 0.0268441018114
0.0053245781054 -0.0431217557257 0.0267403229115
0.0233031997525 -0.0397369487292 0.0270588607396
0.0260168840749 -0.0420572796344 0.0269850894613
-0.0105823229493 -0.0301969107051 0.0271436429582
-0.00471401160942 -0.0355102222732 0.0269713903421
-0.00878744979727 -0.0409567233653 0.026697817072
-0.00484752935091 -0.0320666191068 0.0271183131831
0.0100868492199 -0.0325816370273 0.0272397395045
0.00200704900311 -0.0400051172947 0.0268425599824
-0.0244577046554 -0.0282376991946 0.0270945542703
0.0311291263503 -0.040972737211 0.0270809196836
-0.0180841229713 -0.0387692740988 0.0267025749211
0.0728133804868 0.0292704419217 0.0131861596044
0.0729595908459 0.0180907328371 0.0137486671217
0.0725242112801 0.034772051796 0.0160255284159
0.073302086835 0.00555357656877 0.0118182682254
0.0732257914506 0.0192129316742 0.0096627799127
0.0732206886867 0.0117855972413 0.0115031917693
0.0728880482831 0.0245070462879 0.0132483543852
0.0733430013061 0.00339815872687 0.0101355142728
0.0733430013061 0.0082480768501 0.0103602544628
0.0733430013061 0.015750119028 0.00870120627642
0.0733430013061 -0.000574350346473 0.010568455425
0.0733430013061 -0.0220488226394 0.0137352938387
0.0730024655416 -0.00335900328213 0.0165531247439
0.072673978157 0.0180579736415 0.0169168958701
0.072581669424 0.00835937633554 0.0193657845432
0.0724607117241 0.0197846370783 0.0189713411889
0.0729999252323 0.011204314187 0.0144062574667
0.0726847346348 -0.00221786403077 0.0198276038207
0.0730281186842 0.00799846245051 0.0145792392363
0.0728170036169 -0.00612419250912 0.0189767780996
0.0726351788993 -0.00812371381019 0.0212466768116
0.0724627416307 0.0151844657164 0.0196361719314
0.073224136389 0.0004143614069 0.013586363908
0.0727293623993 0.0132828428313 0.0170293780999
0.0725987509533 0.00257335799707 0.0200444801971
0.0728821001046 0.00183970105101 0.0170819303053
0.0725391391054 -0.0164212501648 0.0235268292775
0.0725046533757 0.011471194111 0.0197361805461
0.0729783188055 0.0147998930336 0.0141036696376
0.0725641705876 0.00572240001192 0.0199492278746
0.07311557183 0.00345617761639 0.0143092626935
0.072851543794 0.0212648882198 0.0145129017726
0.0725831747712 0.0234153670535 0.017101494283
0.0726040118268 0.0313130911709 0.0156963897564
0.0726347842785 0.0275900708274 0.0159186268833
0.0728742137894 -0.0248841269164 0.0200502954312
0.0730204202568 -0.0114857219565 0.0171868347803
0.0733080542081 -0.00907283589852 0.0133084117423
0.073314004184 -0.0333877346308 0.0150137792926
0.0731250476351 -0.0190632969638 0.0163957028293
0.0731156024196 -0.00663553476958 0.0156064750052
0.0730321847896 -0.0276740341073 0.0182218102218
0.0730368385062 -0.0159794553452 0.0173048736923
0.0727499152311 -0.0143696811184 0.0208793468136
0.0730492091723 -0.0218317931216 0.0175745678935
0.0733291295441 -0.017685518804 0.0136683788869
0.0732379135421 -0.0117333202706 0.0144060355035
0.0728372413679 -0.0175453274615 0.019988267261
0.0725563972876 -0.019655143977 0.023757099998
-0.0719387299642 0.00542802574924 0.0259521976704
-0.0715947942852 -0.0214410125084 0.0262129720362
-0.0715562132812 -0.0401694030158 0.025642361299
-0.0717158145198 -0.0305479259497 0.025481527011
-0.0715552442442 -0.0445824726815 0.0254815266958
-0.0729254958524 0.0404850037533 0.0191864477073
-0.0726640441709 0.0402633446787 0.0225451642609
-0.0725486940928 0.0371112925511 0.024026999125
-0.0732111145648 0.0442897045095 0.0155172714686
-0.07196371105 -0.0121251674023 0.0251514938434
-0.0723386082175 0.0221405878346 0.0253396229215
-0.0721004430547 -0.0224432159318 0.0223550174686
-0.0728158404222 0.011772647735 0.0187995601122
-0.0731870239178 0.00536357772839 0.0139206281331
-0.0720826855913 -0.0194250615438 0.0229289336691
-0.0725962717304 0.0177863050435 0.0219647172727
-0.0728546381361 0.00844329271214 0.0179556270389
-0.0729300569399 -0.00151755122493 0.0158769794169
-0.0728060085346 -0.00513723422329 0.0167839825314
-0.0721840946118 -0.00882416957667 0.0231470990692
-0.0723356295195 0.0119753225662 0.0240957935928
-0.0718707756324 -0.0356130216146 0.0232220164415
-0.0724581974784 -0.00245006310475 0.0209389943651
-0.0721079932889 0.00264541738469 0.025422701414
-0.0724918052487 0.00882419476973 0.0219859037628
-0.0721685804969 -0.00274515236833 0.0240807662827
-0.0723770450846 0.00350191779884 0.0225771527568
-0.0726167485618 0.0131325728014 0.0211555624129
-0.0724858313073 -0.0128368722508 0.0193313419356
-0.0725929285852 0.0205952215075 0.0223541468278
-0.0724230080149 0.0152222828119 0.0235444730369
-0.0728425719744 0.00461079913848 0.0176067918944
-0.0723831027637 -0.00653631149909 0.0212500931868
-0.0729076399133 0.00198866032052 0.0165633276089
-0.0728221426695 -0.00841277245093 0.0161955624545
-0.072848269464 0.0153829314036 0.0188969883709
-0.0724850899216 -0.0195525671969 0.0184961425914
-0.0722019905656 -0.014496552492 0.0222383527661
-0.0724510700163 -0.0168373714996 0.0192105102839
-0.0725066099644 0.000791277224932 0.0208146579674
-0.0731220185635 0.00974110814036 0.0151838422882
-0.0719827985182 -0.0261709923594 0.0231781578419
-0.0730828930885 0.0150785244221 0.0160290711897
-0.0732049633727 0.018453973346 0.0145358822119
-0.072617611582 0.0320864658862 0.0230484278792
-0.0733362377332 0.0208601847073 0.0128757095845
-0.0729891652945 0.0334062758733 0.0181054738959
-0.0730078718116 0.0279599106058 0.0176115587964
-0.0729098437485 0.0217373238691 0.0186545466672
-0.0732905414027 0.0138115348214 0.0131775208399
-0.0730855647096 0.0382430848019 0.0170228097857
-0.0728123652255 0.0312271545578 0.0203885794114
-0.0726980649198 0.0251991098475 0.021659261655
-0.0725866807199 0.0292703869302 0.0233396203548
-0.073219049942 0.0327492076535 0.0149817040503
-0.0731585730065 0.0357368221769 0.0159286107127
-0.0729723277188 0.0186784563411 0.0176774552554
-0.073155863853 0.0415165966764 0.0162219999774
-0.0732721806926 0.0278609549441 0.0140492006444
-0.0727472297352 0.0356894651139 0.0214637492303
-0.073134704471 0.0228658631092 0.0156777788771
0.0589226323243 -0.0383069621528 -0.0267670812798
0.0464507876522 -0.0286069465619 -0.0271780160827
0.0502906966584 -0.0361884699027 -0.0269524372978
0.0411729205565 -0.0272371488241 -0.0272929547859
0.0397682538561 -0.0323713497046 -0.0272050048063
0.0566387182949 -0.0363923341649 -0.0268453155241
0.0476876550858 -0.0324964739297 -0.0270741516057
0.0431432961598 -0.0307597508827 -0.0271851303293
0.00685636130437 -0.0364780954338 -0.0273160003126
0.0042725591893 -0.0377051889961 -0.0273160003126
0.0155463901645 -0.0350303413907 -0.0273160003126
0.0355455006044 -0.0300465181127 -0.0273160003126
0.0210982816693 -0.0328884686467 -0.0273160003126
-0.00755555390697 -0.0402935051274 -0.0273160003126
0.0273746962736 -0.0306824212749 -0.0273160003126
0.0303898370621 -0.0291176139108 -0.0273160003126
0.0167505607501 -0.0400794332476 -0.027116682822
0.00220604125389 -0.0428473057119 -0.0271425561714
0.0480410236503 -0.0408266206118 -0.0267904245464
0.0197325911772 -0.0437070179416 -0.0269419972579
0.031751279003 -0.0387936509942 -0.027026651606
0.0441752118042 -0.0372874906847 -0.0269699015392
0.0246932864347 -0.0341054240995 -0.0272827310527
0.0404559385637 -0.0357436235095 -0.0270674309529
0.0266950579495 -0.0367612548024 -0.0271565569481
0.00915956051765 -0.0387445720694 -0.0272424100687
0.0411452497767 -0.0388742505003 -0.0269345057362
0.0512958711301 -0.0412819993148 -0.0267412387428
0.023636226665 -0.0371622700325 -0.0271693100728
0.0372079516966 -0.0418233183235 -0.0268526910173
0.0134612982132 -0.0376096249479 -0.0272475291047
0.00958891443241 -0.0440369441154 -0.0270246618821
-0.0101590668741 -0.0434866866728 -0.0272337467774
0.0357687669525 -0.035332897148 -0.0271283674077
0.0127070462435 -0.0437125264589 -0.0270082549073
0.0632926844808 -0.0425651450066 -0.0265759090308
0.0544839355319 -0.0431756815481 -0.0266346117867
0.0329480338813 -0.042819497335 -0.0268527791715
0.0526765784802 -0.0382015898251 -0.0268525485734
0.0347224399858 -0.0385611212281 -0.0270079252851
0.0440136652438 -0.0401671448399 -0.026855160972
0.0169530168257 -0.0434809698901 -0.0269774262537
0.00639410828837 -0.0415358512925 -0.027155877507
0.0570999669575 -0.0409528834486 -0.0266996052067
0.03294434915 -0.0328450317254 -0.0272555441176
0.059900567385 -0.0419614441436 -0.0266323824358
0.04672743277 -0.0356067099354 -0.0270136142234
0.0325656881894 -0.0357254107538 -0.0271428287539
-0.00285494655985 -0.0402283117019 -0.0272961911551
0.000631542910711 -0.0403834418676 -0.0272569362782
0.040834356513 -0.0429523854488 -0.0267727883929
0.0257025149329 -0.0400681503882 -0.0270324294394
0.0298977195641 -0.0426625519818 -0.026887979979
0.0379325187064 -0.0370759314492 -0.0270375157097
0.0441726929488 -0.0343171052687 -0.02708985797
0.0291770179498 -0.0342746520845 -0.0272334704382
-0.0158229306991 -0.0439018099159 -0.0272705807084
0.0200371642917 -0.0390358685739 -0.0271277180194
0.0228645650965 -0.040804841711 -0.0270295391534
0.0711372169527 0.0303779043064 -0.0263820592021
0.0706488959522 0.0412607887632 -0.0261796094446
0.0720885162535 -0.0152328590088 -0.026337264892
0.0719332199757 0.001049431446 -0.0261660337847
0.0717155302185 -0.00998982651783 -0.0264276276586
0.0615762657277 0.00816673936406 -0.0267340147821
0.0662523133128 -0.00843688697184 -0.0265960052841
0.0568237391421 -0.0218843088366 -0.0268930446353
0.0546512615929 0.000452817915732 -0.0269513164678
0.0587870849958 -0.00957364505398 -0.0268273883708
0.0617641412463 0.0038819294766 -0.0267299163141
0.0644946586581 0.00950213462502 -0.0266432035834
0.0584248836594 -0.00659313249624 -0.0268374009294
0.0561583125874 -0.0108038631721 -0.0269091984254
0.0576812515876 -0.00261619278434 -0.0268588142101
0.0708286512373 -0.0333761145938 -0.0264644131288
0.06302395977 -0.00158776190855 -0.0266931322446
0.0680832438524 0.00787494009245 -0.0265328453019
0.0602029414084 -0.020777628296 -0.0267880702608
0.0710511868513 -0.0183698939761 -0.0264515290985
0.0630499660992 -0.0164244610951 -0.0266982601233
0.0686965183767 -0.0218893571418 -0.0265257753912
0.067982508694 -0.00454083557981 -0.0265409257979
0.0674084893699 -0.02811750858 -0.0265681094256
0.0592436671623 -0.0237468794545 -0.0268189315814
0.0691845198889 -0.0249234843226 -0.0265118927811
0.0691901460449 -0.0117306359185 -0.0265064436693
0.0722298451051 -0.0426537011096 -0.0264247783314
0.0711632567223 0.0183505867088 -0.0264333799007
0.064746587739 -0.0261352987276 -0.0266496598279
0.055134439282 -0.00575835627631 -0.0269388533985
0.0624360359273 0.0113774262517 -0.0267061349724
0.0653865624447 -0.0219071740955 -0.0266281723323
0.0680143861068 -0.036537585239 -0.0265527333936
0.0687055450049 -0.0145129210996 -0.0265225467435
0.0646177451097 -0.0109534008999 -0.0266475750507
0.068945598766 0.00527278120138 -0.0265072097647
0.0581617217027 0.00242998191861 -0.0268419337203
0.0613104380599 -0.0290659388362 -0.0267571251057
0.0655433260321 -0.0345054952781 -0.0266283603797
0.0640864857126 0.00656436502976 -0.0266570046086
0.058668920559 0.0052041466034 -0.0268251348547
0.0700941641334 -0.0018759009019 -0.0264745385216
0.0712352680928 0.0215059193607 -0.02642989067
0.0714807980673 -0.0303616722844 -0.0264430343848
0.0540755340972 -0.00264794522181 -0.0269703657792
0.0626483251657 -0.00526383812037 -0.0267062219393
0.0486483288086 -0.00118113320938 -0.0271376638627
0.0627726816278 -0.0226687657775 -0.0267093343548
0.0463811649122 -0.00424588323999 -0.0272090214843
0.0719448501541 -0.0213518969493 -0.0264250769491
0.0575591869486 -0.0191988309786 -0.0268692206023
0.0696298563999 0.0156250987741 -0.0264819037079
0.0659148431145 -0.014394920876 -0.0266088268309
0.0586578076186 -0.0155310119822 -0.0268337694368
0.0670692751517 -0.0318907532782 -0.0265801113482
0.0541835079154 -0.0159752329036 -0.0269723545564
0.0526701622063 0.00310486590466 -0.0270115391772
0.0673409398272 0.0127999712053 -0.026553838413
0.0513487116001 -0.00361510849111 -0.0270551037238
0.0615915505563 -0.010636448302 -0.0267410602927
0.0649036841878 0.00059916699305 -0.0266341106247
0.0712870958194 0.00789518646346 -0.026433729598
0.0517588388168 -0.00833054475881 -0.0270443023289
0.0539715415427 -0.0193068184093 -0.0269802436135
0.0655092707164 -0.0177019994844 -0.0266226950768
0.0506667085971 -0.0119867462906 -0.0270795480744
0.047021664302 -0.00744525679956 -0.0271904875941
0.0707535287698 0.0109351175169 -0.0264490194068
0.0608861834114 -0.0139621994106 -0.0267642098229
0.0628381115309 -0.0196903602786 -0.0267061194577
0.0605177555537 -0.00345423519582 -0.0267714051904
0.0710174992298 -0.00663323788348 -0.0264478783637
0.0676041473655 0.00265392348337 -0.0265497532094
0.0612165741113 -0.00788533069994 -0.0267515597572
0.0558093855098 0.00858910190285 -0.0269117002972
0.0454280057366 -0.0014359005243 -0.0272354813323
0.0681995648814 0.0256277941703 -0.0265130182999
0.0611910086178 0.0272842755313 -0.0267112673507
0.057362408427 0.0186195740949 -0.0268426687321
0.0639755448026 0.0253366685821 -0.0266356150113
0.0651324131348 0.029844270635 -0.0265913486771
0.0657088785452 0.0373608102567 -0.0265565670575
0.0651134152046 0.0224233554222 -0.0266098124263
0.0581421178783 0.0118693850081 -0.0268364646686
0.0665231955863 0.0196686331384 -0.0265757803803
0.0681490396381 0.0305960874693 -0.026502481905
0.0607755892565 0.0233776082627 -0.0267326866859
0.0518559375667 0.00841836022732 -0.0270261983933
0.0670930170558 0.0334108366334 -0.0265261605342
0.0617596583123 0.0302634843453 -0.0266876652629
0.0502600787193 0.00574249193833 -0.0270787106567
0.0694915863324 0.0381225722599 -0.0264455692269
0.0683619515465 0.0227416474219 -0.0265152999714
0.0551739461394 0.0115595477034 -0.0269228661425
0.0617951277339 0.0187891315791 -0.0267143430101
0.0555390933145 0.0152200355243 -0.0269034918522
0.0577917171776 0.0222169484588 -0.0268215952791
0.048022616145 0.00153495226198 -0.027153435631
0.0593544099228 0.0154629926309 -0.0267928055136
0.0731910752332 0.0248363005312 0.00449307385489
0.0727161558902 0.0381384127004 -0.00268263108089
0.0730810295163 0.027756662937 0.00250883453389
0.0728549130621 0.0332164723645 -0.00123716505023
0.0731698795976 0.0177297460076 0.00109737072665
0.0728746894055 0.0106088288524 -0.00785564046152
0.0725890632001 0.0286974093221 -0.00870804306849
0.0727557778496 0.022131418261 -0.0069622742227
0.0724577454944 0.0333089565768 -0.0102583630976
0.0725024133259 0.0417499632752 -0.00660114158604
0.0730847043114 0.0239575363107 0.0011038595449
0.0728347980476 0.0274450891571 -0.00350015416614
0.0727265046797 0.030936932341 -0.00487594346155
0.072686063048 0.018760006764 -0.00960503661353
0.0729427194799 0.0302488284148 -0.000164294441088
0.0729203676634 0.0237091307156 -0.00271849457873
0.0728078244555 0.0166731456415 -0.00748303651153
0.0727244409657 0.00576926310901 -0.0127925668
0.0729685432458 0.027458067778 -0.000448491480232
0.0725286385149 0.0355858748312 -0.0079309866511
0.0727773620426 0.00118412845091 -0.0130203841023
0.0729541345644 0.0127773026976 -0.00536729860426
0.0726571054297 0.0158274235733 -0.011181863686
0.0730141285018 0.0188464462897 -0.00210249685768
0.0725590255566 0.00860061357983 -0.0156765031672
0.0726832663179 0.0254116852991 -0.007588872566
0.0731092871949 0.0206188018101 0.000620042759602
0.072502868057 0.0248653029355 -0.0118703903757
