0.0135153936076 -0.0129306575058 -0.00926597808
0.0129622530514 -0.00981800004187 -0.00427351426492
0.0132327043439 -0.0113292699986 -0.00695957470673
0.0131035426445 -0.0104646528868 -0.00897164858675
0.0139132059318 -0.0153233731674 -0.00930191467139
0.0140284629626 -0.0160083432968 -0.00316675142514
0.0142082098215 -0.0170511888428 -0.00945691392357
0.0132998620681 -0.0117811862692 -0.00459831963323
0.013923040532 -0.0153967091745 -0.00507763405989
0.0140303729815 -0.0160194247405 -0.00714135322667
0.0136970075702 -0.0140853234351 -0.00666339550013
0.0136503600535 -0.0138146864108 -0.00505306950413
0.0130607387227 -0.00495529891946 -0.00360531747421
0.0136052631993 -0.00277762584133 -0.00705599012923
0.0135129205888 -0.00314692423916 -0.00449312490502
0.013961519251 -0.00135287957879 -0.00311516061611
0.0132150361239 -0.00789956272867 -0.0114142189836
0.0142948862498 -0.00663196431381 -0.0116640440195
0.0132719004504 -0.0105546801655 -0.0109977190842
0.0140195162177 -0.0142885604214 -0.0114731721737
0.0136889397604 -0.0127457697786 -0.0112747282772
0.0137090118065 -0.00383066219375 -0.0112980452402
0.0164243032795 -0.00492332871989 -0.00329332515916
0.0164157770302 -0.0043378651387 -0.00608069436877
0.0164872877674 -0.00590307144373 -0.00714720063396
0.0165632061195 -0.00749425146693 -0.00879460884453
0.016477269182 -0.00596278464193 -0.00495902673186
0.0163207316301 -0.00231038004852 -0.00427706002347
0.0165207572145 -0.00718456069289 -0.00363515837116
0.0165860000998 -0.0103137069591 -0.00435064355683
0.0165860000998 -0.0139403847168 -0.00323385249428
0.0165860000998 -0.00895758763107 -0.00542051283407
0.0165860000998 -0.012077886651 -0.00319809682755
0.0165860000998 -0.00962565789011 -0.00765690520381
0.0165860000998 -0.0115797093053 -0.00722975144692
0.0165860000998 -0.0133862315219 -0.00550884746124
0.014757951039 -0.0113123319147 -0.011698000133
0.0148764157201 -0.00945748321083 -0.011698000133
0.0155796165983 -0.00782371078195 -0.011698000133
0.0147503438449 -0.0159100278198 -0.011698000133
0.0157404885188 -0.00344429802345 -0.0115503211598
0.0145633152086 -0.00180089226086 -0.0116857164748
0.0127349998802 -0.00724621554965 -0.00802201161153
0.0129493839209 -0.00556967544623 -0.00659785957978
0.0131989236367 -0.00454620413276 -0.00777717719673
0.0137532811148 -0.00221635252023 -0.00983542144499
0.0129721077201 -0.00581333626395 -0.0100722889635
0.0134198341458 -0.00368213458106 -0.00924080682433
0.0130582017328 -0.00183896393832 0.00833462763568
0.012334336036 -0.00392827063864 0.0106126350138
0.0134732693765 -0.0178100001067 0.00679801972534
0.0152762518817 -0.0178100001067 0.00581143377843
0.0136862972365 -0.0178100001067 0.00474674908312
0.0159605141179 -0.0158902583459 -0.00303400005214
0.0149934987456 -0.00608039964067 -0.00303400005214
0.0147796633621 -0.00377090386899 -0.00303400005214
0.0144385396819 -0.00811668951939 -0.00303400005214
0.0117720002308 -0.0080217721239 0.00622441157482
0.0117720002308 -0.00707676408901 0.0105459374485
0.0117720002308 -0.0122960014828 0.00813837194267
0.0117720002308 -0.00663827167308 0.0048905592442
0.0117720002308 -0.00384553851021 0.003952156052
0.0117720002308 -0.0105185794213 0.00784145051305
0.0117720002308 -0.0145491301257 0.00779842180022
0.0117720002308 -0.00661148264656 0.00827956953392
0.0117720002308 -0.0115189013728 0.00583043669422
0.0125854538449 -0.0178100001067 0.00172367185335
0.0139620830202 -0.0178100001067 0.00273489277434
0.0117720002308 -0.00847388747265 0.00318084033842
0.0117720002308 -0.0122390999628 0.00243755538156
0.0117720002308 -0.00464902941754 0.00190296170542
0.0117720002308 -0.0157550393424 0.00355067599664
0.0117720002308 -0.00287789662838 0.00257630762556
0.0117720002308 -0.0133249174764 0.00395664675586
0.0117720002308 -0.0170521485416 0.000318612460646
0.0117720002308 -0.0164614982234 0.0066549994658
0.0117720002308 -0.0147229848502 0.000119991160254
0.0137387971914 -0.00112300005276 0.000648809232621
0.0165860000998 -0.0163197149967 -0.00135701468314
0.0165860000998 -0.0150806401577 0.00496651885314
0.0165860000998 -0.0144932543507 0.000952582479919
0.0165860000998 -0.00982808567828 0.00370784761009
0.0165860000998 -0.0162125528988 0.00617382793383
0.0165860000998 -0.00856290384214 0.00502732855381
0.0165860000998 -0.0177410812586 0.00068744044568
0.0165860000998 -0.0157042064539 0.00257728814857
0.0165860000998 -0.0135679061034 0.00613215268998
0.0165860000998 -0.0130917412939 0.00225827904268
0.0165860000998 -0.0109945196549 0.00493417049952
0.0165860000998 -0.0173810328912 0.00310048550657
0.0165860000998 -0.0133530387667 0.00440483632423
0.0163837166121 -0.00292109315294 0.00069022273678
0.016288558564 -0.00152780188828 -0.00112354963561
0.0163832860579 -0.00309666999318 0.0064818742738
0.0164173368555 -0.0035099113836 0.0044100174878
0.016350375051 -0.00253204468091 0.0032159222843
0.0158550455425 -0.00112300005276 -0.00268287830072
0.0120225081677 -0.00544863444369 0.0117173619869
0.0117720002308 -0.0122357116901 0.0104571443994
0.0117720002308 -0.0077900084881 0.000337734631544
0.0117720002308 -0.0107463768644 8.43681912299e-05
0.0126021839146 -0.00610040646177 -0.00260771315259
0.0123188441933 -0.00278070707226 -0.000161617298181
0.0119293012173 -0.00564551215209 -0.00102192816166
0.0128834422988 -0.00367209616962 -0.00199655370405
0.0165860000998 -0.00691824724725 0.00358662782001
0.0165860000998 -0.0135037704059 -0.000954686444011
0.0165860000998 -0.00882175887813 -0.00255904842783
0.0165860000998 -0.0100218488248 -0.000652780705924
0.0165860000998 -0.0119935310069 -6.24457276013e-05
0.0165860000998 -0.0109667203036 0.00118837596181
0.0165860000998 -0.00944268556474 0.00209719290791
0.016503017111 -0.00594294401499 -0.000645638163748
0.0165775746195 -0.00765275547716 -0.000648440970686
0.0164591966172 -0.00441234953993 0.00126148061072
0.016580858756 -0.00591385481389 0.00592770083316
0.0164063524976 -0.00383647959113 -0.00104191476366
0.0165289155724 -0.00531063543672 0.00379830230602
0.0165847962537 -0.00727678893467 0.00131443157113
0.0151583113254 -0.0017689833503 0.00814268144132
0.0142563341747 -0.00112300005276 0.00449955970278
0.0163315047695 -0.0171415943325 0.00753452953439
0.0144051980755 -0.0151912926166 0.00892011255533
0.0129350066131 -0.0161168773302 0.00843725866321
0.0145716781807 -0.0166508194864 0.00815871468505
0.0134708449874 -0.0106829472794 0.0106408121567
0.0141564558322 -0.013409641313 0.00961645067851
0.0131746745828 -0.0136101659184 -0.00273433688219
0.0129140870004 -0.0152152389159 -0.00224757319383
0.0121305178663 -0.0109367599676 -0.00228536282011
0.0121844146493 -0.00775586543996 -0.00246003647457
0.0117720002308 -0.0128674423317 -0.00103435908463
0.0139896351451 -0.00465048961805 0.0100482269737
0.0165092354271 -0.00888217224056 0.00702469817019
0.0150860315651 -0.00339734932234 0.00876785013604
0.0161801739586 -0.00704151428314 0.00752761923382
0.0135504918062 -0.00733855922308 0.0108144901584
0.0160265256641 -0.0106908373372 0.00784242698417
0.0152460459283 -0.00592189962878 0.00865378732298
0.0160677098452 -0.004722723415 0.00758938466631
0.0165199201018 -0.0124864346898 0.00728830261222
0.0146690993026 -0.00761207219015 0.00942984500214
0.0159398686368 -0.0152361960886 0.00799746027323
0.0139278480362 -0.00884257591651 0.0103748364163
0.0116696110406 0.00233737670766 0.00755599979311
0.00975038594963 0.00179548601246 0.00755599979311
0.00687653118979 0.00238086905866 0.00755599979311
0.0117720002308 0.000440346995541 0.00396132000627
0.0117720002308 0.00121749706851 0.00236341845101
0.0013861375462 -0.00112300005276 0.00359769252134
0.00112481972735 -0.00112300005276 0.00703479990901
0.000823584040848 -0.00112300005276 0.00177635216978
0.00548945511373 -0.00112300005276 0.00426900003394
0.00439545012984 -0.00112300005276 0.00140645576793
0.00599236099462 -0.00112300005276 0.0019539596641
0.00197033227107 -0.00112300005276 0.000213654911011
0.00720983349418 -0.00112300005276 -0.00400895937186
0.0038774991114 -0.00112300005276 -0.00039353870964
0.006271543051 -0.00112300005276 -0.000128355706263
0.0101703411366 -0.00112300005276 0.00433632078922
0.00781935826161 -0.00112300005276 -0.00132392142225
0.00624520752948 0.00304899993353 0.00599063050464
0.0105335044385 0.00304899993353 0.0058234066092
0.00522881949701 0.00304899993353 0.00444399332884
0.00765891771188 0.00304899993353 0.00360461485817
0.0096172932522 0.00304899993353 0.00200870291349
0.00995499549705 0.00304899993353 0.00387480464384
0.0117720002308 0.00266694692142 0.00114684157861
0.0117720002308 0.000225517182221 -0.00395052880333
0.000541999994311 0.000959470802475 0.00152944065443
0.000541999994311 0.000242167365672 0.00360107616693
0.000541999994311 0.00250485785456 0.00045211498241
0.00310571327005 0.00304899993353 0.00386488151004
0.00239056138947 0.00304899993353 0.00578961936145
0.00701003596536 0.00304899993353 -0.000468157743306
0.00478830077094 0.00304899993353 -0.000430735852931
0.0101569791285 0.00304899993353 -0.00476770136106
0.0087478399774 0.00304899993353 -0.00595373889019
0.00403574130938 0.00304899993353 -0.00324041849234
0.0075323808606 0.00304899993353 -0.00744972038226
0.00568735758301 0.00304899993353 -0.00721089338231
0.00709998099375 0.00304899993353 -0.00577392137596
0.00608635909571 0.00304899993353 -0.00219532855788
0.00914270657326 0.00205418880529 -0.00825599682096
0.010944494397 0.00190678592063 -0.00647213315002
0.00162948329891 0.00259042869498 0.00750656452205
0.000541999994311 0.00273254902102 0.00605525919266
0.00191447083713 0.000652364963282 -0.0034922764313
0.00118028080336 0.00180259389544 -0.00138011079681
0.00246689893328 0.00226192079894 -0.0047012664286
0.00199789042874 0.00304899993353 -0.00323341311824
0.00399655393267 0.00304899993353 -0.0065348866496
0.00735549747044 -0.000806488152131 -0.00952639685808
0.0113013512055 0.000407270087979 -0.00736820262288
0.0096561347411 0.000588696823504 -0.0082959243702
0.00799908612579 0.000672498619504 -0.00908964373894
0.00723157323742 0.00250611198446 -0.00924023161767
0.00470303100163 0.00206116435472 -0.00945114891559
0.00388415746685 0.00196194892074 -0.00791949683882
0.00291485586589 0.000223377034987 -0.00524549433405
0.0030777330957 0.00153929439073 -0.0062041238559
0.00486792279597 0.000183948760408 -0.00887109075036
0.00150125208613 -0.000792070519041 -0.00210198035926
0.00912710798913 -0.00112300005276 -0.00292329061679
0.0101393291398 -0.00112300005276 0.000652808396648
0.0115099943689 -0.00112300005276 0.00280549943884
0.0104038579071 -0.000896617676966 -0.00708629142866
0.010776031602 -0.000998476960168 -0.00371530530205
0.00864285307255 -0.000986323192625 -0.00818039449952
0.0111739945115 -0.00105246577646 -0.00153819198327
0.0080566391062 -0.00111614703397 -0.00594683705344
0.00650826314322 0.000782851383645 0.00755599979311
0.00454753468385 0.00100594552729 0.00755599979311
0.00240661787345 0.000808611267892 0.00752465049434
0.0155672639975 -0.00112300005276 0.000354316196026
0.014256689428 -0.00112300005276 -0.00509045020992
0.0152927376538 -0.00112300005276 0.00294145936527
0.0157786033795 -0.00112300005276 0.00669524072918
0.0142365677589 -0.00112300005276 -0.00131559404044
0.0135613186343 -0.00112300005276 0.00613451827515
0.0134741864534 -0.00112300005276 0.00274190554553
0.0143183449811 0.016846999526 0.00469924769979
0.0142287882629 0.016846999526 -0.00214051831253
0.0144183279997 0.016846999526 -6.16909059671e-05
0.0161767011781 -0.00112300005276 -0.011306894369
0.0161624023895 -0.00112300005276 0.00474564777513
0.0155593784856 -0.00112300005276 -0.00955132256653
0.0162649992853 0.00300260265909 0.00299144970687
0.0162649992853 0.0021847511118 -0.00203987619143
0.0162649992853 0.00471450570752 0.00186189785326
0.0162649992853 0.00531617219221 0.00584416033447
0.0162649992853 0.000897671775513 -0.0067562129872
0.0162649992853 0.000850190738036 -0.00308205938363
0.0162649992853 0.000683105701318 0.00104592245983
0.0162649992853 0.000725492920931 0.00457882876991
0.0162649992853 0.000157820230671 -0.000624037598259
0.0162649992853 0.00237641377623 0.000271115463508
0.0162649992853 0.000111043609739 0.00285514522853
0.0162649992853 3.28350040911e-05 -0.00816904190155
0.0162649992853 -0.00032297212886 -0.00495215741338
0.0162649992853 0.00250259591317 0.00526311451687
0.0162649992853 0.00471060253467 0.00390096950256
0.0117720002308 0.000826707526607 0.000257547914414
0.0117720002308 0.0016695770104 0.00535417824076
0.0117720002308 0.000450059939158 0.00687317860741
0.0117720002308 0.00319288141989 0.00331042567109
0.0117720002308 0.00536866450874 0.00378290006267
0.0117720002308 0.00189444198156 -0.00476328238429
0.0117720002308 0.00911746730725 0.00709603569182
0.0117720002308 0.00401573879346 0.00688723099765
0.0117720002308 0.00406180737738 0.00481592398862
0.0117720002308 0.00476307743917 0.0021761788036
0.0117720002308 0.000607696345244 -0.00185031686922
0.0117720002308 0.00907938711411 0.00469438218826
0.0117720002308 0.0157694476192 -0.000834697427331
0.0117720002308 0.0129146756198 -0.000778503340153
0.0117720002308 0.00710591119892 -0.000860088382772
0.0156791684975 0.0167854265498 -0.00936006487416
0.0158959469066 0.0164272244321 -0.00378232185936
0.0157569188379 0.0166969161479 -0.00662813144079
0.0159255072684 0.0166280005408 0.00154681177809
0.0146963043186 0.0135505602825 0.00755599979311
0.013666274146 0.00876864334575 0.00755599979311
0.0140024181385 0.0113572994981 0.00755599979311
0.0123893360392 0.0162622076229 0.00755599979311
0.0129483958049 0.0137471314033 0.00755599979311
0.0161103721349 0.0112609513658 -0.000620843069317
0.0161044737724 0.0116973118314 0.00582775423895
0.0162018214677 0.00821380074775 -0.00397832129891
0.0160294425559 0.0140578092198 0.00495504518488
0.016240197346 0.0073700538748 0.00591566448897
0.0162529528192 0.00651676483485 -0.00568162144794
0.0162296786621 0.00742621348813 -0.00134660071901
0.0161452706078 0.0103215959946 0.00390535011202
0.0162583521719 0.00666060688007 0.00253316159318
0.0161584999471 0.00967227305955 -0.00199876559803
0.0160692304139 0.0126566848914 0.00153577670786
0.0162113434373 0.00820074001106 0.00357747949157
0.0162379197391 0.00725039748092 0.000917783460554
0.0161526697876 0.0101670980236 0.00602564047977
0.0162495458131 0.00652961519034 -0.00817263130393
0.0160733680745 0.0126126310768 0.00382176016471
0.016116809673 0.0111648429715 0.00221940755518
0.0161697197968 0.00918473730333 -0.0053648612907
0.0161720248486 0.00937491638248 0.00148837777141
0.0162649992853 0.00532704561598 -0.00391000683598
0.0162649992853 0.000539807523686 -0.010296832753
0.0162649992853 0.0022914519838 -0.00945962692747
0.0162649992853 0.00204488435701 -0.00518440895731
0.0162649992853 0.00492024802254 0.000297582440171
0.0162649992853 0.00349681322017 -0.0106661326688
0.0162649992853 0.00401075521433 -0.0056209720453
0.0162649992853 0.00374553192537 -0.00757888739582
0.0162649992853 0.00372003746987 -0.00313215995318
0.0162649992853 0.00518033215808 -0.00187683231219
0.0162649992853 0.00351247585875 -0.00109336483584
0.0162649992853 0.00570758434609 -0.00985235350557
0.016134266681 0.0103721005722 -0.00383869640958
0.0162199581388 0.00739193232796 -0.00970735037291
0.0159528693197 0.0161147608643 -0.00177363041677
0.0160362712928 0.0135547909106 -0.00125232501764
0.0159782790999 0.0149473219278 -0.00870682502731
0.0160564962844 0.0126628076322 -0.00608919990368
0.0159598691895 0.0162114446017 0.00397189651494
0.0161370826221 0.0100496685214 -0.00814031395179
0.0160683951434 0.0120881733893 -0.00984735831297
0.0161927684631 0.00832290818757 -0.00811288383151
0.0160280120343 0.0134455448314 -0.00794311836777
0.0161148163236 0.0108426658163 -0.0062745625218
0.016024865762 0.0139990766552 0.000400427896823
0.0160127249242 0.0141849006209 -0.003094822888
0.0159614738716 0.0159464671964 3.3793906384e-05
0.0160679436757 0.0124388030428 -0.00368661470484
0.0159958710442 0.0145422326416 -0.00612823211453
0.0161355456456 0.00997276476396 -0.0104208237268
0.0160017971892 0.0148298586766 0.00250200710183
0.0136480339991 0.00488871094278 0.00755599979311
0.0136109889761 0.00323123834075 0.00755599979311
0.0151661731975 0.00410938716478 0.00755599979311
0.0152567719763 0.000654670323916 0.00755599979311
0.0133510052609 0.00148956927639 0.00755599979311
0.0126615821715 0.0120753894581 -0.010012687404
0.0122347993896 0.0111218648367 -0.00805296551677
0.0129008539889 0.0143394039625 -0.00971465116337
0.012368140193 0.0132447311538 -0.00719136182448
0.0120907149376 0.0132921416728 -0.00537858665314
0.0126008582824 0.0150763829517 -0.00720059451286
0.0120386543389 0.0159919933976 -0.00286511702746
0.0127113411635 0.016846999526 -0.00641977024884
0.0157137499206 0.0154460202886 -0.0115265014361
0.0150600409862 0.00816553945786 -0.0118597131218
0.0147931891092 0.0041575616179 -0.0119472389028
0.0145565701924 0.0135777920032 -0.0117558489627
0.0145575464223 0.00242279623303 -0.0119795547608
0.0132482066262 0.00869912885575 -0.0115696733266
0.0130285189965 0.0108588071881 -0.0113446661233
0.0162585020781 0.00256950224754 0.00695395110118
0.0159567952929 0.0148403685066 0.00673906439397
0.015965650048 0.00674944785969 0.0073830736886
0.0157402885423 0.0121280781288 0.00749680762427
0.015651599802 0.00857529051854 0.00754156646387
0.0156912762014 0.000926774219595 -0.011748802588
0.0157424372506 0.0116836854344 -0.0116422806669
0.0159498145415 0.00623093891498 -0.011538689355
0.0154061268052 0.016276989835 0.00752190282245
0.0128245241966 -0.000511912719498 -0.00912073584431
0.0123012992769 0.00188566745348 -0.00893193611805
0.0131148743077 0.00366378449203 -0.0109914775794
0.0131873989723 0.00593265376587 -0.0114420804229
0.014072891863 0.00038303660041 -0.0116285369396
0.0121097694988 0.00466006376636 -0.00923009024721
0.012227966408 0.00783195379666 -0.00937984641143
0.0119329897519 0.013622452508 -0.00363263488555
0.0117979202697 0.0141995629786 -0.00187177123517
0.0119955038995 0.00927785002058 -0.00615927967869
0.011991223873 0.00593873559279 -0.00751286264382
0.0117825149864 0.00833753351211 -0.00415934870587
0.0120839543597 0.0117516884138 -0.00611526327703
0.0122414694347 0.00949788801368 -0.00883233152751
0.0118694968033 0.010922338599 -0.00405223822833
0.0118710619328 0.00722343992212 -0.00562257033467
0.0119249745256 0.00313565729011 -0.0079446981768
0.0117720002308 0.00499841853103 -0.00536340482588
0.0120194887821 -0.00112300005276 0.000173457280722
0.0124518861002 -0.000923849486811 -0.00702407489279
0.0124327827205 -0.00099097801027 -0.00532395872289
0.0121780730661 0.0114185962312 0.00799271166277
0.0125132845579 0.00953084047572 0.0113067152114
0.0126219821756 0.00767211804508 0.0107972830322
0.0130229527743 0.00645781104669 0.00755599979311
0.0130064347013 0.00746811161684 0.00888129700408
0.0117720002308 0.00909703674728 0.00989274853516
0.0143843730089 0.02613139377 -0.0117720457474
0.0145539051641 0.0168479997665 0.00267425308073
0.0128978506059 0.0168479997665 0.00293892358641
0.0127883241348 0.0168479997665 0.00108228881521
0.0123436560498 0.0168479997665 0.00535281701663
0.0133785585682 0.0168479997665 -0.0041933106501
0.0139678081802 0.0283969994634 0.000490984748096
0.0129226731996 0.0283969994634 -0.000813071059118
0.0140565850702 0.0283969994634 -0.0028604747326
0.0139453111208 0.0283969994634 0.00247662180915
0.0114510003477 0.0245383931562 0.00463454762134
0.0114510003477 0.0207641146681 0.00654234941451
0.0114510003477 0.0240022161048 0.00963593871824
0.0114510003477 0.0267597132417 0.00316661464818
0.0114510003477 0.0263141699677 0.00487756944289
0.0114510003477 0.0260108327509 0.00669675333638
0.0114510003477 0.0259530370089 0.0103257755014
0.0146457200216 0.0168479997665 -0.005288641565
0.0131679524864 0.0168479997665 -0.00859569706144
0.0114510003477 0.0187300008546 -0.000158830689722
0.0114510003477 0.0229134346601 0.00281453846807
0.0114510003477 0.0242551811197 0.000596691172586
0.0114510003477 0.0260697233213 0.00107435251345
0.0114510003477 0.0194761761362 0.00533421690198
0.0156720504248 0.0230071461654 -0.00911992260321
0.0157179756325 0.0217979821033 -0.00700850688121
0.0157521803859 0.0201375580738 -0.00543594013879
0.0156390685361 0.0209289366768 -0.0106362680276
0.0158580716876 0.0198730696734 -0.000567577627224
0.0158684745639 0.0180807716266 -8.93044154538e-05
0.0157720371 0.0183241222265 -0.00452302585144
0.0157171775295 0.0197211417725 -0.00704519974111
0.0156837145559 0.0209590378679 -0.0085836630862
0.0156523182618 0.0264463775816 -0.010027110648
0.0157129896921 0.0236304993324 -0.00723773595863
0.0158152977121 0.0197720698033 -0.00253411515825
0.015685829502 0.0185304594494 -0.00848642823818
0.0156362174943 0.0239629847698 -0.0107673449415
0.0156959764566 0.0255333490144 -0.00801992105287
0.0156310744005 0.0277901594147 -0.0110037991587
0.0157562198802 0.0222867295206 -0.00525022400968
0.013540504648 0.0283969994634 -0.00651592906285
0.0114740749667 0.0278915174228 0.00876517389123
0.013436598319 0.0283969994634 0.00706573323105
0.011855946008 0.0283969994634 0.0059204659481
0.0138509196783 0.0283969994634 0.00509139062289
0.0114654287982 0.0230463101569 0.0114112593863
0.0133846846222 0.0210260197633 -0.0116476505422
0.0134711771944 0.0189156913954 -0.0116496761361
0.015150316445 0.0174214296918 -0.011597749428
0.0129572041159 0.0246371814686 -0.0115169348953
0.0131271548038 0.0229352170938 -0.0115740094562
0.0158377013955 0.0219606517007 0.00386588371273
0.0157032488047 0.0259912982892 -0.00377434857186
0.0156348966792 0.0280403719446 -0.00859698161796
0.0158336058816 0.0220834278324 0.00556659462085
0.0157045850432 0.0259512402656 0.00498409745235
0.0158044778062 0.022956635087 0.00206390978436
0.0157597327143 0.0242980123796 0.00329470764622
0.01573198558 0.0251298215054 -0.00195023045924
0.0157069465912 0.025880445307 0.000574974471684
0.0156487515447 0.0276250280225 -0.00230127805014
0.0158233274865 0.0223915556119 -0.000123007785239
0.0156513563363 0.0275469410585 -0.0045596478759
0.0156926988458 0.0263075670611 0.00236945386614
0.0156509684113 0.027558570354 0.00011122896128
0.0156854149525 0.0265259250675 -0.00666267309232
0.0157519946767 0.0245299848142 0.00139429649551
0.015784924551 0.0235428064713 -0.00244635838118
0.0159028321582 0.0200059250869 0.00400543996559
0.0159139839397 0.0185006771969 0.00286210502075
0.0158114481893 0.0218493949571 -0.00236248715812
0.0158781965964 0.0205128415641 0.00230367783324
0.0157433411806 0.0243155764055 -0.00546999301593
0.0114510003477 0.0253153453971 -0.00124905711558
0.0116322787444 0.0255534576324 -0.00653003437613
0.0114755403811 0.0254200066463 -0.00324045624807
0.0120826134455 0.0264165565224 -0.00834308603359
0.0124134805547 0.0264294298601 -0.0104039945792
0.0120074143848 0.0271962654151 -0.00583482240966
0.0135435559434 0.0281862598258 -0.0115837296466
0.0147814147563 0.0183427173478 0.0082625462623
0.0117109588249 0.0189831986181 0.0089780960418
0.0130785863827 0.0178735723942 0.00823853744491
0.0131447538419 0.0219875300234 0.0103475537099
0.0137255091867 0.0193206009366 0.00916692248407
0.0130365570977 0.0271116262253 0.00985025578652
0.0120251013908 0.0248814856056 0.0116662632649
0.0115331733856 0.0243724807132 -0.00501155273177
0.0114902561269 0.0223576438005 -0.00332715645361
0.0115513753024 0.0200931893071 -0.00387852718472
0.0114601467831 0.0208102419325 -0.00209727022831
0.0116052992712 0.0227022124671 -0.00602278151506
0.011735053612 0.0245664802712 -0.00959411947236
0.0127149010379 0.0200615258217 -0.0106234536349
0.0136171235692 0.0171203764625 -0.0116124338071
0.011685558569 0.020496619691 -0.00561992481979
0.0119291691629 0.0182221108624 -0.00448573961382
0.0121873627754 0.021722638092 -0.00960625890778
0.0117474312479 0.0214847866469 -0.00700669320777
0.0115660363966 0.0182407533375 -0.00256991344079
0.0117248071023 0.023173531354 -0.00869236751535
0.0124462887908 0.0192953579837 -0.00839031238735
0.0121942891634 0.0189387075223 -0.00666549548768
0.0157237402353 0.0190555891337 0.00693209439511
0.0147397537888 0.0272200167657 0.00816459421174
0.0156018168862 0.0254987082085 0.00709422258314
0.0154043449609 0.0230316124719 0.00749015971249
0.0139674564792 0.0239844545055 0.00937521136395
0.0141937345183 0.0256250643857 0.00898401931725
0.0143740338931 0.0225051267597 0.00885699481192
0.0153657651736 0.0212221286871 0.00756826968191
0.015501842881 0.019201342796 -0.0114766035768
0.0152023922531 0.022649668576 -0.0117046383396
0.00379435820124 0.030991369027 0.00892363678042
0.00225712508895 0.0320490669116 0.00747331509072
0.000541999994311 0.0292233068017 0.000291234623976
0.000541999994311 0.0304158706117 0.00339638290748
0.000541999994311 0.0293474493232 0.00654218964926
0.00945154162726 0.0301581441595 0.00992157064378
0.00984600000083 0.0322110951939 0.00504275152191
0.00612582830302 0.0322499983013 0.0016365112177
0.00594086494182 0.0322499983013 -0.00295899557828
0.00829408306005 0.0322499983013 -0.00274447079858
0.00872643660374 0.0322499983013 0.0033723863305
0.00424914237573 0.0322499983013 0.00638952692122
0.00457953236352 0.0322499983013 -0.000530004005247
0.00622444480572 0.0322499983013 0.00338201918081
0.00780893033269 0.0322499983013 0.00149668716569
0.00911814339602 0.0322499983013 -0.000709808758914
0.00595312981702 0.0322499983013 0.00552328053976
0.00711106948068 0.0322499983013 -0.00150726158456
0.00416623522033 0.0322499983013 0.00198517361136
0.0078417365141 0.0322499983013 0.00584723425823
0.00211036597441 0.0322499983013 0.00507722966771
0.00278524947105 0.0322499983013 0.00293667693547
0.00822627483331 0.0322499983013 -0.0051634359959
0.00427741834289 0.0322499983013 0.00406391874017
0.00861406910191 0.0322499983013 -0.00763840615072
0.00288041795584 0.0322499983013 -0.00364915985523
0.00463088933162 0.0322499983013 -0.00573311210683
0.00541857167469 0.0322499983013 -0.0075140218313
0.00147594934683 0.0322499983013 -0.0112752391111
0.00106091611161 0.0322499983013 3.98772397897e-05
0.00542374395878 0.0322499983013 -0.0107735255078
0.00197909193409 0.0322499983013 0.00146625333705
0.000557794542731 0.0322499983013 -0.00418892664498
0.00689671864802 0.0322499983013 -0.00925249880796
0.00125010297456 0.0322499983013 -0.00939995249407
0.00457367937927 0.0322499983013 -0.00390903916277
0.00348658441458 0.0322499983013 -0.00805289015338
0.00154268872991 0.0322499983013 -0.00212784670407
0.00266822405573 0.0322499983013 -0.00644985774776
0.00385785994815 0.0322499983013 -0.00999370274348
0.000541999994311 0.0310463174818 -0.00260927647081
0.000541999994311 0.030854160702 -0.00846229166583
0.00871629633282 0.0283989999443 -0.00243588568139
0.00724310280879 0.0283989999443 -0.00802193957762
0.00721594570429 0.0283989999443 -0.00341482531379
0.0066582103525 0.0283989999443 -0.00536484168075
0.00841097733029 0.0283989999443 0.00122654095209
0.00458055930801 0.0283989999443 0.00236119512181
0.00531401866052 0.0283989999443 0.000334259426332
0.00684739443793 0.0283989999443 0.00188253331107
0.00376390637724 0.0283989999443 0.00378462403204
0.00984600000083 0.029799064076 0.00271575876941
0.00984600000083 0.0302963577851 -0.00263030945169
0.00984600000083 0.0310375935336 -0.00640840810172
0.00984600000083 0.0304336723453 -0.00110423701582
0.00984600000083 0.0308954009181 -0.00808559034921
0.00471618263532 0.0283989999443 0.00561344477956
0.00565748045024 0.0283989999443 0.00989462090515
0.00377064330513 0.0283989999443 0.00871125239041
0.00683437558472 0.0283989999443 0.0050260409443
0.0048074148831 0.0283989999443 -0.00534083477451
0.00328776386232 0.0283989999443 -0.000526893303639
0.00705618327685 0.0298057005904 -0.011609641031
0.0054684572182 0.0304609529375 -0.0118557121076
0.00977355642984 0.0283989999443 0.0100861137257
0.00801807966613 0.0283989999443 0.00657362079677
0.00688899293549 0.0283989999443 0.00859936347626
0.0041994960882 0.0290389830991 0.0104805411262
0.00119120340005 0.028565133831 0.0080742818445
0.00139079853513 0.0305701949228 -0.0119809024583
0.00410957248911 0.0288191609183 -0.00882009778988
0.000941331964945 0.0291781022307 -0.00686860176591
0.0030005428945 0.0286662997249 -0.00584038443448
0.00308495251114 0.0284453779609 -0.0041494901353
0.00153870212798 0.0292843186212 -0.00867050918291
0.00152758545548 0.0284329140915 -0.00163250153891
0.0013567020301 0.0288785407874 -0.00504228666958
0.00555693524901 0.0284123189497 -0.00770891742959
0.00172459085622 0.0295797948684 -0.0108280937486
0.0059846908888 0.0286325626483 -0.0100233885041
0.00391885122122 0.0292657340073 -0.0109484420565
0.00781527496573 0.0286302641924 -0.0102731542836
0.00853023336156 0.0284025911081 -0.00529507671722
0.00962155168625 0.0289747117679 -0.00401597773487
0.00929589462255 0.0297597284306 -0.0111572472388
0.00711980193157 0.029924396301 0.0104911491516
0.00885302878485 0.0314911965626 0.00829674876395
0.00519190212316 0.0317628839451 0.00791623383034
0.00722893471132 0.0310507338973 0.00891364388911
0.00555840853527 0.0306394512736 0.00948967056656
0.00717241019845 0.0318316372452 -0.0116774386875
0.00366079343922 0.0314276644484 -0.0117603495216
0.00647996591917 0.0287195306344 0.011565013022
0.0098479995504 0.0300987129047 0.00524030630147
0.0098479995504 0.0297467835194 0.000643507414228
0.0098479995504 0.0311940463847 0.00139303418114
0.0098479995504 0.03043626848 -0.00465562735306
0.0098479995504 0.0299008521839 0.00734785891167
0.0154872599962 0.0283989999443 -0.00621713071768
0.011942973781 0.0283989999443 0.00112490399458
0.01562200021 0.0286187759459 0.00357710740429
0.01562200021 0.0291136496909 -0.00361108685005
0.01562200021 0.0291996740267 -0.000840624145003
0.01562200021 0.0304648259114 0.00476999367919
0.01562200021 0.0310989932529 0.0067513750766
0.01562200021 0.0294020664246 0.00120238998957
0.01562200021 0.0303950047256 0.00249320480417
0.01562200021 0.0290161250571 0.0066437066117
0.0135724662913 0.0283989999443 -0.00492488352853
0.0135895287866 0.0283989999443 -0.00847655005316
0.0152143055711 0.0323366933086 0.000791416175568
0.0119358728582 0.0285679805093 -0.00707476072576
0.0120236276364 0.0289636209702 -0.0102939197283
0.0104747549701 0.0295687341968 -0.00960454914323
0.0104900558832 0.029309879506 -0.00774085808662
0.0106174178938 0.028999933807 -0.00587296442069
0.0106789263054 0.0285046672391 -0.00241465929367
0.0121171783206 0.0283989999443 -0.00396171223609
0.00996846432308 0.0283989999443 0.00642417192335
0.0129626010072 0.0325709991157 -0.00266690417015
0.0145784129676 0.0325709991157 -0.00502462575022
0.0145859906283 0.0325709991157 0.00266177848598
0.0124674988745 0.0325709991157 -0.00608846017372
0.0145088649289 0.0325709991157 -0.00326238277236
0.0129980039604 0.0325709991157 -0.00950642250833
0.0115197153993 0.0325709991157 -0.0107243536738
0.0138495435971 0.0325709991157 -0.00754507693344
0.0123518621643 0.0325709991157 -0.00458628485324
0.0155568361835 0.0318951419662 -0.00123788223423
0.0155720725948 0.0317718098859 0.00358876645701
0.01562200021 0.0300387266433 -0.00785874701965
0.01562200021 0.0299784991043 -0.00548458265137
0.01562200021 0.029346238662 -0.0104690140003
0.01562200021 0.0313006944478 -0.00404678364561
0.0153684400805 0.0321825591346 -0.00914816185147
0.0155594270766 0.0319915738009 -0.00745238194814
0.0114734852313 0.0325704905206 -0.00189143389271
0.0105704146252 0.032460366682 -0.00332207775326
0.0107043666089 0.0325208051089 -0.00733055978089
0.0105740111855 0.032394912018 0.00298953363475
0.0106634589936 0.0324341037713 0.00042447349819
0.0124476706166 0.0325709991157 0.00166636804337
0.0124588674991 0.0325709991157 0.00590112898625
0.0121524203214 0.0325709991157 -0.000198438753108
0.0143811851252 0.0325709991157 0.00529085451867
0.0122111841546 0.0325709991157 0.00416320777806
0.0117035496828 0.0293778829778 0.00776740262457
0.0141498879898 0.0297702823814 0.00761664737483
0.014322076029 0.0300275092322 -0.011698000133
0.0116188331162 0.0305400453935 -0.011698000133
0.0102507996752 0.031839340937 -0.011698000133
0.0154722702615 0.0316151406686 -0.0107449592634
0.0101080871713 0.0323367844849 -0.00950221902595
0.0139983398625 0.0325570392424 -0.0110113484309
0.0109059396964 0.0321501487454 0.00731358944365
0.0139030809914 0.0317185097112 0.00743691564594
-0.0133904415761 -0.0181310009211 -0.00603411521333
-0.0140372649151 -0.0197937488448 -0.00207099993713
-0.0135004842283 -0.0241618422769 -0.00207099993713
-0.0155039997771 -0.0219294529662 -0.00955058503587
-0.0155039997771 -0.0207446896655 -0.00652617863646
-0.0155039997771 -0.022673712457 -0.00580442650252
-0.0155039997771 -0.0187129082473 -0.00313468975541
-0.0155039997771 -0.0209139113001 -0.0109084771527
-0.0155039997771 -0.0220552103976 -0.0077892042512
-0.0155039997771 -0.0237804539958 -0.00947556967364
-0.0155039997771 -0.0189361764861 -0.0113232280907
-0.0155039997771 -0.0238923295752 -0.00745056602952
-0.0155039997771 -0.0188918287705 -0.00609389503338
-0.0155039997771 -0.0203619266716 -0.00835233594738
-0.0148937367978 -0.0181310009211 -0.00983467187183
-0.013492102055 -0.0290409997106 -0.00601479033503
-0.0125269118817 -0.0204695708529 -0.00428043362583
-0.0126457073241 -0.0200895735872 -0.00680632650911
-0.0131427601621 -0.0184996243809 -0.00808387681558
-0.0131317427761 -0.0185348662764 -0.00393653136453
-0.0129025074355 -0.0193014733567 -0.00949906739276
-0.0119010512729 -0.0228334778547 -0.00817025714731
-0.0121945626514 -0.0215791285647 -0.00570703855433
-0.0117612258942 -0.0230565889182 -0.00447005958266
-0.0123903216467 -0.0211815062656 -0.00977767927238
-0.0154446897939 -0.0282733756851 -0.0108528410022
-0.0154276502972 -0.0253925416842 -0.0110535789608
-0.0132622627022 -0.0183761243844 -0.0111727941136
-0.0129945674875 -0.029019991689 -0.00845247420341
-0.0123483204614 -0.0270610833651 -0.00577849893803
-0.012671471239 -0.0277348772408 -0.00417756467724
-0.0155039997771 -0.0255350988165 -0.00696511739734
-0.0155039997771 -0.0269258629368 -0.00921866934932
-0.0155039997771 -0.0277047113468 -0.00736877318961
-0.0154605075456 -0.0237342220271 -0.00401214484171
-0.0154772972299 -0.0220752664302 -0.00350000807467
-0.0153778881892 -0.0279270157929 -0.00466378387228
-0.0154635215324 -0.025484821067 -0.00488414243177
-0.0153430961154 -0.0260192742805 -0.0032095869628
-0.0154833215927 -0.0204915863772 -0.00285111614656
-0.0122760518607 -0.0228443628332 -0.010978542969
-0.0116529995576 -0.0242729397206 -0.00931155935119
-0.0120421277901 -0.0255907950792 -0.0102071917853
-0.0118347943052 -0.0254579743101 -0.00369817642227
-0.0117136027205 -0.0250640074489 -0.00613768528366
-0.0124878933338 -0.0275810538534 -0.00741887409375
-0.0120848053399 -0.0262707045242 -0.00825838637612
-0.0126780036652 -0.027846038894 -0.0103438743079
-0.0136849828965 -0.0207516300786 -0.011698000133
-0.0142413918621 -0.0269602112103 -0.011698000133
-0.0132996450252 -0.0255090889004 -0.0116281070462
-0.0150362423196 -0.0234672680709 -0.0116877511702
-0.0117844886698 -0.0225332616983 0.0114942824518
-0.0121445856232 -0.0207015640114 0.0107576737206
-0.00972799956799 -0.0219725301063 0.00049323525
-0.00972799956799 -0.0213055805721 0.00267394356149
-0.00972799956799 -0.020768520925 0.00564068382968
-0.00972799956799 -0.0239579245802 0.000183412188057
-0.0144705140127 -0.0290409997106 -0.0018183556506
-0.0128531324799 -0.0290409997106 0.00242573748899
-0.0135951533157 -0.0290409997106 0.000408951964312
-0.0127374562202 -0.0290409997106 -0.00125283983477
-0.0137090009844 -0.0290409997106 0.00401670042841
-0.00972799956799 -0.019002242105 0.00249600563687
-0.00972799956799 -0.0197749347879 0.000363635001981
-0.0155039997771 -0.0195214600076 -0.00133332039508
-0.0155039997771 -0.0194184272239 0.000728106213121
-0.0135669734437 -0.0181310009211 0.00391958229684
-0.0127662508711 -0.0181310009211 0.00699802927619
-0.0105328261851 -0.0181310009211 0.00378750683363
-0.0105078128456 -0.0238903904498 -0.00138232107555
-0.0135155443034 -0.0258330879905 -0.00207099993713
-0.0138819636669 -0.0216420793513 -0.00207099993713
-0.00972799956799 -0.0236492273998 0.00917457621673
-0.00972799956799 -0.0266511731669 0.00334206081011
-0.00972799956799 -0.0287527790068 0.00119488566472
-0.00972799956799 -0.027818587637 0.00448477671055
-0.00972799956799 -0.0257843299715 0.0082895191775
-0.0126586215055 -0.0289547119296 0.00792843671924
-0.0116678056273 -0.0286161851004 0.00939351486698
-0.0115438020863 -0.0290409997106 0.00434043275459
-0.013131798783 -0.0290409997106 0.00588309534871
-0.0143363348495 -0.0290409997106 0.00714155578924
-0.0155035439501 -0.0268571801969 0.00657082340996
-0.0154667399292 -0.0250762095673 0.00299588934781
-0.015299729612 -0.0263693494381 -0.00129041485809
-0.015417208658 -0.0226589810661 -0.00184124292869
-0.0153882638209 -0.0249634726945 6.46326265931e-05
-0.0153860147432 -0.0273128504538 0.00297597522841
-0.0154888828 -0.0256926047075 0.0045672708939
-0.0153325487578 -0.0248569800309 -0.00205012959464
-0.0153188057035 -0.0275626778669 0.000906578705091
-0.0155039997771 -0.023876569316 0.00548532772161
-0.0155039997771 -0.0210752331166 0.0027351403475
-0.0155039997771 -0.0226339203737 0.00434974097832
-0.0155039997771 -0.0202644099522 0.00698456153483
-0.0155039997771 -0.0230227922561 0.00217895084832
-0.0155039997771 -0.0197860113257 0.00368665861997
-0.0155039997771 -0.0209728614055 0.00525211468501
-0.0155039997771 -0.0219354741614 0.000704599988576
-0.015398825871 -0.027743410081 0.00507703833138
-0.0154457738409 -0.0245777097203 0.00713202984904
-0.0111029190919 -0.0188342164184 -0.00137519028228
-0.0128677297414 -0.0181310009211 -0.00172166166706
-0.0110658556826 -0.0212943148545 -0.00159633281316
-0.0123532336039 -0.0200959017115 -0.00192706116842
-0.012313010547 -0.0230661315682 -0.00207099993713
-0.0113910586407 -0.0279143518519 0.0109205154245
-0.0144454253339 -0.0279016553342 0.00851728633242
-0.0147407078314 -0.0258942332573 0.00815261643464
-0.0141067896553 -0.0213557181851 0.00901125131011
-0.0143150611329 -0.0241155630476 0.00871828750979
-0.0128884791601 -0.0268072259949 0.0105400859665
-0.0153909024519 -0.0186546095867 0.00737377364476
-0.0153566544185 -0.0224345888221 0.00738569993945
-0.0132329372056 -0.0249773421451 0.0101103026452
-0.0121776892826 -0.0251290838226 0.0114688274707
-0.0132756331252 -0.0228817149796 0.0100703415177
-0.0126918369557 -0.0274781570719 -0.00207099993713
-0.0111945577348 -0.0262151977337 -0.00163423660273
-0.00972799956799 -0.0247028040686 0.0111945473441
-0.00972799956799 -0.0285995091607 0.00936755093544
-0.00972799956799 -0.0263303193864 0.0104722484602
-0.00972799956799 -0.0223934392494 0.0110245782674
-0.014588317321 -0.019698241103 0.00839606055727
-0.0126955031815 -0.0187493080768 0.00903816828783
-0.010383243193 -0.0188101991451 0.00918423112973
-0.0108025943139 -0.0181310009211 0.00753422439491
-0.015585196396 -0.0132467077481 -0.0116405263529
-0.0158998831082 -0.00412489090369 -0.0114246943991
-0.0141668822226 -0.00144400005229 -0.00277041977188
-0.0144367951683 -0.00144400005229 -0.00489099559673
-0.0132579999045 -0.00482432458489 -0.00314455436147
-0.0132579999045 -0.00271549197212 -0.00325981042265
-0.0132579999045 -0.00352026561047 -0.00536219307032
-0.0132579999045 -0.0109903749804 -0.00245308776047
-0.0139617730344 -0.0151979558422 -0.00142900005449
-0.0146604642759 -0.00144400005229 -0.00648183711321
-0.0132579999045 -0.00641613735729 -0.00645669942799
-0.0132579999045 -0.0100154248672 -0.0058421293779
-0.0132579999045 -0.014579763401 -0.00323501088245
-0.0132579999045 -0.0111267893628 -0.00469040707936
-0.0132579999045 -0.0127633748054 -0.00325109205247
-0.0132579999045 -0.00441884153349 -0.00804238914837
-0.0132579999045 -0.0120825678181 -0.00684275009487
-0.0132579999045 -0.0100673764474 -0.00827684440996
-0.0150148964577 -0.0181310009211 -0.00790454378876
-0.0132579999045 -0.0103811301258 -0.0109420279413
-0.0132579999045 -0.0164449828203 -0.00369029106927
-0.0132579999045 -0.0141998596033 -0.00912203237423
-0.0132579999045 -0.0123528350144 -0.00959661850999
-0.0132579999045 -0.0153578343719 -0.0050145211516
-0.0132579999045 -0.0139272509696 -0.00598456380379
-0.0132579999045 -0.0168367054275 -0.0091192211776
-0.0132579999045 -0.0162251648005 -0.00700857775379
-0.0150312894305 -0.0128942789972 -0.00142900005449
-0.0149638427508 -0.00724874665139 -0.00142900005449
-0.0157149911118 -0.0164364745576 -0.00744361439633
-0.0155582747578 -0.0176951044148 -0.00455068760765
-0.0156880354374 -0.0147402586082 -0.0110110947393
-0.0159250850828 -0.0055377789649 -0.00223768326841
-0.0159160126664 -0.00844638437603 -0.00216510412525
-0.0160791338947 -0.00311150640187 -0.0034700705798
-0.0155960346031 -0.0168109328683 -0.00235194776364
-0.0157120834369 -0.0145459355415 -0.00189393338574
-0.0158022859484 -0.0148133690193 -0.0070149688448
-0.0156901503203 -0.016354339085 -0.0057083973387
-0.0157246845502 -0.0152189483102 -0.00432607000693
-0.0158020558831 -0.0134728087612 -0.00338323435481
-0.0158071390554 -0.0155883535943 -0.00934467067564
-0.0143210849778 -0.00298432235575 -0.0117322484726
-0.0145655840587 -0.00625351079193 -0.0118049373348
-0.0161450002342 -0.0021984823026 -0.0102443792504
-0.0161450002342 -0.00394694712195 -0.00923387466759
-0.0161450002342 -0.00215298240247 -0.00786429143872
-0.0159448585507 -0.0113135608824 -0.0100281583009
-0.0160623219617 -0.00566765000637 -0.010572735625
-0.0160047247848 -0.0086092587555 -0.0102363789163
-0.0160579725867 -0.00535341971203 -0.00501291118218
-0.0161191826734 -0.00328706637329 -0.00552746906216
-0.0160923189867 -0.00560550896998 -0.00784070499061
-0.0158943616208 -0.0103113922067 -0.00262074917248
-0.0159895594104 -0.00735962158971 -0.00389221010787
-0.0160250036744 -0.00699938441961 -0.00569447413663
-0.0158763477888 -0.0134944863378 -0.00926317118749
-0.0158698157827 -0.0129204573344 -0.007119997871
-0.0158594553156 -0.0118559810818 -0.00330476685569
-0.0160346645638 -0.00789606880486 -0.00851259251609
-0.0159629806803 -0.00910904790874 -0.00528228530032
-0.0159906020654 -0.00892717110638 -0.00729808693627
-0.0159653899589 -0.0103017258228 -0.00872208144548
-0.0158688351277 -0.0121992526941 -0.00508319859648
-0.0134623145131 -0.0166274793572 -0.0115100617199
-0.0136606902663 -0.0139581167785 -0.0116631433561
-0.0138041107978 -0.0120674075979 -0.0116943868846
-0.0135345552559 -0.00367601878137 -0.0102684615905
-0.0133587044996 -0.00532116672328 -0.0102462073869
-0.0132749473681 -0.00267301500921 -0.00716691927729
-0.0154871169835 -0.0166941116297 -0.0115623610252
-0.015796333408 -0.00983413153103 -0.0113160897321
-0.0132579999045 -0.00680732645676 -0.00358921048218
-0.0132579999045 -0.00901304131788 -0.00370188323488
-0.0132579999045 -0.00778495425222 -0.00542172349512
-0.0132579999045 -0.00851661493061 -0.00934956127222
-0.0127487209006 -0.00694402766177 -0.00142900005449
-0.0129785330223 -0.00888059153874 -0.0111903987208
-0.0132100530855 -0.00684277756837 -0.00829158113235
-0.0128607066536 -0.00723238756349 -0.0104086997844
-0.011974000372 -0.00787977827789 -0.00341357547685
-0.0120150799807 -0.00831923558251 -0.00659031590058
-0.00972799956799 -0.00523156146538 0.00408716959189
-0.00972799956799 -0.00487566033814 0.00602307556424
-0.00972799956799 -0.00663374685781 0.00524340546038
-0.00972799956799 -0.00870294497059 0.00410987697227
-0.00972799956799 -0.00415985420303 0.00181104773635
-0.00972799956799 -0.00291254259226 0.0062548761945
-0.0108219770755 -0.00144400005229 0.00126214114922
-0.0125803470002 -0.00144400005229 0.000576836582024
-0.013122331964 -0.00325662264343 0.00755599979311
-0.0113372313785 -0.00330393357398 0.00755599979311
-0.0109431013601 -0.00880600698767 0.00755599979311
-0.0138214694387 -0.00527932636197 0.00755599979311
-0.0102878459184 -0.0157377014977 0.00755599979311
-0.0120058932251 -0.00710898647426 0.00755599979311
-0.0137681789587 -0.00144400005229 0.00338386473113
-0.014315789796 -0.00144400005229 0.00697331058106
-0.00972799956799 -0.0151584462972 0.00111553938336
-0.00972799956799 -0.0103856837553 0.00149851374164
-0.00972799956799 -0.0111306528411 0.00441549534878
-0.00972799956799 -0.0118083429041 0.00267079760961
-0.00972799956799 -0.0175606842887 0.00119179116339
-0.00972799956799 -0.0125559041841 0.000507914224404
-0.00972799956799 -0.00614868665554 0.00102483357644
-0.00972799956799 -0.0169462462281 0.00270147705122
-0.0114251444768 -0.0181310009211 0.000126776008745
-0.0134185845309 -0.0181310009211 0.000262527111574
-0.0117917344138 -0.0181310009211 0.00247865294335
-0.0110030404305 -0.0181310009211 0.00555102099585
-0.0148709322035 -0.0112508547428 -0.00142900005449
-0.0157876997207 -0.00295626847112 -0.00142900005449
-0.0143277809065 -0.0071548961938 0.00755599979311
-0.0131700145579 -0.0145706898145 0.00755599979311
-0.0152304381449 -0.0037150214083 0.00755599979311
-0.0140099967495 -0.0105916159007 0.00755599979311
-0.0138089024701 -0.00895457818495 0.00755599979311
-0.0140190222001 -0.0129244517618 0.00755599979311
-0.0145398590949 -0.0169979781904 0.00755599979311
-0.0120378694754 -0.0126714838101 0.00755599979311
-0.0141022099429 -0.0181310009211 0.0022978671921
-0.0145535257787 -0.0181310009211 0.00564811553178
-0.00972799956799 -0.00990676966849 -0.000401220612054
-0.0114399694837 -0.01682253791 -0.0011435776442
-0.0137989953442 -0.00233869867851 -0.00142900005449
-0.0137384891628 -0.00893619935775 -0.00142900005449
-0.0140040959822 -0.00531869117798 -0.00142900005449
-0.011747322064 -0.00202665172062 -0.000843752238755
-0.0104823761088 -0.00320378520139 -0.000473225280862
-0.0158239994198 -0.00189770516447 0.00456286987542
-0.0158239994198 -0.0115470254282 0.00440043815872
-0.0158239994198 -0.0102865459022 0.00629956367173
-0.0158239994198 -0.00391802620947 0.00206309690816
-0.0158239994198 -0.00373712145778 0.00570232298777
-0.0158239994198 -0.00969232884294 0.00455358765462
-0.0158239994198 -0.00203314031649 0.00289611610743
-0.0158239994198 -0.00279115881367 0.00041481918098
-0.0158239994198 -0.00507620385697 0.00390406413656
-0.0158239994198 -0.00568072787418 0.00205756819931
-0.0158239994198 -0.00665771083201 0.00575326067135
-0.0158239994198 -0.00785261617093 0.00403453217917
-0.0158239994198 -0.00605287461869 1.53832095175e-05
-0.0158239994198 -0.00973739858645 0.0010291756175
-0.0158239994198 -0.0143631228584 0.00477570525923
-0.0158239994198 -0.00858107343271 0.00236587679848
-0.0158239994198 -0.0119444043368 0.00256132459468
-0.0158239994198 -0.00439470774683 -0.000743941580288
-0.0158239994198 -0.00945009690099 -0.000831040228698
-0.015790098577 -0.0143948552342 0.00222941444108
-0.0157266881195 -0.0157898915214 0.00287758576334
-0.0158185513398 -0.0129950795373 -3.88260698768e-05
-0.0157056588231 -0.0153432524923 0.000768953539035
-0.0155321986887 -0.0178681173989 -1.56477420524e-05
-0.0155345467096 -0.0178469778806 0.00368717655398
-0.0157229062204 -0.0161511542592 0.00477710334944
-0.0155965290405 -0.0172889434051 0.00181445560831
-0.0115844099056 -0.0115993400198 -0.0013231377686
-0.0118929528546 -0.00974793145819 -0.00140934995872
-0.0120030325909 -0.0136403402421 -0.00134077014201
-0.0106515304361 -0.00707752779113 -0.00120307884159
-0.0116243280122 -0.00495850052478 -0.00128648914511
-0.0158239994198 -0.00824540431858 0.00681626538619
-0.0158239994198 -0.0120156627545 0.00701539446011
-0.0157616585191 -0.0143777640942 0.00683369334829
-0.0114331257009 -0.0110727374707 0.00755599979311
-0.00972799956799 -0.00803336643206 0.00935684969439
-0.00972799956799 -0.00472499430298 0.00848103138486
-0.00972799956799 -0.011068999945 0.00812916815693
-0.00972799956799 -0.00844061456378 0.0111919903851
-0.00972799956799 -0.01059656648 0.0099523789989
-0.0101631750044 -0.0100470163149 0.0117269996554
-0.0098070818295 -0.00543792189093 0.0117269996554
-0.0121249704832 -0.0109193350017 0.00938676626467
-0.0117911720325 -0.00493926029947 0.00941308874529
-0.0119045362749 -0.00527257817285 0.00755599979311
-0.0103472448829 -0.00383993056667 0.0107102950524
-0.0121889532874 -0.00811131518074 0.0117269996554
