0.0289910751497 0.0550146259343 -0.00987505012156
0.0320614053184 0.0524376018872 -0.0109459568234
0.0322266870155 0.0488194661328 -0.0147222508059
0.0294779425405 0.0508317016995 -0.014259344249
0.0328540463964 0.0566957017896 -0.00424250651501
0.0305848409365 0.056069132542 -0.00716554854489
0.0298810754528 0.0612835166802 0.00110326667136
0.0324014261802 0.0589706674087 -0.00111391596765
0.036397547585 0.0578164759423 0.00134308237174
0.0336722870502 0.0597519249278 0.00215896145356
0.0403545570858 0.0558846207604 0.0021921325534
0.0393166908617 0.0534697043787 -0.00291677797769
0.0363762837394 0.0533911675985 -0.00584320868121
0.0357390061466 0.0560608073263 -0.00248987902123
0.0362006440362 0.0518048269666 -0.00836551858687
0.0441543672587 0.0453369989991 -0.00257750917993
0.0308382520488 0.0457074193193 -0.0178472004387
0.0466705064627 0.0571019398708 0.0189622952664
0.0503807348959 0.0499048717932 0.0212650001049
0.0391216645258 0.0584319740536 0.0168559998274
0.0352448104592 0.0629429297159 0.0168559998274
0.0313524488016 0.06342603563 0.0183588172789
0.0361536677574 0.0598933327797 0.0194814889747
0.0553230452873 0.0455629227854 0.0211076259941
0.0419549226885 0.0556254988103 0.0206034424589
0.0448989084814 0.0537090846546 0.0212650001049
0.0544918947994 0.0498653639823 0.019989742131
0.0383231025013 0.0629112693112 0.0188831251225
0.0547186724733 0.0456321407465 0.0172712321512
0.0409483699985 0.0560270548293 0.0176473501151
0.045443726652 0.0533067644858 0.0168559998274
0.0287074085732 0.0682327276451 0.0200707446158
0.0338208885211 0.0653288415431 0.0186543412383
0.0490606770932 0.0551703521893 0.0187675569245
0.0515135089191 0.0527799575868 0.018615326627
0.0426184151011 0.0602759763028 0.0193145232237
0.0440274335256 0.0586262721665 0.0169380563772
-0.0542806264676 -0.0376175968494 -0.00222624190951
-0.0549314002242 -0.0391414510169 0.000581019237923
-0.0448786744513 -0.0388069580125 -0.00568904621287
-0.0446574428736 -0.0413683162263 -0.00286438016281
-0.0424274646855 -0.0417460108735 -0.00543605841168
-0.0523183016096 -0.0359092909305 0.000892252437641
-0.0453086758562 -0.0366644617045 -0.00771868463572
-0.0435273396698 -0.0483776862693 0.00415203134085
-0.0493522106653 -0.0412842566969 0.0034174942921
-0.0507712991613 -0.0345248825503 -0.00290086426229
-0.0483361400402 -0.0370873146981 -0.00308562389748
-0.0480544743601 -0.0404043599179 0.000578991267931
-0.0475440092454 -0.032949969531 -0.00921148111185
-0.044660296943 -0.0344585683794 -0.011292181076
-0.0437681562651 -0.0445829338374 -0.000151061329724
-0.039781782749 -0.0522000134367 0.00372265048075
-0.0564201417118 -0.034025143645 0.00417122688321
-0.0470397995241 -0.0447505436317 0.00417800014839
-0.0544361343594 -0.0364402825669 0.00417800014839
-0.0391260012984 -0.0468560265674 -0.00673449146696
-0.0427402307898 -0.0376247591381 -0.0101604779823
-0.0399355170523 -0.0490830842584 4.72478017632e-05
-0.0409485707911 -0.0457601032517 -0.00258227417814
-0.0417975967284 -0.0357052764248 -0.0142103971509
-0.0392823868226 -0.0431245542895 -0.00875911714865
-0.0406863965626 -0.0402325635889 -0.0101822568454
-0.0557094484914 -0.0318120010197 -0.000207618309349
-0.0449394918911 -0.0377263755227 -0.0132385612174
-0.0410157216537 -0.0409675242881 -0.0143215757286
-0.039923522928 -0.0441213182503 -0.0121773273579
-0.0416347270892 -0.0486158886372 -0.00541200854074
-0.044369076422 -0.0452988421937 -0.00689689693911
-0.0451356297376 -0.0406615813394 -0.0111360125433
-0.0427928454051 -0.0436198405816 -0.0101822344368
-0.0441377730847 -0.0485528429652 -0.0029076066054
-0.0465215715869 -0.0483377971177 0.000192332955068
-0.0439308165 -0.050310090603 -0.00020109863685
-0.0424824311797 -0.0539604127379 0.00400182165076
-0.0494122292936 -0.0473347000691 0.0027102150745
-0.044936959112 -0.0514735114708 0.00330115257007
-0.0485056748462 -0.0393730622755 -0.00855350165561
-0.0490680693397 -0.041553086257 -0.00550649173579
-0.0519257643767 -0.0404964208514 -0.00260574590349
-0.0521752674774 -0.0375373182391 -0.00532517784221
-0.0478063606236 -0.0443412044695 -0.00396470865152
-0.0465274412487 -0.0425588823384 -0.00768422013616
-0.0493097665593 -0.0449337047076 -0.00108702771078
-0.0477076487404 -0.0375846776602 -0.0109217062322
-0.0505660315062 -0.0347723102265 -0.0098548929249
-0.0545069832574 -0.0334072472513 -0.00612556913284
-0.0569825382745 -0.0351644075143 -0.000428770202617
-0.057586286161 -0.0372132072516 0.00299452459806
-0.0595010138772 -0.0328784441618 0.00160876172487
-0.0523017389354 -0.0438581336021 0.00243886678143
-0.0605523019589 -0.0208584112671 -0.00576405079375
-0.0612592820418 -0.0178026378013 -0.00610573474923
-0.052571849695 -0.0155139119559 -0.0144936735508
-0.0482083735156 -0.0264416884726 -0.0130954105873
-0.0503354904168 -0.0234623465011 -0.0120507909852
-0.0523470507377 -0.0231812116955 -0.00926379951719
-0.0606893215172 -0.0149142113123 -0.0027427313124
-0.055848455923 -0.0148481557045 -0.0099764500998
-0.058767686995 -0.0177548012364 -0.00358070846038
-0.0512025031292 -0.0193595821771 -0.0136738333917
-0.0576868646389 -0.0163866989816 -0.00615576418573
-0.0558166663758 -0.0188923950831 -0.00715492940076
-0.0537763484831 -0.0173999993539 -0.0112426404222
-0.0517796176624 -0.0315887769162 -0.00620429695636
-0.0650847366531 -0.0152140976864 -0.000139909484701
-0.0544421316244 -0.0205775143032 -0.0140819090131
-0.0555590727729 -0.0169154362939 -0.0143666349156
-0.0580308065122 -0.0198186976087 -0.0102572108826
-0.0596383495182 -0.0168440035112 -0.00910556395431
-0.0583525405703 -0.0289117338034 -0.00381364986368
-0.0566782520754 -0.0276052036939 -0.00728047278262
-0.0581445168086 -0.0226910866277 -0.00847839351222
-0.0518386425523 -0.0309547959586 -0.0114643053012
-0.0514799879635 -0.0282734764124 -0.0135592595216
-0.054051456735 -0.024531541669 -0.0126815058975
-0.0559895446429 -0.0250765746219 -0.00991688364872
-0.0540491582229 -0.0302942092378 -0.009211972617
-0.061336035462 -0.0186364314769 0.000167707784275
-0.0496059605089 -0.0306979977862 -0.00892324529044
-0.051132556065 -0.0274262883407 -0.00856848320123
-0.0570507506105 -0.023080095481 -0.00313518743802
-0.0472388920582 -0.0304190821806 -0.0120782100721
-0.0573826235098 -0.0257762062043 -0.00139961971355
-0.0547924082767 -0.0250789950907 -0.00504280401494
-0.0550201080155 -0.0218126683935 -0.00634217133496
-0.0592338483764 -0.021055836516 -0.00133588876156
-0.0541149572677 -0.028209312331 -0.00438329617943
-0.0542873002179 -0.0315478656416 -0.00284531004819
-0.0607718578601 -0.0257856881229 -0.0024914201178
-0.0629726059785 -0.0173965937543 -0.00345144913293
-0.0646969270335 -0.0197149131094 0.000808848097048
-0.0664253730451 -0.0192485568852 0.00422535221237
-0.0634819981243 -0.0299392616867 0.0164527901447
-0.0675032065493 -0.0211632594809 0.0192252608326
-0.0634546684919 -0.0265120092044 0.0134999426006
-0.0637635948017 -0.0236963664784 0.0119110544883
-0.0592142098417 -0.0306165352325 0.00624292794224
-0.0646077267764 -0.026542245143 0.0164378236042
-0.0680439246802 -0.0173957121557 0.0174208736777
-0.0662398021592 -0.0192585473674 0.0144314096065
-0.0615650378679 -0.0271928349917 0.00929991229353
-0.0629613216628 -0.0227111170729 0.00884164865415
-0.0656110940503 -0.0149715549838 0.00806660198473
-0.0609435161013 -0.0218499712166 0.00219927693906
-0.0638245702111 -0.0168678417269 0.00503234852782
-0.0603732711361 -0.0269122475489 0.00600298398664
-0.0595149404513 -0.025280159114 0.00182216529409
-0.0679297793986 -0.0149992241055 0.0146695198234
-0.0644226086929 -0.0181102430968 0.00805801138945
-0.0647572069624 -0.0206018045645 0.0116743490593
-0.0659409095483 -0.0171294243433 0.0113120883131
-0.0615067800916 -0.0230396359541 0.00506989039136
-0.0675457156201 -0.0140051901078 0.0105639795354
-0.0701834089147 -0.0197198151048 0.0192594597081
-0.0715381496575 -0.0145713550831 0.0170135135708
-0.0692831414281 -0.0180151487374 0.0114210140331
-0.0681755323166 -0.0175856272009 0.00715887650041
-0.0652314725161 -0.025590620443 0.00668097242862
-0.067642226517 -0.0226733073296 0.00980087760424
-0.0689784911166 -0.0212165186635 0.0131072759595
-0.0697545883226 -0.021347342875 0.016216114806
-0.0670722373763 -0.0287090535676 0.0162026750574
-0.0685764159143 -0.0242600242358 0.0153492828511
-0.061340106855 -0.0312363541719 0.00371781236506
-0.0644868140196 -0.0290876806673 0.00847485130534
-0.0662286899297 -0.0279016408321 0.0113536477736
-0.0646932304255 -0.0316563111557 0.0119068930658
-0.0661653226017 -0.0314509404979 0.0183597765956
-0.0608467536019 -0.0285638830132 0.00032399999327
-0.0669538375591 -0.0150204717713 0.00315592434156
-0.0638058443785 -0.0255307880131 0.00324352560209
-0.0664988132451 -0.0221132078935 0.00633988212232
-0.0655071443036 -0.025014287166 0.0206141230133
-0.0621359844857 -0.0329125506878 0.0202315838784
-0.060016250822 -0.0379893957435 0.0204755886834
-0.0717061814922 -0.0166812359074 0.0225632546443
-0.0691713655608 -0.0243288976065 0.0200053782714
-0.0667867262881 -0.0278033932108 0.0196119993925
-0.0623711976583 -0.0397159886596 0.0219371105651
-0.0661567331765 -0.033346639699 0.0219332864741
-0.0612917467971 -0.0529047554533 0.0254730248889
-0.064515573737 -0.0484116455546 0.0240915285402
-0.0639789959283 -0.0356216370035 0.0229180008173
-0.0611111192395 -0.043528726488 0.0229180008173
-0.0665613705453 -0.0294755078892 0.0229180008173
-0.0637018471277 -0.0313428140427 0.0231394715747
-0.0599775134284 -0.0406051522097 0.0238029606593
-0.0595149993896 -0.0508713990097 0.0270653691056
-0.066871782303 -0.0420133475862 0.0229180008173
-0.0659951855689 -0.038843240019 0.0229180008173
-0.0704851549488 -0.0265925181696 0.0229180008173
-0.068904005212 -0.0346702414811 0.0229180008173
-0.0648340215684 -0.0445650605311 0.0229180008173
-0.0699083963202 -0.0197074928943 0.0229180008173
-0.0703601548417 -0.0303284736722 0.0229180008173
-0.076580998532 -0.0242385266561 0.0256937040208
-0.0784104319562 -0.0148594824876 0.0262428353043
-0.0754992516312 -0.0275199264329 0.0260097029487
-0.0788983697311 -0.0177369057592 0.0238408643633
-0.0778700915613 -0.0209260071802 0.0237207466928
-0.0734172830804 -0.0287156376766 0.0229180008173
-0.0728551095973 -0.0205936198969 0.0229180008173
-0.0748893661373 -0.0177151055633 0.0229180008173
-0.0740675632599 -0.024317221808 0.0229180008173
-0.0781484619026 -0.013635000214 0.0230187077788
-0.0618188159124 -0.0503126585496 0.0231637559068
-0.0595149993896 -0.0473186843862 0.0240706499876
-0.0700784460573 -0.0386320828733 0.0232066635201
-0.0737950924777 -0.0323195808542 0.0250789258654
-0.0623638934285 -0.0487270155868 0.0272400165686
-0.0761637256779 -0.0171804833844 0.0268557557947
-0.0741341796743 -0.020350084045 0.0269279495275
-0.0754442545588 -0.0138760058764 0.026780489983
-0.0722478473922 -0.0286496470463 0.0271169879895
-0.0676512081019 -0.0450071051474 0.0247753678511
-0.0708364420564 -0.0374816595659 0.0263526482125
-0.0695470443134 -0.0412154706644 0.0251352184664
-0.0652729708398 -0.0363706434051 0.0271585305394
-0.072775440209 -0.0235916322719 0.0269983223604
-0.0689433058405 -0.0338475490296 0.0271855072743
-0.0677322471069 -0.0305013215308 0.0270585341973
-0.0643511927624 -0.0454838199205 0.0273269992322
-0.0661526608592 -0.0419964396531 0.0273269992322
-0.072518097276 -0.0139551000103 0.025548070686
-0.0618225177695 -0.0370527123687 0.0251586821806
-0.0671972196584 -0.0238921545363 0.0241807816045
-0.0716452754409 -0.017484223804 0.0260581763846
-0.0687313072416 -0.0256031683678 0.0265660318016
-0.0710687311829 -0.0206176132961 0.0265282057129
-0.0628060986092 -0.0393811299033 0.0269377873976
-0.0640425085416 -0.0338262244013 0.0260043352255
-0.0600458822086 -0.0436943383551 0.0263526004546
-0.0475347285584 -0.0558975457651 0.0199183458737
-0.0527989975824 -0.0512203270917 0.0200082039564
-0.044026596186 -0.0546002661887 0.0217592071281
-0.050080793282 -0.0487151492137 0.0207739132404
-0.0463066932245 -0.0524714629625 0.0198259596157
-0.0419199115933 -0.0567924600843 0.0196119993925
-0.0535603749643 -0.0454327409419 0.021514255339
-0.0452391237581 -0.0583263882463 0.0212414780591
-0.0586704823531 -0.0558039850153 0.0247564647637
-0.0550822521858 -0.0546498845643 0.0273269992322
-0.0495431207948 -0.0593670297332 0.0273269992322
-0.0400899041182 -0.0682910345152 0.0234552943356
-0.0421499067289 -0.0654894359883 0.0233327654823
-0.0429886793924 -0.0612961961701 0.0231342885815
-0.0475967802933 -0.0606898294341 0.0232690053469
-0.0525726291118 -0.0610378646131 0.0234692437081
-0.0494450885076 -0.056033436139 0.0271675210914
-0.0551258085617 -0.0477691484584 0.0260603952112
-0.0518845092933 -0.0535691726298 0.0270175551927
-0.0486626263072 -0.0530086085952 0.0257739970339
-0.0458459078247 -0.0561091444448 0.0260332821202
-0.0401576341607 -0.0633818766379 0.0270556899552
-0.0436806525128 -0.059598616469 0.0267781175708
-0.0426960600149 -0.0575926756094 0.0246997372385
-0.0399966081374 -0.0601445614246 0.0247047188609
-0.0571740314668 -0.0433622661664 0.0235994753866
-0.051190772909 -0.0500583890995 0.0251307326951
-0.0532515124995 -0.0482360875875 0.0229180008173
-0.0540101572196 -0.0516808135372 0.0230484924532
-0.0476373510818 -0.0566111770714 0.0230625060777
-0.0554193177203 -0.0562455421336 0.0233264521703
-0.0567007465478 -0.0493058123492 0.0230279930715
-0.0515758949293 -0.0540258698246 0.0230767961227
-0.0553293419124 -0.0587617299264 0.0249814121073
-0.0464077550592 -0.0655437682556 0.0239592497762
-0.047589191204 -0.063710189909 0.0273269992322
-0.0408498212614 -0.0672852191277 0.0273269992322
-0.0435983019886 -0.0677641656311 0.0256801472868
-0.0523349251843 -0.0606405118019 0.0271509495374
-0.0339739003409 -0.0485293021537 -0.00676624297213
-0.0378751204033 -0.0407394445571 -0.0127730779056
-0.0372678800358 -0.0486362900838 -0.00475985783651
-0.0314107899369 -0.0501704366723 -0.00650144834744
-0.0251964883783 -0.0551438933915 -0.00480634320346
-0.0258866655187 -0.0521522060097 -0.00757767792571
-0.0279913001987 -0.0533370836253 -0.00511341459001
-0.0294127374011 -0.0478954016304 -0.0100588582737
-0.0341327772431 -0.0441055252241 -0.0113594057505
-0.0314027849694 -0.052864426694 -0.00463500013575
-0.0260236780352 -0.0481472141124 -0.0126568088554
-0.0215815804533 -0.0526157143686 -0.0105068529251
-0.0237229519468 -0.0500857630037 -0.0120499897785
-0.0339641954809 -0.0418307469247 -0.0142468166194
-0.0293919862592 -0.0456817266633 -0.0130428846025
-0.0210459136061 -0.0562209501799 -0.00611350408321
-0.0262236542944 -0.0517165985231 -0.0140793100087
-0.0336536808937 -0.0463756422972 -0.0148751260436
-0.0314613303531 -0.0485952324793 -0.0140617927331
-0.0247995606847 -0.0545376725503 -0.011647227706
-0.0293447961477 -0.0518668000708 -0.012187613863
-0.0289682972423 -0.0545096470373 -0.00921967629696
-0.0216284460004 -0.0595058454136 -0.00655890782109
-0.0196982264694 -0.0580564547282 -0.0101687133157
-0.0241337338336 -0.0575751543137 -0.00829714432796
-0.0218805459371 -0.0539843915284 -0.0139807538465
-0.0376736627654 -0.0488827914385 -0.00913645606177
-0.0331677430089 -0.0503085566187 -0.0115525031082
-0.0360502520088 -0.0476213736772 -0.0120835283873
-0.0369543174734 -0.0435915109311 -0.0149826826771
-0.027486808519 -0.0573685281973 -0.00639473067703
-0.0351731674971 -0.0515758909606 -0.00818115681019
-0.0380288825711 -0.0516229917066 -0.00550332497277
-0.034528009215 -0.0510141522769 -0.00392379784005
-0.020705227892 -0.0623338862122 0.00460536999618
-0.0244579280344 -0.0601115568321 0.00418839030553
-0.0233347828195 -0.0623434392472 0.00768728006284
-0.0308667877846 -0.0540263515783 -0.00145515629128
-0.01927367532 -0.0598488130444 -0.00241296568843
-0.0249426583917 -0.0583443636842 0.000946984992556
-0.0252903135117 -0.056872590517 -0.0018178035509
-0.0214354470472 -0.0599497618989 0.00032117453479
-0.0264760573751 -0.0610006579469 0.00805062869264
-0.0304364351193 -0.056308238024 0.00290443542756
-0.0360985278085 -0.0531679989474 0.00217107189504
-0.0285039523094 -0.0613968833334 0.0106112271496
-0.0359768410368 -0.0514930669832 -0.00104760752401
-0.0371680212832 -0.0551831835353 0.00687437758156
-0.0358527047026 -0.0573633208606 0.00973757447979
-0.0301695175107 -0.0587639850921 0.00722279475318
-0.0214259311539 -0.0651491306691 0.0112063327188
-0.0340657396677 -0.0554397330722 0.00455858074478
-0.0323682995855 -0.0596918028465 0.0109239807249
-0.0239287595071 -0.0598465358101 -0.00417129972043
-0.0301875590342 -0.0573593998163 -0.00415382512744
-0.0347275155386 -0.0615935633211 0.00903793247269
-0.0291669009571 -0.0644379916011 0.00872243021055
-0.0357814805635 -0.0599360686399 0.00610938415664
-0.0380732822757 -0.0604510185399 0.0110336578029
-0.0381193258819 -0.0562376502318 0.00209328170124
-0.0334786333553 -0.0562704743731 -0.00318930526519
-0.0338507990639 -0.0577977726387 -1.17133007373e-05
-0.0371144297179 -0.0554456623294 -0.000667527085645
-0.0318337579668 -0.0625760322164 0.00741312827963
-0.0254513174473 -0.0634031550377 0.00298652632084
-0.0306729025496 -0.0593229758791 -0.00012043162718
-0.0328237185916 -0.0606668892192 0.00447410094392
-0.0272160559107 -0.0604770754368 -0.00116002910304
-0.0248825442715 -0.0665329615853 0.00998092031488
-0.0205373248753 -0.0672489807708 0.00807280778787
-0.0263079674679 -0.0644801082989 0.00603115394076
-0.0227674187481 -0.0658094343915 0.00602732465822
-0.0205202016884 -0.0654520614258 0.00338202931981
-0.0226192636368 -0.0627862927601 -0.000598129789034
-0.0391260012984 -0.052706838966 -0.00147241730276
-0.0362031866238 -0.0537491852933 -0.00350968596346
-0.0122468928256 -0.0548455357391 -0.0111986749403
-0.00862748938778 -0.058099202093 -0.00750588645866
-0.00959010058032 -0.060476526725 -0.00404048901291
-0.0128637197176 -0.0580033574885 -0.00673632126664
-0.0178727025757 -0.0578087513615 -0.00593785382534
-0.0162096246867 -0.0600400058572 -0.00323127034228
-0.00352934090738 -0.0623098135005 -0.00281510628124
-0.0151637011532 -0.0560220226031 -0.00896465794378
-0.000691498160959 -0.0569310042117 -0.0151049997658
-0.00188439883764 -0.0604597886065 -0.0104027384339
-0.000107293021422 -0.0639399680384 -0.00519915351983
-0.00083256820594 -0.0572029072357 -0.0105409045465
0.000406571300256 -0.0607124192391 -0.00591303351061
-0.00478036999097 -0.0561689208113 -0.0110744096325
-0.00777289122324 -0.0549729055703 -0.0120561308156
-0.015823746049 -0.0519561052668 -0.0144159702587
-0.011470807656 -0.0528434348229 -0.014181706593
-0.00424890589592 -0.0594691106927 -0.00657574509302
-0.00541904048911 -0.0637171406216 -0.00540471737983
-0.00952995768577 -0.0629901124447 -0.00588814807392
-0.0122085971221 -0.0612918385802 -0.00760490207982
-0.0123592949737 -0.0637490615938 -0.00392518869322
-0.0148521779748 -0.0622654407688 -0.00534702103051
-0.0185776007234 -0.0609252766727 -0.00557598667191
-0.00667374991665 -0.0578165723631 -0.0139299645718
-0.0164696721918 -0.0588252517221 -0.00998484367194
-0.00664207978002 -0.0614147698217 -0.00906030309517
-0.01042127263 -0.0598260268088 -0.0102840472611
-0.0108838560248 -0.0577663741697 -0.0131507970333
-0.0140678817131 -0.0562732703277 -0.0141357386412
-0.0185132665698 -0.0545071895918 -0.0109048542687
-0.0133891228184 -0.0666541397042 0.00224269401056
-0.0101845474044 -0.0666482217803 0.00084111137701
0.000546999974176 -0.0685377191608 0.00980973697876
0.000546999974176 -0.0658490511142 0.000880719694557
-0.00357802885702 -0.0709076012999 0.0114896261131
-0.00529358031497 -0.0701412819549 0.00802816828372
-0.000888239607133 -0.0681645516885 0.00334562940633
-0.0133687055901 -0.0697691914094 0.0105071592096
-0.00998863413281 -0.0701195544442 0.0096804185813
-0.00162200630334 -0.065575883335 -0.00199095617746
-0.0135155096316 -0.0617762872554 -0.000933498087996
-0.00429643241179 -0.0649289171648 0.00359513391423
-0.0102943204823 -0.0623305517683 -0.000719421371914
-0.00854212242023 -0.0643806103581 0.00376859135674
-0.00696797114917 -0.062394613706 -0.0017691460132
-0.00168067991477 -0.0666332077648 0.00690459608251
-0.00976602739868 -0.0654282745247 0.00665046275156
-0.0175420787454 -0.0617693703557 0.000392543477007
-0.00827979242977 -0.0668598580826 0.00955242293394
-0.0130680636176 -0.0661018268711 0.00918180302275
-0.0141917127392 -0.0630882958197 0.00248884292425
-0.0130377842359 -0.0647078396301 0.00592551418462
-0.00274618384272 -0.0678394009295 0.0102218894274
-0.0175975072219 -0.0687665216161 0.0098490223491
-0.0175949876226 -0.0631057705319 -0.00242063502089
-0.0157337929765 -0.0649975504739 -3.1161216038e-05
-0.0179809549257 -0.0654648817262 0.00856567686507
-0.0174387216085 -0.0632514161881 0.00379375669719
-0.00542023171555 -0.0682075664366 0.00359323422906
-0.00257144510076 -0.0671408954514 0.000974077508255
-0.00683573985 -0.0665430197216 0.000156816479225
-0.0155712401239 -0.06805153744 0.00624149093962
-0.0124010209365 -0.0686008918745 0.00632256042752
-0.00983028535662 -0.0682158336535 0.00437092000435
-0.0347062879763 -0.0594717410482 0.0137346264788
-0.0268144482312 -0.0669184560063 0.0142251257825
-0.0236475956825 -0.0684227545283 0.0149489885575
-0.030761174573 -0.0649395448184 0.012989944124
-0.0220405319826 -0.0695570721489 0.0175224014194
-0.0258876279807 -0.0687971537633 0.0196042377491
-0.0386350738955 -0.0580189311192 0.0132241733261
-0.0385953793322 -0.061284974013 0.0144719954579
-0.0300941016163 -0.0617055949789 0.0143648456623
-0.0244489415994 -0.0643151430361 0.0141821013788
-0.0379403849962 -0.0593051375345 0.0201734000257
-0.038082161765 -0.0584191711865 0.0163439736815
-0.0342385547812 -0.0609711958653 0.0200689999715
-0.0317828540822 -0.0614281583405 0.0169771482273
-0.021556291196 -0.0661982471581 0.0171179671993
-0.0258371892741 -0.0644699947387 0.0182667883299
-0.0228398253771 -0.0667178253245 0.0208121609148
-0.0316791844591 -0.0628066454878 0.02207835926
-0.0284111894064 -0.0637941199919 0.0201301719604
-0.0366988860518 -0.0608397346112 0.0226061550996
-0.0358036903483 -0.0646123018563 0.0214274707048
-0.0354970550434 -0.0635610037444 0.0163889111699
-0.0318409549799 -0.0665626647956 0.020851446689
-0.028694840373 -0.0671371078951 0.0174437034296
-0.03209921676 -0.065229608737 0.0160692979335
-0.0100935793991 -0.0715130666988 0.013925346822
-0.00649856711673 -0.0715103848901 0.0123991016297
-0.0197304370469 -0.0678596923125 0.0192271797719
-0.0171681985584 -0.0669583817845 0.0124827442686
-0.0135491229785 -0.0674559882 0.0150059381461
-0.00483718922811 -0.0685875770085 0.0138461591026
-0.0115531294131 -0.0705537172592 0.0234670005739
-0.000859621963651 -0.0731476522559 0.0186304421457
-0.0167893977026 -0.072257793619 0.0225802236924
-0.0200114486027 -0.0695414498689 0.0149834765958
-0.0111463788118 -0.0683242199204 0.0120948275386
1.44614840539e-05 -0.0718682756745 0.023379844602
0.000548999989405 -0.070405777224 0.017425465601
-0.00763967937597 -0.0699124477017 0.0216283431792
-0.0163535651744 -0.0683879296838 0.0207185738373
-0.0120706243415 -0.0689739219834 0.0206735443122
-0.0160569524296 -0.0673117363318 0.0173498891107
-0.00350759811722 -0.0698420927858 0.0187760073296
-0.00169774142558 -0.0693516189819 0.0151079638843
-0.00929953677463 -0.0681111690494 0.0156568103341
-0.0164371965695 -0.0700815335586 0.013338615421
-0.0166178935619 -0.0713210243484 0.0184786360631
-0.0140150965631 -0.0714408855939 0.0163552867049
-0.00528985591174 -0.0730243167814 0.0186088023966
-0.00513293215802 -0.0723187865805 0.0154563834607
-0.00857546820684 -0.0735232379369 0.0216715277214
-0.0112044380933 -0.0726551413003 0.0190718538687
0.0199148404426 -0.0572568027981 -0.0109525365339
0.0222755486858 -0.0581247584315 -0.00839462517058
0.0115370408847 -0.052805511113 -0.014712138231
0.00348921996365 -0.0620829350904 -0.00784957799435
0.00196993693629 -0.0604083833854 -0.0102224165191
0.00742804861007 -0.0569773860185 -0.0142950087309
0.00220867155341 -0.0586619550642 -0.0129927334865
0.00911872821549 -0.0591052931526 -0.0119755816452
0.00856784374308 -0.0623769898824 -0.00729288256847
0.00381043021743 -0.0587278813662 -0.00814785313288
0.00847992366088 -0.0550515788254 -0.0116326499176
0.00114750526376 -0.0554538107541 -0.013185356968
0.00509528641291 -0.0560156918511 -0.0113311631705
0.0201784284932 -0.0552860339493 -0.00819261789891
0.00577654968569 -0.0604036621117 -0.00545146695202
0.0083367955211 -0.0583807555312 -0.00734970339355
0.0180565773824 -0.0520129844139 -0.0128931599725
0.0182374573648 -0.0577120821624 -0.00562232687814
0.0141915071921 -0.0572215073725 -0.00729640775466
0.0116146181121 -0.0560170672365 -0.00949326592278
0.0118901681074 -0.0594923345265 -0.00501658811071
0.0170714502243 -0.0555289931404 -0.00869271511795
0.0133719826145 -0.0569742204501 -0.0134156354278
0.0176933278252 -0.0555295951703 -0.0139431352321
0.0183667001073 -0.0591974838896 -0.00887649316593
0.0221784959115 -0.0602308192795 -0.00571914419331
0.0110748375732 -0.0609075900842 -0.00890731459742
0.0144631626208 -0.0604071502847 -0.00857034853795
0.0167756636196 -0.0577284685546 -0.0116026087483
0.0209796139378 -0.0539809608843 -0.014410477855
0.00676363907237 -0.0663639666151 -0.000538245226774
0.00725202989215 -0.0675935282974 0.00221410628959
0.0166647598081 -0.0668366479692 0.00914200022817
0.015287723801 -0.0597318404903 -0.00400359799189
0.0126607384396 -0.0629195632013 -0.00463500013575
0.021202306112 -0.062713577042 -0.00137829008351
0.0180388317999 -0.062267387622 -0.00396039712272
0.00848981681075 -0.0690959666867 0.0057721489509
0.0107334216347 -0.0630456098164 0.00189235275874
0.0139426018605 -0.0616927483348 0.000361672388045
0.00474945830199 -0.0636078964579 0.000467356963418
0.00100255782244 -0.0633578584887 -0.00173927603975
0.00816037164511 -0.0621939099982 -0.00110733420495
0.00183944659996 -0.0657678010114 0.00389233802236
0.0170379484348 -0.0642730075992 0.00628780886599
0.00445390319753 -0.0666352484063 0.00687035052602
0.0138144888752 -0.065702685264 0.0079966985179
0.0204143605387 -0.0651010026278 0.0088964729822
0.0088531172103 -0.0646375860291 0.00445017063132
0.017270198068 -0.0608967234237 -2.6629384084e-05
0.0201222752516 -0.0618642924224 0.00268413633773
0.0210811244728 -0.0633798924368 0.00584691629725
0.0162106693812 -0.0625210641237 0.00271861655236
0.0094494266244 -0.0665604677773 0.00827137160801
0.0130758167753 -0.0641109492927 0.00475789350033
0.0198593598698 -0.0592768656052 -0.00229109160895
0.0182236139822 -0.0644516096355 0.000144083704621
0.0183743322276 -0.0672434798189 0.00583490954323
0.0150000104124 -0.0677283109809 0.00515275243465
0.0140437135594 -0.0664660504279 0.00211369101272
0.00197473052147 -0.0698902992299 0.00704519802338
0.007279766213 -0.0639947875133 -0.00433727881003
0.00360437158234 -0.0648736696077 -0.00353749603706
0.00408342351498 -0.0672262452709 0.00116907585483
0.0123630226172 -0.0651351346184 -0.00135685239221
0.0110204989939 -0.0673161456543 0.0024810525141
0.0335038019222 -0.0535963156865 -0.00712702847417
0.0384374264601 -0.0444733215245 -0.0124305200385
0.0307234338891 -0.0503601878532 -0.00747648902714
0.0356926990679 -0.0463346010921 -0.00873693716961
0.033153595677 -0.0483109958986 -0.00817841641607
0.0265507216317 -0.0536641356243 -0.00649917528047
0.0281287770321 -0.0497465694293 -0.00986802383552
0.031490661549 -0.044540561498 -0.0135650012531
0.0243066835969 -0.0520981538069 -0.00999651302988
0.0306618337663 -0.0472347213661 -0.0109405434968
0.0351231797916 -0.0424284635179 -0.0132937088875
0.0283064813676 -0.0471593086034 -0.0128710287687
0.023002366944 -0.0501022842367 -0.0134384521725
0.0267369765513 -0.0531877129667 -0.0122697007579
0.0299016513668 -0.0529557175119 -0.0108548370954
0.0266741942619 -0.0559099202717 -0.00881334383251
0.0240370530633 -0.0552799209269 -0.0109007995179
0.0257034688634 -0.0506295928748 -0.0151040004566
0.0333217471953 -0.0486515095543 -0.0130557224015
0.0324425976981 -0.0512222189035 -0.011025504173
0.0285512440303 -0.0509616063167 -0.0138572550306
0.0362559155581 -0.046886222722 -0.0127854028235
0.0353758979788 -0.0508225732373 -0.00906364479549
0.0284048096024 -0.0570346894816 -0.005187000148
0.0252923974939 -0.0580752152426 -0.00670235944599
0.0299352751098 -0.0551755421599 -0.00776026831093
0.0305011239128 -0.0595969876883 -0.000281528680942
0.0283791933855 -0.0616826496326 0.00146105318339
0.0305481715968 -0.0552755408224 -7.88326492052e-05
0.0258597362586 -0.0595161494264 0.00289224109413
0.0236531992117 -0.0572891796228 -0.00383412463025
0.0260669681032 -0.0573277163008 -0.00108904210732
0.0285557272907 -0.0574869854696 0.00197131233741
0.0333431779799 -0.0527957727987 -0.0017571689841
0.0373437694067 -0.0564927573933 0.00792683703949
0.0258963168474 -0.0624534119664 0.00832021711569
0.0361616455154 -0.0553264510813 0.00501896825472
0.0369634150438 -0.0506073728292 -0.00212665575229
0.0270505992919 -0.0604040609383 0.00588394431265
0.0323247298385 -0.0568117956968 0.0043027175014
0.0299506674955 -0.0597328397232 0.00717234990693
0.0328440758544 -0.0583617592259 0.00729715382496
0.0363683515388 -0.0532135984507 0.00169372455802
0.0236882818364 -0.0609986550324 -0.00257603157673
0.023272397782 -0.0641177809191 0.0030395800125
0.0356858548378 -0.0608030606454 0.00775866765025
0.032406433609 -0.0627082845347 0.0083749106296
0.036969711702 -0.0522864758339 -0.00518599990755
0.0382071164933 -0.056547148481 0.00266137586186
0.0309115152704 -0.0575062778606 -0.00342990678498
0.034686674599 -0.0561802827042 -0.0022326699534
0.0368227094207 -0.0591059110711 0.00527174869772
0.0344317886516 -0.0579654497259 0.000393074593072
0.0316874128756 -0.0608157582242 0.00302242511033
0.0235177990702 -0.065723618851 0.00617724904489
0.0251399238673 -0.0622422574459 0.00053281468548
0.0266356649943 -0.0641118798382 0.00528696991734
0.0299766900379 -0.0628059631306 0.00569717828351
0.00334670984753 -0.0689336942311 0.0136212178507
0.00526457682715 -0.0694613562153 0.0172825616196
0.00817069361117 -0.0679512910663 0.0126608046116
0.0110780451568 -0.0680484418559 0.0151168047056
0.0131016038504 -0.066757698974 0.0108450779713
0.00245372044785 -0.07061962816 0.0204217577772
0.021742332157 -0.0673321925229 0.0182994560024
0.000551000004634 -0.071169832549 0.0119739378345
0.00487232261188 -0.0728749942832 0.0184656502981
0.0112356578803 -0.0728993896935 0.0228867706793
0.0130008465671 -0.0720781436939 0.0191274583226
0.0148652336256 -0.0707961347103 0.0145035327554
0.020627399703 -0.0660887227067 0.0130572326516
0.0168285149532 -0.0664904980626 0.0122663538616
0.00720482229904 -0.0698199882941 0.020207418204
0.0186778659666 -0.0672343544625 0.016807294168
0.0139112703445 -0.0681137442499 0.0173656078063
0.0102196380043 -0.0690093101703 0.0187385053896
0.0131453101696 -0.0691077364849 0.0211940449916
0.00692853518554 -0.0712501932061 0.0115826159875
0.00715177523674 -0.0719365441452 0.0146376009366
0.00367203809705 -0.0706755274476 0.00935699798879
0.0076937633166 -0.0733474586579 0.0211746178771
0.00888950542582 -0.072409343388 0.0177990701052
0.0115624063095 -0.0716498284288 0.0161342785844
0.011077001392 -0.0704663425136 0.0109632549536
0.0156811754208 -0.0696863288641 0.0111773051635
0.0220430009067 -0.0691035094151 0.0152433461699
0.0206470379748 -0.0682064962264 0.0104377580835
0.0189376122004 -0.0707720556652 0.0192557876164
0.0176733055794 -0.0705184288373 0.016325615482
0.0345468357293 -0.0632054430884 0.0129950015164
0.0307752534275 -0.0650401874673 0.0122987393496
0.03276846523 -0.0622132836387 0.0199100272197
0.0367893201669 -0.0595664019321 0.0171847789883
0.032530044828 -0.0613540754483 0.0161763542247
0.0347125226292 -0.061979796869 0.02260306236
0.0288159430102 -0.0639973834541 0.0194540649916
0.0358986883186 -0.0589489774859 0.0131741832806
0.0384647628902 -0.0614748953394 0.0149447410581
0.0380785303638 -0.0633593798531 0.0218843029541
0.0272904721896 -0.0664876764291 0.0229180008173
0.0285165771951 -0.0622031135056 0.0111610628642
0.0340530198246 -0.0592977651385 0.0107606644132
0.0244317182787 -0.0644095119217 0.0117300436867
0.0230989550641 -0.0659028900615 0.0152853806514
0.02818315817 -0.0635147653934 0.0161370669132
0.0247789468623 -0.0658563912941 0.018801973485
0.0309522280155 -0.0614587616596 0.0133103801608
0.0258617914741 -0.0659581060221 0.00944634918586
0.0248695155796 -0.0691975947788 0.0203502922052
0.0336922318745 -0.0655929915178 0.0228968965492
0.0296941824321 -0.0643412679771 0.00914200022817
0.0361529570714 -0.063700365947 0.0184876218907
0.0328500479444 -0.0649090101509 0.0160694224569
0.0279592143576 -0.0665864036058 0.0136614352317
0.02615642622 -0.0678309065946 0.0162693769544
0.0312058156604 -0.066702823446 0.0209507457
0.0283751466289 -0.0679208694152 0.0201417612254
0.029803009492 -0.0665873634626 0.0168240959794
0.0420183472569 -0.0506609618702 -0.00271873508628
0.0458845992441 -0.04839207729 -0.00117560825591
0.0444985426199 -0.0511499306989 0.0012358082467
0.038575001061 -0.0478005095889 -0.00315318346742
0.038575001061 -0.0423632322441 -0.00993461672399
0.038575001061 -0.0399787625336 -0.0127637652377
0.048527159061 -0.0432277936586 0.00475245575153
0.0424184149396 -0.0493883266988 0.0042107797876
0.0486069158924 -0.0383216853005 -0.00123307047317
0.046563245029 -0.0413674045776 -0.000191443652676
0.0394352943383 -0.0514036316598 0.00271300536018
0.0439302582641 -0.043003769378 -0.00169025689573
0.0392954934774 -0.0440484079968 -0.00660830049794
0.0415513974828 -0.0422202184828 -0.00585337203143
0.0509813943106 -0.038148131591 0.00173562051612
0.0431347689328 -0.0462206963581 0.00123780924866
0.045876347468 -0.0451092094648 0.00353404727152
0.0533353054027 -0.0379022048447 0.00458685644095
0.0441494172759 -0.0401155733658 -0.00498296779748
0.0463668894501 -0.0368394164208 -0.00607768541028
0.0409862136537 -0.0462729284889 -0.00157857429586
0.0468357040025 -0.0469743489768 0.00573691380217
0.0590728028411 -0.0352077085228 0.00583499995992
0.054385159893 -0.0345819156461 0.00184162749228
0.0415557850794 -0.037377867154 -0.011908360922
0.0445556556023 -0.0356571591915 -0.0101557963283
0.0493423937173 -0.0340319615399 -0.00582339389803
0.0519822387664 -0.0352175295607 -0.000580278499174
0.0479912556266 -0.0340190008283 -0.00923241527709
0.0456146665411 -0.0343884843187 -0.0150538719449
0.0415005325117 -0.0452358687666 -0.0100763930273
0.0495701079895 -0.046342574071 0.00160733218342
0.0461779833877 -0.0517950949111 0.00451544125684
0.0523658393611 -0.0451997782371 0.00441575775329
0.0480353648913 -0.0459068337573 -0.00158567813591
0.0473247441968 -0.0486601053016 0.00152594026929
0.0388581115225 -0.0475331087838 -0.00924993909694
0.0386611869387 -0.049333022615 -0.0061181938558
0.0388581792769 -0.0530028141909 -0.0020202582733
0.0501402620011 -0.0376387302099 -0.00841567487468
0.0520200817872 -0.0431494908779 0.000833549825357
0.0497917816982 -0.0403745482622 -0.00613963893063
0.0507966480988 -0.0418646129866 -0.00268832040134
0.0545082595347 -0.0423902187851 0.003662632928
0.0434730864552 -0.0384426903185 -0.0142812015525
0.047489879069 -0.0365167028647 -0.011939039402
0.0457212114363 -0.0397248869737 -0.0110754156963
0.0427315015907 -0.0424323222666 -0.0117587294227
0.0452602707176 -0.0425880629867 -0.00888300625265
0.0476929355078 -0.0431674531449 -0.00567007111273
0.0447055768115 -0.045234418912 -0.006727620026
0.0568755322925 -0.0391046864313 0.00368539560422
0.0523417572785 -0.0376153190402 -0.00539127740255
0.0536984848251 -0.0349434447535 -0.00602375382962
0.0542831046665 -0.0403293799902 0.000826497957379
0.0548408897819 -0.0378747484166 -0.00108945423021
0.0426137203474 -0.0478316217651 -0.00596288709713
0.0407593215852 -0.0549643535652 0.00291898771824
0.043582555425 -0.0540110691391 0.00483704790158
0.0583941107783 -0.0226402737906 -0.00852088249809
0.0552554573699 -0.0178053598946 -0.00871873388142
0.056043043892 -0.0197495671432 -0.00607746821063
0.0504212066779 -0.024918494891 -0.0106355468194
0.0536042052784 -0.0171917061049 -0.0116576018736
0.0613199070847 -0.0147712385919 -0.00189409377947
0.0569977188756 -0.0141685999486 -0.00883338997209
0.0466115941152 -0.0297695604628 -0.0127123028498
0.0531093056412 -0.0210864469199 -0.00947720727105
0.0585060484058 -0.0176769242099 -0.00393645513317
0.0506787665697 -0.0217485417431 -0.012628170681
0.0585284519507 -0.0308216875403 5.96541438618e-05
0.06523923811 -0.0142676644559 -0.000351086952928
0.0609085054315 -0.0273046650654 -0.000134650876363
0.0640978533794 -0.018141373135 -0.00104318292051
0.0627697788865 -0.0215482078047 -0.00180414573217
0.0630381593959 -0.0160067440228 -0.00434759154807
0.0481113948561 -0.0279017474627 -0.0149238084335
0.0600526090975 -0.0158241690577 -0.00933495067261
0.0486757570513 -0.0285056531529 -0.0106083050164
0.0584702284027 -0.0230187631955 -0.00110465467665
0.0510981102906 -0.0284054033611 -0.00762908568168
0.0564069932144 -0.02593171994 -0.00222748831011
0.0535336604372 -0.0261612735704 -0.00570600502963
0.054440625742 -0.0283188105845 -0.00349228529089
0.0545543703473 -0.0321400555715 -0.00143816225359
0.0540354945099 -0.0230343322798 -0.0066429105143
0.0591009233287 -0.020058306162 -0.0017971110367
0.0526994437066 -0.0311687209915 -0.00424390545944
0.0491978112167 -0.0313943675326 -0.00851012398855
0.0568631565569 -0.0216968479239 -0.00377583775047
0.0559067780963 -0.0203805744902 -0.0129046228799
0.0578339297139 -0.0197418398812 -0.0106549361387
0.0567492297707 -0.0170641840557 -0.0131359323989
0.0517380790266 -0.0340170003474 -0.0091761908343
0.0542120612931 -0.0318080210558 -0.00806561770506
0.0530078473928 -0.0271096593557 -0.0127463965469
0.0550894127416 -0.0236398682202 -0.0125178660557
0.0516148641107 -0.0252148762507 -0.0150868552056
0.0489288134556 -0.0331974711954 -0.0130837738165
0.0538661111606 -0.0293716527202 -0.0103431339426
0.0571839845709 -0.0307775242054 -0.00451552824444
0.0573391353696 -0.0271506808734 -0.00731169285686
0.0591896055069 -0.0277526999837 -0.00374409557931
0.0613973474953 -0.0175284318123 -0.0066808683551
0.061059926852 -0.0207698468166 -0.0054367374432
0.0614996382219 -0.0246308197236 -0.00246293003172
0.0559471538885 -0.0260657592313 -0.00990764772013
-0.0457421768302 0.00590626970902 -0.0266737295371
-0.0453337670978 -0.00200551074774 -0.0270814508938
-0.0462661502954 0.0132652999566 -0.0241355128767
-0.0433620321178 0.0156895311355 -0.0264033544546
-0.0424918018299 -0.00924031951148 -0.0246341173744
-0.041822288987 -0.00477909585069 -0.0250443296113
-0.0427970214688 -0.00176365521256 -0.0241803034489
-0.0424868800098 0.00701719501754 -0.0241819671312
-0.0448713726146 0.00401279507845 -0.0239230003208
-0.0412546113167 0.0134147860708 -0.0251938743518
-0.0418142536982 -0.00303769648106 -0.0277471196228
-0.0415494452972 -0.0076379256681 -0.0277337766528
-0.0423925400517 0.000637246288572 -0.0277028613254
-0.0454484949465 0.00164107727295 -0.0269624730949
-0.0444817490341 0.0107706218794 -0.0268810436212
-0.041552202305 0.00868028704274 -0.0275643723632
-0.0458846944569 -0.00684642648548 -0.0260743661541
-0.0449187302129 -0.0101900420154 -0.026449784927
-0.0207641896575 0.0125708112401 -0.0270876383809
-0.0227834882573 0.0101717894265 -0.0271694578153
-0.0358931184388 0.00439213561033 -0.0275192716717
-0.0277890944073 0.0039620046507 -0.0273771464235
-0.0327609435141 0.0098142418048 -0.0273608647139
-0.0374351797683 -0.00321736931872 -0.0276887318304
-0.0377146011767 0.0012765403879 -0.0276106958323
-0.0247589209337 0.0145560398843 -0.0271248631084
-0.0272692837773 0.00703726543342 -0.027310576592
-0.0190866430099 0.00943666518121 -0.0271146026317
-0.0205140834802 0.0157443278455 -0.027024244239
-0.012495691211 0.0162936451004 -0.0268655690779
-0.0286703216904 0.0144377256847 -0.0271994945453
-0.0331906532413 0.0063458419329 -0.0274330453585
-0.0269314442198 0.0110880036131 -0.0272293146149
-0.0338545889826 0.00144918159192 -0.0275360101918
-0.0239355731228 0.00603236322936 -0.0272674421187
-0.0311060525069 0.016901153724 -0.027198991442
-0.00819223653805 -0.0136270001531 -0.0266574910654
-0.0216031524812 -0.0119624549015 -0.0248417586871
-0.0158928830888 -0.013036558585 -0.0248614545962
-0.0193946515107 -0.00838346699747 -0.0246770579704
-0.0163759353478 -0.00370258088606 -0.0244818686294
-0.00923348908554 -0.010703465529 -0.024513944813
-0.0293034372175 -0.0101145707186 -0.0249452361087
-0.0240150177157 -0.000599011658101 -0.0245673517648
-0.0256986247992 -0.00376668510793 -0.0246914335665
-0.0135837321277 -0.00901640699847 -0.0245648201583
-0.0111088630945 -0.00377411108604 -0.0244740005583
-0.0139160902002 0.000780148783149 -0.0244740005583
-0.00819696981344 -0.00766148648157 -0.0244740005583
-0.00870032455018 0.00327905196547 -0.0244740005583
-0.0172313704925 0.00158889865418 -0.0244740005583
-0.0239664721405 0.00383998197132 -0.0244740005583
-0.00782663943378 -0.00123599396455 -0.0244740005583
-0.0118594041605 0.00832349246306 -0.0244740005583
-0.0211272879276 0.00242687318519 -0.0244740005583
-0.0169848998895 0.0073482958301 -0.0244740005583
-0.0391906746612 0.00852556144458 -0.0254252862212
-0.0386209282532 -0.00981626442565 -0.025711638023
-0.0350389365948 -0.00544643322826 -0.0251131110136
-0.0306055341026 0.000646632809216 -0.0247660410395
-0.0274304113478 0.00019097533153 -0.02464146385
-0.0343287548994 -0.00106746322811 -0.0249516654903
-0.0316035755286 -0.00733374545774 -0.0249480680952
-0.0306077127458 -0.00317616703529 -0.0248333629648
-0.0155887443034 0.0176150635905 -0.025003902946
-0.00955998677705 0.0174510595284 -0.0249834210115
-0.0124562745873 0.0138115859503 -0.024528898981
-0.0244782802206 0.0119906888966 -0.0247060906483
-0.0256922588159 0.00796877465334 -0.0246191106935
-0.0209869684877 0.00829754912634 -0.0245295706413
-0.0162077050639 0.0136991858088 -0.0245803162943
-0.028674129903 0.0122427166267 -0.0248011802498
-0.0226799265075 0.0148484564944 -0.0247482587747
-0.0179390660121 0.0109806427825 -0.0245406351747
-0.0359570180246 0.00649932856224 -0.025103938693
-0.0355231141464 0.0158471802231 -0.0252183999612
-0.0336362096082 0.0117278847195 -0.0250381672771
-0.0291946861423 0.00538040848721 -0.0247261470465
-0.0300791816606 0.0088533760021 -0.0248155774961
-0.032131285292 0.014859022405 -0.0249972936613
-0.0321297615427 0.00389986686489 -0.0248595798345
-0.0314887339891 -0.0010081874402 -0.0275236661868
-0.0369266622616 -0.00764611480698 -0.0277103698557
-0.0278014546669 -0.00176101919351 -0.0274332981385
-0.0247348353499 0.00150859175521 -0.027331276807
-0.0343180625663 -0.00336263621583 -0.0276132270413
-0.0183015646987 0.00552851553211 -0.027136831307
-0.0136526119357 0.0106395145129 -0.0269811042404
-0.00493224679917 0.00732795608336 -0.0266897431484
-0.0098904938356 -0.00520560687751 -0.0268303830526
-0.00491786568991 0.0133322015208 -0.0267037738556
-0.0140273729318 0.00731158258906 -0.02700330908
-0.0328475823274 -0.0133183141928 -0.0276023298333
-0.009954854276 0.00563409925489 -0.0268588276542
-0.0273198691654 -0.00576571211853 -0.0274300035286
-0.0325675318606 -0.00897983185465 -0.0276031699766
-0.00914038040254 0.0119642669669 -0.0268460592017
-0.0240986742631 -0.00882686978452 -0.0273115286298
-0.0183654544031 -0.00195669069696 -0.0271304652842
-0.00667602458694 -0.0104040025733 -0.0267069692585
-0.00668037465808 0.000986406646244 -0.026734677028
-0.0228758079875 -0.00198456070183 -0.0272859176228
-0.00669500258307 -0.00591569651248 -0.0267184825684
-0.0146115326333 -0.00693389754367 -0.0269889859761
-0.0107185662209 -0.000514927020654 -0.0268702840548
-0.0230419737548 -0.00564446959979 -0.0272827923948
-0.0186799047268 -0.00549487666616 -0.0271327474935
-0.0139762073675 -0.00254434847196 -0.0269776995757
-0.0261967726503 -0.0113292060679 -0.0273778182402
-0.0127456815302 -0.011316088458 -0.0269140480784
-0.013739519944 0.00383225602673 -0.026984965904
-0.0391325661824 -0.0127600672974 -0.0277800001204
-0.00481222445349 -0.0136270001531 -0.0259364883236
-0.00770705534144 0.013704532752 -0.0246099175107
-0.00623217630678 0.00537197109206 -0.0244740005583
-0.00513416385434 0.0100155699334 -0.0244740005583
-0.00780100585453 0.00829516146077 -0.0244740005583
-0.0041240855767 0.000978331836759 -0.0245255713203
-0.0363592259468 0.0126905882422 -0.027350266393
-0.0367705573669 0.00832953856221 -0.0274540964695
-0.0398348144048 0.00421272095568 -0.0275521117453
-0.0403653740833 0.0175068606407 -0.0272355981437
-0.0345781508777 0.0181349878323 -0.0274986128684
-0.0187281845991 0.0363855955955 -0.0250250007957
-0.00978916205173 0.0270163734669 -0.0250250007957
-0.0144244274612 0.0342437230759 -0.0250250007957
-0.0119058843911 0.0312228451501 -0.0250250007957
-0.0232818921831 0.0282771932123 -0.0250250007957
-0.0135589756451 0.0215693658624 -0.0250250007957
-0.0259902236205 0.0304230484891 -0.0250250007957
-0.00479713037081 0.0188835428689 -0.0250250007957
-0.0282078950626 0.0232678142737 -0.0250250007957
-0.0132412230792 0.025188120462 -0.0250250007957
-0.0162028604923 0.030075077958 -0.0250250007957
-0.0234978218172 0.0337728451291 -0.0250250007957
-0.0367265150485 0.0204605783702 -0.0250250007957
-0.0209233269002 0.0251808493203 -0.0250250007957
-0.0101741903808 0.0223906428443 -0.0250250007957
-0.0283081774428 0.0187802092673 -0.0250250007957
-0.0227478046341 0.0219142974866 -0.0250250007957
-0.019459498749 0.0284768461688 -0.0250250007957
-0.0269890589279 0.0270305778646 -0.0250250007957
-0.0202561638347 0.0322741847606 -0.0250250007957
-0.034365515906 0.0233528180588 -0.0250250007957
-0.041184829921 0.0199468365712 -0.0250250007957
-0.0285255081737 0.0282821796377 -0.0277800001204
-0.0199048151814 0.0346696525145 -0.0277800001204
-0.0382940869739 0.0200258329698 -0.0277800001204
-0.0161412382042 0.0367176684568 -0.0277800001204
-0.0317440022511 0.0252142990674 -0.0277800001204
-0.0235770616708 0.031757558604 -0.0277800001204
-0.0324694395835 0.03109764445 -0.027408322364
-0.0302950172245 0.0343618234883 -0.0270103567321
-0.0350957063259 0.0299881525876 -0.0263408534166
-0.00684000225499 0.0380901627192 -0.027735908687
-0.0101377214138 0.0311591666364 -0.0275062408139
-0.0157410363537 0.0325677962765 -0.0277444484069
-0.00409855179708 0.0270147779461 -0.0271243340397
-0.0278653062715 0.0215354721428 -0.0275887762265
-0.00393385641562 0.0403460038696 -0.0277547026826
-0.0234292689307 0.0247367013843 -0.0276059220338
-0.0212217864006 0.0198544626049 -0.0273058289507
-0.02662647243 0.025226315817 -0.0277268687287
-0.00990694690333 0.0362808177109 -0.0277433049049
-0.0157967908934 0.0222973936837 -0.0272566396593
-0.00781955004489 0.0195796077244 -0.0268835587721
-0.0244855518947 0.0210811135195 -0.0274639366302
-0.0122188105724 0.0279422034147 -0.0274164485756
-0.00760448219308 0.0287083128314 -0.0273120877683
-0.0195949808004 0.0235319234078 -0.0274314388259
-0.0178553537025 0.0191431878627 -0.0271691508537
-0.0172537523585 0.0272708773143 -0.0275381682905
-0.0183019638438 0.0305005478014 -0.0277241036622
-0.0316614635781 0.0212219211412 -0.0276897282614
-0.0113725016676 0.0399143167098 -0.0277800001204
-0.0247583993259 0.0283962858856 -0.0277800001204
-0.0350587174469 0.0214970450433 -0.0277800001204
-0.00787122544925 0.0323166186101 -0.0250250007957
-0.0114393767965 0.0358616625135 -0.0250250007957
-0.0134010532804 0.0405995690717 -0.0250250007957
-0.0144292429661 0.0376467084347 -0.0250250007957
-0.00715659242373 0.0406963264083 -0.0252951425473
-0.0040802431236 0.0328538019884 -0.0254086895869
-0.00710204925125 0.0360842748358 -0.0251762581157
-0.0279647740402 0.0323624074681 -0.0277800001204
-0.0220066894545 0.0370934712022 -0.0277800001204
-0.0122187711286 0.0429692393398 -0.0271696306056
-0.0174589054891 0.0419917645712 -0.0267359420226
-0.0259027380878 0.0352958320851 -0.0276809733172
-0.0201987857022 0.0405612355538 -0.0270357463425
-0.0386169760024 0.0233906583272 -0.0270273432555
-0.0364675363511 0.0265669816509 -0.0272696941644
-0.025085020174 0.0177839994431 -0.0265597680309
-0.0239931303786 0.0388412220825 -0.0250240005553
-0.0290164498311 0.0297734195631 -0.0243265586349
-0.037378274855 0.0283992742171 -0.024092578604
