0.0206078866679 0.00675423103582 0.0336499996483
0.0156247078172 0.0383406919891 0.0336499996483
0.0176016460136 0.0247507890484 0.0336499996483
0.0234924233068 -0.0166317649968 0.0336499996483
0.022849170044 -0.0250778400187 0.0336499996483
0.0177170448012 0.0271911624371 0.0336499996483
0.0253220956837 0.0172961422967 0.0336499996483
0.0247532291664 0.0294990362948 0.0336499996483
-0.0254501999162 -0.012859935997 0.0336499996483
-0.0237861337551 0.0107370259688 0.0336499996483
-0.0199635974092 -0.0371408424472 0.0336499996483
-0.0189431468287 -0.0412649246403 0.0336499996483
-0.0231321024939 -0.00506593904839 0.0336499996483
-0.02258452243 -0.0229974215755 0.0336499996483
-0.0251568520728 -0.00902890096974 0.0336499996483
-0.0235281276566 -0.00176655545462 0.0336499996483
-0.0255009270805 0.0048021261892 0.0336499996483
-0.0195112388413 -0.0320391893618 0.0336499996483
-0.0234572352705 -0.0332237375119 0.0336499996483
-0.0237454913613 0.00270465612537 0.0336499996483
-0.0217008665266 -0.0303164721396 0.0336499996483
-0.0082623180064 -0.0465590019291 0.0336499996483
-0.00515480854767 -0.0452555676707 0.0336499996483
0.00771430069768 -0.0445122539973 0.0336499996483
0.00957943396134 -0.0481279000028 0.0336499996483
-0.00192894545495 -0.0463484708577 0.0336499996483
0.0107305747828 -0.0454373018831 0.0336499996483
0.0262707421266 -0.0252812253862 0.0336499996483
0.00432664004072 0.0283171808822 -0.0421280004084
0.00577794160977 0.0217663011226 -0.0421280004084
0.0183580178392 0.000199453023012 -0.0421280004084
0.0167363408887 0.0114802465122 -0.0421280004084
0.00604060629263 -0.00161267692571 -0.0421280004084
0.00717098451695 0.0196455950134 -0.0421280004084
0.00656854123583 -0.0160059896654 -0.0421280004084
0.0116713018957 -0.0304367176436 -0.0421280004084
0.0102594428906 -0.0135946239048 -0.0421280004084
0.00776369934442 0.0253493744194 -0.0421280004084
0.019935166856 0.0208909977468 -0.0421280004084
-0.0044577041518 0.029526486729 -0.0421280004084
0.0170785538096 -0.00987576283681 -0.0421280004084
0.00638066683452 0.0305619633449 -0.0421280004084
0.0118069139773 0.00231368804087 -0.0421280004084
0.0125032811891 -0.000422560886516 -0.0421280004084
0.0189465944931 -0.012545485391 -0.0421280004084
0.014632180071 -0.0377725885975 -0.0421280004084
0.0167779623286 -0.00254581696006 -0.0421280004084
0.0109612893917 0.0263750536586 -0.0421280004084
0.00198220233983 0.0208284993249 -0.0421280004084
-0.0100619259959 0.0400222248967 -0.0421280004084
-0.00121254566837 0.0149984988614 -0.0421280004084
-0.00500399749342 0.0269215266122 -0.0421280004084
0.0117929219193 -0.00837032775821 -0.0421280004084
-0.00239809230377 0.0353357147116 -0.0421280004084
0.0144444143614 -0.0229050135077 -0.0421280004084
0.0114318583691 0.00465687262396 -0.0421280004084
0.00605407537233 0.0107359603311 -0.0421280004084
0.0136227184296 0.00635500380456 -0.0421280004084
0.00224691968595 0.0258247771761 -0.0421280004084
0.00202423922207 0.0361060395551 -0.0421280004084
0.0104441003332 0.0170135121039 -0.0421280004084
-0.000314164021615 0.0249719683292 -0.0421280004084
0.0156933114134 0.00433144728033 -0.0421280004084
-0.000916262059249 0.0122681941203 -0.0421280004084
0.00244677682286 0.0106717823595 -0.0421280004084
0.013020084564 -0.0329530055085 -0.0421280004084
0.0044656660225 0.00218255569687 -0.0421280004084
0.016213511705 -0.0247567116029 -0.0421280004084
0.0150759477378 -0.00816222123416 -0.0421280004084
0.0138269021446 0.0160390017428 -0.0421280004084
0.00713000905164 0.00124393918282 -0.0421280004084
0.0148525023169 -0.000609937569234 -0.0421280004084
0.0152202563025 0.00844209301532 -0.0421280004084
0.0110989405976 0.00789574328411 -0.0421280004084
0.0126912336016 -0.0031176439386 -0.0421280004084
0.000812842965516 0.0302027400489 -0.0421280004084
0.00764245640753 -0.0187831396862 -0.0421280004084
0.0111856351886 -0.0261722591548 -0.0421280004084
0.0151421787419 -0.0185736496508 -0.0421280004084
0.00878351899491 0.0115640973005 -0.0421280004084
0.00916836067379 -0.000327608108179 -0.0421280004084
-0.0065941216341 0.0410244365399 -0.0421280004084
0.00406843942308 0.0314876118073 -0.0421280004084
0.00851352346941 0.00799159657816 -0.0421280004084
0.0158966520941 -0.0052337471185 -0.0421280004084
0.00154672888734 0.0139783206417 -0.0421280004084
-0.00226439860498 0.0264997130849 -0.0421280004084
0.0166991984842 -0.0158160502323 -0.0421280004084
0.0102537712743 -0.0209803570092 -0.0421280004084
0.0104991000064 -0.0166744425332 -0.0421280004084
0.0211822599549 0.0187034294011 -0.0421280004084
0.0151608234006 0.0264186153815 -0.0421280004084
0.0064314164644 -0.00926832557097 -0.0421280004084
-0.0020611436299 0.0306502231409 -0.0421280004084
0.000540528557435 0.00420424349346 -0.0421280004084
-0.00782110635782 0.0369048956334 -0.0421280004084
-0.00747390118451 0.0338225483678 -0.0421280004084
0.0127835382117 -0.00553546771715 -0.0421280004084
0.00509083757653 -0.00406473134364 -0.0421280004084
0.000269817601325 0.00736517758771 -0.0421280004084
0.0126030042043 0.0202012570499 -0.0421280004084
0.0200514271666 0.00425599234584 -0.0421280004084
-0.00133195987161 0.0182224178694 -0.0421280004084
-0.00943467778529 0.0430279584701 -0.0421280004084
0.0220964675773 0.0102161463925 -0.0421280004084
0.0139154902709 -0.0120987981974 -0.0421280004084
-0.00237817150836 0.0205569053642 -0.0421280004084
-0.00480215172762 0.0386943176336 -0.0421280004084
0.00158451539373 0.0177169195 -0.0421280004084
0.0163497249387 -0.0290893606599 -0.0421280004084
0.0103034210433 -0.00476689227424 -0.0421280004084
0.013955218763 0.0236849407853 -0.0421280004084
0.0152324620552 -0.0425967422663 -0.0421280004084
0.0206638877649 -0.000577783317766 -0.0421280004084
0.00551649187613 -0.00674674236805 -0.0421280004084
0.00707880998782 0.0167555975516 -0.0421280004084
0.0141872164099 0.012245523022 -0.0421280004084
0.0169584691107 0.0220656338608 -0.0421280004084
0.00415633257921 0.0132722099648 -0.0421280004084
0.0140572666643 -0.0351778177618 -0.0421280004084
-0.00581661707413 0.0318903724251 -0.0421280004084
0.0166195032747 0.00201214964003 -0.0421280004084
-0.00475426839261 0.0221371409306 -0.0421280004084
0.017765023014 0.00694901954714 -0.0421280004084
0.00288660766308 -0.000699413224431 -0.0421280004084
0.0218373228291 0.00673427126866 -0.0421280004084
0.0077490743963 0.0142895234327 -0.0421280004084
0.00455754436075 0.0182914080155 -0.0421280004084
0.00930077870413 -0.00699166662623 -0.0421280004084
0.00993531281336 -0.0107286701776 -0.0421280004084
0.0108654272029 0.0146177282263 -0.0421280004084
0.0158949202128 0.0142269913952 -0.0421280004084
0.0191513649992 -0.00391027970958 -0.0421280004084
0.00372605654514 0.0233907546461 -0.0421280004084
0.00763275893675 -0.00473630669388 -0.0421280004084
0.00880089286966 0.0278516843678 -0.0421280004084
0.0111377455018 0.022781948947 -0.0421280004084
0.00597505261856 0.0077104516996 -0.0421280004084
0.00319828499016 0.00515784911466 -0.0421280004084
0.0151967709363 0.0197500887109 -0.0421280004084
0.0199238052289 0.0118998911232 -0.0421280004084
0.000344524511012 0.0343257926839 -0.0421280004084
0.00336264352133 0.0159440779833 -0.0421280004084
0.0195433375542 0.0148205038684 -0.0421280004084
0.0129896049095 -0.0280400061722 -0.0421280004084
0.0221090172568 0.0129842558908 -0.0421280004084
0.0114446960708 0.0119234471512 -0.0421280004084
0.0229839522023 0.0376960503255 0.0336499996483
0.0172958791267 0.0429642945995 0.0336499996483
-0.0121696964038 0.0052067152959 -0.0421280004084
-0.00492650423701 -0.024360616954 -0.0421280004084
-0.00406794380171 0.0070298890822 -0.0421280004084
-0.00358425803215 -0.0190101533889 -0.0421280004084
-0.010117095383 0.00696297071555 -0.0421280004084
-0.00624395820445 -0.0190323619676 -0.0421280004084
0.000515211753227 -0.0139869507195 -0.0421280004084
-0.00281046265816 -0.0150085943111 -0.0421280004084
-0.0122673514493 0.013365361652 -0.0421280004084
-0.0108845052497 -0.0240085826704 -0.0421280004084
-0.01148434862 -0.0163559340519 -0.0421280004084
0.00309821684131 -0.0188559428426 -0.0421280004084
-0.00523729177511 -0.0111773342899 -0.0421280004084
-0.0157441578679 0.0118089875079 -0.0421280004084
-0.0133368111088 0.0381386339793 -0.0421280004084
-0.00794336888368 0.0219237014649 -0.0421280004084
-0.00763141107118 -0.0261166539664 -0.0421280004084
-0.00228429926218 0.00449358765435 -0.0421280004084
-0.0209011605436 -0.00672495110764 -0.0421280004084
-0.00308599047368 -0.00776897030454 -0.0421280004084
-0.010037635639 0.00286579629054 -0.0421280004084
0.00435116134046 -0.0307712744256 -0.0421280004084
0.00545732070999 -0.0392613274701 -0.0421280004084
-0.0032188176918 0.0163415102765 -0.0421280004084
-0.0160119106433 -0.0129282944697 -0.0421280004084
-0.0119934206092 0.0316013597424 -0.0421280004084
-0.0137515873395 0.00938738740774 -0.0421280004084
-0.0158601819973 -0.0194730285697 -0.0421280004084
-0.0103944988191 0.0350393190651 -0.0421280004084
-0.00206010156651 -0.0291594060862 -0.0421280004084
-0.0132591369892 0.00239459568261 -0.0421280004084
-0.00171498901243 -0.0326672276409 -0.0421280004084
0.00625036331413 -0.0213394475434 -0.0421280004084
-0.000693594274239 -0.0114592543491 -0.0421280004084
-0.0116269545899 0.0441968726969 -0.0421280004084
0.00528537116634 -0.0268165962835 -0.0421280004084
0.00181495169731 -0.00807869259831 -0.0421280004084
-0.0086124965918 0.0165902127685 -0.0421280004084
0.0104298765012 -0.0355343571223 -0.0421280004084
-0.00777940542467 0.00771899322073 -0.0421280004084
-0.00599867687417 0.0132151464247 -0.0421280004084
-0.00460387036725 -0.0289923899636 -0.0421280004084
-0.0128359060064 -0.0253935773247 -0.0421280004084
-0.00957589153861 0.0273739351992 -0.0421280004084
-0.0109364571922 -0.0139908866025 -0.0421280004084
-0.0121096691728 -0.00719584583884 -0.0421280004084
-0.00636212504318 -0.0069863401155 -0.0421280004084
-0.00966254538896 -0.00335570433257 -0.0421280004084
-0.0150285634717 0.00652903783277 -0.0421280004084
0.00824598101367 -0.0230982435132 -0.0421280004084
-0.00716451386471 -0.0126619019569 -0.0421280004084
-0.0124202679019 -0.00457262329646 -0.0421280004084
-0.00566981226031 -0.0315060995424 -0.0421280004084
0.0130993780487 -0.0397358451519 -0.0421280004084
0.0106666021911 -0.0405244304308 -0.0421280004084
0.00720752471028 -0.0295560707993 -0.0421280004084
0.0072527169706 -0.0326358909585 -0.0421280004084
-0.0134332514011 0.0284592094557 -0.0421280004084
-0.00469253582671 0.00246810441321 -0.0421280004084
-0.0158601529838 -0.0231122671781 -0.0421280004084
0.00388491075095 -0.0332856681456 -0.0421280004084
-0.021495045039 -0.0126404118691 -0.0421280004084
-0.0149734572831 0.0153712314131 -0.0421280004084
-0.0158482501697 0.0209797847307 -0.0421280004084
-0.0171663255816 -0.00550873119238 -0.0421280004084
-0.0181457652653 -0.0106831993885 -0.0421280004084
-0.0106042952981 0.0244396152012 -0.0421280004084
-0.00640952270437 -0.0215154675633 -0.0421280004084
-0.00953078187676 -0.00633186717578 -0.0421280004084
0.00136368326404 -0.0264598826342 -0.0421280004084
0.00266396183796 -0.00553527773461 -0.0421280004084
-0.00477560328453 0.0193770206971 -0.0421280004084
-0.00330667854704 -0.00426637785759 -0.0421280004084
-0.0183230067864 -0.0186660368671 -0.0421280004084
-0.00786595653822 0.0297384230328 -0.0421280004084
-0.00955474219683 -0.0209637604588 -0.0421280004084
-0.00825003441348 -0.0156541981791 -0.0421280004084
-0.00144891398835 0.00122381767326 -0.0421280004084
-0.014559865909 -0.00594483067923 -0.0421280004084
-0.0188981240649 -0.0146909822539 -0.0421280004084
-0.0187232902568 0.00717492107607 -0.0421280004084
0.00144615020818 -0.0294558835004 -0.0421280004084
-0.0114864104844 -0.0193756968659 -0.0421280004084
0.00202371375518 -0.0211574995359 -0.0421280004084
0.00895342664564 -0.0381705440193 -0.0421280004084
-0.0111306059704 0.021704135274 -0.0421280004084
-0.00628020940636 0.0174398716028 -0.0421280004084
-0.0121991226957 -0.00204045764769 -0.0421280004084
-0.0104225795156 0.0192060987788 -0.0421280004084
0.000816551185143 -0.0241009320614 -0.0421280004084
-0.0214848234241 -0.015729471235 -0.0421280004084
-0.000686182795798 -0.0211085744723 -0.0421280004084
-0.00655698111938 0.0243312992224 -0.0421280004084
-0.0188364819694 0.00311299848349 -0.0421280004084
0.00122583248137 -0.0323867512138 -0.0421280004084
0.0126362909254 -0.0424906798396 -0.0421280004084
-0.0150362214005 -0.00218255437675 -0.0421280004084
-0.00928524295711 -0.000312141335994 -0.0421280004084
0.00363251356299 -0.015393634 -0.0421280004084
-0.00463910242912 0.0104436940122 -0.0421280004084
-0.0114041254157 0.00959536415056 -0.0421280004084
-0.0137470681458 -0.0142204838029 -0.0421280004084
0.00324741892072 -0.0107210826685 -0.0421280004084
-0.0136818793284 -0.022126553338 -0.0421280004084
-0.0157847326639 0.00252078415047 -0.0421280004084
-0.0166706126373 -0.016802616534 -0.0421280004084
-0.00727211682466 0.001344684014 -0.0421280004084
-0.0219635149927 -0.0194180015499 -0.0421280004084
0.00989318752044 -0.0321243413652 -0.0421280004084
-0.0171253316752 0.0139836881435 -0.0421280004084
-0.00499262500019 -0.0161283628757 -0.0421280004084
-0.0087912939631 -0.0180392801318 -0.0421280004084
-0.0138560835746 0.0190353678505 -0.0421280004084
-0.00351820700764 -0.00159547550106 -0.0421280004084
-0.00755389540095 -0.0287777067544 -0.0421280004084
0.00332905646457 -0.0363954854383 -0.0421280004084
-0.0159679265892 -0.00868448160984 -0.0421280004084
-0.00597614406772 -0.00184622353593 -0.0421280004084
-0.00206416626943 -0.0252822209816 -0.0421280004084
-0.0196683731593 -0.0213752867744 -0.0421280004084
-0.0147239060726 0.0242522288257 -0.0421280004084
-0.0083314481057 -0.00906338727637 -0.0421280004084
-0.0124896134757 0.0408751876763 -0.0421280004084
-0.0167369892844 0.00881767703443 -0.0421280004084
-0.0179029775104 -0.00209240390579 -0.0421280004084
0.000390537846255 -0.0164663634495 -0.0421280004084
0.00528387466727 -0.0134992979925 -0.0421280004084
-0.0121116173931 -0.0112745196693 -0.0421280004084
0.00362307597015 -0.0245597022662 -0.0421280004084
-0.0166745527456 4.94943527746e-05 -0.0421280004084
-0.0114544995397 0.0167722895539 -0.0421280004084
-0.0090608804433 0.0133129590113 -0.0421280004084
0.000630826848569 -0.00417523345194 -0.0421280004084
0.00747818554817 -0.0358531356738 -0.0421280004084
-0.0231032247813 -0.0323135223491 -0.0407027795002
-0.0239468123134 -0.0211515924318 -0.0420235204714
0.0118748370415 0.0483046819926 -0.00410695960159
0.0113589417705 0.048391787322 0.026615567614
0.0120139734754 0.0482811897732 -0.013310653486
0.0108684856155 0.0484745974335 -0.00755895406589
0.00857504124565 0.0488618295684 0.00171852398284
0.011737352966 0.0483278952228 0.00198194582497
0.0094552513875 0.0487132122063 -0.00174158040225
0.0111701652566 0.0484236609238 -0.0206982785629
0.0109000191089 0.0484692732224 -0.0166488399451
0.0114002873449 0.0483848064093 -0.0264539723133
0.00933066672129 0.0487342474609 0.0111323237493
0.0116627456686 0.0483404921462 0.0126748678852
0.00978661028976 0.0486572645597 0.00527442210125
-0.0262411058458 -0.00134658341338 0.0336499996483
-0.0101532205726 -0.0482610017061 0.0210892718161
-0.00451820027961 -0.0482610017061 0.0147850438333
-0.0119505434831 -0.0482610017061 -0.00646817546625
-0.000901523275246 -0.0482610017061 0.0167038623143
-0.00543304236861 -0.0482610017061 0.0125914535736
-0.00438494604138 -0.0482610017061 0.030269514796
0.00121292832839 -0.0482610017061 0.0071290175339
-0.00442924866286 -0.0482610017061 -0.0142228073296
-0.0109594221062 -0.0482610017061 -0.0355397035111
-0.011924637261 -0.0482610017061 0.0314540847036
-0.00151717443707 -0.0482610017061 0.0111610916284
-0.00363241578911 -0.0482610017061 -0.00338378988786
-0.0041389407389 -0.0482610017061 0.00400255911921
-0.00913452959982 -0.0482610017061 0.00965773753865
-0.00238781357661 -0.0482610017061 0.0065139516471
0.00497584119582 -0.0482610017061 0.0168853997157
0.00225363080154 -0.0482610017061 0.0318023208059
-0.00222721420147 -0.0482610017061 0.0283740852582
-0.00849701358822 -0.0482610017061 0.0236030346175
-0.0109637262981 -0.0482610017061 -0.0299602919317
0.00431319823026 -0.0482610017061 0.0259668553443
0.00119694865414 -0.0482610017061 0.025734069237
-0.0047525386186 -0.0482610017061 0.0277308019845
0.00526387482473 -0.0482610017061 0.032078707103
-0.0110908364261 -0.0482610017061 0.00811207162463
0.00225466245659 -0.0482610017061 0.0136328927456
0.00292053771979 -0.0482610017061 0.0287785004007
-0.006751887753 -0.0482610017061 -0.00238058550091
-0.00277355123596 -0.0482610017061 0.025810361535
-0.00294514899531 -0.0482610017061 0.000711106875507
0.00204980052119 -0.0482610017061 0.0172843688977
-0.0110669864286 -0.0482610017061 0.00162663886253
-0.00474616817089 -0.0482610017061 0.0175848834258
-0.0110841140638 -0.0482610017061 0.0256304505116
-0.0103445455918 -0.0482610017061 -0.0162227823791
-0.00544469872057 -0.0482610017061 -0.00964766387893
0.00124662206613 -0.0482610017061 0.009741839404
0.00280271170576 -0.0482610017061 0.0235662692836
-0.00803376067841 -0.0482610017061 -0.0130175203157
-0.00762047189211 -0.0482610017061 0.0169633218046
-0.000550055169355 -0.0482610017061 0.0208333341468
-0.00938682074245 -0.0482610017061 -0.00155843885242
-0.0113924328867 -0.0482610017061 -0.0327849999773
0.00842853074694 -0.0482610017061 0.0288673515177
0.0022343977305 -0.0482610017061 0.0199145640012
-0.0102784880293 -0.0482610017061 -0.0263331420889
-0.00934271181965 -0.0482610017061 -0.00781988606956
-0.00969586094617 -0.0482610017061 -0.022258313464
0.00677830644129 -0.0482610017061 0.0245472563748
-0.00873549589214 -0.0482610017061 0.0273121468091
-0.00054555241956 -0.0482610017061 0.00460313834011
-0.00656338668497 -0.0482610017061 -0.0154788211264
-0.00114744763937 -0.0482610017061 0.0234513721662
-0.00519215900529 -0.0482610017061 0.00632278207073
-0.00738586694527 -0.0482610017061 0.0321035843896
-0.00634316107203 -0.0482610017061 -0.00524950493274
-0.0115364733823 -0.0482610017061 -0.0102651729174
-0.00469368417563 -0.0482610017061 -0.00718288670409
-0.00654755761999 -0.0482610017061 0.00847665881789
-0.00757817357987 -0.0482610017061 -0.0199069303431
-0.00823073889895 -0.0482610017061 0.0130378367901
0.00453932800775 -0.0482610017061 0.0215489648991
-0.00441542091797 -0.0482610017061 0.00970416727094
-0.00622573536706 -0.0482610017061 0.00100434868647
-0.0101665874715 -0.0482610017061 -0.00400785340175
-0.00446203370874 -0.0482610017061 0.0226877711603
-0.0101910009045 -0.0482610017061 0.0152791439492
-0.00847505884751 -0.0482610017061 0.00508869127469
-0.00637417070383 -0.0482610017061 0.0251335214749
0.00029849388512 -0.0482610017061 0.0300666115687
-0.00484407724678 -0.0482610017061 0.0201742300591
-0.0098910584433 -0.0482610017061 0.0297590688038
0.0256784826271 0.0336223498553 -0.00540479023904
0.025774978107 0.0332155947656 0.0023329691808
0.0254082135626 0.0349078481739 -0.0124727431279
0.0254523355332 0.0346170249952 -0.0194043145162
0.0256317314813 0.0340064298899 0.00952233723133
0.0256183385329 0.0336425234116 -0.0335313257795
0.0255782128002 0.0339596989813 -0.0219653404678
0.0255225792289 0.034457234716 -0.000159297467114
0.0254564500023 0.0344207551705 -0.0369429837017
0.0257981558786 0.0327934679973 -0.0282075086396
0.0257589622356 0.033246587705 -0.00259824361271
0.025816222757 0.0328161810764 -0.0168850428127
0.0255959575454 0.0337811202901 -0.030906465241
-0.0036679575649 -0.0482610017061 -0.0173423371396
-0.00364393199144 -0.0482610017061 -0.0337305988259
0.00715201385376 -0.0482610017061 -0.00693344578069
0.0021428536841 -0.0482610017061 -0.0173673909322
-0.00285265881146 -0.0482610017061 -0.0203067664199
0.00298635304405 -0.0482610017061 -0.0142002846828
0.00179444600945 -0.0482610017061 -0.0120331825205
-0.00360943059485 -0.0482610017061 -0.0282982333334
0.00682053998551 -0.0482610017061 -0.0209907959926
0.00400716007791 -0.0482610017061 -0.019769084473
-0.000399410116705 -0.0482610017061 -0.00880138919663
0.0067341166254 -0.0482610017061 -0.0157530499683
0.00236214618374 -0.0482610017061 -0.0025560150316
0.0050295401421 -0.0482610017061 -0.0078965941865
-0.00157980996874 -0.0482610017061 -0.0368389699571
-0.000597472864973 -0.0482610017061 -0.0129544578695
0.00473954272298 -0.0482610017061 -0.000902225900819
-0.00877073057612 -0.0482610017061 -0.0330481529213
0.00238147606638 -0.0482610017061 -0.00559797663475
0.00643131348019 -0.0482610017061 -0.00401471052247
-0.00667336315056 -0.0482610017061 -0.0347234488434
0.00405557905896 -0.0482610017061 -0.0224981585734
0.00363406491466 -0.0482610017061 -0.0346313739142
0.00351722027783 -0.0482610017061 0.00887859167469
0.00823500229141 -0.0482610017061 0.0169518129425
0.00231268256833 -0.0482610017061 -0.00907276277259
0.00521988174883 -0.0482610017061 0.00417760940624
0.00777300960522 -0.0482610017061 0.0125433037164
-0.000890370490429 -0.0482610017061 -0.00597903338368
0.00575828672583 -0.0482610017061 0.00179838263404
0.000875927526474 -0.0482610017061 -0.0235089206133
-0.00222630218449 -0.0482610017061 -0.0259853263955
0.00138732011215 -0.0482610017061 -0.035943540039
0.00550608894831 -0.0482610017061 -0.0273940070173
-0.00652094551426 -0.0482610017061 -0.0223175027918
0.00667016240696 -0.0482610017061 -0.0131347836318
0.00656157411367 -0.0482610017061 -0.0107737863554
-0.00184079788627 -0.0482610017061 -0.0309732707362
0.00478303145158 -0.0482610017061 -0.0321735819031
-0.000655961407642 -0.0482610017061 -0.0285772993176
0.00235100994752 -0.0482610017061 -0.0263808341035
-0.00861280334721 -0.0482610017061 -0.0363949951709
0.00333367906765 -0.0482610017061 -0.0292430967438
-0.00608525485845 -0.0482610017061 -0.0322824665941
0.00133901935895 -0.0482610017061 -0.0328930804639
0.00767074901842 -0.0482610017061 -0.00117424718486
0.00150815859422 -0.0482610017061 -0.0384674314733
0.00625968811457 -0.0482610017061 0.00768660791115
0.0043735557041 -0.0482610017061 0.0117259834405
0.00252612554785 -0.0482610017061 0.00248459467304
-0.00808687048716 -0.0482610017061 -0.0304543515128
-0.000903313592859 -0.0482610017061 -0.0343892277866
0.00958087975193 -0.0482610017061 0.0250530966555
1.93793001385e-05 -0.0482610017061 -9.87379059181e-05
0.00586984543345 -0.0482610017061 0.0192754013246
0.00920846178968 -0.0482610017061 0.0197498266066
0.000110287762442 -0.0482610017061 -0.016005251988
-0.00407076279353 -0.0482610017061 -0.0371578292227
0.00571837138528 -0.0482610017061 0.0144100355688
-0.00688763759773 -0.0482610017061 -0.0272022056588
-0.0049393091194 -0.0482610017061 -0.0248203399912
0.00711666284567 -0.0482610017061 0.0218852806952
-0.0218906822418 0.0390170509805 0.0336499996483
-0.0139748502731 0.0424749501729 0.0336499996483
-0.0242221392875 0.0390982957622 -0.00234458704454
-0.0233974925036 0.040577459993 0.00575384749126
-0.0245979360931 0.0384872077025 0.0069987452265
-0.0249070543906 0.038007892874 0.0195161294196
-0.0251046149011 0.0376997118538 0.0271340048137
-0.0239018061308 0.0395929840064 -0.0157333835466
-0.0246818169669 0.0382449231192 -0.0128300350975
-0.0240467908347 0.0393748921511 -0.00847169625771
-0.0242041780075 0.039260753024 0.0247867691123
-0.0242189175285 0.039024775057 -0.0187250593915
-0.0236119360087 0.0403109090011 0.0280892794924
-0.0233802782509 0.0406589661929 0.0164012728466
-0.0229385996958 0.0415127462536 0.0334760818354
-0.023416718968 0.0406260396867 0.0227566814122
-0.0241330017999 0.0391616442266 -0.0214488335025
-0.0241770283519 0.0392544060816 0.0136610617834
-0.0235699344849 0.0402604167136 0.00245950357441
-0.0249058025716 0.0379646563536 0.0101153306448
-0.024336415008 0.0388812985961 -0.00595483328007
-0.0245950240197 0.0386144162515 0.0322738197675
-0.0213052024248 0.0432256940094 -0.0182882189883
-0.0217609903311 0.0426953246316 -0.00972600554103
-0.0223663986444 0.0415905765836 -0.0324375902281
-0.0222112594758 0.0418412864408 -0.029375530383
-0.0215135406968 0.0428909755253 -0.0222331566835
-0.023249475908 0.0404626234679 -0.0243958136251
-0.0226153900706 0.0418515624219 0.0191350870729
-0.0228308858623 0.0412718734779 -0.00482604590207
-0.0237016775572 0.0397922128189 -0.0281811931735
-0.0226999300873 0.041664207983 0.013146256611
-0.022460058583 0.0418376531046 -0.000358525505478
-0.0223131906081 0.0418545963228 -0.0162273560306
-0.022121602521 0.0421545698957 -0.0132666628532
-0.0238918887118 0.0393957051022 -0.0395243185119
-0.0219380236558 0.0421318921955 -0.0368364943772
-0.0226636234788 0.0416804997076 0.0102540144246
-0.0222415672527 0.0421830719621 0.00330081749398
-0.0234850117756 0.0402869939891 -0.0115880843407
-0.0215479857321 0.0430216297043 -0.00704751971581
-0.0186862996103 -0.0452469963377 0.0260164452213
-0.0203869319882 -0.0436398902248 0.0111450911195
-0.0223994591155 -0.0421218379912 0.0322219157127
-0.0211497559176 -0.0427772994122 -0.00980662944188
-0.0205472340606 -0.0436112431514 0.0221219633078
-0.0182089597964 -0.0457051602229 0.0309035856142
-0.0198482538789 -0.0442804622696 0.02910889512
-0.0199143264687 -0.0440849395558 0.0151201062814
-0.0203240090028 -0.0436628033085 0.00801219610192
-0.0202473512101 -0.0436575707396 0.000855180149215
-0.0222093466409 -0.0422335145019 0.0270338752736
-0.0206237740033 -0.0433736061145 0.00479452991124
-0.0203994644623 -0.0438327983634 0.0316685390441
-0.0216067995347 -0.0426178898574 0.0136567471643
-0.021960672951 -0.0423430572889 0.0165661696721
-0.0204908021114 -0.0436233974331 0.0184662662014
-0.0263500008732 0.0180065939867 -0.00147165275675
-0.0263500008732 0.00962313667929 0.0196696931056
-0.0263500008732 0.0161358871879 0.0130696946158
-0.0263500008732 0.0255463495259 0.0152961670471
-0.0263500008732 0.0314751494193 0.0134568651994
-0.0263500008732 0.0248001203685 0.00591080145421
-0.0263500008732 0.0242678707632 -0.00507266822812
-0.0263500008732 0.0268282214353 -0.0046705606629
-0.0263500008732 0.0198602995908 0.0120411261625
-0.0263500008732 0.0243899116736 0.0243949830395
-0.0263500008732 0.0121313873147 0.00575716412868
-0.0263500008732 0.0269155813425 -0.029603972654
-0.0263500008732 0.00181912990987 0.0331906717894
-0.0263500008732 0.0235387053042 0.00199199139192
-0.0263500008732 0.0257923993723 0.00303011919628
-0.0263500008732 0.00627641711551 0.0274003230408
-0.0263500008732 0.0199428716802 0.0271355501789
-0.0263500008732 0.0267292912801 0.0207367010166
-0.0263500008732 0.0311182569081 0.0315141138206
-0.0263500008732 0.00675722305606 0.0222330669785
-0.0263500008732 0.01391778605 0.00785658645363
-0.0263500008732 0.00784762325222 0.0245956013111
-0.0263500008732 0.0201200856995 -0.00619647468578
-0.0263500008732 0.0310451261998 0.0194875598106
-0.0263500008732 0.0284581547786 -0.00976543125946
-0.0263500008732 0.0263949202724 -0.0208550340755
-0.0263500008732 0.0291409032821 0.0038421878854
-0.0263500008732 0.0227356588215 0.00781832661356
-0.0263500008732 0.0294813396984 -0.0205386944236
-0.0263500008732 0.0238017787159 -0.0154441562542
-0.0263500008732 0.0155905875843 0.0154651810435
-0.0263500008732 0.0219526403397 0.0225774685798
-0.0263500008732 0.0251057085387 -0.00244124483595
-0.0263500008732 0.026271196814 0.000107653861608
-0.0263500008732 0.0307989089188 -0.0174053883781
-0.0263500008732 0.0217475941126 -0.0106949917577
-0.0263500008732 0.0113832954441 0.025050201574
-0.0263500008732 0.0130297823573 0.0295942511922
-0.0263500008732 0.0169961840924 0.00654807287172
-0.0263500008732 0.0202928947019 -0.0132477673351
-0.0263500008732 0.0300340952315 -0.0331597013443
-0.0263500008732 0.0263592052884 0.0314001256335
-0.0263500008732 0.0311209330051 -0.00404975153976
-0.0263500008732 0.0223579525309 0.0108741516741
-0.0263500008732 0.0317957693006 -0.00120317795815
-0.0263500008732 0.0197693432194 0.00950883037927
-0.0263500008732 0.0143331830025 0.0224618292186
-0.0263500008732 0.00653252146072 0.0315883709818
-0.0263500008732 0.00622335630914 0.0196120041609
-0.0263500008732 0.0021972770057 0.0265501766133
-0.0263500008732 0.0274256991504 -0.0174110978903
-0.0263500008732 0.0296215851507 -0.0279403612696
-0.0263500008732 0.0221412956086 -0.0016750785997
-0.0263500008732 0.0280558086596 0.012723643126
-0.0263500008732 0.0175758745117 0.0311501378581
-0.0263500008732 0.0193424053066 -0.00382543216481
-0.0263500008732 0.0189051352584 0.00225534400411
-0.0263500008732 0.0338503230752 0.0315848949858
-0.0263500008732 0.0168557040302 -0.00596152173328
-0.0263500008732 0.031589154599 0.0274762344224
-0.0263500008732 0.0220940831985 0.0286225157554
-0.0263500008732 0.0255770716397 -0.00993388633823
-0.0263500008732 0.0331574498946 0.00765074835842
-0.0263500008732 0.0243740954341 -0.0182661447829
-0.0263500008732 0.0155409060987 0.000481413600838
-0.0263500008732 0.00881591940624 0.0276683401061
-0.0263500008732 0.027612043293 0.0251666068912
-0.0263500008732 0.0258658558869 0.0110208945737
-0.0263500008732 0.0230331903759 0.0137621913045
-0.0263500008732 0.0226246037751 -0.00799190768997
-0.0263500008732 0.0284844020773 0.0289755107609
-0.0263500008732 0.0202037940474 0.0301326421225
-0.0263500008732 0.0223373181452 0.00455136351761
-0.0263500008732 0.0242244564823 0.0194123453019
-0.0263500008732 0.00361660230473 0.0301051588619
-0.0263500008732 0.0287516166891 -0.00266072191284
-0.0263500008732 0.0111851105673 0.00910557888961
-0.0263500008732 0.0301318950658 0.0219310981464
-0.0263500008732 0.0155565090552 0.0182756723946
-0.0263500008732 0.0252205268357 0.0274186144356
-0.0263500008732 0.0331208560743 0.0175230654569
-0.0263500008732 0.0111566715436 0.0163625042368
-0.0263500008732 0.0311257732434 -0.0306935082597
-0.0263500008732 0.0136249540495 0.0272212334346
-0.0263500008732 0.0294660683331 -0.0143296521044
-0.0263500008732 0.0300538173416 -0.0072237254076
-0.0263500008732 0.0170736607318 0.0103833617081
-0.0263500008732 0.0200917385653 0.00589742380692
-0.0263500008732 0.0248151233669 -0.0130690403233
-0.0263500008732 0.0131810808402 0.0192496335683
-0.0263500008732 0.0185281921371 0.0206186832872
-0.0263500008732 0.0178028790785 0.0240829121011
-0.0263500008732 0.0270613282168 -0.00750924184915
-0.0263500008732 0.0312135343304 -0.0227241496786
-0.0263500008732 0.0270478807169 0.00868138192398
-0.0263500008732 0.0185621646835 0.0176094206448
-0.0263500008732 0.00948940371694 0.0314404030082
-0.0263500008732 0.017078126127 0.0040759037984
-0.0263500008732 0.0123973497804 0.0113921935224
-0.0263500008732 0.0212010050507 0.0173661566806
-0.0263500008732 0.00856970453076 0.0173559823718
-0.0263500008732 0.000534896269128 0.0307140649543
-0.0263500008732 0.0200483591994 0.0147201126922
-0.0263500008732 0.0157602992858 0.0289390166923
-0.0263500008732 0.0116783815282 0.0212250409603
-0.0263500008732 0.0142962486618 0.00363195317851
-0.0263500008732 0.0303363892282 0.0249379880929
-0.0263500008732 0.0300538959118 -0.0251457467956
-0.0263500008732 0.0226950957007 0.0313246824911
-0.0263500008732 0.0280379031733 0.0183056820787
-0.0263500008732 0.012774977225 0.0142961248093
-0.0263500008732 0.0309136712761 0.00628036423375
-0.0263500008732 0.0306717956828 0.0167107893941
-0.0263500008732 0.0283259682622 -0.023127271939
-0.0263500008732 0.0333304251268 0.0207246114554
-0.0263500008732 0.0305271246943 0.0103431533929
-0.0263500008732 0.0307461036992 0.00121474072734
-0.0247551171952 -0.0329247097 -0.0333821447228
-0.0250993805201 -0.0323237942514 -0.0118387721904
-0.0247324508841 -0.0326355497896 -0.0383458467211
-0.0243927859034 -0.0356502855975 -0.0334818828514
-0.0243338409096 -0.0363670155432 -0.0305502897543
-0.0250627668115 -0.0320514291791 -0.0177567089534
-0.0251905383547 -0.0331433066599 0.00442022235336
-0.0254274180135 -0.0325960931768 0.0178013645003
-0.0247282725451 -0.034522470329 -0.0183355693509
-0.024954765222 -0.0323704170305 -0.0231081363018
-0.0247928474049 -0.0333443199925 -0.0257852834595
-0.024515362713 -0.0344848320725 -0.0360731008742
-0.0251780723791 -0.0324489128257 -0.00408357830372
-0.025264095151 -0.0335496773154 0.0147907035413
-0.0244285340534 -0.0359904205065 -0.0269035089423
-0.0250987714947 -0.0315331065793 -0.0204159032613
-0.0249514026226 -0.031665856719 -0.0309805356539
-0.0246498734175 -0.0341705750616 -0.0285127169979
-0.0250346958301 -0.0331017094858 -0.00871452800805
-0.0247595697199 -0.0347302556652 -0.0135469084519
-0.0224383769392 -0.0384780624666 -0.0386115112407
-0.0233119773313 -0.0353935141699 -0.0395159255141
-0.0237268531491 -0.0386560608733 0.0226954270932
-0.0231680334367 -0.0404457764145 0.0178104366499
-0.0233864386621 -0.0397809227544 0.0265837539359
-0.0233933822862 -0.0396876159457 0.0125562700975
-0.0243028046284 -0.0367960213246 0.0246661630822
-0.0243901433298 -0.03643655368 0.00962042522747
-0.0236276253551 -0.0389010128731 0.00738830849886
-0.0241124234504 -0.0372641897657 -0.00505995276496
-0.023577331399 -0.0390124010593 -0.00290092380944
-0.0236372429057 -0.0389872900463 0.0306813520491
-0.0236548093369 -0.0387830303324 0.0014963269488
-0.0244562006103 -0.0361654017276 -0.00161529699923
-0.0242628453108 -0.0369040101129 0.0203546147086
-0.0246863200508 -0.0355091328105 0.0163992811969
-0.0247893190345 -0.0351285810105 0.00725319759945
-0.0254063390887 -0.033217955853 0.025628646312
-0.0249847671539 -0.034513905114 0.0111978188155
-0.0246335834169 -0.0357343137807 0.0270954264372
-0.0235851830991 -0.0390509808356 0.00980037040722
-0.0243922894737 -0.0363879554447 0.00136792915902
-0.0244821641183 -0.0361550255779 0.0130383817294
-0.0248798128253 -0.0349615043656 0.0323764507099
-0.0242116729677 -0.0368942821431 -0.0145092286954
-0.0241675979632 -0.0369984007852 -0.0222368989241
-0.0242396574623 -0.0368162769578 -0.0119611394179
-0.0240880775284 -0.0373911220558 0.00443279392147
-0.0245309480007 -0.0358930236855 -0.00750096115698
-0.0246602403279 -0.0356599630366 0.029513491377
-0.0239869950481 -0.0377716124418 0.0148001990831
-0.022554470277 -0.0413974282929 0.0108796274519
-0.0233053801159 -0.0391304790252 -0.015717112483
-0.021723779689 -0.0420146896411 -0.0133556326443
-0.022432419943 -0.0413040996941 0.00209591411451
-0.0235546877093 -0.0389952689291 -0.00702327460787
-0.0233864515741 -0.0385423903206 -0.0283333430415
-0.0217995638812 -0.0422041772139 -0.00416827204934
-0.0225459533978 -0.0418688285516 0.0238309221464
-0.0232229321446 -0.0399683087214 0.00391813605355
-0.0226373032681 -0.0416166882783 0.0212663023846
-0.0238016368103 -0.0381761406008 -0.0178591157158
-0.0219391744999 -0.0415056728544 -0.0169758852152
-0.0228758572525 -0.0401003292146 -0.00978048620042
-0.0226835424834 -0.0410741893654 0.00819317547839
-0.0226732703777 -0.0401118513011 -0.0196364577333
-0.0224824670703 -0.0411162485112 -0.000720112624134
-0.0236973875433 -0.0381216497239 -0.0246457600591
-0.00123218357594 -0.0355489000261 -0.0421280004084
0.00505865469809 -0.042218017111 -0.0421280004084
-0.00441816240755 -0.0355330475741 -0.0421280004084
-0.0106992231751 -0.0352532032613 -0.0421280004084
-0.0193688839243 -0.0243714849531 -0.0421280004084
0.00968764417337 -0.0428321020538 -0.0421280004084
-0.010013985239 -0.0293121580463 -0.0421280004084
-0.0146504251054 -0.0280025480712 -0.0421280004084
-0.00153820618205 -0.0440718908461 -0.0421280004084
-0.00250149702598 -0.0390053510643 -0.0421280004084
0.0055341295589 -0.0459579466385 -0.0421280004084
-0.00735142236018 -0.0389306583187 -0.0421280004084
0.00197926483568 -0.0404332916246 -0.0421280004084
-0.0128303239143 -0.0312286023714 -0.0421280004084
-0.0050570320872 -0.0408098030544 -0.0421280004084
0.0137548082683 -0.0454188691963 -0.0421280004084
0.0011898270565 -0.0450016986139 -0.0421280004084
-0.00415835047657 -0.0437770002185 -0.0421280004084
-0.00748437682029 -0.0338976792918 -0.0421280004084
-0.0176225077917 -0.0262328371007 -0.0421280004084
-0.0222824318177 -0.0251572439055 -0.041852420768
-0.0146746488856 -0.0363946849943 -0.0416852559708
-0.0192867152343 -0.0281425861398 -0.0419125547523
-0.0181275318344 -0.033577225157 -0.0415613956715
-0.020554599702 -0.0370077366536 -0.0410009089752
-0.0183238973023 -0.0307866602607 -0.0417844902257
-0.0217356195778 -0.0301477403246 -0.0414744359282
-0.00797690301042 -0.0445878975174 -0.0416868282969
-0.0128190952553 -0.0417383886707 -0.0414167488328
-0.0177747242386 -0.0369318587922 -0.0413057291654
-0.00970494080897 -0.0393465555901 -0.0419600572945
-0.009354209613 -0.041996189318 -0.0417658512937
-0.0175763065439 -0.0406178516747 -0.0410045102074
-0.0142668608829 -0.0396308337664 -0.0414458536074
-0.0208030213294 -0.0344905094817 -0.041194504365
-0.00315480982458 -0.0478026009978 -0.0398501714311
-0.00730613424099 -0.0479642085721 -0.0389780759311
0.00780726374056 -0.0477861375299 -0.0404495528405
-0.000459800905816 -0.0470774953105 -0.0417374291553
0.00233103355523 -0.0475082517411 -0.041068362133
0.00882642493063 -0.046411280661 -0.0420795263045
0.00953393924597 -0.0480661216427 -0.00904168551477
0.010305655581 -0.047945836811 -0.0160910300246
0.0115585452432 -0.0477406869337 -0.0292006948599
0.00664001274702 -0.0481926931373 -0.0373673198972
0.010722977279 -0.0479201210563 -0.0132657945303
0.0101639578461 -0.0480817103237 0.00440569265558
0.00983981446928 -0.0479664683068 -0.0206072883316
0.0118258780573 -0.0477749562343 -0.0188277400349
0.00676590388911 -0.0482551782093 -0.0246611662446
0.00843234138328 -0.048046878965 -0.0312021688156
0.00867029739779 -0.0480376203598 -0.0286791872017
0.00965032750907 -0.0478906677231 -0.0366523848377
0.00980155453963 -0.0481486550738 0.0094809943665
0.00640942795851 -0.0482334771631 -0.0344436333369
0.0103768590163 -0.0478809328884 -0.025821494099
0.0120850504653 -0.0476433894005 -0.0365807794002
0.0100893039604 -0.0482462844447 0.0308968886017
0.01033081469 -0.0480324446313 -0.00104346349191
0.0117578788269 -0.0476972266196 -0.0331125689199
0.00949355232153 -0.0481031043355 -0.0034940205288
0.00902194228329 -0.0481854998136 0.0023137353819
0.0117262095618 -0.047027692597 -0.0410002135113
0.0164388269002 -0.0463665014138 0.0283790796746
0.0130119145757 -0.0474431340395 0.00374659210417
0.0154451427284 -0.0467075540858 0.00586510548827
0.015365165106 -0.0467216536306 0.0111620089215
0.0135128371509 -0.0473283837391 -0.015349925015
0.0137611910614 -0.0472634756484 -0.0205495651144
0.0119618603164 -0.0477446742933 0.0112977013925
0.0133695539608 -0.0472846586763 0.0308735270327
0.0115216266384 -0.0478582128229 0.0213229111145
0.0128706629069 -0.0474806554006 0.00638185340154
0.0111501747555 -0.0479838430606 0.0138971304563
0.0128724371 -0.0475136277011 -0.0114596340198
0.0127181787057 -0.0475434573485 -0.00264617462617
0.0122500617287 -0.0476890026881 -0.00520004102303
0.014135030517 -0.0470662469011 0.0246194685422
0.0146470542595 -0.0469424610815 0.00855693156383
0.0122963671423 -0.0476798307506 -0.00772977660483
0.0128531235318 -0.047444536675 0.0284228578709
0.0135559093534 -0.0472850790816 0.000813334300305
0.0122332240776 -0.0476543543 0.0159456738184
0.0131434156148 -0.0474610563936 -0.0268507920831
0.0136930100426 -0.0472087847924 0.0194888726314
-0.0173662818648 -0.0455700796773 -0.026415706521
-0.0188977262583 -0.0445208245413 -0.0146720206278
-0.0185340294238 -0.0452037211495 0.0128291697307
-0.0192118915313 -0.0444070656084 -0.00517501073549
-0.0180488949515 -0.0456286826976 0.0155744144077
-0.0170226508308 -0.0457994870268 -0.0294718096374
-0.0175922360024 -0.0456699210307 -0.00689834151321
-0.016754699298 -0.0461973116988 -0.016564212036
-0.0176502443718 -0.0460348145056 0.0218060214622
-0.0194576131687 -0.0440219650161 -0.0184281293975
-0.0190632609779 -0.0444734355669 -0.00879146470365
-0.0183416997013 -0.0452769962794 0.00726887523099
-0.0171807403971 -0.0457952752336 -0.0209891360663
-0.0184964592318 -0.0451101192484 0.00420626879319
-0.0178364934499 -0.0454094007316 -0.0115321665425
-0.0193666561201 -0.0443290126353 -0.00203393908045
-0.013769371312 -0.0476647847998 -0.0042029144987
-0.0126214695033 -0.0482043174953 0.0180389866392
-0.0146418968952 -0.0472710591421 -0.0186962073221
-0.0126394850966 -0.0481488854484 0.010769926762
-0.0139260664417 -0.0475336301657 -0.0157122042219
-0.0124312754082 -0.0479593191457 -0.0275469818635
-0.0144765993618 -0.0472972348721 -0.0230841422771
-0.0138906721615 -0.047445932083 -0.0303995216618
-0.0144348715596 -0.0474110632841 -0.00839338323684
-0.012785876602 -0.0481685645698 0.0209713531685
-0.012465137415 -0.0479896389713 -0.0213905090461
-0.0136120420531 -0.0475079983259 -0.0351520256594
-0.0133100050041 -0.0477652744002 -0.0123087817303
-0.0126315468147 -0.0479115769042 -0.0245923241199
-0.0137948466062 -0.0477349520284 0.00740656891575
-0.0150602906989 -0.0470801802533 -0.025952427953
-0.0149844923378 -0.0470577678349 -0.0330355071478
-0.0127514142649 -0.0480627364486 0.00365914361221
-0.0143396719215 -0.0475319356078 0.016166187993
-0.0151462973311 -0.0471352434929 -0.000339492755055
-0.0158616353862 -0.0467974023936 -0.010353317474
-0.016505622669 -0.0466246327793 0.0241563285139
-0.0141715452005 -0.0476417903129 0.0286084559103
-0.0163161482652 -0.0466219449272 -0.00372858974365
-0.0166164803472 -0.0465858754336 0.0271097669626
-0.0139585098166 -0.0477169098225 0.0231446819821
-0.0172262872985 -0.0462972015875 0.018350223293
-0.016433583902 -0.0466158311715 0.0109769572894
-0.0150028731165 -0.0472951228229 0.0321954921294
-0.0147327584332 -0.0473530064135 0.0128893029937
-0.0167650319499 -0.0464444034098 0.00140369239033
-0.0149019887821 -0.0473004738642 0.0195953192905
-0.0165487330409 -0.0465588552963 0.00850593145811
-0.01587416499 -0.0467821255784 -0.0136294920479
0.00821765267679 0.0488463571419 0.00734705532657
-0.00105169293985 0.0483257206014 0.0299688880774
0.00693937281289 0.0484236808771 0.0257124811578
-0.00176509214706 0.0484159560091 0.0260481292696
0.0110411195294 0.0482825711342 0.0318437469388
0.00412416014553 0.0485778000449 0.0190159514968
0.00934460616677 0.0485888788445 0.018534573929
-0.000521055333332 0.0484780976665 0.0233480533601
0.00383683006815 0.0486669582335 0.0151419982193
0.00997378538202 0.0484904544348 0.0228111476245
0.000996950879587 0.0483778541463 0.0277036680212
0.0041908020161 0.048369897618 0.0280493818506
0.00169813021581 0.0485187495625 0.0215817148096
0.00486566139915 0.048503471929 0.022245533124
0.00892959701978 0.0486794575648 0.0145988980742
0.00581954821484 0.0487879061608 0.00988677011134
0.00161678763249 0.0482910186401 0.0314766999672
0.00824298656423 0.0482685001805 0.0324551346087
0.00243323318721 0.0484253351954 0.0256406004736
0.00898859278155 0.0483641929731 0.0282972505919
0.00707632666171 0.0487271252779 0.0125277199092
-0.00543131934085 0.0483166506766 0.0303629793598
0.00749398769578 0.0485050815102 0.0221755962784
-0.00382345792618 0.0483695235572 0.0280656349214
0.00575091220601 0.0482839375598 0.0317843752849
-0.00512813079432 0.0484069258239 0.00459218618009
0.00290787980348 0.0487358242026 0.0103773875088
-0.000387577829312 0.048581691346 0.0182445700549
-0.00626868230537 0.0483940466119 -0.0142030570728
-0.00824085835495 0.048298443969 -0.00770747036772
-0.00704516583479 0.0483439601633 -0.00502743436072
0.00547967295378 0.0488636708372 0.000217431416909
-0.00546894630086 0.0484181178673 -0.00902208411384
0.00500095762286 0.0488349589621 0.00472189337397
-0.0072563395038 0.048265123435 0.0321466691288
-0.0072830906932 0.0483048683561 0.0104105135694
0.00290220539352 0.0487530733086 0.00107745153756
-0.000518102907648 0.0486227332842 -0.0065145107507
-0.00302513685212 0.048523725709 -0.0102339321763
-0.00234918571164 0.0485300606455 0.0015953268256
-0.00117432083667 0.0485869973106 -0.00226584999799
0.00335455279473 0.048760878391 0.00709749874972
-0.00737468041539 0.0483617808534 -0.0219124549145
-0.00698375438737 0.0483228880586 0.00755858992412
-0.00823121856931 0.0483070308016 -0.0120568507256
-0.00697880738693 0.0483337055264 0.00191753956217
-0.00204862343572 0.0485714135842 -0.0136366726187
-0.00301686506914 0.0484785222032 0.0139893844144
0.00178090383472 0.0487131010379 -0.00287802390568
0.00240709164092 0.0487459283832 -0.00625518731592
-0.00638301968819 0.0483111666626 0.0272983048638
-0.00457473439114 0.0484444096627 -0.00289772935464
0.00396507779214 0.0488031826123 -0.00167123005725
-0.00835473326379 0.048269584669 0.00507836523423
-0.00331991502923 0.0484504771619 0.0220888674983
-0.00551619298275 0.0483604065535 0.0206040992196
-0.00279761918531 0.0485047112424 0.00499261616534
-0.00535144556217 0.0484277910243 -0.0115240081704
0.000460533990149 0.0486277627947 0.0128144288062
-0.00351696458239 0.0484672126924 0.00875919949577
-0.00902514792906 0.048298030126 -0.0251211732713
-0.0093205723533 0.0482699904806 -0.016853108907
-0.00660576776426 0.048328490929 0.0130777726493
0.000653012087994 0.0486301666669 0.015863778616
-0.00427816866856 0.0484299641013 0.0114517250079
6.56290237528e-05 0.0486550246998 -0.010561256262
0.000257790509742 0.0486246940963 0.00988780159701
-0.0064530648484 0.0483952976124 -0.0190138971102
-0.0065473596679 0.048323004459 0.0173084809836
-0.00403053567899 0.0484920251629 -0.0159820376713
-0.00713095154042 0.0483334725768 -0.00137935798917
0.00127100524055 0.0486772022224 0.0047470360712
-0.00473578169741 0.0483854714102 0.0248222244115
-0.00398781534313 0.0484299678004 0.0179779883239
-0.00359538012056 0.0484914092645 -0.00587060171908
-0.0104394722506 0.0481172544189 -0.00173225894149
-0.0125827682375 0.0477225879923 0.0293723355503
-0.0102699434103 0.0479988868858 0.0258610507648
-0.00976055368295 0.0480921004248 0.0185861570825
-0.0114102086271 0.047977872568 0.00444568321208
-0.00903427955748 0.0481494825319 0.0233866648316
-0.00994114297017 0.0480052143429 0.0319824430332
-0.00966843574446 0.0481824403947 0.00250677016885
-0.0091894818414 0.0481858002973 0.0126003972719
-0.0121893864412 0.0478467838107 0.0132643827315
-0.00851106836502 0.0482201006659 0.0209622572809
-0.0110444639171 0.0479908782048 0.0100559828582
-0.0135629971603 0.0476515804714 0.0215995058499
-0.0114505792392 0.0478816994222 0.0228605091464
-0.0120111797617 0.0478448058557 0.0176685347936
-0.0121133357262 0.0479430952695 -0.00437600983307
-0.0132381245987 0.0476644164533 0.0263249325105
-0.0110988009563 0.0480747355208 -0.00801380614524
0.000486997961854 0.0477703311844 0.0336499996483
-0.0115519117421 0.0466681726881 0.0336133919395
-0.0145317811946 0.0459611783343 0.0332144306005
0.0270196524546 -0.0283379283595 -0.0109789849855
0.0266424089357 -0.0321909985121 0.0241586413045
0.0270531604749 -0.0281523781996 -0.0142746212838
0.0271607680488 -0.0277857207466 -0.0251136276179
0.026844018756 -0.0321839454373 0.00309346607159
0.0270263316405 -0.030772638504 -0.0143900167637
0.0271094427374 -0.0300185574106 -0.0222368668116
0.0265731534671 -0.0323382147487 0.0312334523634
0.0270848300772 -0.0276260979496 -0.0169984374914
0.0271826827576 -0.0294876921346 -0.0293006741505
0.0268442257397 -0.0301144557202 0.00537777876637
0.0271459810393 -0.0268721414881 -0.02255006862
0.0268014222755 -0.0322617620059 0.00745910630491
0.0267903537447 -0.0311814955326 0.00981972831681
0.0269522515608 -0.0319056423218 -0.00790934142719
0.0269264964616 -0.029037510888 -0.00202147823611
0.0267324648239 -0.0307338578494 0.0163692853642
0.0272144604117 -0.0295016201849 -0.0326377162913
0.0270607825211 -0.0312247139483 -0.0184946844791
0.0269848869681 -0.0287811813542 -0.00783906118248
0.0272366480605 -0.030066084256 -0.0355858138632
0.0266736817357 -0.0319180610348 0.0211940109372
0.0269391728248 -0.0308938886659 -0.00541494604365
0.0272400228532 -0.0286396766387 -0.0384776545332
0.0270758658213 -0.0192097603216 -0.0359342136023
0.0268867794765 -0.0141261362725 -0.0394430904521
0.027208762237 -0.0239397935821 -0.0347573478832
0.0269740319491 -0.017048820867 -0.0384667443043
0.0263069312669 0.0118866406894 -0.0385889245388
0.0267600933047 -0.00783411480219 -0.0385782125523
0.0265526733093 0.00270829214801 -0.0368940319363
0.0264373278407 0.00777669474651 -0.0368423985094
0.0269274704911 -0.0130982041038 -0.0363236206149
0.0271641048112 -0.0255462100602 -0.0387138258321
0.0270914711428 -0.0232410866392 -0.0396690771774
