0.025378957539925327 0.03494600637841324 -0.023323686591192543
0.025682948781184392 0.03377086245497689 0.011664742887170943
0.02552203465579452 0.03419447713117715 -0.02667269345327923
0.025826583037595184 0.0330207488724433 0.008736323148491586
-0.0023639970442009715 -0.04826100170612335 -0.016355229618485095
0.0030929408809061342 -0.04826100170612335 -0.02431226604172819
0.003299788377181201 -0.04826100170612335 -0.03940416764755797
-0.008184145821690239 -0.04826100170612335 -0.03689817001572346
-0.0033167516593266212 -0.04826100170612335 -0.03760525343590021
0.007294493147749478 -0.04826100170612335 0.014018786885477284
0.0034548426656605333 -0.04826100170612335 -0.017937275494047385
0.008311243218176891 -0.04826100170612335 0.02332174430101171
0.006697998164835831 -0.04826100170612335 -0.004895647898154396
0.006633335046304049 -0.04826100170612335 0.01717684480089195
-0.004272604388299482 -0.04826100170612335 -0.027371151781510908
0.005198918282049835 -0.04826100170612335 -0.019644809619025535
0.0073787095130633485 -0.04826100170612335 0.009145354699309148
0.00813445298702795 -0.048261001706123345 0.019776627158552926
-0.005221727667658981 -0.04826100170612336 -0.035360205167392356
0.006712725131983905 -0.04826100170612335 -0.02222428772516032
0.00843127345997684 -0.04826100170612335 0.0062204764091075004
-0.0007830398146979659 -0.04826100170612335 -0.038710747397066834
0.004988671932236315 -0.04826100170612335 -0.03039394111003039
0.0044303462232725575 -0.04826100170612335 -0.0020763626838481482
0.002509381706823786 -0.04826100170612335 -0.004061975625167899
0.005004920519441961 -0.04826100170612335 0.008921141878561252
-0.00036420181454757043 -0.04826100170612335 -0.007555542301829419
0.004388550728775573 -0.04826100170612335 -0.03381122760957358
-0.004299196224539871 -0.048261001706123345 -0.033121935458719075
0.00015257215125367074 -0.04826100170612335 -0.017985284298983523
0.0063722540235611495 -0.04826100170612335 0.011557415885050628
0.0027049248068368183 -0.04826100170612335 -0.01522320312958888
-0.0047268815605734146 -0.04826100170612335 -0.030043568122476334
0.0010392191559206406 -0.04826100170612335 -0.009948589567157084
0.005272209770714782 -0.04826100170612335 -0.007780878219230347
-0.009597065023227385 -0.04826100170612335 -0.03462507950225587
-0.004599763105964326 -0.04826100170612335 -0.01987161314529229
0.006462024013553727 -0.04826100170612335 0.002290293131719639
0.0032397343712022944 -0.04826100170612335 0.0003174016626640106
-0.004736878368600119 -0.04826100170612335 -0.023235664936844553
0.00026048151566652415 -0.04826100170612335 -0.015418399043509636
0.005361517854131421 -0.04826100170612335 0.0052821470840097515
0.003081022793891418 -0.04826100170612335 -0.006653764822752964
-0.002279822931958067 -0.04826100170612335 -0.023809725194668896
-0.002359699853880517 -0.04826100170612335 -0.011802767702017164
-0.00778791636456118 -0.04826100170612335 -0.031590849168619504
0.0013970541659637432 -0.04826100170612335 -0.030263350084696466
-0.0009673576615212755 -0.04826100170612335 -0.03534398841272172
-0.010875683603585564 -0.04826100170612335 -0.037190371357460644
0.0010905455157628305 -0.04826100170612335 -0.021665012421931085
3.0070631445647603e-05 -0.04826100170612335 -0.024593944012589453
0.0015565991893300118 -0.04826100170612335 -0.03348890264182969
0.0020642382223903643 -0.04826100170612335 -0.027778720713536962
0.004190871406643783 -0.04826100170612335 -0.012890180792441417
0.00938713774483074 -0.04826100170612335 0.026451001660989674
0.0017810749845816461 -0.048261001706123345 0.0024485975420024605
0.001545753687670525 -0.04826100170612335 -0.03606311192093294
-0.006704011951815763 -0.048261001706123345 -0.028545724331152142
0.0027524603971426135 -0.04826100170612335 0.00730557219937423
0.005440365270835894 -0.04826100170612335 -0.027736830166187873
-0.0020140928906277828 -0.04826100170612335 -0.019847211029443174
-0.0004591365102277579 -0.04826100170612335 -0.004926391722911847
-0.0010620886489086019 -0.04826100170612335 -0.030419120971725777
0.004373104201983714 0.04649777806232847 0.033649999648332596
-0.014499807769652647 0.04061235995837708 0.033649999648332596
-0.013440104477276511 0.04313493879194483 0.033649999648332596
-0.003281560183921681 0.04453280505368559 0.033649999648332596
-0.005804479352878978 0.04389710109437772 0.033649999648332596
-0.02461705029705093 0.03835847871415278 -0.012735413519502277
-0.024037704309509703 0.039573904276454186 0.029432595184309254
-0.023633467712252654 0.04022414904507819 0.0179148828753908
-0.024987829902941745 0.03785387893383494 0.0168338433266157
-0.025131785900544226 0.037589539620806585 0.014152212686850772
-0.024787860353731213 0.038124646603101234 0.0006021232837976065
-0.023757883253233872 0.03990658626634397 -0.002844152409435247
-0.024840251771002103 0.03806240395067221 0.006654882420371646
-0.02457039887810774 0.038519372479872506 0.003703489869541954
-0.023558348536748278 0.040304051444351556 0.007303036432347643
-0.0236676834935359 0.04014752022593777 0.014421397754588611
-0.024085400719596452 0.03939557351781482 0.009762540070250895
-0.02437358716196748 0.03896092585999486 0.02395944223234006
-0.024827826656830934 0.03818143463652754 0.02679934214388347
-0.024023701436931204 0.03955962028918722 0.021415571394868667
-0.02169452046469158 0.042824725680395144 -0.006542094605560208
-0.023010625461569456 0.040764859913645514 -0.026813329263300247
-0.023384891840087046 0.040360236488097945 -0.017152611829569557
-0.02335066348978016 0.04052105080571472 -0.00749341545877584
-0.02267203562861466 0.04108941858255051 -0.0390865088769158
-0.022413408690029744 0.041903459959158104 -0.0002536083173914523
-0.022247947749304393 0.041912086410294515 -0.019022218872738063
-0.021213746281093862 0.04329597847344062 -0.02308341421382177
-0.02183772336212615 0.04272929997317462 0.0022117408964629492
-0.02378074965898032 0.03965214547039196 -0.030787919091448842
-0.022380268791274784 0.041775857616661125 -0.015025534781191143
-0.02379763768566425 0.0397353326924949 -0.021713691421946433
-0.023874111873820346 0.039486447575975844 -0.03389275091278422
-0.022326357540218954 0.04190546598262247 -0.01034366395260596
-0.022233390133029225 0.04228557385323087 0.011065265584678994
-0.02328226960175329 0.04072928181074502 0.0021762811898272325
-0.021824584794377287 0.04235411955019367 -0.03128450358615117
-0.02245239574348403 0.04144904732543239 -0.03435253978387465
-0.02283342073625589 0.04156537164959503 0.02046486853225253
-0.021331023602061017 0.04296783446665969 -0.0372020343416999
-0.022508125794833578 0.041836355662316485 0.005196761611449045
-0.02350780772955304 0.03996148286745295 -0.03661919413222152
-0.02394601663326717 -0.03643489206772583 0.033649999648332596
-0.020972689064329343 -0.04312535206985121 0.009953479959923961
-0.019522584166260397 -0.04457864031136275 0.030991211504801407
-0.018130056784800678 -0.0457526090166234 0.028861155811385493
-0.020143843938556675 -0.043916576324409276 0.018003686861455526
-0.021358229442801923 -0.04294156007637678 0.024775875509076842
-0.01907406157463968 -0.04492158450536454 0.026759775406240915
-0.020789351303416075 -0.04324659661640624 0.006315530663798288
-0.021199219831319047 -0.04295892122973258 0.012773485884414005
-0.018965946352417957 -0.0449567704547526 0.020955195928873935
-0.02115262931115374 -0.043025541861967845 0.015457560008442797
-0.020565395256813914 -0.043343800024611925 -0.003257931527106477
-0.01984900679209933 -0.044028899617262945 0.003823744876465693
-0.021852131194088575 -0.042564943677080934 0.02953872528359921
-0.022376381876410358 -0.042088533265978535 0.0268699318261942
0.026464108673796893 -0.024697959089881934 0.033649999648332596
0.02649837285207951 -0.017712013285137943 0.033649999648332596
-0.026350000873208046 0.030302791178565863 -0.01966662119362144
-0.026350000873208046 0.029935677537376602 0.004833401215251309
-0.026350000873208046 0.022968399070541358 6.827537326848515e-05
-0.026350000873208046 0.01818286947026177 0.023567598725094566
-0.026350000873208046 0.01479367042569012 0.03021864400709779
-0.026350000873208042 0.011861443062483393 0.005011494968749649
-0.026350000873208046 0.01751338436135924 0.0048812134710554825
-0.026350000873208042 0.010226843823279645 0.008132604576274644
-0.026350000873208046 0.02845559112872323 0.009763602249435604
-0.026350000873208046 0.01995797668827153 0.0026200606891593906
-0.026350000873208046 0.014986270038705746 0.024746068409622117
-0.02635000087320805 0.01029275308365563 0.019083557993548557
-0.026350000873208046 0.025193751679907537 0.029607040370849734
-0.026350000873208046 0.008531591985590574 0.016292446026144054
-0.026350000873208046 0.02426833245897765 -0.012954940750550948
-0.026350000873208046 0.0109022134189529 0.021876536236346358
-0.026350000873208046 0.02328763530094069 -0.007749352884869828
-0.026350000873208046 0.020355050883364013 -0.0020634009759556184
-0.026350000873208042 0.029675745568904323 -0.021981202526601778
-0.026350000873208046 0.02539831356524848 0.012198624065217024
-0.02635000087320805 0.006724186094033187 0.01801421508772289
-0.026350000873208046 0.016225315058213684 0.020676190792286164
-0.026350000873208046 0.027484294357722948 0.014906021262570946
-0.026350000873208046 0.0009637323604979548 0.030134881246149384
-0.026350000873208046 0.02336439416512169 0.0033668797077794476
-0.026350000873208046 0.028411266891822072 0.002686946893996919
-0.026350000873208046 0.028495834905399895 0.025994545002721525
-0.026350000873208046 0.020811169537379895 0.022945463968201324
-0.026350000873208046 0.030883848930381114 -0.0023038559579454006
-0.026350000873208042 0.026593804014157 -0.02075471269741188
-0.026350000873208046 0.026694635366381586 0.005326186428371214
-0.026350000873208046 0.01952677392268533 0.006359440964358689
-0.026350000873208046 0.018485278115367404 0.01236108162840782
-0.026350000873208046 0.023962649995642134 0.02129850182377279
-0.026350000873208046 0.02540884353979889 0.017461056816382332
-0.026350000873208046 0.020707119522581228 0.016113780326934633
-0.026350000873208046 0.031640933752803524 -0.026556881339417953
-0.026350000873208046 0.026530651965267844 -0.011524524618588397
-0.026350000873208046 0.024393195771784053 0.006178422035435564
-0.026350000873208046 0.030499810698850528 0.016611897773329474
-0.026350000873208046 0.005162970194589157 0.03087653341938337
-0.026350000873208046 0.013497073020790045 0.01393739072495755
-0.026350000873208046 0.006598242504318147 0.0279022169443496
-0.026350000873208046 0.03130280582482082 0.030479961915814487
-0.026350000873208042 0.01689527327669247 -0.00031382995155048365
-0.026350000873208046 0.009311678465111236 0.029645823848634723
-0.026350000873208046 0.015075257132859564 0.0017679348574128526
-0.026350000873208042 0.022986849748532417 -0.010730456688054283
-0.026350000873208046 0.0287019080855621 0.007047740202926547
-0.026350000873208046 0.026543129140663462 -0.008394840359103997
-0.026350000873208046 0.02526262124273709 -0.005598266428910028
-0.02635000087320805 0.030797156948336884 -0.014135322487202014
-0.026350000873208046 0.027456816262502983 -0.027415420543594568
-0.026350000873208046 0.026154762491633097 -0.0005585072331932596
-0.026350000873208046 0.026463198640742955 0.03214445009821838
-0.026350000873208042 0.015074081324040586 0.006239878515082319
-0.026350000873208046 0.030670328599864346 0.024162012277998624
-0.026350000873208046 0.03107592686753933 -0.017161018412817156
-0.026350000873208046 0.029384462344913685 -0.0247979978040058
-0.026350000873208046 0.0313222809426498 -0.03306563479272799
-0.026350000873208046 0.017707750424717374 0.03050508044437783
-0.026350000873208046 0.02469776494823308 -0.003245350994575489
-0.026350000873208046 0.006596102760159345 0.0206341725717
-0.026350000873208046 0.030594392498255196 -0.03578574132794686
-0.026350000873208046 0.031957952504587946 0.013738206511958471
-0.026350000873208046 0.030160894466243975 0.021561698295766436
-0.026350000873208046 0.019773443957929238 -0.008000656799816624
-0.026350000873208046 0.032591934684397826 0.02813431531359879
-0.026350000873208046 0.02281032256467966 0.03306477402652731
-0.026350000873208046 0.016140200206126668 0.015466668691625444
-0.026350000873208046 0.0197758209121334 -0.011877662931422794
-0.02635000087320805 0.028439409383972127 -0.017628084952280566
-0.02635000087320805 0.028881229569172384 -0.004785074554648225
-0.026350000873208046 0.01168805746815071 0.02767550881586196
-0.026350000873208046 0.018826087044375855 0.026922366132234907
-0.026350000873208046 0.012298571948040453 0.01621273304120255
-0.026350000873208046 0.0203334322118021 -0.014740713543774793
-0.026350000873208046 0.03061636681620781 0.0009748638849466536
-0.02635000087320805 0.0033961911100601283 0.027484430719527664
-0.026350000873208046 0.02561093240923261 0.008470668324839203
-0.026350000873208046 0.031199137289359937 -0.006063784109301336
-0.02635000087320805 0.01351999507204275 0.010987268543978804
-0.026350000873208046 0.01911300360639014 -0.004439651309265409
-0.026350000873208046 0.015098855678990782 0.017897768169973714
-0.026350000873208046 0.02190571739648462 0.007555971291907963
-0.026350000873208046 0.032291217926312836 -0.023362915064240333
-0.026350000873208046 0.023688762113561503 -0.01749132866205983
-0.026350000873208046 0.019468893530164375 0.020380652737498565
-0.026350000873208042 0.031333995171927906 -0.02965993982057506
-0.026350000873208046 0.029189834938869907 0.012257827631101791
-0.026350000873208046 0.022646927172663825 0.01181361754137122
-0.02635000087320805 0.02569199485476702 -0.015060433860187603
-0.026350000873208046 0.013503873584839239 0.019705005526883396
-0.02635000087320805 0.004290373044044859 0.024302277035835308
-0.02635000087320805 0.025494701253887204 -0.025138321447671436
-0.026350000873208046 0.02213528766560276 0.01883755941802079
-0.026350000873208046 0.02823827751138596 0.029871196673022554
-0.026350000873208046 0.017525432769605265 0.009079430146648238
-0.026350000873208046 0.02595366476601637 0.0028383086088761642
-0.026350000873208046 0.03211216107911277 0.007703104224927919
-0.026350000873208046 0.0037887037071540576 0.033457751659709226
-0.026350000873208046 0.01081060928969171 0.024758506403763987
-0.026350000873208046 0.031545618381816534 -0.011534124427577739
-0.026350000873208046 0.026617156550742815 0.023403600369104757
-0.026350000873208046 0.01074751179320083 0.012007924770981587
-0.026350000873208046 0.02829091525659792 0.01804361815931955
-0.026350000873208046 0.02173631139931998 0.025191734318665275
-0.026350000873208046 0.012858101541858197 0.008108133605884388
-0.026350000873208046 0.028223772480440487 -0.015004135866273943
-0.026350000873208046 0.008436027610518749 0.02405926197478269
-0.026350000873208046 0.010387618863412383 0.03235248147766278
-0.02635000087320805 0.028131191136231606 -0.030388421557834867
-0.026350000873208046 0.03187320564787502 0.01917726143911857
-0.026350000873208046 0.021692884831720213 -0.004983630390990562
-0.026350000873208046 0.020163106114584144 0.03165372549843955
-0.026350000873208046 0.02266838361818229 0.02846829139608409
-0.026350000873208046 0.023557749734320677 0.015741291933950095
-0.0244099357448952 -0.035576430457459854 -0.03288235243250973
-0.025150957615093637 -0.033384791995881444 0.003802627590928436
-0.02527320990528489 -0.03186328263723512 -0.00265506408566234
-0.02502900070188433 -0.03295250860413508 -0.010787260519126155
-0.024835114689910696 -0.032664221768265146 -0.02967942772180303
-0.024708828830616113 -0.0345322127908307 -0.019813283279295865
-0.02464661243779316 -0.033402398437879656 -0.037062945096494465
-0.024764456818545694 -0.03289806966919777 -0.03290917910421714
-0.024472045343374525 -0.03537360730400094 -0.030013858881229954
-0.025075532124425273 -0.032314461065008876 -0.01388077311398955
-0.024816485029569783 -0.03327542647979173 -0.024604113769676302
-0.024947643293291 -0.03417887883217616 -0.004183653678579759
-0.02525857044292645 -0.03330884054285148 0.011743552165386282
-0.024710188592977356 -0.03495768085097847 -0.015113927448272231
-0.024577274382792322 -0.035271404302390605 -0.02255010554876937
-0.025374983655248734 -0.03266373091009765 0.014262496616730727
-0.02504831836403578 -0.033780661744174184 -0.0002831166218110314
-0.025525738774349875 -0.03239850732689143 0.023674057304409978
-0.02481327285083515 -0.034960597231317884 -0.006691055917711861
-0.024515042194287597 -0.03532940895310904 -0.026990443661529667
-0.02490916091854837 -0.03281651957096422 -0.02200927680661703
-0.022888009548391493 -0.03803063201439402 -0.038068779636729375
-0.023747685943873706 -0.03513937492340998 -0.038831328344126184
-0.02372828894198607 -0.03868051155863714 0.028466471187676253
-0.023399072181438305 -0.03969128812742077 0.016946337388284178
-0.024266977909157064 -0.0368187727524293 0.006117538483066254
-0.024530389978796984 -0.036079615392732266 0.029128591626197034
-0.024036193441363197 -0.03740645322791874 -0.025921582102440856
-0.024282611594515467 -0.03669141408329322 -0.009067082083429804
-0.02476268111925223 -0.03530049740348485 0.02418812742970179
-0.02366204984530427 -0.03871595417438686 -0.007140286198954713
-0.02395421519602601 -0.037689359807911806 -0.022602717856236673
-0.024394371312124644 -0.03628521777241216 -0.017658198859697403
-0.024608913483862377 -0.03562001568768636 -0.011440281408215453
-0.02412649784990608 -0.03726174293628176 0.0035135391206158363
-0.02402683516933279 -0.037647177320763114 0.015774818306193702
-0.02485491823248811 -0.03491907271821572 0.007942476573001586
-0.024862487977689227 -0.03501355364758352 0.03154377432759356
-0.02371107611318348 -0.038704306471561215 0.02210493290439658
-0.023350394804162677 -0.03983293873517701 0.013696586338532286
-0.02336199361001123 -0.03985501761318504 0.025538555893669525
-0.024220779953286274 -0.03693514761381944 -0.0005469093602201366
-0.025217205082858227 -0.03380166637384194 0.01960953022428684
-0.024710377803596927 -0.03542151575839191 0.01451465629321845
-0.023584163779981647 -0.03910402442180597 0.01965932798444616
-0.02369271825677499 -0.038636723127174866 -0.0031077868251286264
-0.023512844640793194 -0.03927469821850417 0.007590299075378275
-0.024122673028525998 -0.03718747370490161 -0.013670825403105772
-0.024296568810122023 -0.036744342469133995 0.010408204506998215
-0.025347767865730425 -0.03342895779926551 0.02975878977493561
-0.025299238307550848 -0.03356858338901243 0.02620275156517689
-0.024419572897800647 -0.036386276768007306 0.0185952590335316
-0.02232888381936775 -0.041201268081273515 -0.0060269024552407945
-0.022444819717039762 -0.041887130559206454 0.0192669071498487
-0.022394597438564437 -0.041392858079534425 0.0027139340712312252
-0.02283338789086119 -0.041324066702112035 0.02281720684023101
-0.02246081592045052 -0.041474257048367914 0.008352679453839388
-0.022626461508623817 -0.0410924441380811 0.005842121475352053
-0.023199780221374755 -0.039871426440257256 4.67272287328277e-06
-0.02367622699409607 -0.03845201540004611 -0.01633287427869399
-0.02416996573691415 -0.036878390119292837 -0.036178188619655056
-0.02267539011003307 -0.04009922020930327 -0.01988840840389268
-0.02263776853522901 -0.04126688270131325 0.011361423956277775
-0.022789710017073427 -0.04172847915353257 0.03209987637656844
-0.021890763219956193 -0.04183192885484581 -0.010149394479390245
-0.021554960864973605 -0.042124492720147656 -0.018724824476450557
-0.022111423557018 -0.040998217590288884 -0.022720532111020524
-0.02238056746466586 -0.04082303227661253 -0.014164211466906731
-0.022943740523327233 -0.039917130548546606 -0.011567933435212882
-0.022244314287836846 -0.040974653879885 -0.016709593400313923
-0.022318830648484993 -0.04133431801503938 -0.002755968512445529
0.002410891914527315 -0.04261203283182012 -0.042128000408411026
-7.975565786177584e-05 -0.04213560908451219 -0.042128000408411026
0.004022239794338145 -0.046229466663228025 -0.042128000408411026
-0.012953865943461164 -0.03062051743978797 -0.04212800040841102
0.001291157590031773 -0.03684981932511269 -0.042128000408411026
-0.0023123580375582252 -0.03889990300571264 -0.042128000408411026
0.0035724332565985188 -0.0393036415137948 -0.04212800040841102
-0.007031966952972882 -0.04009503656007513 -0.042128000408411026
-0.00021638807068741217 -0.04471939740429989 -0.042128000408411026
0.006357277177416225 -0.0434847373771544 -0.042128000408411026
-0.00316539730582869 -0.043688601317715486 -0.042128000408411026
-0.004192489338643748 -0.03393756539175705 -0.042128000408411026
-0.009386417280899641 -0.03305764722287627 -0.042128000408411026
0.007402483816549035 -0.04626534218816866 -0.042128000408411026
-0.004926623826458777 -0.041432086746776925 -0.042128000408411026
-0.016424651920080666 -0.028889654956201542 -0.042128000408411026
-0.005065157964579648 -0.036802119500709274 -0.042128000408411026
-0.013894101453978262 -0.02737687012806713 -0.042128000408411026
-0.017037749239975766 -0.025754292457411513 -0.042128000408411026
-0.006798863023977347 -0.03481317521950081 -0.042128000408411026
-0.007570085551175568 -0.042705041367131394 -0.04189520380607964
-0.0191880245167636 -0.028251968465807797 -0.04191357044880977
-0.018427145662397938 -0.038954774259424764 -0.04105875478077691
-0.01592338032008964 -0.03132957023490575 -0.04199447860812932
-0.020372462916340362 -0.024733364659166986 -0.04209437907522839
-0.02143862146543252 -0.030117731248864292 -0.041508918829107344
-0.01944325747001146 -0.033685143199564026 -0.04141082313422515
-0.01115322771011408 -0.037168160642117615 -0.0419953042305352
-0.019493668116830454 -0.03650621517787916 -0.041158589132862786
-0.016327886262132867 -0.037471569769619684 -0.041413701750116334
-0.017000737809000466 -0.04120049319485035 -0.04101527056263331
-0.022065620133339316 -0.026881423391650776 -0.04172482163759469
-0.010335350947533236 -0.043226017266454926 -0.041553007367330266
-0.014167440586695453 -0.040247082365201296 -0.04140259982767683
-0.009827404248760064 -0.04055452475401729 -0.04184123134443364
-0.022096638967757945 -0.02281433353620834 -0.042077340194249954
-0.016590558201568385 -0.03406518883273367 -0.04168356416837243
-0.012695266272586603 -0.03501131455767592 -0.04201860956702326
-0.0031504801805159873 -0.04757749541018243 -0.04034262088736287
-0.0003052973625712556 -0.047399384451332474 -0.04108750308808741
-0.007251653005863983 -0.047851940063112906 -0.0392302193565434
0.011294784353547594 -0.0477445919435639 -0.03307016917688826
0.009224518322042444 -0.04813040399114364 -0.003506034603767175
0.008095793297701622 -0.048200546818461115 -0.01104789440046982
0.011158861955940153 -0.04780382641745993 -0.025407609880112668
0.009447531884406654 -0.04791507112913003 -0.036015922979032604
0.010781224617797921 -0.048057209966431515 0.010868859648009231
0.011465224632709412 -0.04786268687856577 -0.01021464466338765
0.009571452438577235 -0.048110536135639204 -0.0009024027101420234
0.00900932619339435 -0.048014638906413803 -0.02673671971800487
0.011804257650153208 -0.047671390138482206 -0.03667636667966864
0.009428346410920425 -0.04814543273821077 0.0025296532959318066
0.008291564756068914 -0.048196717304658195 -0.008332979512332543
0.009213217780590843 -0.048249006105856564 0.016314800087230887
0.007242794085551479 -0.048205296007624944 -0.024891448302006763
0.006345490135341875 -0.0482099521929398 -0.03951135827165025
0.008644725626394161 -0.048130225085633846 -0.013490595697723526
0.008105990477651388 -0.048076946882145415 -0.03173108632324029
0.00789527256506564 -0.04811355070945851 -0.02917174324307776
0.010982342476199426 -0.048018288514219784 0.007753580985540782
0.011753048150935669 -0.047760506368066155 -0.022516650956591847
0.00696993649847309 -0.048161418781714586 -0.03698065483657995
0.007266341197551283 -0.04825156971305964 -0.01667819315550782
0.009568048356586763 -0.04799535349735801 -0.020398640641027324
0.007290699099128892 -0.048145486688173596 -0.03416217303007592
0.012068801673443295 -0.047752230405943334 -0.01849214895324023
0.010917155247518023 -0.047888875599062755 -0.015204850697168037
0.00869800689075545 -0.04778392493350847 -0.04015590883718652
0.011530863023867396 -0.047343853496682534 -0.04026477052165487
0.014373318692105985 -0.04700718550998989 0.01791808665607144
0.014200192618404233 -0.047070408881200836 0.011970510776028207
0.013675079301243512 -0.04723934926316489 0.006084379306331159
0.010938800081842255 -0.04802847506430755 0.023973049750991442
0.014186051734657396 -0.047068050870906486 0.015490147128077891
0.01357897971440507 -0.04730679901576962 -0.014445988509876084
0.01262283951065624 -0.04752767615591806 0.021021388918000344
0.012448294389279593 -0.0476298496697687 -0.005439565414748167
0.014538958213023454 -0.04699429601768755 -0.0017380107259669791
0.011528423722810476 -0.04788662953138424 0.005103045018984495
0.013119964572945907 -0.047400121686153096 0.009350966984123521
0.01357670331102459 -0.04727469510594609 0.0030134953938158564
0.012160385588122716 -0.04770578059740964 0.0002234353119890016
0.013696422877556033 -0.04729371920310474 -0.026284289913202905
0.011160202937886466 -0.04798030675580136 0.014174621756250892
0.012639473096112672 -0.047619744927495794 -0.03066745303769811
0.010946415911159076 -0.04803680281167992 0.01831927649849835
0.014549786631707487 -0.046933500824693684 0.028901163468054304
0.011143351679703255 -0.047958494502703536 0.028487397345273235
0.015528439347501737 -0.04667621681973401 0.009215735747494548
0.014324328878866928 -0.04707728383818824 -0.011565107299064924
0.015865501036294003 -0.046548242712476984 0.023395628001198217
0.011042597000745199 -0.04798395175296081 0.031062932029098926
0.014027521050489135 -0.0470963458614912 0.025804809111975486
-0.018180098884461395 -0.04514479877024106 -0.010935446655627953
-0.019420654148851246 -0.04432149363214202 0.0004388043865377429
-0.020253123461634978 -0.04349028970630017 -0.011394718305487474
-0.01839983600954086 -0.04546764464458096 0.023811209654676427
-0.01700188815442948 -0.045998035543502944 -0.01675805167489976
-0.01940206052039964 -0.04405095148145255 -0.019487912838115445
-0.018061442194535565 -0.04536994756809879 -0.001798830511708871
-0.01612856473254961 -0.046629824879771055 -0.021119615431127805
-0.01955422916650361 -0.04388922446410017 -0.022334687470753442
-0.019632330232111365 -0.04402156353500324 -0.008756220921103345
-0.018625476408237557 -0.04474262022258444 -0.014296773350207447
-0.0173560950959925 -0.04597289966322011 0.001151352091916769
-0.018703870197655386 -0.045000286078022 0.008050661548207152
-0.020007734454686257 -0.043761112485726075 -0.0061041986981572715
-0.01771968448041982 -0.04593344843040169 0.018581878481371283
-0.017124967082371653 -0.04608381233713596 -0.00393437287106534
-0.01782072265018813 -0.045736184458655994 0.010414569495795962
-0.017609463637310845 -0.04565572867352977 -0.006933079370936035
-0.018301508861842626 -0.045432155223699686 0.015873728674682744
-0.017241115360661887 -0.04564390868748632 -0.028208548762575263
-0.018419482146694695 -0.04518924379731557 0.005458644235093039
-0.017500465743898855 -0.0460277822585903 0.012999480550967116
-0.020317684196513943 -0.043367304494632525 -0.016399616763329485
-0.013116499722247953 -0.047974951007358047 0.008934314287978935
-0.01271419154824371 -0.04791492161845579 -0.01997729434676644
-0.013705453038539159 -0.04773181279459891 0.002485193464774752
-0.013476874244836921 -0.04772576619977817 -0.009806929199678835
-0.012474989036570997 -0.047941749891351165 -0.027955355432409318
-0.011554809092632031 -0.0482172020169506 -0.03326604446863946
-0.012646133385210064 -0.04804542106056536 -0.004143458199157
-0.014580808751841645 -0.04732703595517871 -0.013495276268213839
-0.01412804781425275 -0.0474521606042802 -0.017641818160387755
-0.01328198019996944 -0.04770717225459796 -0.022267697688890847
-0.014918234049072934 -0.04707267673180035 -0.03414362038495593
-0.014688647105681693 -0.04720092118036947 -0.02669887289305554
-0.013229029546841235 -0.0476654231094309 -0.031060341671000184
-0.012185631282766517 -0.048128229787258794 -0.01491117103517008
-0.014288569144296635 -0.04747257111992494 -0.006627848687008461
-0.012843587476894822 -0.048005777683620535 -0.00013599441422691098
-0.013427295488658349 -0.047912421043412055 0.015222868458541577
-0.015665816327984965 -0.046839834623873415 -0.024193702246791318
-0.013536522958715724 -0.047920810105017864 0.030577151432354628
-0.014595740942568835 -0.047392615539110755 0.006491073441084391
-0.016179310769176163 -0.04666536649732771 -0.008838097968506509
-0.013587563510605733 -0.04787657770612592 0.023194536405084256
-0.016221221879151926 -0.04676796515413154 0.03112430776738142
-0.016101926647104175 -0.046690215460167536 -0.011630458767666855
-0.016848858971090855 -0.04648256462678991 0.02598948770810492
-0.016088472233547035 -0.04677921770557456 0.015939476287774763
-0.016037645571398806 -0.04682225620049701 0.02295701922187189
-0.01580014207864036 -0.04686808181715241 0.0043020940529977444
-0.015597450985790344 -0.04694017528194129 -0.0006904687713039266
-0.01369875541894662 -0.04783944255779603 0.02673303284103092
-0.013915056406426474 -0.047727689076099956 0.020525081769129754
-0.014788886452244753 -0.047344707707407195 0.01813646992660311
0.002637838217375526 0.048482455631871174 0.023158698301362107
0.00010212821194731728 0.04848369606842831 0.0231048009158522
0.006985946668816678 0.04831438586321909 0.030461386263465035
0.007650468042708099 0.04885952825868511 0.006774765874032233
0.004135655162522732 0.04873562924938871 0.012158219489526141
0.0011353287351331203 0.04856730276817084 0.019472061698933167
0.00894187725468788 0.04837960789051786 0.027627467246151123
-0.006175016714233921 0.048276024479565596 0.032128201282386575
0.003224490862672312 0.04837636250245755 0.027768480448647045
0.010673354090893716 0.048295867501869136 0.0312660152909977
0.005531954480374247 0.048617804968906046 0.017277724095410445
-0.0048805318624874 0.0483383905547692 0.029418374343933795
0.007831975564250058 0.048680614946796985 0.014548609435928403
0.0008832049088261353 0.04842062385275091 0.025845309895334415
-0.003600664802844171 0.04827942071832695 0.03198063356620604
0.004407837420492716 0.048672457063457325 0.014903072210159319
0.005591413903804432 0.048364193116244625 0.02829724437160614
0.0069068430562244446 0.04874252426220649 0.011858628864116526
0.005245114536396709 0.04848368568375462 0.02310525213341602
0.007012641205906828 0.048572036477993005 0.01926638041543021
0.0027612504776877533 0.04830814778858161 0.0307324327040423
0.00854740325778413 0.04861615892060808 0.017349245447447224
0.006812634725386127 0.04880747173051646 0.009036639527187548
0.00011006753206035339 0.048349071115832115 0.028954300374366117
-0.002509948202180545 0.04843817077462937 0.02508289023948859
0.009562225291399683 0.0485060456254182 0.02213370514950862
0.003881424167736166 0.04879508927505323 0.0007516217846234232
-0.008362569804381471 0.04827043202360902 0.004451582689462623
2.3631122732497862e-05 0.04862054517884781 0.0068292424399087216
-0.0001262066675135874 0.04863291198562911 -0.003115823539535903
0.0004079430809864795 0.048649664931985775 -1.4653410773177514e-05
0.0033970480124572854 0.04876868742674164 0.0039004314316226736
-0.003979400133194294 0.04842445641176081 0.021097920005713703
-0.009831784879122295 0.04824720568321002 -0.01623107795013712
-0.006943677776396268 0.04828732507519829 0.02737057114829783
-0.007103669243672637 0.04835958400106544 -0.014650914369960688
-0.0021723714929471295 0.048504510770516485 0.019157128866927428
-0.008492373138507694 0.048249608753139224 0.012606062843705692
0.0004941817302095311 0.048672301536855776 -0.01011288634199717
-0.008286067416003375 0.04826823365061578 0.007340645854194685
-0.008623105782245158 0.048312929455605835 -0.02400460092938086
0.0036519350417213285 0.04876881559027649 0.009563094571312042
-0.001329669863412075 0.048559363053595234 0.00893606541869787
-0.0036182447492102317 0.04847681916033975 0.001373723663045421
-0.006253814747615237 0.048389125983075286 -0.011252193853656434
-0.0028853456358101325 0.04849828123429606 0.006439406647643069
0.007151539957106311 0.048928969137639285 0.0030843557774144752
-0.002486883786291108 0.048531046011170004 -0.0020246179923074353
-0.003724814655004116 0.048445777770593404 0.015484147266051197
-0.0073164168044175994 0.04835957231499664 -0.019428062265113993
0.0019029325323859938 0.048687383478795 0.013541161824524247
-0.0063268709802085515 0.048372065859431844 -0.00382291056933178
-0.004299904287500938 0.04848401976205713 -0.01778151524079877
-0.0033922937235396898 0.048503498863253336 -0.007733202355269942
-0.006915066379843883 0.048352556087280146 -0.0066732645882490865
-0.00639007250895497 0.04832834362098967 0.01800574217037802
0.0006311452918443777 0.04867232917552162 -0.007048129537148255
-0.002101573426023965 0.048520315213859494 0.012344791885717132
-0.009957042395295755 0.04824847927457127 -0.019724578773021136
-0.003463985394357581 0.04849419981360201 -0.004400253529413162
-0.005195878315303046 0.04838920481558999 0.01249226004037485
-0.005788926854011265 0.04837715592225562 0.005565405611005948
0.0012572030597695731 0.048667628982737805 0.009527360287696117
-0.0047963342431684335 0.04841056656352373 0.010116222230218703
0.0008695826287835272 0.04863954008522134 0.015748703324780178
-0.0058015400559642254 0.048381844653226966 0.0027885423338169374
0.0018990590937062663 0.048721928260203134 -0.004915399178374667
-0.00704354240451965 0.04828972299982369 0.023850124104279242
-0.0059742796897813664 0.04838142182863804 -0.0008704512164315822
-0.0067045043273312 0.048309558094813285 0.02092549514668343
0.00466567293094808 0.04881642971538562 0.007036516918168796
-0.0010718738640095814 0.04858087216807238 0.003294636613605904
-0.003916857991850004 0.048490466665418834 -0.012597393609056737
-0.0010351609256843716 0.04861306161766446 -0.012996923546766842
-0.004984927309358318 0.04846036410745333 -0.020604309808882892
0.0037221853603502018 0.048795104472709974 -0.0028367445483432636
-0.0021784960108161165 0.048569743242488236 -0.015668476645271212
-0.010967416783636396 0.0480181201078929 0.006315017778440679
-0.011966073872734774 0.04791927033292171 0.003721745878586941
-0.010295582722506068 0.04818931701244701 -0.012975450145477236
-0.012133051790711861 0.04785854629579527 0.01216775156704647
-0.01006272670122744 0.048194515746194294 -0.008784471727989107
-0.011199660330773178 0.047900687164459346 0.024687207356278537
-0.009055453236161361 0.04815601949795776 0.021597234783452508
-0.013804018648929228 0.047588906812967825 0.028772440473256295
-0.012726596975888784 0.047760124621003874 0.018596901485503407
-0.010754641708185585 0.04807323902804706 2.484887013402652e-05
-0.008918538068726688 0.048150915045984594 0.025701155241652212
-0.011652576259728677 0.048003065920203265 -0.006065340178507682
-0.013530782011477355 0.04765804136758113 0.021025740106146953
-0.013529666516313803 0.04764434189396664 0.02380323339575566
-0.00924513981517202 0.04816444686649254 0.0156391956592055
-0.009226417918380431 0.04815195999706806 0.018568917936546973
-0.011772330441300802 0.04780471858042319 0.031092847453107943
-0.010004540636615534 0.04557757847959387 0.033649999648332596
-0.007398373619500609 0.04635687893917125 0.033649999648332596
-0.013341175851322834 0.046226640507955996 0.033385743674243656
-0.019820322240333577 0.0432560234870517 0.033521347073597836
0.027100716841948296 -0.02838355540303803 -0.019502987022452428
0.027181184233565827 -0.03061196865641771 -0.03039677783079466
0.027063631490984653 -0.02886131247257456 -0.01615902852886773
0.02726248789150767 -0.028497952333212118 -0.036539387402882144
0.026820576955028486 -0.03215321114905824 0.005577939261668033
0.027173103930358704 -0.02642046182344736 -0.024881769454601292
0.02666968829170411 -0.03179168817300872 0.021752233166392798
0.027034505085978957 -0.03196225439880479 -0.01656987688993024
0.027134204360911993 -0.027039692180077457 -0.021505819740250783
0.02720765398175263 -0.03121002250788122 -0.03382988461918047
0.026972125774472853 -0.029449715187485525 -0.007250131924905287
0.027102166335696204 -0.030337940834045687 -0.021832185140173384
0.026858023993905765 -0.03182339337313608 0.002031333073993046
0.02669176100311181 -0.03195580796736991 0.019262236487304192
0.02693977118697821 -0.029877142261712696 -0.00434457038495579
0.02703886319492904 -0.028821038089643394 -0.013525274827875912
0.027213923686494577 -0.026558373298128095 -0.029302076530565987
0.026909108296468417 -0.030524961751571066 -0.0018614057444448322
0.027174621163857632 -0.02929324529621162 -0.028241381227302936
0.02722585555755303 -0.028218505915445932 -0.03239905922930527
0.027140407649088975 -0.030040910162041072 -0.025498345280398058
0.026345041655662694 0.010598079534462613 -0.03817582480874147
0.026675302234374202 -0.0016147254059730477 -0.03576176320329673
0.02709271977468356 -0.02335350319805123 -0.039733762103995166
0.027144501039117752 -0.026117409090170563 -0.0403013484676292
0.027171305165886114 -0.02323197670088361 -0.035785852006845795
0.027256863230997016 -0.02979620995275018 -0.038949336658498396
0.02606781430535465 0.022748550671133145 -0.03808648402297149
0.026790062987780628 -0.007896447453009386 -0.037193715603490364
0.02718863253962944 -0.0254929441132208 -0.037464533546354484
0.027006481768500748 -0.015440673308502876 -0.03510057829890513
0.026954930432687194 -0.017473000309880197 -0.03986608257600723
0.02708847135266956 -0.02150936660081217 -0.03788502469361958
0.026906817204266437 -0.012909188935299652 -0.03711498402376348
0.02653241045698667 0.0037481005050780305 -0.03671844984787144
0.026873395905427498 -0.010520575818277547 -0.03607485411695621
0.02617276407353673 0.01789958362187989 -0.03839794728842967
0.026593333833933842 0.0008390000104569369 -0.03700429940067935
0.026997479034665765 -0.017108336891899 -0.03739554673561449
0.02596524689198794 0.027420285703797072 -0.016866333400274203
0.025959113662685572 0.02803487432994699 0.0197440916654944
0.026175395036434224 0.018859523319382027 -0.02321681932859087
0.026789268316682942 -0.005968075460632792 -0.02382836080552599
0.026158083408648225 0.01983123643776044 0.003919830268535423
0.02667010913212991 -0.00103259256209994 -0.012106461727394418
0.026304820516219574 0.013893242847938206 0.003440874373016354
0.026131506087105395 0.020928439745032917 0.006173856761235356
0.026280102943240288 0.014860255891953967 0.0002030018799075422
0.026838815423215128 -0.008079736859564274 -0.034640203592344904
0.026582938465917322 0.002574257790125982 -0.0039000757368981617
0.02718596792893644 -0.02208434393219777 -0.03142184378509193
0.026018678757549814 0.025551351615971357 0.012248593850436772
0.026145116515152153 0.02001708352837113 -0.029880619580036148
0.026073556344736182 0.022856712432646573 -0.03525832598832992
0.026500558484742885 0.005819526102141462 -0.0124586048855827
0.026111895968283935 0.021749100980589537 0.008944308856559193
0.026994566944994317 -0.014251197222614151 -0.022034363766484648
0.026849393954079 -0.008379306922962373 -0.02184097239472887
0.02584997076346408 0.03250189658540278 0.025128494617225553
0.026130694743050572 0.0206369138131505 -0.026215799834219226
0.025856885130506574 0.03228940273579262 0.03182779395577099
0.026240497645272982 0.01621541165035402 -0.02438921789095965
0.025967382292871877 0.02720929346048155 -0.029314500972899716
0.026011678241592468 0.025360587327358953 -0.0350702507330012
0.025915690074062754 0.029832815142115776 0.023952707430042314
0.026361770075851342 0.01161322311328494 0.005706844619664595
0.026440451218164636 0.008315746548027499 -0.005884323454623254
0.026779442652678134 -0.005603749613737734 -0.027120636911793044
0.026877309317979423 -0.009456214666035242 -0.016665163126674286
0.02604214988313268 0.024700649610966192 0.022068811239854862
0.025989339223931426 0.026862452222016362 0.02470984503494874
0.02644977608801987 0.007648596795525025 -0.03485598661223702
0.02594735854564737 0.028411497251275827 0.009888756684493743
0.02624195798178718 0.01650170664330156 0.01009867326241316
0.026217120571741033 0.017062252841762438 -0.034215216921721706
0.026273260470166447 0.01491614576212329 -0.02184536415109177
0.026574912870626 0.002710457556775252 -0.0227056714403338
0.025917266136349152 0.0295809789478203 0.005167023391898612
0.026867501625309403 -0.009211693475037919 -0.031849253011202235
0.027068037379743747 -0.01730273981695191 -0.030105945436552928
0.026117710759820216 0.021418036147758397 -0.0006376488663568883
0.02597731925261621 0.02703044122106557 -0.007050352570774047
0.026615176519336002 0.001052663966670522 -0.025678191004321324
0.026227513433175056 0.017125665993273656 0.014083873840939742
0.026082380414823077 0.02253023472682426 -0.03223074485057262
0.026734290424663607 -0.003758306064417606 -0.025148356261623594
0.02637753240178149 0.010801602689310942 -0.011698096015622902
0.026534293594659752 0.0045754670133872685 -0.00047540377176378407
0.02673442639303137 -0.0036896569863917525 -0.0177436254122402
0.02626355548924391 0.015461986103566742 -0.00652324173318977
0.025856163445525313 0.03218148682578805 0.01813653260260579
0.02608284676398443 0.02264827944473226 -0.01855900642985296
0.026167366922427653 0.019346531712449874 -0.006998818808577052
0.026961360426131092 -0.013029595057514606 -0.03412579609906492
0.025979028313576933 0.026926091986930478 -0.0105700930864389
0.02607068232841052 0.023396340033565978 0.007026735162369629
0.0268156693830555 -0.006975598297695989 -0.01783809675608594
0.02584233254342465 0.032409088139260696 -0.01498296006392431
0.02620488958737243 0.01792142969707241 0.002198510535567768
0.02610795952123305 0.022000408127836865 0.018145944994030213
0.026712597244726032 -0.002779848267672344 -0.01503081576403809
0.027139007411378396 -0.020209029477863037 -0.033768341055478386
0.02590101406939953 0.030179937536307398 -0.0006432399852158877
0.025835515049607304 0.03285231991233903 0.0017517297883751187
0.026181181590996708 0.01893990661913338 0.008176778851694563
0.02630742720602415 0.013833479196763313 0.00799832443465888
0.026232816798559967 0.01662209170100264 -0.01479100510810734
0.026319589754832447 0.012914336082106232 -0.034680320748040366
0.025999992016581305 0.026339272822201158 0.015478030502140295
0.026214044657470324 0.017486429849251504 -0.004274978172427512
0.026291474975213648 0.014121851346404852 -0.027618150908912766
0.02594556921590721 0.028516116592354243 0.013111346963120206
0.026652555126533348 -0.0002558797159987747 -0.00542238027857592
0.026168561018889765 0.01927163348248958 -0.009656835088063288
0.02630814097826244 0.013612090662369005 -0.011228601300742071
0.02584468818614215 0.03217087805747261 -0.02925992279554031
0.02650307941974452 0.005793557835545913 -0.004872430565305669
0.025895966369281688 0.0304674237414327 0.00768421419797363
0.026609263543440197 0.0014457994505023605 -0.010293968766734829
0.027075517965895954 -0.017569267097080732 -0.026516347094112505
0.025846238054801483 0.032692126320766686 0.029053283107897867
0.026624312206285982 0.0007599985092539927 -0.018015617977735713
0.02610487696538751 0.021886935053928833 -0.005633463790354119
0.026702208150688637 -0.002286773057637005 -0.007740565914828164
0.02646000159850162 0.007338356605042357 -0.024547829057054563
0.02592390317159457 0.029211357851123627 -0.004945171241196918
0.026191629650541656 0.018308140496265064 -0.012725840867923482
0.02635523959033749 0.011627047022151825 -0.019282667013954112
0.026141543644825 0.020425672998480634 -0.0035037464093621547
0.026277904465250912 0.014783157412015526 -0.016373931682003864
0.02644205932896547 0.007993117906753368 -0.03161033670612281
0.025886821744121397 0.030430194822232807 -0.03295960076952995
0.026446135060248413 0.007977469100245913 -0.016715347192633442
0.026071369740626446 0.023456936366580382 0.01585399830006095
0.026522862683197562 0.004951694946704638 -0.009061045083760516
0.025853412640786465 0.032262671357803974 0.015136359966981629
0.026024581267467286 0.02521429712173484 0.002422680195852421
0.026694276696651156 -0.0021895369001828507 -0.030057150087576343
0.025946611523283314 0.028100283619071208 -0.024207296423087596
0.026226011794620273 0.01693823873594046 -0.010697293990031028
0.026026363534348413 0.0249080130315465 -0.020967831377657543
0.026494348908236966 0.0058623421934332984 -0.033256962532937015
0.02614882212984567 0.01980019067415031 -0.036577545671029596
0.026777565799458038 -0.0053971176682778964 -0.014063900422005556
0.026080763359908356 0.022960774353603188 0.004235763702258843
0.026822499574101436 -0.007370192974047321 -0.029664335135049787
0.026936502913945518 -0.011935567715758464 -0.025244363779757858
0.02625060760117864 0.015741289203803396 -0.030913893264633598
0.026036203334454996 0.024716727010496393 -0.0003377217267893969
0.02587015145707096 0.03134198256965192 -0.009217714716894063
0.02598625385753161 0.026786518726131667 0.004668005390010846
0.02652971292446906 0.004510560587894131 -0.0254540411361063
0.025904435685743805 0.029744012635881705 -0.030360748756826494
0.026103638031596446 0.021848037789520162 -0.014520772729293054
0.026718969702867593 -0.003103971906499253 -0.02166773278331045
0.026530733088825635 0.004434563190835553 -0.028924162971135006
0.026229799057509513 0.01660849823440677 -0.02833414033588763
0.026003453110546904 0.02591213553920828 -0.01320248594957866
0.026155936453670786 0.019550070571858202 -0.0328283964569457
0.026411494426714963 0.009454821694171724 -0.00905701421395362
0.026007791489362123 0.025601644715056538 -0.026691547250235877
0.026408799736143823 0.009671021917962961 0.0016528450915274107
0.0259120823533216 0.029613970542371963 -0.012470319387057451
0.0264034021948652 0.00961099344201377 -0.026137170899346605
0.02609493344070455 0.022129943111165035 -0.021517152462089465
0.026109378589881833 0.021650097123863038 -0.011107938836849353
0.026279851333152065 0.014676727214035911 -0.019141226748870876
0.026079759323245327 0.022665692928331815 -0.02928705607241351
0.026471586876524185 0.007132686359237441 0.0016940146277811558
0.026775971810547 -0.005396874375580625 -0.020476117896222418
0.0258781764862443 0.031043521300460713 -0.006618771729070125
0.026404307161990263 0.009547122896720654 -0.02886140105223067
0.02616021030899589 0.019843850398117327 0.013767938956780964
0.026947904060511025 -0.012457664420543474 -0.03134620721883291
0.02593849175833768 0.02846480138802191 -0.020591999751584752
0.0264791370921485 0.006537341164842092 -0.027272871596250504
0.025914075759435204 0.029934240531808005 0.027563040938207353
0.026645093156284987 -5.263863203462324e-05 -0.015256931233872534
0.02607617427427028 0.023214033467346403 0.01099698520410693
0.02591030341906959 0.029627674608221202 -0.018285074409696837
0.026031268875424833 0.02510720309790889 0.018732160928018195
0.026680282348162047 -0.001650148504331898 -0.03269978693133918
0.02662377266552345 0.0008824682972766191 -0.007963741828949515
0.025996334623309622 0.026307711511491624 -0.0024423873598226962
0.025998103062741654 0.02593860347442173 -0.03216269466632163
0.0259223318836832 0.029049759569310784 -0.027428152573713005
0.027003722332838938 -0.014673194455931298 -0.027208053559357542
0.026925872474329246 -0.011534146948198914 -0.02808180507700926
0.02657151770518782 0.0030102034293617488 -0.006480974951633623
0.026337586734805296 0.01227951314053071 -0.0254057335070552
0.02584736769256408 0.0323287586799118 -0.002673231097086016
0.02645509308303536 0.00777219736490452 -0.0010425409437710646
0.026311145912361035 0.013461140819822748 -0.014169421503602921
0.026394055204487423 0.01022705007825382 -0.002357282632606466
0.026219988732550117 0.017104615998883216 -0.01840297873821812
0.026327882907788102 0.012864553816866901 -0.006164180763216658
0.025972655092663176 0.02691242027780243 -0.03767044208908782
0.026019404561915635 0.02521853518324894 -0.01805757695136104
