0.00433809174441 -0.0166529741401 -0.0168435688652
0.00694909566231 -0.0155058265114 -0.0170211296719
0.00346270728721 -0.0160527132198 -0.0169627708635
0.00177638149989 -0.0149825817228 -0.017017781748
-0.010213456078 -0.0112142543612 -0.0169300172645
0.00372450839042 -0.0137619037015 -0.0170728329706
0.00885022906631 -0.0143344590578 -0.0171334620966
0.00576204262464 -0.0152643807206 -0.01706856232
-0.0106516947787 -0.0121903961567 -0.0169020209343
0.0107072561641 -0.0137178894038 -0.0171737653366
-0.00140426434448 -0.014134199462 -0.0169911332384
-0.00423648240701 -0.011556295629 -0.0170079613563
-0.000510674533098 -0.0121475269198 -0.0170481361491
0.00890291004657 -0.0132326008627 -0.0171587371731
-0.0119063112785 -0.0102540529952 -0.0169271538221
-0.00734632813495 -0.0131515207662 -0.0169279457376
-0.0051907000379 -0.0131472176277 -0.0169588977202
-0.00545278719833 -0.0153520213992 -0.0169060799632
-0.0130122248714 -0.0108409829985 -0.0168982618227
-0.00388092923574 -0.0137366748179 -0.016964528213
0.00101061962977 -0.0156879163418 -0.016991123767
-0.00243700741562 -0.0144830467776 -0.0169685869636
-0.00591813985092 -0.0138454486383 -0.0169329463762
0.00782955290966 -0.013620438912 -0.01713474183
0.00313765869934 -0.0150524944643 -0.0170357115698
-0.00830872915431 -0.0117221363704 -0.016945979505
-0.00107320216186 -0.0156220939792 -0.0169627602264
-0.0132512223454 -0.00982036252154 -0.0169175538566
0.00410623984806 -0.0127879311491 -0.0170999721666
-0.00675758903327 -0.0144785188664 -0.016906841803
-0.00915034538146 -0.0108443353405 -0.0169534671634
-0.00862923563553 -0.0131997767834 -0.0169085079672
0.0141090619502 -0.0138129924027 -0.0172203432244
-0.00257612870192 -0.0163815415853 -0.0169243460371
0.000560234176189 -0.013028687289 -0.0170438558833
-0.00325442147942 -0.0125617390191 -0.0169996434794
0.000549505048013 -0.0145857030722 -0.0170090521425
-0.0036056472864 -0.0157059572143 -0.0169246438398
0.00239924351566 -0.0135304729435 -0.0170590130949
-0.00251391656844 -0.0133491358944 -0.0169927203607
-0.00527943687298 -0.0117601889618 -0.0169884947499
0.00662843295872 -0.0142060539798 -0.0171045162849
0.00131036372988 -0.0138954029071 -0.0170353053581
-0.00645829198014 -0.0122051041735 -0.0169617190741
-0.00442070064974 -0.0146629489213 -0.0169361882836
-0.00107603248809 -0.0130797386429 -0.0170192978302
-0.00577394669553 -0.0108233268159 -0.017002265338
-0.00934021283551 -0.0121928415698 -0.0169207394062
0.00307200014536 -0.0121470504876 -0.0170994300862
0.00479485040355 -0.0141569390538 -0.0170793629227
-0.0069479593615 -0.0108197469046 -0.0169855398844
0.017193807477 0.015696330024 -0.0092694788105
0.017069570364 0.0164465912288 0.00123383000258
0.0170661833285 0.0162764759909 -0.00219014154768
0.00464984293008 0.0163481367024 -0.0174397497078
0.00200302862388 0.0165053701111 -0.0171443704292
-0.00805371683951 0.0167263725349 -0.017030678279
0.00345608558931 0.0163941081617 -0.0173733655388
0.0161901623715 -0.0131915611512 0.0172349506825
0.0167928615994 -0.0126295578675 0.0164264059952
0.0165068946699 -0.0145571836209 0.0168451141382
0.0168745668961 -0.0139385573078 0.0158989360566
-0.0172177834751 -0.0109773594421 -0.0160970934847
-0.0170538249833 0.00141252835811 -0.0165482115621
-0.0170476319837 -0.00448746507104 -0.016460813654
-0.0171513879251 -0.00773244559295 -0.0162507070011
-0.0172641747494 0.00261784994235 -0.0160638850951
-0.0169165266168 0.00944766645623 -0.0168823116781
-0.0169867906958 0.00847652806472 -0.0167017829534
-0.0167797453004 0.0144270137421 -0.0171196661696
-0.0173166379819 -0.00113115572451 -0.0160407690884
-0.0170618677838 0.00734556507654 -0.0165123340314
-0.017043823447 0.00577366364655 -0.0166259584543
-0.0168685134387 0.0129782671875 -0.0168997887521
-0.0170124072086 0.0114701826175 -0.0165123307396
-0.0171624666176 -0.0156347928358 -0.0160289058093
-0.017329043008 -0.00942756615111 -0.0159210612675
-0.017426000908 -0.00581264412248 -0.0155733709465
-0.017426000908 -0.0128423746237 -0.0037412999129
-0.017426000908 -0.0126741260881 0.00979204091336
-0.017426000908 -0.0132877164563 0.000340843130162
-0.017426000908 -0.00958851409271 -0.0102134003847
-0.017426000908 -0.0131540090406 0.00619122859998
-0.017426000908 -0.0154957438731 -0.0138943761803
-0.017426000908 -0.0143009303185 -0.015067701521
-0.017426000908 -0.00725807854444 -0.0103542034381
-0.017426000908 -0.0120742288728 0.00654562641013
-0.017426000908 -0.0128137119055 -0.00070901202524
-0.017426000908 -0.0129043524272 -0.0104251226018
-0.017426000908 -0.00935002477603 0.00209714674686
-0.017426000908 -0.012159331413 -0.00531830491392
-0.017426000908 -0.0135138273629 -0.0014628492665
-0.017426000908 -0.0134570482113 -0.00550567608266
-0.017426000908 -0.0156772850659 -0.0125866538501
-0.017426000908 -0.0113054742681 -0.00832998377302
-0.017426000908 -0.0123777483902 -0.00790423981445
-0.017426000908 -0.00988483311008 -0.0144280268475
-0.017426000908 -0.0135719255361 0.00520240160455
-0.017426000908 -0.0122184552363 -0.00665503797395
-0.017426000908 -0.0107627238257 0.000971711648298
-0.017426000908 -0.0140844113281 -0.00355195749122
-0.017426000908 -0.0111190793321 -0.0147922137859
-0.017426000908 -0.0121255909805 0.00888908894217
-0.017426000908 -0.00751319537532 -0.0141107908426
-0.017426000908 -0.00721114216642 -0.0121276028525
-0.017426000908 -0.0146762501867 -0.00620982480439
-0.017426000908 -0.0116683532892 -0.012421910183
-0.017426000908 -0.0115385281208 -0.00231575896872
-0.017426000908 -0.0152972646166 -0.011652048288
-0.017426000908 -0.0105041816956 -0.00308022545601
-0.017426000908 -0.0119614825856 -0.00932605802904
-0.017426000908 -0.0128548034478 -0.00224553239969
-0.017426000908 -0.0133085560282 -0.00660750493111
-0.017426000908 -0.0116631387062 -0.00372643402015
-0.017426000908 -0.0130352058782 0.00822137844313
-0.017426000908 -0.00653562327798 -0.0133196056453
-0.017426000908 -0.0112077131113 0.0112938081559
-0.017426000908 -0.0117279330942 0.0102152171891
-0.017426000908 -0.00878823287908 -0.0110402109292
-0.017426000908 -0.0106235230816 -0.000476726550891
-0.017426000908 -0.0144275566182 -0.0123588145727
-0.017426000908 -0.0126495832403 -0.0149382212906
-0.017426000908 -0.0148355137959 -0.00795350578219
-0.017426000908 -0.0119843963734 0.0136516800511
-0.017426000908 -0.010425445867 -0.00450784033491
-0.017426000908 -0.0105894147837 -0.00909711480041
-0.017426000908 -0.0137941677548 -0.0136398193888
-0.017426000908 -0.0092563775228 -0.00779311837242
-0.017426000908 -0.0119286655217 0.00079138939959
-0.017426000908 -0.0136586824798 -0.00810538486927
-0.017426000908 -0.0139978698663 -0.0108470739784
-0.017426000908 -0.0109737358868 -0.0103492902911
-0.017426000908 -0.0119712800675 0.00787658669649
-0.017426000908 -0.00887699066015 -0.0130672130216
-0.017426000908 -0.0114571313628 0.00560003037749
-0.017426000908 -0.00827563997997 -0.00946772853935
-0.017426000908 -0.010340124192 -0.0059664508305
-0.017426000908 -0.0101588754386 0.00323014703501
-0.017426000908 -0.00927796040523 -0.00512078023536
-0.017426000908 -0.00993040565829 0.00036584097303
-0.017426000908 -0.011823803968 0.00260783357223
-0.017426000908 -0.00967372904678 -0.0118090676988
-0.017426000908 -0.00930955086142 -0.00676079409578
-0.017426000908 -0.0131764924667 0.00157833018667
-0.017426000908 -0.0102895072142 -0.00726550584231
-0.017426000908 -0.0069677650389 -0.0155329805298
-0.017426000908 -0.00872490093818 -0.0151160803178
-0.017426000908 -0.0117890369863 -0.000767635501217
-0.017426000908 -0.0151019980069 -0.00964984686698
-0.017426000908 -0.0104650459312 0.00524132292394
-0.017426000908 -0.0153414458423 -0.0150318860502
-0.017426000908 -0.00897900236493 -0.000603093195821
-0.017426000908 -0.0108241237572 -0.0132558943023
-0.017426000908 -0.00855469629168 -0.00185535670484
-0.017426000908 -0.0131354826887 -0.00943927639481
-0.017426000908 -0.0119358563467 0.0042776550801
-0.017426000908 -0.0110898905793 0.00697312997412
-0.017426000908 -0.00754542760977 -0.00669203737874
-0.017426000908 -0.00776297842531 -0.00807574833832
-0.017426000908 -0.00958401443472 -0.00188670962322
-0.017426000908 -0.0121787863767 -0.0137276302895
-0.017426000908 -0.00764060396931 -0.013081111701
-0.017426000908 -0.0125198752818 0.0127400690336
-0.017426000908 -0.0109929335908 0.00917071844708
-0.017426000908 -0.0118701635805 -0.0112754762246
0.016720892111 0.0161684785837 -0.0112579785164
0.0168154757985 0.016645042361 -0.000135229443902
0.0165963715824 0.0163608640408 -0.00994023262249
0.0170240982108 0.0162477435759 -0.00380272748554
0.0167925558593 0.0163428252161 -0.00646619184636
0.0168825679389 0.0159405036262 -0.0125441763287
0.0170254957051 0.0161596829187 -0.00548998943642
0.0169470916708 0.0158107889791 -0.0138115758136
0.0154694179104 0.0165919833852 -0.00471359647049
0.014375216602 0.0166249507445 -0.00531597657496
0.0158565213824 0.0166367949576 -0.00240004117516
0.0167202250267 0.0167474408077 0.00315851955547
0.0162011869141 0.0162536220558 -0.0160753129518
0.0133409614382 0.0165921177769 -0.00826547379094
0.0159638473236 0.0166623120289 -0.00127163877222
0.0135607650842 0.0166121510611 -0.00715306624036
0.0127591952463 0.0165332158241 -0.011428390704
0.0163305800236 0.0162894622093 -0.0145260904219
0.0137858550713 0.0164546879369 -0.012633399735
0.0152181713937 0.0165479584436 -0.00677086349101
0.0160241036404 0.0166000501961 -0.00348663131414
0.0151696414102 0.0167180401608 -0.000526159711825
0.0143089096716 0.0164773129658 -0.0109178337451
0.0134982436422 0.0165353737138 -0.0101131049311
0.0152498305821 0.0163448611297 -0.0142717001559
0.0157294704578 0.0164169208868 -0.0107900725156
0.0161059543733 0.0167954932776 0.00391921066745
0.0163183033959 0.0164500027176 -0.00857566701314
0.0161595589261 0.0163310667152 -0.0132644998097
0.0149777485562 0.0164001657881 -0.0126694470359
0.016901100369 0.0168050803492 0.00560455297569
0.0154768845543 0.0167635586225 0.00168023167326
0.0145642913633 0.0166790385616 -0.00298833936801
0.0150477635002 0.0164910563586 -0.00917197668314
0.0145186063477 0.0165414277112 -0.00818280635138
-0.000740822197241 0.0166531362992 -0.0168782950741
0.00620575216889 0.0164566699033 -0.0170724593331
-0.00490387972597 0.0168348954227 -0.0162795726117
0.00201428005552 0.0166826561452 -0.0153330682745
0.00733899392548 0.0165124812592 -0.0159536562717
0.00572341444422 0.0166475217224 -0.0136422951791
0.00880817860638 0.0164722798023 -0.0159529990765
-0.00204400057736 0.0167667338104 -0.0160213699623
0.014454333743 0.0163122241907 -0.0160919799853
0.00424921610459 0.0166094526185 -0.0156387590961
0.00861285818088 0.0164393886849 -0.0169263443599
0.0125729902682 0.0164506284509 -0.01388022112
-0.0029096587735 0.0167700261699 -0.0165408883864
0.000997341572377 0.016731284665 -0.0148040273941
0.0114980830352 0.0164977637272 -0.0134295909903
0.0069174388961 0.0165997282959 -0.0140266589254
0.0123599624251 0.0165017766346 -0.0127267566806
-0.00109004735529 0.0167712409386 -0.0152417845755
0.0110902536577 0.0164285809741 -0.0154748185303
0.00510030227235 0.0165492218025 -0.0165787180353
0.0109024383045 0.0163904412404 -0.0165765323271
0.010054883145 0.0165218307471 -0.0138228267794
0.00590422267514 0.0165939962004 -0.01487872834
0.0134749016499 0.0164015822271 -0.0145000627454
0.0043743917862 0.0166594642551 -0.0142785127039
0.0079422145039 0.0165941582673 -0.0134542193931
0.00906320888965 0.0165509018683 -0.0137739953474
0.0099899720434 0.0164526694801 -0.0156285096313
0.00308191546642 0.0166307546551 -0.0159100865534
0.0115174011294 0.0165506415615 -0.0120701656216
0.000355053464838 0.0166767762394 -0.0166391386736
0.0104928269849 0.0165570203714 -0.0126218778835
0.0122971523839 0.0164045334661 -0.0152457767893
0.00822664712888 0.0165400464291 -0.0146333554606
0.0119461640525 0.016356913966 -0.0167025140342
0.00891262928743 0.0166100967402 -0.0123721856473
-0.00221256806131 0.0146102934806 -0.0174503236158
0.00268070609068 0.0155415566251 -0.0174997521906
-0.00748279426714 0.0150027745486 -0.017361676079
-0.00509209696819 0.01395764084 -0.017423891729
0.00246333177011 0.0129091333682 -0.0175633059736
0.00693003940333 0.0158593019825 -0.0175551346715
0.000991463933524 0.0147214120931 -0.0174953423095
-0.00906293100247 0.0139156456432 -0.0173656701065
-0.0016420562941 0.0134605842218 -0.017488016315
-0.00359464259605 0.0148283650269 -0.0174241545977
0.00413958723164 0.0138773464865 -0.0175637646246
0.00577614796942 0.0155863493775 -0.0175448326181
-0.0143161419385 0.0144049736499 -0.0172748190698
-0.00898909700928 0.014903682349 -0.0173417004702
-0.0131573533161 0.0144796352537 -0.0172902259955
0.00117092839456 0.0135537651794 -0.0175276515829
-0.00649776561736 0.0151569240726 -0.0173724715952
-6.28507486245e-05 0.0139704297953 -0.0174986572976
0.0047469972074 0.0150742246565 -0.0175424621655
0.0023692681697 0.0141215868389 -0.0175311348001
0.00788965864112 0.00740549206339 -0.01753055966
0.0106936360058 0.00546899844643 -0.0175244234236
0.0147392102887 0.0032279104275 -0.0175251280285
0.0146092301234 -0.00221696753842 -0.0174297322023
0.0106768280305 0.00428948857576 -0.0175038687361
0.0112678183713 0.000971056010497 -0.0174522638861
0.0125385218522 -0.00510079756916 -0.0173596869481
0.00867504547041 0.0047087882975 -0.017491598472
0.0127030738051 -0.00777321353799 -0.0173150920196
0.0124848296989 -0.00654750658548 -0.0173341534019
0.00488091250191 0.0107223033163 -0.0175585615083
0.0149249163194 -0.00351639871794 -0.0174103464463
0.010658263176 0.0075959731037 -0.0175608486217
0.00998701114326 -0.000714175003589 -0.0174106415737
0.0103838828737 -0.00276547661922 -0.0173790494661
0.0106246658879 -0.00169176321638 -0.0173999591237
0.0151794898019 0.00142370791727 -0.01749823091
0.0159042770406 -0.00314626880071 -0.0174262945917
0.0142903745537 -0.00491673123619 -0.0173799509054
0.0119953298415 0.00504595745468 -0.0175298026085
0.00618836094856 0.00674126292865 -0.0175024878303
0.0135882563172 0.000959825198779 -0.0174746957828
0.0109090239192 0.0032098350924 -0.0174874682963
0.00610663139908 0.00791832874746 -0.0175220394498
0.0120737809502 0.00336246356781 -0.017501464138
0.00597061768061 0.0100520856654 -0.0175576005705
0.0135593061899 -0.00263097572193 -0.0174123374653
0.0153436559764 -0.00518428229822 -0.0173855959135
0.00972683690909 0.00644705270224 -0.0175319045204
0.0115320701459 -0.00573474443299 -0.017338913905
0.0119429695139 -0.00123521530196 -0.0174207061749
0.0144907009188 -0.00799267942092 -0.0173287287348
0.014416986917 0.00449447717966 -0.0175438818977
0.0131908121813 -0.00869020332547 -0.0173039953664
0.00881601116018 0.00858488708337 -0.0175599811189
0.00435628528001 0.0116509062961 -0.0175694992302
0.0117462195029 0.00611050795826 -0.0175457770265
0.0134386872059 -0.0016487810825 -0.0174281410441
0.014553320511 -0.000787396578551 -0.0174539007728
0.0120220976083 0.00182725189967 -0.0174744201881
0.0068783957041 0.00857374827822 -0.0175408953199
0.0119822098338 -2.23081705104e-05 -0.0174420569507
0.00959637020818 0.00152025709658 -0.0174454603077
0.0131442804363 0.00626959537405 -0.0175621594192
0.00953569634065 0.00345451895729 -0.0174783072756
0.0138299386111 -0.00389016020393 -0.0173932081659
0.013893548265 -0.0101463956991 -0.0172856736319
0.00688124931281 0.0105127588331 -0.0175744438225
0.0128569851905 -0.000657758745509 -0.0174396013187
0.00939417342009 8.26047817351e-05 -0.0174186352952
0.00836588464753 0.00950340383545 -0.017571470914
0.0138871929545 0.00548570534778 -0.0175558518739
0.0123109064187 -0.00231625254275 -0.0174056053923
0.0136862152623 0.00292143567236 -0.0175095623319
0.0146688160108 -0.0125799851678 -0.0172511623679
0.0106731624424 0.00178392195412 -0.0174605179685
0.0150983877726 0.00557806699086 -0.0175692586558
0.0145725886696 -0.0110104705458 -0.0172773570881
0.0143858963799 -0.00675133916758 -0.0173491665008
0.00839719951878 0.00260599385367 -0.0174525371663
0.0131114835143 0.00196718982985 -0.0174874617155
0.00708452640875 0.006169412466 -0.0175013402563
0.0118070977948 -0.0039395341774 -0.0173726303631
0.0138374050881 -0.0058132520494 -0.017360035487
0.013362108379 0.00420783192249 -0.0175286406382
0.015613602437 0.00456348715611 -0.0175567428278
0.00894551651287 0.00709374461243 -0.0175354657447
0.00812767983737 0.00579197626071 -0.0175049868675
0.0134017703019 0.00777382557849 -0.0175800006837
0.0070596162226 0.0116526228689 -0.0175800006837
0.0091421734118 0.0140198377662 -0.0175800006837
0.00829253894235 0.0120243916212 -0.0175800006837
0.00596862415071 0.0127064229717 -0.0175800006837
0.00934668347412 0.0116659522527 -0.0175800006837
0.0146560876586 0.00692646633152 -0.0175800006837
0.00983979278027 0.014954746425 -0.0175800006837
0.00804280214127 0.014694418423 -0.0175800006837
0.0116582046417 0.00953939352912 -0.0175800006837
0.00920008886079 0.0128918603862 -0.0175800006837
0.0128405183068 0.00884730894952 -0.0175800006837
0.00873951808432 0.0153954330898 -0.0175800006837
0.0148008533848 0.00805013742704 -0.0175800006837
0.00733002323701 0.0136218567522 -0.0175800006837
0.00690645773548 0.0148261893469 -0.0175800006837
0.0110381945865 0.0135108595571 -0.0175800006837
0.0113037277522 0.00843687673692 -0.0175800006837
0.00474441368107 0.0127295108013 -0.0175800006837
0.0052118906182 0.0138122707913 -0.0175800006837
0.00977972736248 0.0105062571132 -0.0175800006837
0.0112699895762 0.010705261924 -0.0175800006837
0.00793032375794 0.0109574460358 -0.0175800006837
0.0124356412688 0.0114369525884 -0.0175800006837
0.0105007268487 0.0114067585221 -0.0175800006837
0.0102837230807 0.00897622747009 -0.0175800006837
-0.0105130006365 -0.00458699804583 0.0174984944584
-0.00181904839466 -0.005898464876 0.0174184574914
-0.00453188784985 -0.00372647350293 0.0174109204384
-0.00313208113423 -0.00692841895181 0.0174531944046
-0.0111482090137 -0.0074805637668 0.0175594770302
0.000139617608586 -0.00515461733318 0.0173812573957
-0.00443371696572 -0.00571190188087 0.0174463618421
-0.00159622124255 -0.00429645691912 0.0173862395158
-0.0133493624555 -0.00678371404815 0.0175730125832
-0.00281260379952 -0.00790652704539 0.0174674042002
-0.0142992195867 -0.00617559536103 0.0175731838301
-0.00208613314161 -0.0133653516179 0.017559375076
-0.0122643481867 -0.00686302962463 0.017561468049
-0.00324539767334 -0.0108699466121 0.0175272485329
0.000998010901659 -0.00316005050456 0.017334179942
-0.00847475709607 -0.00721742632996 0.0175225739104
-0.00249139265159 -0.00930036365466 0.0174892607098
-0.000568965691067 -0.00406706992152 0.0173696938423
0.000978761251496 -0.00698131565954 0.017404888311
-0.000329852344654 -0.00217316466174 0.017331897009
-0.00325711188182 -0.012375215491 0.0175551514298
-0.00737030205846 -0.00875658913562 0.0175377210449
0.0015585480967 -0.00423827224601 0.0173473463069
-0.00804964844669 -0.00513055811311 0.0174789884067
-0.00543625964291 -0.00623898991685 0.0174681019087
-0.00399065154238 -0.00289158506845 0.017389033691
-0.00149516057884 -0.00250516523466 0.0173519902449
-0.00798245657165 -0.00393361760038 0.0174561070931
-0.00339734178738 -0.00589938984432 0.0174373954843
-0.00970972559263 -0.00575234619119 0.0175103577458
0.00276357439698 -0.00421624161725 0.0173324938604
-0.00576338229419 -0.0105050143048 0.0175507040559
-0.00919517201232 -0.00889932229877 0.0175622304956
-0.0113266463107 -0.00644639963141 0.0175425425441
0.00323389836361 -0.00176537177011 0.0172816528322
-0.00942441510246 -0.00761857422451 0.0175413572036
-0.0027276974514 -0.00299446390685 0.0173757905641
-0.00591349005299 -0.00409321316634 0.0174342473659
-0.006847714013 -0.00676939234539 0.017494805229
-0.00429975911903 -0.00859391132565 0.0174979103391
-0.000535442671849 -0.00965623063168 0.0174723757868
-0.0125217958562 -0.00583689265272 0.0175456288061
-0.00453397959907 -0.00706306851335 0.0174724840886
-0.00536260447398 -0.0087248725325 0.0175130673526
0.00108103292952 -0.00578026719855 0.0173815106878
0.00419129353242 -0.00113399795851 0.0172585306067
-0.00463133290037 -0.00987890611883 0.0175255851533
-0.00164743715891 -0.0103711294067 0.0174988918782
-0.00663589807841 -0.00991849686336 0.0175503465206
-0.0102885248812 -0.00691593584528 0.0175387572158
-0.000393335715443 -0.00611958326797 0.0174054439324
-0.0116784456947 -0.00501576382725 0.0175203740262
-0.00597129218811 -0.0076920713983 0.017501315943
0.00103851462524 -0.00195275758401 0.0173114276371
-0.00351500338959 -0.00463141789453 0.0174154201653
-0.00904433832362 -0.00472618822847 0.0174834549647
0.00249033694065 -0.00292173740474 0.017311894271
-0.00704891094224 -0.00459370515856 0.0174570898814
-0.00763503578841 -0.00608749196079 0.0174916671712
-0.00657371256754 -0.00557405679461 0.0174694742373
-0.00797152746279 -0.00974332216673 0.0175631275046
-0.00554415006965 -0.0118996210898 0.0175737973164
-0.00148037200533 -0.00696294967274 0.0174340302154
-0.000302498395281 -0.00795847257548 0.0174382705555
-0.01122464089 -0.0130533735635 0.0175800006837
-0.0116042045653 -0.0152531817906 0.0175800006837
-0.0115258049941 -0.011600398751 0.0175800006837
-0.0101343525373 -0.0120461621852 0.0175800006837
-0.0113584277551 -0.0102007857783 0.0175800006837
-0.00291339458494 -0.0143911073557 0.0175800006837
-0.0072206494711 -0.0129616519785 0.0175800006837
-0.00741329187954 -0.0140647605257 0.0175800006837
-0.00420677092921 -0.0134143155729 0.0175800006837
-0.0139576719221 -0.0127867542984 0.0175800006837
-0.01599389649 -0.0157074385956 0.0175800006837
-0.00950675271556 -0.0142892026852 0.0175800006837
-0.0137491102624 -0.0107270971191 0.0175800006837
-0.0144826542662 -0.0138404611253 0.0175800006837
-0.0149634502474 -0.00962394481044 0.0175800006837
-0.0127017023641 -0.0112184146161 0.0175800006837
-0.00963570836151 -0.0108895845773 0.0175800006837
-0.0140079044806 -0.00903519016381 0.0175800006837
-0.0154125787922 -0.0122484802166 0.0175800006837
-0.0058223499579 -0.0137866964547 0.0175800006837
-0.0156053405764 -0.0144066092415 0.0175800006837
-0.0154690388808 -0.0110883371071 0.0175800006837
-0.0108963823458 -0.0091774763162 0.0175800006837
-0.00865816797419 -0.0118867391893 0.0175800006837
-0.0151547633454 -0.00712917507894 0.0175800006837
-0.0118841084277 -0.00836833543266 0.0175800006837
-0.0151754118125 -0.00841321904545 0.0175800006837
-0.01316787765 -0.0135031322265 0.0175800006837
-0.0144913387001 -0.0149710928694 0.0175800006837
-0.00421401833437 -0.0145158341187 0.0175800006837
-0.0125574414254 -0.0124672631663 0.0175800006837
-0.0130458957874 -0.0095697902455 0.0175800006837
-0.0117772288609 -0.0139757191244 0.0175800006837
-0.00770064060516 -0.0112489334259 0.0175800006837
-0.00854465905047 -0.0135574393253 0.0175800006837
-0.00654870731932 -0.0120984419439 0.0175800006837
-0.00215710359325 -0.0157720513817 0.0174506201274
-0.000355904145233 -0.0149414531274 0.017518530687
0.00451824894162 -0.0156625725506 0.0173982091608
-0.00454495235821 -0.0154719585884 0.017504118045
-0.008739168895 -0.0155075053041 0.0175404533985
0.000927021165605 -0.0148861341458 0.0175119690536
-0.0126430037975 -0.0155625402378 0.0175720248498
-0.00629807517311 -0.0149100819932 0.0175783807609
-0.0105228004823 -0.015329255698 0.0175757119052
-0.00722400222572 -0.015515327982 0.0175252105845
0.00204633980848 -0.0151302427677 0.0174762963711
0.0118495678273 -0.00736842463677 0.0172586054164
0.00318378734488 -0.00985235545982 0.0174249538193
0.0100145209196 -0.00730895400333 0.0172837077884
0.0145745088353 -0.00861251478891 0.0172413143468
0.0126040341394 -0.00876554663744 0.0172720195527
0.00321183665582 -0.00883818715866 0.0174070184633
0.00582364659647 -0.00151042387426 0.0172431228131
0.0100242050503 -0.00874492192249 0.017308399147
0.00361934205572 -0.00623504551817 0.0173562048652
0.00787079721558 -0.0106152275585 0.0173714025876
0.00592305218643 -0.0058783382603 0.0173172327153
0.00580717765149 -0.00712162277936 0.0173403803222
0.00178076808673 -0.00924468340484 0.017434425283
0.0129394560953 -0.0109382179295 0.0173048107799
0.0120059125103 -0.0103144460616 0.0173073186291
0.00620312372823 -0.00482228281892 0.0172949843479
-0.00118033080095 -0.0127963820562 0.0175380029649
0.008341698721 -0.00412552364395 0.0172524838642
0.000249440847716 -0.0129013935929 0.0175194590718
-0.000476173605699 -0.0137564289928 0.0175445760463
0.0001145589871 -0.0106257629528 0.0174820319308
0.00376487654507 -0.00479832710859 0.01732929025
0.00194420358525 -0.0111295392148 0.0174646889557
0.00169400646963 -0.00790879326103 0.0174125619318
0.00429143950382 -0.0115751201664 0.0174389693382
0.00105113615097 -0.0120600740671 0.0174934958827
0.00458260273482 -0.0126510609929 0.0174534272818
0.0131075880323 -0.00773183889836 0.0172469752575
0.00852377949067 -0.00848870865667 0.0173253347142
-0.000365446825452 -0.0119083175636 0.0175110437068
0.0109298296877 -0.0110228422611 0.0173348906664
0.000619441573233 -0.00929282100396 0.0174517946697
0.00897495848303 -0.0055112894929 0.0172674275971
0.00425443166398 -0.00241278843773 0.0172810708448
0.00865721917722 -0.00741560617937 0.0173048795935
0.00152970050236 -0.0131672740039 0.0175058257742
0.00528006500267 -0.0111540780149 0.0174176113008
0.00559693044218 -0.00952926851672 0.0173850046946
0.00798494569117 -0.00946410148795 0.0173498730672
0.00255657696878 -0.0126618154904 0.0174824634116
0.00480620935382 -0.00592494902713 0.0173339422635
0.00727262315316 -0.00360330206023 0.0172586775615
0.00701046679795 -0.0060262208376 0.0173043051946
0.00743061207506 -0.00246287986724 0.0172367088427
0.00413361677792 -0.00772152104248 0.0173745842863
0.00427428314332 -0.010509416811 0.017420786611
0.0116678502489 -0.00602481388746 0.0172379607213
0.00995524491401 -0.00496877932619 0.0172440880081
0.0110497768414 -0.00817459046175 0.0172839336473
0.00615511374733 -0.0123348716169 0.0174255678441
0.0133600108363 -0.00948061855266 0.0172736188831
0.0101919949813 -0.00606559290107 0.0172596816933
0.0113939013086 -0.00940259999806 0.0173002668476
0.00605508242532 -0.00830907375301 0.017357382374
0.00794566027683 -0.00503676911677 0.0172738796727
0.00433186729269 -0.00367587399005 0.017301808135
0.0142802030189 -0.0100750219906 0.0172707933468
0.00896410796641 -0.0117289292441 0.0173750910431
0.00689989937619 -0.0111069337467 0.0173937300357
0.00981740233727 -0.0097935045392 0.0173294749696
0.00727647532817 -0.00848986651246 0.0173431160795
0.0128992369145 -0.01278072969 0.0173000497534
0.0104867925211 -0.0119291594253 0.017348779589
0.00829374144235 -0.0136202866718 0.017385246764
0.0147363274885 -0.0149515673923 0.0172581058053
0.0106538665234 -0.0153458045036 0.0173347389222
0.0140304742302 -0.0110694533901 0.0172839039311
0.0142215659911 -0.0121276335399 0.0172768968855
0.00807959158111 -0.0148545626024 0.0173854115619
0.00392085349669 -0.0147906010391 0.0174649553994
-0.00143755949089 -0.0144123882056 0.0175683849496
0.00726075993418 -0.0128921912597 0.0174072668957
0.0155453096329 -0.0120777641299 0.0172518008373
0.00956843867281 -0.0135271309282 0.0173612239284
0.00516661823174 -0.0147238207401 0.0174414007562
0.0059640012405 -0.0138375451608 0.0174290035526
0.0119180240155 -0.0155894427103 0.0173098473141
0.0110280909956 -0.0141298356558 0.0173314620574
0.0137192744199 -0.0144901375599 0.0172789749709
0.00693207110967 -0.0140888293985 0.0174097364341
0.00360385962598 -0.0135072425829 0.0174750797082
0.00920330860801 -0.0154200920496 0.0173621767749
0.00687198413201 -0.0151620287907 0.0174074736821
0.00245982184153 -0.0139299697819 0.0174955629075
0.0159382158523 -0.0111077262033 0.0172473863437
0.0150136307044 -0.013033565312 0.0172589080691
0.0110399765556 -0.0129520903562 0.0173349764966
0.0119037005835 -0.0120550989839 0.0173213476744
0.0127133449453 -0.0145787054399 0.0172978848125
-0.0106839243567 0.00608069843948 0.0172778017862
-0.00912778466876 0.00563065975836 0.0172697426944
-0.00354814312486 0.00967060539035 0.0171222166839
-0.00922622301788 0.00732621566314 0.017235271901
-0.0056927810925 0.00938424993216 0.0171523465622
-0.0132008592139 0.00659633135385 0.0172952908069
-0.0122847525204 -0.000259351077488 0.0174288403369
-0.00947373508327 0.00166597212634 0.0173568249662
-0.00365668218621 0.0107356924191 0.0171010886627
-0.0124403278545 0.0108843897012 0.017196760335
-0.00116489010968 0.0111546576381 0.0170642716991
-0.0142478147548 -0.000793518358857 0.0174621278395
-0.0131120361809 0.00427481268409 0.0173430043612
-0.0157949991501 0.00374102481809 0.0173843808009
-0.00629115114465 0.0115364179416 0.0171139175023
-0.0112204318608 0.00765117701034 0.0172508825684
-0.00467468259366 0.00931239069914 0.0171424035878
-0.00983300226936 0.0123326388927 0.0171370464093
-0.0014775912058 0.0133517420126 0.0170216871682
-0.0131573614886 0.00527505879321 0.0173225259205
0.00136016591585 0.015296581882 0.0169489615304
-0.00642661691649 0.00632854929207 0.0172247181457
-0.0130305807276 0.00308931197313 0.0173669636459
-0.0104931987205 0.00877351998411 0.0172191530092
-0.0120286359691 0.00505757064561 0.0173143944376
-0.0092818054187 0.00867479667478 0.0172075996917
-0.0101618585384 0.00297812385483 0.0173370314977
-0.0147743248007 -0.00197995981372 0.0174929447996
-0.0131002556119 0.00786526993612 0.0172675330778
-0.012361362144 0.00857094706723 0.017244415297
-0.00781503058496 0.00481219917919 0.0172721516388
-0.0120911899195 0.00981145663703 0.017215346916
-0.00779733913647 0.00943643203194 0.0171749220975
-0.00847574244456 0.00644888024365 0.0172452402465
-0.00867058815735 0.00366050150422 0.0173059404455
-0.0152780739128 0.000951961204146 0.0174370899099
-0.00564269374233 0.00713993704301 0.0171988757724
-0.0024274796551 0.0103394579573 0.0170955777352
-0.0111592075889 0.00240731687368 0.0173602262026
-0.00877547108668 0.0126037030152 0.0171194643441
-0.0134983400928 -0.00214891593728 0.0174821387063
-0.0129112970113 -0.00109844804937 0.0174534940581
-0.0129509661212 0.00122645375895 0.0174051566692
-0.0119288205616 0.0016870394667 0.0173839958516
-0.0143674640646 0.00752711138452 0.0172888812806
-0.0156298618876 0.00207468636293 0.0174174883439
-0.0153636191623 -0.00387411909926 0.0175393179967
0.00130244474371 0.0138188963084 0.0169806171014
-0.00376559210112 0.00855917829344 0.0171479835282
-0.00658729659358 0.010385325267 0.0171414017702
-0.00488642361016 0.00827127071105 0.0171666309749
-0.00217267209554 0.0114985535175 0.0170683904796
-0.00194922200232 0.0145348181164 0.017002167156
0.000227152392575 0.014518614445 0.0169780289471
-0.0107829306911 0.00133453712693 0.0173785043281
-0.00811598559107 0.0113722422764 0.0171378867666
-0.0121712181943 0.00370006666805 0.0173444826836
-0.00386754294687 0.0136423776518 0.0170424691106
-0.0115947245751 0.0116763394941 0.0171706320985
-0.00318062305792 0.0127426332864 0.0170536225469
-0.00733052219834 0.0082794262701 0.0171939492168
-0.00541136791523 0.0108884387694 0.0171176189533
-0.0156130848413 -0.00277499294635 0.0175190607664
-0.008829114582 0.0103264275948 0.0171678518952
-0.0146171760166 0.00528620856209 0.0173387108528
-0.0133479402756 -0.000120908187184 0.0174378933122
-0.000655630439451 0.0126508077027 0.0170271501234
-0.00396524698917 0.0120716156167 0.0170765274077
-0.0140877099304 0.0033991671303 0.0173723517251
-0.0104735951101 0.00406626652196 0.0173177051104
-0.000801703393819 0.01515391976 0.0169762700877
-0.0145207392282 0.0104914673762 0.0172284039403
-0.0146015055664 0.00867773388549 0.0172673700198
-0.0158795629823 0.0067054603537 0.0173231289784
-0.0144373727244 -0.00295960977753 0.0175097110729
-0.00964598378435 0.00462337373428 0.0172967069501
-0.0137530533333 0.00972132352453 0.0172359295661
-0.0120627917866 0.00677578336333 0.0172787252336
-0.00753616420947 0.0125899724875 0.0171058136671
-0.0074964055789 0.00603494527708 0.0172429110297
-0.0070014856741 0.00719526049385 0.01721299758
-0.0139588701906 0.00219934529379 0.0173960785684
-0.0145629269756 0.000180169568544 0.0174452410297
-0.00545632183303 0.0123541581694 0.017087369281
-0.00990023866203 0.0108227406003 0.0171694849217
-0.0114426194185 0.000580318303494 0.0174017498273
-0.0106532792031 0.00988842044153 0.0171975594487
-0.0158495260432 -0.00158572551159 0.0174877245974
-0.0158341560615 -6.11785551462e-05 0.0174641023497
-0.01607081795 0.00921440094712 0.0172634051902
-0.0159190837713 -0.00641501527801 0.0175589510745
-0.0166683102526 -0.0132605273999 0.0175476406601
-0.0161708456696 0.00556753013891 0.0173089955172
-0.0159398433932 -0.00477654213098 0.0175271307845
-0.01673790561 -0.0149125633599 0.0175602156009
-0.0161893482906 0.00786532557 0.0172572135965
-0.0166230835083 -0.0109957686943 0.0175154388861
-0.0166282526051 0.0102210730159 0.0170486966539
-0.0173060644027 -0.00792358307455 0.0161141403387
-0.0168345818921 0.0115685504616 0.0167711409473
-0.017426000908 -0.0134129593066 0.0135125235825
-0.017426000908 -0.0159952028635 -0.00514975523636
-0.017426000908 -0.0145842604778 0.00621349231676
-0.017426000908 -0.0127958299947 0.0143870848284
-0.017426000908 -0.0149032895208 0.0101693732505
-0.017426000908 -0.0149173943754 -0.000835900421383
-0.017426000908 -0.0137911202874 0.00418181965557
-0.017426000908 -0.014736571587 -0.00183887921873
-0.017426000908 -0.0136689179734 0.0103916028088
-0.017426000908 -0.0137286136938 0.00730527860396
-0.017426000908 -0.0158855836954 -0.0061810195988
-0.017426000908 -0.0144290393352 0.000515727500479
-0.017426000908 -0.0137241267406 0.015041691524
-0.017426000908 -0.0161952776163 -0.00835353312919
-0.017426000908 -0.0148562323367 0.0130591184307
-0.017426000908 -0.0147550116518 0.00732640575714
-0.017426000908 -0.0153433666681 0.0141977639797
-0.017426000908 -0.0155590444691 -0.00719749746
-0.017426000908 -0.0150106602131 0.0113436299628
-0.017426000908 -0.0148155786731 0.0084521483452
-0.017426000908 -0.0146872558841 0.0154641678522
-0.017426000908 -0.016321575615 -0.00941331070211
-0.017426000908 -0.0129176748542 0.011154783617
-0.017426000908 -0.0155285466033 -0.00307886025815
-0.017426000908 -0.0140579663716 0.00249248753921
-0.017426000908 -0.0157753460054 0.00429926284344
-0.017426000908 -0.0151878533918 -0.00436021326486
-0.017426000908 -0.0154802168536 0.00531392137645
-0.017426000908 -0.0154427359426 7.9335209843e-05
-0.017426000908 -0.0137397159655 0.0125197932953
-0.0172494150198 -0.015182050471 0.0165544725349
-0.0172201670214 -0.0125029919496 0.0165539044041
-0.0168654966139 -0.00457271198109 0.0170850937422
-0.0171652523612 -0.0107328927071 0.0166242688801
-0.0167637384097 0.000803925382034 0.0171695410194
-0.0167692771829 -0.00336137627991 0.0172498002911
-0.0169023076496 -0.00853398770439 0.0170987247348
-0.0168587776608 0.00682054868335 0.0168488042772
-0.017356144827 -0.0135285530401 0.0163061022235
-0.0167866041178 -0.00574302211037 0.017267546329
-0.0169666977267 -0.00145075189976 0.0168155361131
-0.0169140733875 -0.000412296778898 0.016897379748
-0.0169461311713 -0.00976207916723 0.0170385291172
-0.0169267345508 -0.0071009427804 0.0170187727747
-0.0169535540806 0.00174207764045 0.0167717009248
0.0128553866118 0.01704469518 0.0157742230584
0.0137127962905 0.0170553933564 0.0151852170749
0.0113894280338 0.0171916003381 0.014430693695
0.0147888553097 0.0169647899577 0.0159262496766
0.0053711379744 0.0173440388619 0.0153274770428
0.00216317752186 0.0174254255895 0.0158036211917
0.00944471632725 0.0171594549739 0.0158787653149
0.00431253773889 0.0173642171505 0.0155796313926
0.00667931535561 0.0172658712153 0.0157733153362
0.0144434733198 0.0170274711475 0.0144914457295
0.0164226007835 0.016920188466 0.0142697331846
0.0153645137037 0.0169793828541 0.0137448288815
0.0163417815179 0.0169215615507 0.0153314300728
0.0151443251087 0.0169985667765 0.0112329299254
0.0139145430589 0.017060644302 0.0129753866163
0.0132082586481 0.0170960968501 0.0140459655906
0.0150407176729 0.0170002147867 0.0126332658251
0.0163379372414 0.0169328218422 0.0114641293276
0.0122401352271 0.0171500116227 0.013651999709
0.016287082348 0.0169324529184 0.0125636696037
0.0123184737199 0.0166139131102 -0.00895937627892
0.0132968265429 0.0169936955068 0.00793816035309
0.0138391231711 0.016908828901 0.00523163676257
0.0115154114053 0.0170823347048 0.00905738577946
0.0129850439076 0.0168767826997 0.00272149171467
0.0112097917671 0.0169955324228 0.00508006139095
0.013129582775 0.0168431184794 0.00154870088525
0.0131214811925 0.0171043917196 0.0122161198215
0.0128989259445 0.0166628263509 -0.00614440185748
0.0135081806283 0.0166783367381 -0.00465419485701
0.0127293268114 0.0170752229509 0.0104727839941
0.015233598269 0.0169437806821 0.00862002676341
0.01582972811 0.016845985347 0.00546073662872
0.0131096727838 0.0167940909681 -0.00048314211331
0.0116278236555 0.0170496965162 0.00788137944088
0.0149354983332 0.0168176603882 0.00304625818257
0.0142873331752 0.0167940074329 0.00116856084667
0.0119844676542 0.0168481892224 0.000146575986903
0.0118841725388 0.0168966537515 0.0019864690207
0.0132982130197 0.0170248830411 0.00921481125305
0.0149919531353 0.016894887834 0.00628205489842
0.0159322357442 0.0168939787902 0.00756640008013
0.0117936355142 0.0168044781065 -0.00190819320097
0.0145947143189 0.016856778014 0.00416613306443
0.0114868882227 0.017026229853 0.00672417127151
0.015856060282 0.0169515189909 0.00981113398278
0.0148231238334 0.0169971863702 0.0102259409164
0.0126851218203 0.016915106956 0.00386636837282
0.0130399112831 0.0167678486989 -0.00165376547499
0.0143510401477 0.0167245526672 -0.00158067078448
0.0142138812049 0.016936696394 0.00689733730454
0.0115832541005 0.0171580417523 0.0122470453845
0.0130028573565 0.0169570310891 0.00602645331
0.0140892544755 0.0170429648494 0.0110656060915
0.0115197615755 0.0171322017299 0.0111016733226
0.00828399989848 0.0168527698167 -0.00336548741457
0.00663360697304 0.0167055930534 -0.0107668611805
0.00496868600617 0.0167590420198 -0.010213417181
0.00523293757563 0.0168645882883 -0.0057721989224
0.0015079061327 0.0167951818372 -0.0120403514413
0.00684462214746 0.0166642187007 -0.0122112640839
0.00177521470543 0.0170687346565 -0.000923316975206
0.00263008444844 0.0168749229715 -0.00781533412242
0.00994957252403 0.0169902111459 0.0036635207939
0.00854468434489 0.0169951788304 0.00253649380016
0.00978541139264 0.0167266453127 -0.00695961437525
0.00922647438076 0.0168894997409 -0.00101820222465
0.00770630710654 0.0166689469442 -0.0112111884565
-0.00373925084189 0.0168313445911 -0.0155503248597
0.0100372924701 0.0168017936018 -0.00373741335803
-0.00362209556732 0.0169464578639 -0.0108677835757
0.00909513527072 0.0170556278094 0.00545631372493
-0.00633447353296 0.0169123241841 -0.0147803714516
0.00916641949995 0.0169260778297 0.000378005790686
-0.00456420863297 0.0169314451442 -0.0123521576392
0.0103223868005 0.01687243616 -0.000662863434454
0.00854181969014 0.0167542978592 -0.00703358913843
-0.00272099448793 0.0169424104137 -0.0101791074949
0.00499577668826 0.0169851187263 -0.00120849750017
0.00481054316276 0.0166953382644 -0.0128926972932
0.0117236126526 0.0167374040103 -0.00470522815155
0.00417240206748 0.0170221140504 -0.000515270266783
-0.000674443171992 0.0169473747301 -0.00805272673707
0.00125554157644 0.0169735057633 -0.00519552287907
-0.00183215355315 0.0168577126386 -0.0127052823388
0.0074280805229 0.0170684850705 0.00439551278591
-0.0015914034404 0.0169411763682 -0.00916329890834
-0.00672654176366 0.0168905627921 -0.016014284834
-0.00495932999169 0.0168851580293 -0.0145630690952
0.0109968409697 0.0166546971874 -0.00867530269384
0.00927869027907 0.0170793621264 0.00657203080081
0.00891596712438 0.0170333857901 0.00440400350705
0.00551407525935 0.0170687567677 0.0026020437354
0.00412640808043 0.0167961535337 -0.00953339451924
-0.00310982391507 0.016879932142 -0.0130271729959
0.0104177451351 0.0171245483058 0.00944049295412
0.00220601375326 0.0167410786117 -0.0135311598884
0.0101451806197 0.016653608033 -0.00952139006819
0.00431771969298 0.0169184444497 -0.00449586507692
0.0084666870387 0.0169619561366 0.00114341978838
-0.00280687294474 0.0169850118835 -0.00856800393406
-0.00418151448519 0.0168819324509 -0.013957966311
0.0064500178163 0.0168130521002 -0.00667183314476
0.00683726680919 0.0171647518718 0.00766212867248
0.00949704077387 0.0171648838339 0.0101746383414
0.00374826759545 0.0168415942106 -0.00808502684531
0.00566451298733 0.0167184977048 -0.011167838637
0.00362771330598 0.0167184464725 -0.0130898875523
0.0106697492604 0.0167513835655 -0.00514342116866
0.00120352817808 0.0170023668928 -0.00409823896068
-0.000498092649076 0.0169894332933 -0.00621599315784
0.000188442616504 0.0168623740049 -0.0106154011789
0.00526176359681 0.0170303354095 0.000838168064216
0.00307649754886 0.0168363492132 -0.00892660144801
0.0101669460922 0.0169154680944 0.000899763738709
0.00893401364852 0.0167183756768 -0.00809065071442
-0.00264620618953 0.0168437010503 -0.0140291754433
0.000174298641994 0.0168898205413 -0.0095386044194
0.00812390068902 0.0171688811947 0.00903899947203
0.0113663575955 0.0167905248894 -0.00293212800684
0.00579262932327 0.0166817106453 -0.0125081876532
0.00229002527044 0.016935449828 -0.00573187124178
0.0110857572536 0.0166071722434 -0.0104790946315
0.0103687173488 0.0169556737996 0.0026868681128
0.00383532564512 0.0169070256221 -0.00540413612365
0.00637353584101 0.0171490595309 0.00660171392514
0.00544542881491 0.016813723034 -0.0075921728643
0.00364363170759 0.0170841133046 0.00144878284599
0.00890056286343 0.0166626745798 -0.0103345363545
-0.000389621188775 0.0168034541843 -0.0135005151509
0.00286256433955 0.0169981623466 -0.00270132571603
-0.00255650390824 0.0169071556113 -0.01142430924
0.00810927062118 0.0168955593342 -0.00183067122998
0.00140363304163 0.0169264547755 -0.00692470787322
0.00710057437826 0.017021810102 0.00223293475347
0.00664896819782 0.0169349981945 -0.001640798656
0.00347587768451 0.0170573758755 0.000228682255089
0.00169619762241 0.0168444730133 -0.00990509448158
0.00753354307144 0.0168448914171 -0.00438583133025
0.0109431360688 0.0167070344814 -0.00664717996273
0.00707998168911 0.0167270124619 -0.00949533813453
0.00296381474337 0.0170463908225 -0.000690327741606
0.00993553574593 0.0166263822541 -0.010800376003
0.00943809200741 0.0167863099973 -0.00491723942039
0.0111238684175 0.0169715842264 0.00403065556924
0.00948951462318 0.0169505138344 0.00165313189966
0.00293573004987 0.0169407413017 -0.00491302142333
0.00258385182706 0.0168101954832 -0.0104297816243
0.00374758754972 0.0168691383749 -0.00699166053741
0.00190592686608 0.0168645777724 -0.00890886381067
0.00665718402627 0.0170047168667 0.00113605319143
0.00654607332837 0.016776058664 -0.00805060162079
0.00783895113034 0.0167393545101 -0.00828968117044
0.0092056172763 0.0168445559724 -0.00282295348399
0.00634206746661 0.0170996059958 0.00460783956489
0.0102859388387 0.0170803419499 0.00756044286079
0.0103588428597 0.0171881983678 0.011913040225
0.0053034507706 0.0171120596456 0.00412341266345
0.00622101655703 0.0168808886316 -0.00419335230993
0.00399454600426 0.0169621831845 -0.00306328052925
0.00778497118191 0.0169545048423 0.000204839287374
0.0117044182781 0.0166679917652 -0.00748025829743
-0.00359343856515 0.0169148480101 -0.0120962593384
0.00754528051841 0.0170348836478 0.0031714014231
0.000625972078757 0.0169656035557 -0.00610285648792
0.00312968941711 0.0167720594703 -0.011429938745
0.00763869782682 0.0170964717522 0.00570563715858
0.00601185855825 0.0169299316516 -0.0024426122947
0.000874409571882 0.0167669332044 -0.013759512352
0.000365381179437 0.0169214189649 -0.00810344248651
0.00661007109736 0.0169751973479 -8.08234688767e-05
0.00464416406952 0.0171065879542 0.00328460173948
-0.00124601793936 0.0169073042901 -0.0101830583929
0.00520945583703 0.0169136295615 -0.00384649830054
0.0102615902266 0.0170335320307 0.00567827995856
0.00866900559954 0.0171145574418 0.00739520217882
-0.000826692592768 0.0168730664015 -0.0111476469507
0.00634447145561 0.0168484013567 -0.0053673153548
0.00706629745668 0.0168918961351 -0.00295933864007
0.00736300767674 0.016776712653 -0.00725453316415
0.00937060954696 0.0167597716433 -0.00603491087549
0.00179100880511 0.0170231021517 -0.0027208739606
0.00225736452857 0.0169884938682 -0.00365584021952
0.000737319631492 0.0170367832026 -0.0031707588318
0.00835930945837 0.0168067481558 -0.0051223980474
-0.00180366141847 0.0169720379649 -0.00813761634154
0.00891399072385 0.0166895745526 -0.00925345724521
0.010640666579 0.0168304219367 -0.00203156662303
-0.000576473905012 0.0168334682154 -0.012484547865
0.0161262375244 0.00877182696031 0.0169049768534
0.00472688839978 0.00714089048595 0.0170807862061
0.00890257173286 0.00958099693247 0.0169778519727
0.00621227104377 0.00706095219414 0.0170639932905
0.00646012918452 0.009302280798 0.0170140420542
0.00884399410712 0.00628828290763 0.0170474366222
0.00628792804896 0.00592111561998 0.0170868888105
0.0117948899194 0.00971846581918 0.0169390232853
0.00991758069078 0.0103443802862 0.0169492708525
0.00643234566358 0.0112397539446 0.0169738714332
0.00958757867885 0.0121800531548 0.0169149858879
0.00830559818599 0.0078605203268 0.0170212510724
0.0093243635519 0.00812581520784 0.0170030391686
0.0145113497341 0.00959226945048 0.016907894374
0.00538104449601 0.0123686867802 0.0169633320146
0.00568349278288 0.0138833343084 0.0169278983642
0.00566609649921 0.0100330007617 0.0170086319061
0.0112984304343 0.00847646344921 0.0169711671665
0.0144045611894 0.00823407767573 0.0169376240409
0.00639193494451 0.0149013391467 0.0168978035435
0.00671899257561 0.00472032090052 0.0171066410562
0.0136775314649 0.00731621413887 0.0169658557889
0.0072273112407 0.0132255788269 0.0169224622223
0.0134400511841 0.0100908573156 0.0169107851691
0.0128435679839 0.0112693248973 0.016893556118
0.00600428738346 0.000821700700724 0.017197052499
0.00730351809114 0.00746110925757 0.0170420601709
0.0104757772932 0.0078314016477 0.0169948828275
0.00537159859032 0.00890363159185 0.0170359098739
0.0112479343671 0.0068796116087 0.0170051878746
0.00855194339408 0.0128081212454 0.0169147256976
0.00978468812167 0.00677616386382 0.0170255405427
0.0112158738341 0.0122405725978 0.0168934792286
0.00859083463448 0.00348772622785 0.0171091482077
0.0098151426537 0.00569277256854 0.0170478175971
0.00670675899711 0.00356008139881 0.0171310557921
0.0107238758372 0.00954515976724 0.0169559610356
0.00516377470067 0.0112071672888 0.0169903222915
0.00828524248294 0.0114518419521 0.0169464032176
0.00688497400053 0.0121938949965 0.0169482921002
0.00990090400447 0.00346019448503 0.0170934386712
0.0104709537269 0.0112480026984 0.0169234956116
0.0124885014895 0.00767050964922 0.0169732274942
0.00632893814135 0.00817075134736 0.0170393351543
0.00750886845917 0.0106677460755 0.0169724510385
0.00659445731541 0.00210276644857 0.017162926833
0.00797039084864 0.00882711706566 0.0170052047349
0.011899708079 0.00558560936883 0.0170241456521
0.00791162765213 0.00233002890156 0.0171418008277
0.00500793526864 0.00422316080239 0.0171383074484
0.00775134014142 0.00640700300276 0.0170585365909
0.00807783075143 0.00516061668702 0.0170805421801
0.013460580384 0.00869947859118 0.0169396261663
0.0125005298312 0.00666522737306 0.0169941002039
0.0054680409113 0.00518005067666 0.0171125776834
0.015453195082 -0.00383191413414 0.0171424455314
0.00840501246983 -0.0029883348862 0.0172317513939
0.0147833915567 -0.0010193786644 0.0171017442829
0.00831599224628 -0.00185977517287 0.0172127547894
0.0100470210841 0.00183833696577 0.0171205181083
0.0113975075392 0.00374024086604 0.0170662585039
0.0131331952016 -0.00637267582133 0.0172225792783
0.0105122336066 -0.00261702754214 0.0171938267505
0.00638651040736 -0.000452398311551 0.0172160244574
0.0143275964263 0.00514963830373 0.0169974468051
0.0121099511075 0.00102339350345 0.0171046050175
0.012680411082 -0.00284448730164 0.0171657774281
0.0129583318364 0.00542036062743 0.0170128731249
0.0149772911781 0.00120300900175 0.0170588621625
0.010791243563 -0.000257560379619 0.0171472151279
0.0119633119058 -0.00362761757223 0.0171905066302
0.00911708223345 0.00246073505892 0.0171231003792
0.0154440485308 0.0078832583621 0.016931684272
0.0166539407211 2.90845542436e-05 0.0170551382131
