-0.029373613198428 0.007457550198697092 -0.0029761059064772853
-0.029179093208440105 0.022674303937248355 0.010930268537253986
-0.029223179847858747 0.01915436809832551 0.009684796211745358
-0.029333322941493264 0.01038205966541501 0.0059928873752889515
-0.029314095935610476 0.01198363405404529 0.0047555699598577205
-0.02934385908646585 0.009814096859662965 -0.0016249154664254358
-0.029298039680906073 0.013364440077079966 0.002561033844325168
-0.029219693775907565 0.019126935031474526 0.017974289977102282
-0.029159153197934176 0.023974448842483287 0.019312940298392662
-0.029432136162795084 0.0028748855429580923 -0.00703733992364517
-0.029436492205753718 0.002329242317571546 -0.0018602657602765672
-0.02951841502156823 -0.003916880936381996 -0.012069292900328958
-0.029293568648546493 0.013635678063130718 0.0049840615336653755
-0.029312212366510777 0.012277282501541278 0.0009710104401597138
-0.029538056774594805 -0.005378400752182202 -0.015482621224738391
-0.02923961064555606 0.01767376133078011 0.013741181397955785
-0.029407436934735506 0.0046796440670280985 -0.001858907602920852
-0.029389610727482127 0.005955167327199411 0.0026025574087142987
-0.029565013447962772 -0.007521051187836773 -0.016501497335891895
-0.029261323130738853 0.016277483645765718 0.004092667286124643
-0.02913923796202055 0.02562595680459992 0.018229426972991233
-0.029226571944313866 0.01896627040321476 0.007372705295985532
-0.029342360955215238 0.009752392939456636 0.0032746139897991237
-0.02939588568737557 0.005738519607096738 -0.0051921209704289895
-0.029400830816389077 0.005112720036440782 0.0008556255394795379
-0.029205671429975974 0.02046130257174731 0.01261612577976395
-0.029156649370905754 0.024104147571404513 0.02126450077174842
-0.029174009919203808 0.022658220542221344 0.022377021621651894
-0.029689238404922345 -0.017231615047991537 -0.02557547856464152
-0.029161178677283798 0.023961934553638462 0.015258800493732407
-0.02919991881262062 0.021031924139825894 0.009796409486119716
-0.02918166224016267 0.022185244612767926 0.018464142922107372
-0.02948336949245471 -0.0012148150123302507 -0.00850711948666815
-0.029489654741451855 -0.0015770517425372117 -0.012423980982493074
-0.029504857234224562 -0.002912610167093604 -0.009591389296916228
-0.029366540799749832 0.007810458665105204 0.0028964635910007537
-0.029340800732654132 0.00998968354798862 0.0002990792619328008
-0.029244094998718287 0.017383620246009462 0.011795672493257369
-0.02945715850485598 0.0009082654484994096 -0.008579954632044294
-0.029383647926318094 0.006539973276148744 -0.0001416519947863397
-0.029254061761607573 0.016790701563703204 0.006080298120369892
-0.029584964561196248 -0.009081373063939304 -0.0179384734440606
-0.029306869248810707 0.012369913981035586 0.010068522348763653
-0.02917704749759512 0.02274552446245644 0.013455598415814785
-0.02944388651542795 0.0018545149491754724 -0.005167094486189922
-0.029263438240443525 0.015919890469703123 0.009088444099093353
-0.029211793156497804 0.019841931173256895 0.0159418882204059
-0.02940962247431363 0.00468052796824559 -0.006618828680296181
-0.029169433637609155 0.023233608466785804 0.016880406070942475
-0.02914167580603834 0.025580475432680164 0.014164798658479121
-0.029606749974744998 -0.010791245653545696 -0.019344285684815332
-0.029641014046317946 -0.01349519453048809 -0.021162535295222835
-0.029237102930509018 0.017789274582762252 0.016081175467662804
-0.029320500965477996 0.011363013400860895 0.00750085660957342
-0.029288370269017802 0.013949915417035715 0.007831420455906228
-0.029549810985717836 -0.006402285547936861 -0.013526597178163638
-0.029421468030774174 0.0036602366595410198 -0.0049570216388501835
-0.028069159920686856 -0.005688610496479438 0.028116071901586326
-0.027412212541585067 0.010581472581660563 0.02903075664646202
-0.027446868484726467 0.0026427572187892896 0.028763050192752562
-0.026613196969349495 -0.023451871031775234 0.02847506309048298
-0.027323573302031924 -0.017200638980569585 0.028225037718927835
-0.027998216332441657 -0.0010972080068534116 0.028302699310547498
-0.027680007858710838 -0.012187950117776661 0.02815773528584539
-0.026907764485362026 -0.019314532193941754 0.02841927857760321
-0.027599671610845887 -0.007835053515139311 0.028342838011770705
-0.027392449310590337 0.012545895467227187 0.0291039892461739
1.3723550708831826e-05 -0.012031748958493634 0.02914400026202202
-0.02544421182534015 0.023729252086215354 0.02914400026202202
-0.020366834407328928 0.01260443047997407 0.02914400026202202
-0.017269217584843104 0.007235195914300489 0.02914400026202202
-0.022464736010320077 0.020785708310688482 0.02914400026202202
-0.026234539666386707 0.017935897894234158 0.02914400026202202
0.0072249601633096235 -0.022768960373678124 0.02914400026202202
-0.02120860883274447 0.014587437388323864 0.02914400026202202
-0.023051530494642168 0.014210265745403908 0.02914400026202202
-0.020670474469919053 0.017660581076246545 0.02914400026202202
-0.013826733619332976 0.00892948518123925 0.029144000262022015
-0.0264310033494781 0.021789905922965633 0.02914400026202202
-0.008409446576998764 -0.0035468559908048087 0.02914400026202202
-0.004386113883484286 -0.004988122666647582 0.029144000262022015
-0.018213362337240267 0.013130115854702668 0.029144000262022022
-0.005593029448285319 -0.007045969305117442 0.02914400026202202
-0.0234879122347672 0.011967486087415956 0.02914400026202202
-0.024289457786044594 0.020129295640240238 0.02914400026202202
-0.006134530139663943 -0.004582658034951088 0.029144000262022022
-0.023332595793332654 0.018165751772939144 0.02914400026202202
-0.0216931043739507 0.011233375275228842 0.02914400026202202
-0.024465865977163673 0.015092441828740191 0.02914400026202202
-0.016438195108591954 0.0042992468422343826 0.02914400026202202
-0.018008967257517765 0.005378782326091496 0.02914400026202202
0.008809422488568199 -0.024136366594073182 0.02914400026202202
-0.022459154007406897 0.01624464401687497 0.02914400026202202
-0.025688839134518533 0.013180396521514313 0.02914400026202202
-0.0016058382160217635 -0.01040724979747288 0.02914400026202202
-0.010806687041591188 0.0022679124778061735 0.029144000262022015
-0.012826382891718465 0.0007686655031077239 0.02914400026202202
-0.017423432158999053 0.010063313289322638 0.02914400026202202
-0.01322912625092644 0.004279799086808415 0.02914400026202202
-0.01944386117363646 0.01589757965345975 0.02914400026202202
-0.019410009905701818 0.008279596186030184 0.02914400026202202
-0.016110945732245356 0.002343374790047284 0.02914400026202202
-0.003259824929776512 -0.010006199227695247 0.02914400026202202
0.003010412132939226 -0.01583796065173339 0.02914400026202202
-0.012676345302450329 0.007387836959366695 0.029144000262022015
-0.011230314108704894 0.004201380947209954 0.029144000262022022
-0.02729484464049522 0.015101307018480663 0.02914400026202202
-0.02183069563130039 0.019039900287065217 0.02914400026202202
-0.008268351591469962 0.00025659931435755283 0.02914400026202202
-0.01957259938812895 0.010397099774598512 0.02914400026202202
-0.009221685042003595 -0.001788741020355508 0.02914400026202202
-0.000815869452661191 -0.014120670342867719 0.02914400026202202
0.0019270875058798032 -0.014324924748351887 0.029144000262022022
-0.014400606520817752 0.006995183602513616 0.02914400026202202
-0.014550059737065482 0.0013909822277666057 0.02914400026202202
-0.010407749000402054 0.00041503547437757825 0.02914400026202202
-0.0123134824022215 -0.0017229916115043924 0.02914400026202202
-0.015383563669832208 0.009747675989731735 0.029144000262022022
-0.027329639857185097 0.02551188083154765 0.028582168759515837
-0.02705330613663838 0.01967693973323867 0.029073049356786475
-0.02906419196894983 0.0182206457199405 0.027480284664703293
-0.028034817126799318 0.007264547899344188 0.02851746653841701
-0.028839182608066456 0.009759408974969623 0.027707000551830077
-0.028668913908087578 0.01654069798145349 0.027878560611438633
-0.02885106489372139 0.003934735278307839 0.027695028148003065
-0.02864817826750718 0.014337918946275991 0.027899453516208775
-0.028544478747095273 0.000722079789028991 0.028003939519246637
-0.028641587161123323 0.022644041633956096 0.027906094611161877
-0.029500382874061787 -0.02679547031657135 -0.01812054089085477
-0.029232097270410425 -0.027199371410165922 -0.011820593461352726
-0.02872846756790655 -0.028153452496690722 0.009089235777620192
-0.028643453271290763 -0.027967768221261846 -0.003460853342230341
-0.02916136428074983 -0.027311537092929248 -0.00989631299493612
-0.02909796001779464 -0.02742789562867562 -0.007438020589333091
-0.028768310784601365 -0.02702180544918093 -0.028140666093398506
-0.02789112986780852 -0.02828149857597348 -0.013885100030870689
-0.02794852466381642 -0.028312651340321758 -0.0119380758701722
-0.027458376068922662 -0.02867851486862953 -0.007886808916035023
-0.028316702483690073 -0.02790335600907073 -0.019279880905467315
-0.02783554446327896 -0.02870475526666423 0.0002308674116591452
-0.027889983440209702 -0.028728123051743003 0.0033119144909870392
-0.02851160449815813 -0.028520696901629613 0.01650001711509402
-0.028341216129351143 -0.028546062765859852 0.011424765440009988
-0.02850324173692996 -0.027821107909174872 -0.01624993818038093
-0.02841137829608703 -0.02811897115867583 -0.005807151740085895
-0.028462288936013373 -0.028326804595867547 0.005698951384461687
-0.028488557447496805 -0.027683065157537223 -0.023190377939964122
-0.028348036789244614 -0.02873861061078943 0.020604336228183865
-0.028105901123576495 -0.028799291969190875 0.014534402475485094
8.834157898128785e-05 -0.02907939130119147 -0.024070563738755057
-0.026965521894011475 -0.02821127987370368 -0.01710583003862555
0.0067485515006813854 -0.029268507312186418 -0.02621230319813326
-0.02229184858687034 -0.027954166990139258 -0.025377757057460013
-0.02356917787786876 -0.028269318484622864 -0.018864796513126933
0.00086798357526126 -0.029346192645984863 -0.020072847668504833
-0.003329561972039064 -0.0289228049888334 -0.024005252964007306
-0.01269719165845696 -0.02842754380890259 -0.024973980911419398
-0.00170081811075172 -0.02897001655549228 -0.024512280652229337
-0.02813668102233939 -0.027924444329064352 -0.021132485003125985
1.7136348915284746e-05 -0.02893525940156088 -0.026515317368178276
-0.021180325729071074 -0.028179961333673433 -0.02236246250384962
-0.018226026894924224 -0.028671246802464734 -0.016238265943672288
-0.027277101615370225 -0.027726444134869653 -0.025270874570740082
-0.014477661508209129 -0.02896501361679221 -0.014190728451370357
-0.011710165281447762 -0.02860955862151626 -0.022617471533822726
-0.002215071918584196 -0.029199610009629357 -0.02010660729045809
-0.005963846528361782 -0.029169526916539356 -0.01757510962265101
-0.016394291776635168 -0.02844562280653838 -0.021648274555641188
0.009491499005492034 -0.02957066023127922 -0.02320010072902378
-0.01595647969528417 -0.02832018369523702 -0.024183101459554317
0.006665782923277351 -0.02944568105928966 -0.023068366705964443
-0.005885723312923722 -0.02866841744389991 -0.026340201766057957
-0.005922237787787447 -0.029063212644159765 -0.019455085833204402
-0.025317254192295 -0.028059756977432578 -0.02107966128934962
-0.025848577164245972 -0.02859388667093373 -0.011372002791941917
-0.01605705978579262 -0.028817974922209073 -0.015457334474533862
-0.009324503362651664 -0.028605632165696854 -0.024629088430705087
-0.02158757938090047 -0.028271760419743854 -0.02043666733060297
-0.011136247246710508 -0.028413765213900842 -0.026484832756130026
-0.016171361905286844 -0.028556717771806368 -0.019900786233223326
-0.025288287617723403 -0.027909756543989216 -0.023707921467725296
-0.021372983233155673 -0.02859590916218572 -0.01498284539671789
0.016280217932848964 -0.029748576975133088 -0.02564099595499972
-0.012161551718460372 -0.02896909198410768 -0.016006687246896252
-0.008277791729701575 -0.028842705092886587 -0.021365151077698458
-0.009766593831487768 -0.0288536146424477 -0.019962887832540577
-0.019749544297260772 -0.028389273376449913 -0.019893450965447333
-0.01973033204511139 -0.028156911221303184 -0.023943924400236835
-0.019780814555828103 -0.028710725713764294 -0.01428615977440878
-0.0038007074090591073 -0.02921805314695165 -0.018494644463269757
-0.01799982236468151 -0.028788134322811857 -0.014392861191339267
-0.005088084268401272 -0.029000513899648462 -0.02122333817720119
-0.022000108833494115 -0.028730092636516335 -0.01214195729005118
-0.022959828131214374 -0.0284221602558588 -0.01670719117394753
-0.02351923522501072 -0.028586764931457145 -0.013393223721872478
-0.01707293890639787 -0.028177157400777877 -0.02575715964369496
0.010990012259872966 -0.029568779231469073 -0.02445349990782628
-0.014171599226267737 -0.02885377885539368 -0.01637157816445038
-0.0032935492935116818 -0.02906334035164889 -0.02159428195434309
-0.005209623593665827 -0.028801110204737933 -0.024586847967393834
-0.007865828289642312 -0.028975032554555687 -0.019402966612159827
-0.009043674703339086 -0.028513006917192628 -0.026466239553976353
-0.00870180392874971 -0.02902783848965336 -0.017805012317764667
-0.0037610356211638662 -0.028796274451095824 -0.02585088385543366
0.010723852769273096 -0.02944166677920934 -0.026443905576826986
0.0016759120289634478 -0.029254879172855627 -0.022316612981154782
-0.024347048973160305 -0.028463289517190737 -0.01486293300298987
-0.019293724404784773 -0.028064861875142365 -0.025897977879797193
-0.014782045072104118 -0.02826589670107117 -0.026082492920409775
-0.019723744850886335 -0.028528343997931416 -0.017499594241382525
0.0037788842819201016 -0.029228349569449336 -0.024490431265267794
-0.02305708614413416 -0.028102210928500737 -0.022183680304705727
-0.0252518766174472 -0.028224539276647684 -0.018271579079184707
0.00214484707274255 -0.029040241869046527 -0.026425664095498784
-0.018204503658381548 -0.028541834743262294 -0.01850295838547633
-0.021864935797173433 -0.02838083396891498 -0.018316730422911646
-0.02534639528523508 -0.02779610502992346 -0.025634072086592394
0.004808529284829057 -0.029443066915917283 -0.021600781473148215
-0.012753679631937692 -0.028806232774720778 -0.01835226854805769
-0.007285572458553912 -0.028792166682041244 -0.02305101229862401
-0.014331058874874115 -0.028566416294132983 -0.021231547178913165
-0.02456964496791237 -0.027747287509648926 -0.02711452322840311
-0.02636658081489403 -0.02867517625065631 -0.009538478089747381
-0.025961143938911354 -0.0284656922761701 -0.01350631724773844
-0.018433548122582712 -0.02832993625355968 -0.02199585529713329
-0.010611790170564182 -0.028906537001183747 -0.01835540043800801
-0.0005481819387373179 -0.02918545043103618 -0.02171038132199153
-0.022586343014569382 0.028321804365583795 0.02752724253173747
-0.021211238070443 0.02786145196014765 0.02850194479180833
-0.019384632911294337 0.02825166311117673 0.027817795625568416
-0.026674910202274263 0.028239898872840462 0.027494956888724945
-0.007703109819786302 0.028426142506410425 0.028027649400987013
-0.011746629365095674 0.028799557005351778 0.02709801949955247
0.008761625210018395 0.029295691691546 0.02179332561824183
0.006864212836474191 0.029485679872003453 0.014967323094466016
0.006951041467589424 0.029306166803953183 0.021416969870446768
-0.010543662215728531 0.029890740999035395 0.00041405841902061435
-0.00013425148613594113 0.029690453968198128 0.007610083849039216
0.011951238970596858 0.029166320271464 0.026441454980067954
-0.008637640884132847 0.029832602716872957 0.0025028834175719354
-0.00604011563792949 0.029707299472921906 0.007004849052422275
0.007984973270352665 0.029377246700131254 0.018863171262907312
-0.004044411557655207 0.029731013635604927 0.006152833237892253
0.00511313022422146 0.02930578231360243 0.02143078405666779
0.004002047519909281 0.02942085228543838 0.01729648519517139
0.00594795622787047 0.029532671688490435 0.013278974602656497
0.008069973561436088 0.029252367794819958 0.023349891019730094
-0.0126671889155174 0.029968548889759243 -0.0023814673719619508
-0.011533962261134376 0.02982796277311131 0.002669589934529478
-0.001889424667075896 0.029714060586433135 0.006761931952105459
-0.017251057903715523 0.030066171643528986 -0.005888912740435549
0.014244922297770711 0.02917975733187273 0.025958680693576663
-0.002932919616634417 0.029587531562666157 0.011307938095670423
0.008674505699140375 0.02947881566198582 0.015213944304223646
0.009875444184222485 0.029194653013046513 0.025423500257400256
0.004288780083983533 0.029602884786055737 0.010756318824655687
0.012487140549462272 0.029252379027116318 0.023349487459450105
-0.008576839445355772 0.029895636642164047 0.00023816499095988828
0.01902229963486035 0.02918605924597882 0.025732261968531657
-0.005120285093523802 0.029802657739282097 0.003578763465043633
0.0024423505159647265 0.029445404224518957 0.016414369277622808
0.0038779983979277182 0.029492406169824688 0.014725656871899424
0.0005485979612654696 0.02948525346374408 0.014982643330954531
0.011317431113662919 0.029393490696830567 0.01827954778591643
0.0035615062085024066 0.02936451500826432 0.019320602670515698
0.013243792050914225 0.02930789760839983 0.021354784551904992
0.01781475948905955 0.029305788086820054 0.021430576633248127
-0.006698066361475102 0.029783372303455624 0.004271661482734446
0.0017954449010725098 0.029554451993739756 0.012496439508933813
0.017783157719941493 0.02923816010185352 0.023860353027484453
0.010717919731680434 0.02945168401942643 0.016188745263623516
0.001114616962789191 0.029605141917441624 0.01067522333492843
-0.004477541042693836 0.029613289214523802 0.01038250264929965
0.0118666691846097 0.02933641017995054 0.02033036879669383
0.019341117559614037 0.029264654596954612 0.022908443861394574
-0.01398495108270461 0.030002452363182174 -0.0035995704907584494
-0.021418482660872457 0.030153853871198816 -0.009039209279533215
0.006189226008292184 0.02939853003045189 0.01809849176477623
0.009584167392153333 0.029361191800571583 0.01944000075119118
-0.006581193612426533 0.029837523929265815 0.0023260713225626665
0.01094975028242179 0.02928163069887703 0.02229851689495222
-0.006499928453775422 0.029658279676484184 0.008766059951927665
-0.010417358596066515 0.02979106001595898 0.003995453011114485
0.02134356870839668 0.029222617746366593 0.02441876754318623
0.014298274590388793 0.02935675553361164 0.019599389453119034
-0.0008825630752074907 0.029635215619735956 0.009594718393694173
0.02290188718202157 0.029179475459917358 0.025968807948199085
0.009348976195901464 0.02942028331354463 0.017316927538339022
-0.0033357841839051702 0.029659304848003117 0.008729227011274756
-0.014038452975554058 0.029911941803165105 -0.00034765603156789414
0.016051184222229058 0.029304936359497408 0.02146117797297343
-0.001297653048659103 0.029556041141405753 0.012439343715118366
0.014653779484572515 0.02923969040956953 0.023805371268585257
-0.0160291522113246 0.03002605017735826 -0.004447406070496556
-0.01897515144119601 0.030088232332112736 -0.006681521604767671
-0.021878960452679147 0.029921644455399483 -0.0035870935476361152
-0.02295726320575049 0.030065560014583766 -0.007445676266218835
-0.018501641214990698 0.029809709298031395 0.00042249442298770024
-0.0009217071058135132 0.029099171230057036 0.024341669333578467
-0.0012210556184338315 0.029465160236912334 0.015499380915818135
-0.004409157085020856 0.029280801847875064 0.018627136559022435
-0.014305071638510906 0.02932218612210127 0.0137096895951928
-0.006339612884571483 0.02949718104157954 0.012702868715353036
-0.010397063921868854 0.02922248597591505 0.01763846566934772
-0.019314600954490002 0.030016028801494163 -0.004818086201477512
-0.021218424825992316 0.02869621559970874 0.025883485711654386
-0.009904132135349224 0.02941901644137467 0.013149959397917747
-0.024327946095540336 0.029813425891976962 -0.0019805302197406483
-0.018306676948047693 0.02898910007317022 0.020059224134809324
-0.007261809200680797 0.029541363873508315 0.011283434668230296
-0.025293771310564053 0.029672287826340217 0.000999842041124324
-0.01859622104923291 0.029550367071766642 0.006566364897817198
-0.02440742088959876 0.029887264759635504 -0.003772055685965397
-0.003834563195267206 0.0292131113405728 0.02046879633629289
-0.026029480506092138 0.02903608338356748 0.01587156959059141
-0.012094751700794423 0.029052031018897376 0.021026883392862433
-0.005214487735737675 0.02892230641932015 0.02685199260703243
-0.008810696489625309 0.029382256442958825 0.01446049270622589
0.006507305513213648 0.02910438415943835 0.027168517192008794
-0.02296802325061478 0.028899833214252366 0.020335234782024383
-0.013077813775015872 0.029195138885985697 0.01722538545025555
-0.025525739755132785 0.029421431625865822 0.006886871252991522
-0.019394937847513016 0.029924277302008702 -0.0026630953572521756
-0.02633211498585623 0.02917676902877522 0.012398098311224527
-0.01762776530647744 0.0293093727566181 0.01269519142788763
-0.014090143118743651 0.02963060511285595 0.006443878043228176
-0.01837212069336243 0.029072025488748012 0.018056693809152244
-0.009041137782899056 0.029544170788393664 0.010509711767769348
-0.016449385308353652 0.029942862089086204 -0.0019359748671628372
-0.013811695652287695 0.028800860199604088 0.026331520407754064
-0.013881851447945516 0.029013286540639487 0.021240454036939402
-0.015346772668109708 0.029215815618071565 0.015831233545539343
-0.022246260029749963 0.03001164800480116 -0.005878240828583804
-0.001551016607054913 0.029243902660630847 0.020641998184531603
-0.02412654219157642 0.030197897906667725 -0.01106444379205631
-0.018900047545993795 0.029213319740615987 0.014479221279804989
-0.02125917463361422 0.029311257675847788 0.011207724444149428
-0.012468552809481795 0.029729750448975786 0.004724901527889164
-0.017295768051201754 0.02919757677567794 0.015491739460254984
-0.015101553536352764 0.029144100971877446 0.017637968258227492
-0.008409774065385369 0.029015067149723538 0.023371739225257128
-0.01373149957190644 0.02977433557658453 0.0031605191429954545
-0.025554918364054165 0.028974396653755962 0.017530392305808207
-0.01429095823321273 0.02940115455295968 0.01183307755107372
3.532776355182846e-05 0.02917646094610639 0.022879635380661692
0.0007240150045259488 0.02932040849778753 0.019722208616495537
-0.0073046398509760135 0.028971319838400202 0.024853462794066167
0.001668706255383479 0.02908714276190592 0.025657383683825495
-0.020360269597366684 0.028902792443385842 0.021300604499579177
-0.020819843730637885 0.02877990418748285 0.0240470941879246
0.002664804567124813 0.02926363118094041 0.021846458783618104
-0.006533561595940615 0.02906289404202047 0.022977087671288764
-0.015492017605909427 0.028804481609747776 0.02557771331108642
-0.026576061950485227 0.02881555307511598 0.020910802140846514
-0.01664264621240005 0.02954472270578941 0.007476936179307774
-0.010309789598379776 0.02959746312445765 0.008735526145608087
0.004586578869228456 0.02924645777873923 0.023019193071229606
-0.011315231851869733 0.02930884563564988 0.015215344015605406
-0.017199213918071214 0.029400433213194944 0.01069499624948382
-0.018631422778750982 0.029726572952871302 0.002352501036311878
0.0053975476646856676 0.029186952956737254 0.02475964391420953
-0.021052607606972723 0.02976943112284085 0.0003691827245480162
-0.0010889367639568982 0.02932523944184158 0.01888688636664893
-0.01901894004395582 0.029336274494955454 0.011501356710470746
-0.023888943920930366 0.029053272721977073 0.01631216644301508
-0.023221268868038398 0.02944228869107083 0.00730516876903019
-0.020731456431399092 0.029659739189119017 0.0031112721413225214
-0.015905913961653206 0.02964725231862078 0.0053257944646833725
0.0023547779220711015 0.029180920496766606 0.023694719241389762
-0.012275128563592272 0.02936485271696391 0.01349910200892634
-0.015967893558017934 0.029752339878189378 0.002796403878849247
-0.021073010912876923 0.029428062715966683 0.008497619200117941
-0.0005058062118669616 0.029404647046485138 0.01722584275839086
-0.02177584804372156 0.0288369191122295 0.02230837637284142
-0.005348416511601893 0.029014415241476858 0.024603370129574663
-0.025142331428059637 0.02878937281198984 0.02210434528809767
-0.002382494041531398 0.029164171898764746 0.022212091039119235
-0.018270442652724816 0.028915496304869517 0.021827969149421023
-0.007566909109981594 0.02912238226835907 0.02114869474144019
-0.007116436305009092 0.029308455681927144 0.016892566691740833
-0.012196196892660556 0.028868918219582387 0.025351092589763043
-0.024738652887831603 0.029529816554696928 0.004616170494700534
-0.006290718317638667 0.02919836427111427 0.019844611621733288
-0.02216556587536217 0.029687164977046616 0.0018878912947275562
-0.00316719937501462 0.028993376010510236 0.025971307716991743
-0.022661264351485473 0.029788425513770894 -0.0007225722544747484
-0.00499561412364063 0.029402531828971352 0.015492729373987197
-0.0221278174112061 0.029059393181633572 0.016865874119381306
-0.012538181028220142 0.02944136073352884 0.011571032848367968
-0.010941233057062539 0.029506792843601345 0.010645824680298774
-0.02312297196158449 0.03014269800808227 -0.009350092192620608
-0.015560206953837124 0.028895062758110518 0.023391617360384274
-0.012171623355029483 0.029637238593226048 0.00704788067468669
-0.024994588435670862 0.030036862504861934 -0.007570975352478796
-0.023712261325586303 0.02929290487873369 0.010670701419842516
-0.010766000470735948 0.029024697498278473 0.022206212580579497
-0.012896983354948023 0.02892607553247614 0.023710363593896396
-0.010526023911019096 0.028952006058247777 0.024034146689812685
-0.02508249089221686 0.028893218141396945 0.01965295513840825
-0.02432900956738101 0.02861498984728809 0.026583859974452857
-0.019890354050660114 0.029399247084907654 0.009654240124415191
-0.01774258171888593 0.028735535673596 0.0263270315346888
-0.0029403011903673705 0.02947616914939026 0.014554030144412053
-0.0199734249804769 0.029258102588974905 0.012985430660743076
-0.016179865214031627 0.029014076501396542 0.020308763064609582
-0.0070689985901086425 0.029416390481108824 0.014338776832165556
0.00350357654352093 0.029052285584302208 0.027217090358479044
-0.013235426085875116 0.029107024747928586 0.0192629826527043
-0.020362908284482104 0.02906635404792233 0.017401053246366854
-0.01345018864053645 0.029848493350164457 0.0015047109278896065
-0.02252605901376732 0.02952683526838355 0.005566159706805441
-0.013513667318992742 0.02956595324547497 0.008213859180271385
-0.022952922022895766 0.028689658482646818 0.025350764016237714
-0.020674573341243795 0.028972933922597578 0.019503923191854386
-0.02525934208571267 0.029130957982423038 0.013916155961248273
-0.02048071442199393 0.02953220607563599 0.006250638097456028
-0.008683001937349846 0.02887890535919381 0.026508628727752864
-0.009230341341424895 0.029696395373169964 0.006806268262005648
-0.022171454610815797 0.02921876629921339 0.013049869530644694
-0.008435237248545488 0.029227158903195154 0.018306401452047733
-0.024130025623849694 0.029212214345701235 0.012428013755921955
-0.025831123468164453 0.028649161137943933 0.025172685499390505
-0.0023177319100974626 0.02939033786356278 0.016847134460573603
-0.016823664520165343 0.029864847536362732 -0.00022517072084417365
-0.01919520736884664 0.02960921151391175 0.004925862103906956
-0.01743794147870252 0.028825904673145233 0.024294094864254132
-0.00962546389917903 0.029122174447622592 0.02033590856722576
-0.004687480822758084 0.02948258454972747 0.013707069561436039
-0.016169214068260124 0.029473332369034596 0.009366596210892886
-0.0017658732645957492 0.028188475803773747 0.028373120515019095
0.00827490969461169 0.02880352686070483 0.027758758087757095
-0.013916147200275862 0.02792681605208912 0.028633339125979016
-0.016434097703585365 0.027689317897049412 0.028870769456382426
0.001493534274663244 0.028558550147423017 0.028003055073912007
-0.009374511624230697 0.02819333284347878 0.028367148528518016
0.02354882225085001 0.02885845969551318 0.02770386736476772
0.010670032141734457 0.028703832590793427 0.02785867424857447
0.016348641589086037 0.028624833290896975 0.02793776539796932
0.021519249567872566 0.028817610661432506 0.02774476389247549
0.01964037131100912 0.028868689872911288 0.02769362529312923
0.02526562930493809 0.02901968704220818 0.02754245256513399
0.013723322951402987 0.028084677402201736 0.028478549305488824
0.019178271667418454 0.02886110868353029 -0.014516985378225985
0.0273104120262948 0.02827975012365477 -0.01819817082214011
0.013349694568796262 0.028977706923678785 -0.02204834920715516
0.02296918422856516 0.02830088966752888 -0.02603441461218272
0.02656697342288509 0.02873764391331042 -0.004144722931533364
0.024980165350296915 0.028189299833373135 -0.02585437289010779
0.020613855666006427 0.02896997139089135 -0.007999361109762576
0.022076654213865846 0.028965892537830145 -0.005255730116104134
0.02515269529954931 0.028383908606972465 -0.01891914656837727
0.024247503486293603 0.028976705589437313 -0.0006124769743177504
0.022608604355762237 0.02874882024314 -0.011564350555457986
0.01911343358681901 0.028610484885037035 -0.023138406357371973
0.02470818518438038 0.029082231401396125 0.003871401251682103
0.024365968934655178 0.02837182698918024 -0.020878526741436625
0.017877120189040325 0.028851150981880687 -0.01741785620489471
0.013281330170331878 0.029092059958669585 -0.018307590265815722
0.0239022880148553 0.028870832580440278 -0.0048806413909028195
0.027353544186846577 0.02911521035656064 0.01020069375667094
0.015006762650549114 0.029088211565957138 -0.015038732995535126
0.026403976713837745 0.028527332499041096 -0.011593332957009388
0.02180986039309238 0.02845567855228493 -0.023072580444141712
0.021328843318885682 0.028697099243413897 -0.015838445300233206
0.02716944615232057 0.028822088784140734 -9.593843876853827e-05
0.016990301500240675 0.029041464592761426 -0.012715219763588352
0.022719990752174166 0.029089484194291852 0.00020025153622614186
0.019021553211235012 0.028919524504950715 -0.012846014751370486
0.026821848236694045 0.029053472650718285 0.007060896513310075
0.01922729800978192 0.028552021915599274 -0.02489540170419567
0.01536119886552463 0.0287765879959336 -0.024901433026528995
0.017998669744216197 0.02874045386073974 -0.02092993535787818
0.023964259086652832 0.028638836253207674 -0.012620947082330771
0.021214387093745696 0.028422342141463754 -0.02537550091186264
0.011191155399785973 0.028987021813837655 -0.02598521079638796
0.017673140728344253 0.028598457819065497 -0.026383531164339516
0.022108293906878466 0.02849318264833372 -0.02121361542899266
0.027530814017542458 0.028572273510172316 -0.007850288709636822
0.013394058419222098 0.028882619491509838 -0.025183477138451392
0.011462894255733339 0.029072585573116837 -0.0225500868275634
0.027541506800302287 0.02815764778998058 -0.02188095919280427
0.02563932973351974 0.028198238517332982 -0.024252817541889973
0.024142358334406196 0.028321811866269583 -0.023014083733310417
0.016620961076397177 0.028762478853840225 -0.022897732764779157
0.02455862223335406 0.028529601904830636 -0.01515196107325922
0.016005416100824926 0.028979592991144037 -0.016752384716835864
0.02006519712386883 0.02910195451276494 -0.004607344520242257
0.027739727388948938 0.028380417125771693 -0.013940753406389814
0.02592646075082175 0.028483286568870447 -0.014026812742628415
0.02618825732181674 0.028611341975927303 -0.009171226910889582
0.02414681788406324 0.028806877082059652 -0.006566355073724302
0.020738232607130796 0.028909558352195736 -0.009801733891211441
0.026249437153945506 0.028927843479588992 0.0016755936044676911
0.02241595103969768 0.028535641105203333 -0.019168574799837666
0.024878488667341256 0.028884251835510563 -0.0025026445725025042
0.009488560517855078 0.029116611242268896 -0.024947690497911585
0.02521025789708193 0.029105590644676018 0.005652185020423143
0.018689112196719565 0.02900928938738339 -0.0104588106653024
0.026921769237069217 0.028247421845859592 -0.02005944805122744
0.027310321846047394 0.02891760856354179 0.0034187828224546907
0.02585758315451233 0.028246037475675063 -0.022202920940894016
0.02275704488767828 0.029036095255262916 -0.0015361082435951462
0.014091080007894783 0.02898938094498982 -0.020192108848858692
0.024398908529968788 0.02902366095207633 0.0012771318260480016
0.022616701094000293 0.0286797688678952 -0.013888562029149672
0.02323060070857602 0.028809169540226994 -0.00829370561432722
0.02003738178688666 0.028619152255889707 -0.021024394426337793
0.01697207161760122 0.02899153221605698 -0.014443351274754324
0.020630741547884617 0.0288534663079354 -0.011914471311076065
0.020904331737602106 0.028777948729696294 -0.013934774023285468
0.019510878116204205 0.02908426324965492 -0.006298970064418643
0.02346868881559658 0.02854848243905478 -0.016659377802564528
-0.012889714392513093 0.029797452609106802 -0.02699855396766825
-0.020916473609943368 0.030047742888595866 -0.027017808678960843
0.0022828258395471744 0.029349439352276217 -0.026907517846978073
-0.01923243677544279 0.02986709980831662 -0.027292734614728566
-0.003492480465277647 0.02937438351406753 -0.027259142809124292
0.022709522459174732 0.029220414529880383 0.005740104097235954
0.021942404677094636 0.02921300653577979 0.003875540191593695
-0.0011508733169232656 0.029561465190027274 -0.025003758061581303
0.008119458833172081 0.029314554538539796 -0.018514600314975177
-0.0002655583620368705 0.02968182589833203 -0.017519991972401464
0.0026950615944168806 0.02971744422513679 -0.009988745020618344
0.0012816201719822234 0.029452945200155053 -0.02538645458028485
0.004436519071370418 0.029602828334716128 -0.012023547106144264
0.003914680572354001 0.029391874332079806 -0.02311132182619994
0.009108436931641217 0.029397962571141342 -0.012588758093402156
-0.01775535758653974 0.030237509478636966 -0.025477987362419262
0.005646116025798436 0.029503517288385434 -0.01437633185709856
0.009745267139268609 0.029173672645713092 -0.022029782025040683
0.004744661629136874 0.02963635371466857 -0.009817759936232861
0.007094007807424524 0.02946465224960516 -0.01337718093101052
0.01997311273442278 0.029254087756650105 0.0019548595664886457
0.009169595293627764 0.029307390986149536 -0.016787329305152154
0.006442182435571746 0.029621741116917344 -0.0071702953399801345
0.020807066111664704 0.02916913289522518 -0.00045338277517967956
0.010904080671273724 0.02926501702058793 -0.015390888553256737
0.006418011412099673 0.029420388117285933 -0.016819773705304752
0.003869387641943592 0.02948543334957908 -0.018739033296841137
0.0035374130825316136 0.02960848527866363 -0.013525117685217275
0.016494006793466236 0.029339966358778787 -0.0008040713357716067
0.011237657884387254 0.0291972886963005 -0.017963446937809564
-0.009355430170304572 0.029994420121403617 -0.02052139182810668
-0.004162933274724434 0.029681123595915765 -0.025231713025489145
0.012506505352350712 0.02928523440804439 -0.01126984627277382
-0.007241423165318736 0.029897318165635005 -0.02098705126767177
-0.00850217370803495 0.029999576214511707 -0.018594511552128542
0.0019346481606001475 0.029621815769673508 -0.01604704284774814
-0.01557138508122603 0.030127729925352276 -0.026410360267977415
-0.008857740989501862 0.029936999892489546 -0.022279073715285595
0.008088621742661674 0.029269614299797204 -0.020718403994262523
-0.0016548829129061668 0.029759224282508708 -0.01656623154762031
-0.001128973011569097 0.029776288001120477 -0.014716422462624185
0.0063152937216425075 0.029356839182609666 -0.020052576776409543
-0.005192616662718084 0.02988180475715218 -0.017690474302690908
-0.0038045847363261938 0.02985419882283319 -0.016272343992213868
0.001070428733514801 0.029753000167496674 -0.011493893972497659
-0.012142047856117428 0.030020145053691365 -0.024784579110645938
0.012663139687573943 0.029466964029600567 -0.0022951755533636457
0.018295623161472523 0.02920598076242439 -0.0036440314479368446
0.011173686650780605 0.02929384518964594 -0.01348501687773115
0.01826195244111199 0.029306310337582703 0.0010740195478623664
0.011485827591589585 0.029479536850677182 -0.004015045540031516
-0.011151991326544888 0.03006719681133366 -0.020590322841349856
0.018977583425127786 0.029227814871227557 -0.0012593029142410695
-0.014020753681222305 0.030105122401615104 -0.024433534545373836
0.004823988198249762 0.029395647947673645 -0.021139940759195057
0.022037848531147465 0.029171781219591422 0.0020976753748226974
0.008077154673682389 0.029223919512352578 -0.02292002866656307
0.00711842477096284 0.029210744271952558 -0.0254371091253773
0.0020954811508765436 0.029548550036682233 -0.019223985885497452
0.00019344672825616252 0.02974713547078948 -0.013501306978600865
-0.003776426893795844 0.029766072500627207 -0.020419323131981394
-0.006924379616900066 0.029781814295713676 -0.02587044052052946
-0.0007377532454117459 0.02982892422820321 -0.011435631496741353
0.015347707601362177 0.029306714296698844 -0.004648079901068657
0.017505444693796026 0.029163955257137185 -0.0072048219589564665
0.00011502662494259968 0.02962574351748444 -0.01944458364824045
-0.010808713256357672 0.029930382107580776 -0.026438270600279486
0.01522672913433916 0.029250056956862953 -0.007588221208568991
0.0016924497010516707 0.029475286568812972 -0.02351169201381468
0.005381072394584332 0.029258513366434365 -0.026581922296532588
0.008903308004672324 0.029363015201801887 -0.01465940775862024
0.014593107145131623 0.02936917389098164 -0.003156229049366026
0.00566579430275589 0.029290679062869893 -0.024487115034369008
-0.00949903073261107 0.029905052211989386 -0.02506595993115545
0.013134933987674655 0.02917368543350906 -0.015351178899061846
0.010429452201957587 0.029199274064086622 -0.019461019867653875
0.013886057941815317 0.029191462800879836 -0.0130236433500927
0.001356738228432954 0.02953389366500011 -0.021378299557416137
-0.005391875715803081 0.02977461838768274 -0.023194398832442856
0.0038075189134565276 0.029532964084242063 -0.01659433745586365
0.014252349287217676 0.02923808381377303 -0.010078809625025442
-0.005789646838479236 0.029859400520055524 -0.019935069336818028
0.010525787761963671 0.029431061869720977 -0.008218034629568109
0.00859752913102708 0.029562974624057 -0.005726419821709813
0.012847116391846445 0.02933543307625722 -0.008204998843310156
-0.0013351464067191871 0.029631783131258423 -0.02201356488237452
0.008845530658987992 0.029515438378311297 -0.007504677654388989
0.0069626386809860975 0.029510828656425292 -0.011433991460542619
0.01160983456556388 0.02942646984598669 -0.006301329044963219
-0.0017878868829650685 0.02972052491262722 -0.01867370811156569
0.01335443051734357 0.02937322440379882 -0.005403394202508565
-0.0003048195933132974 0.02956025959688227 -0.023394435711782666
0.020188549167557662 0.029147321279897248 -0.002712048786030731
0.01076544731467444 0.02937416377243556 -0.010459162767129913
0.014451070293906767 0.02942941840054261 -0.0005631947811372527
0.01096499430744937 0.029539733017380602 -0.0021705846266452757
0.015781277455105228 0.029154747275022822 -0.011040707487208135
0.003081328858992016 0.029473651714655054 -0.0208534176074337
0.024193080379546393 0.02920762826791473 0.008053131655202704
0.01745169107220698 0.02920815908680688 -0.005202787622005116
0.02788283378849673 -0.02838227479503909 -0.02470231315565649
0.027864857215978315 -0.02893608973798794 -0.01861270501084788
0.028438734614891513 -0.02836084008748891 -0.011032371017095931
0.027222469993931412 -0.02958077670064677 -0.022348477931520724
0.029172149646189246 0.020325911670662274 0.009634157958311958
0.02886441308292166 0.005414643654848666 0.021033214054295132
0.029004085739619857 0.025277722601964103 0.015860944352871928
0.02901202066579931 0.010699733829931717 0.015565388492511312
0.028974070800891 0.014937528455038238 0.016971775773622255
0.028731931161762293 0.019864925356392223 0.02594283534602491
0.028707857415342545 -0.020278454115390244 0.026830310410571635
0.029064896036711002 0.008389986694925033 0.013606268052468829
0.029188350641405056 0.025880965577609397 0.009034567847707746
0.028816240249009726 0.005626160740792119 0.022817891037546046
0.028785347165763843 0.009970385078725875 0.023962858092467607
0.028932101151624708 0.020208092143498467 0.018527196329461815
0.0288781780077777 0.017154808660415913 0.02052454801747554
0.028816957076065935 0.0038176855969222897 0.022791137388938166
0.02881978776648109 -0.010630487122455956 0.02268469178412552
0.02899721308849348 0.005824086089985199 0.016113430968110604
0.02892857240375936 -0.003010158811964621 0.018655390728376284
0.02869347240560038 0.027230535484246695 0.027368416933213846
0.02893457400211083 0.02379491113819312 0.018435976473816038
0.02874770817165997 0.018045361908930413 0.025358147483240858
0.028832389866682125 -0.008738280312102723 0.022218029681896772
0.02870512016856827 0.008034252467231634 0.0269348078183442
0.02890303563576677 0.0009556510548296357 0.019601881625894324
0.028851837821389982 0.02051473654906543 0.021500736926945447
0.028887072235256474 -0.004766859839988185 0.02019265130914693
0.028852841867300326 -0.0034813931406326975 0.02146092047193015
0.028895922273862215 -0.001138626426636898 0.019865180959780685
0.028995502044196545 0.02179649095996379 0.016178563562752903
0.028738574904061315 0.001876460871559637 0.02569474151483492
0.02892887939387815 0.02642614476344223 0.018647231277157224
0.028762611854116014 0.007943190684015246 0.02480490947261413
0.02872946962089349 0.021763407909092418 0.02603423504920338
0.02895394756407311 3.7003539754073764e-05 0.017715652503947906
0.02886494972190272 -0.010146663567702028 0.021011634409177533
0.028827614647327422 0.022297635361876126 0.022398324939090882
0.02885739068253312 -0.006671898865337943 0.021292052684803966
0.028901490660496035 0.003209909106908268 0.019659364260362154
0.028867646931213575 0.00755407642953204 0.020913643581244288
0.02876853709595053 0.014007834014563115 0.02458605974479234
0.028754658411830437 -0.013582347269188368 0.025097209853066762
0.029101442745209694 0.017864196995433075 0.012253360306698702
0.02871844431420784 -0.02204716249190114 0.026437905595106594
0.028693213313344082 -0.008116441247932558 0.0273741566455675
0.028962116690193662 0.009081591124270844 0.017413999154233153
0.028762902051541146 0.023558237402705635 0.024795863263463724
0.02882328071968179 0.0077308774069048455 0.022557293237105876
0.028768552051037233 -0.018338063656402295 0.024581974483804243
0.028731025250882714 0.010471509117344631 0.025975371045726663
0.028715427841054814 -0.004840696233775465 0.02655153499798989
0.02871549823343023 0.014248394711349838 0.026551011146846222
0.028958047354464896 0.006679147735373804 0.017564493129115306
0.028758860438559804 -0.009106293831695153 0.024942026465974702
0.028704535379305837 0.025367280159026992 0.026958364701661647
0.02873615939974267 0.012228354955122474 0.025785358570917107
0.02873853853507263 0.026613113515340115 0.025698789388446303
0.02884007802744981 0.015387313022580592 0.021935841007467812
0.028891392464518537 0.015274483991723561 0.02003478815759646
0.029145477784694226 0.014794077404104794 0.010621663681340439
0.02902940705600808 0.014489550446233923 0.014921690466721411
0.028900146449718344 0.01215736589757396 0.019710139894460937
0.02913150641400839 0.023179438943160692 0.011140175011085341
0.028949439233171295 0.011443061821777026 0.017883917369245637
0.029078617837031362 0.01362755395142246 0.013098489753188242
0.02874724821546372 -0.010960624460250964 0.025372020830574528
0.02870270068112703 -0.010278021598596662 0.027022443151946577
0.028765561340684857 0.016003007804294575 0.02469652005028196
0.0290300521724028 0.017183941134121687 0.01489808505604083
0.02878123202962642 -0.00756339994043041 0.02411339693241577
0.028861985960435124 0.0018494905077725563 0.021122742194842184
0.028961629666954036 0.017073959845402872 0.01743291438456208
0.028826521296139426 -0.0018304975530963156 0.02243619612205958
0.02879075016601787 -0.016636955328190012 0.02375978897285366
0.028948801891578238 0.00422529213032119 0.01790674092761227
0.02891835885329387 0.018327638308925046 0.019036100514501726
0.028894812426853 0.02181057532225704 0.019908802723170322
0.028697725856026125 0.02350895523158594 0.02721043351717785
0.028710439774815005 -0.016870714789553386 0.026735014036833725
0.028800070436928078 -0.0036495690695525686 0.023415919721402802
0.02879482473909951 -0.005374984668451277 0.02361006817033367
0.029101265972278384 0.015611684850046197 0.012259663286690063
0.029038721804980707 0.020460768960935374 0.014577259826577201
0.029087415897366565 0.011694138842456316 0.012772337868745593
0.029146185830835735 0.016737689529210398 0.010595644956018828
0.029038699087542676 0.022802550464892272 0.014578357090827276
0.028830544858912812 0.018459270789365403 0.02228935066324878
0.029193858814569398 0.023123289167696334 0.008830206080823237
0.02901613371100939 0.007858203836093942 0.015412702729302327
0.029080415475375904 0.024594521701950426 0.013033090105824126
0.028834288439794374 0.0001988899016902067 0.022148669120609293
0.028707135094400506 0.01663977075610515 0.026861100543480183
0.028971858437159465 0.019366769755540643 0.017054220522187944
0.028760639545082217 -0.0023960479433079358 0.02487684865613436
0.028910478239463015 0.006230620984220032 0.019326732144256408
0.028764577035526186 -0.00034682324241810773 0.024731200578496863
0.029106951126633272 0.021324570155825284 0.012049669652738234
0.028883923999733316 -0.0083597948948676 0.02030889141525782
0.028957544405725677 0.0017737541111534603 0.01758259029312742
0.028824505575747093 0.013321925575313039 0.022512526501930738
0.028807227750419925 0.026917857595968923 0.023154100548846927
0.028886437222242167 0.024993560961114207 0.020219425532618403
0.029120705610225003 0.01955317256283936 0.011539915366766296
0.028763962517196227 0.004799927156059601 0.02475452844808035
0.028840873100110326 0.02405189762514246 0.021907331952568953
0.028778718358081812 0.021688210930787627 0.02420971407301661
0.028732502495479678 0.0062827990122477275 0.025920186437063047
0.0287157906537665 -0.012404069500113834 0.02653726821567186
0.02890567883607232 0.01023652373465676 0.01950497246180396
0.028845253855172587 0.011396319620327996 0.02174365696509583
0.028725890356981726 -0.006492087595623223 0.026163750991681327
-0.028832383019812287 0.007639151948359872 -0.02678484727984021
-0.029056854126460252 0.0013516925826251719 -0.026753817778500045
-0.029251505540854275 -0.004208075988089543 -0.026747066000538368
-0.02895249539537878 0.017444202225745407 -0.009174877458778543
-0.02942292858707063 -0.001154304959548647 -0.014860292962709682
-0.029386671946157305 0.0007734058326434811 -0.013717434247849023
-0.029060538851768236 0.007213417297235385 -0.0189761136156385
-0.028660583482366993 0.015289116155257335 -0.025171445202799608
-0.029370191383002456 0.007549112622005495 -0.00478777690909755
-0.029168576254693546 0.01254887580665595 -0.006586652562066995
-0.029462747806752065 -0.00796120991800089 -0.022801113671815188
-0.02894684583029629 0.010256393980758994 -0.019671824405879383
-0.028984171039374944 0.014800560091309159 -0.011541177711294641
-0.028943235281270983 0.006513211540106747 -0.025167896028312133
-0.029297797237511622 0.008529941930557386 -0.006594753378804453
-0.028966794496593454 0.02275141110141276 -0.000975924497807504
-0.029251201493861765 0.014052816929419319 -0.000784452009058593
-0.029098321398334952 0.009836845434980979 -0.013563389000720523
-0.02946537687674107 0.00015627806374969238 -0.01111256303958934
-0.02905114528932711 0.010016396319869803 -0.015396132826067216
-0.029199488680803527 0.005651624129481827 -0.015050615659863242
-0.028831504956238124 0.009910550749110281 -0.025271535969918647
-0.02913768641903735 0.014682515535093615 -0.004912611412383812
-0.02903848020703018 0.0052037941478435806 -0.02281763738455226
-0.02876942927951485 0.020552330739443125 -0.012849182411469522
-0.02886127143063717 0.017417565410197674 -0.013251764811537507
-0.028903517871964178 0.017624750050214674 -0.011085957160724162
-0.02908835512805073 0.013615018809393212 -0.008618544619481382
-0.029060081689045343 0.0165096049807894 -0.005743871291979803
-0.029450130096635274 -0.005315707869849503 -0.019588377507113727
