-0.00814470867911 0.0247785756053 0.0267035821308
-0.00384026609847 0.0258665280501 0.026731577001
-0.0116048255073 0.0247699244345 0.0309191225744
-0.0128569080156 0.0224920353347 0.0309260003269
-0.00704851266223 0.0249524533698 0.0309260003269
-0.00200333729077 0.0263416849389 0.0309260003269
-0.00895348307399 0.0250451281085 0.0309260003269
-0.015744571787 0.0219415416245 0.0309260003269
-0.0211720616687 0.0191987458438 0.0293482868886
-0.0192528376939 0.0209767787219 0.0302239787244
-0.010883389489 0.0264808064541 0.0294072509107
-0.0127585122074 0.0257197587389 0.0282612643511
-0.0160289003165 0.0240290105448 0.0288520162484
-0.0175442112692 0.0227796934753 0.0302222191901
-0.0143276014886 0.0249215953693 0.0295754675906
-0.00905579008369 0.0268598757593 0.0300591066692
-9.89872669188e-06 0.0272379779168 0.0306730930476
-0.00424084723766 0.0270778725182 0.0305839829972
-0.00915110700799 0.0271551478465 0.0275774947782
0.000247243505998 0.0288467385468 0.027439723519
-0.00635239070788 0.027434375491 0.0269159925243
-0.00166703671882 0.0285688883307 0.0272947282987
-0.00379757117104 0.0285813916301 0.027735508972
-0.00149999752358 0.0286691573112 0.0295017751031
-0.00606943857403 0.0280076900974 0.029318292229
-0.00515351548202 0.0217172887917 0.0305244554687
0.0212431489954 0.0147180525561 0.0266904931059
0.0211572160629 0.0123603813189 0.0265869120395
0.0194396379504 0.0157707050112 0.0266216437318
0.0239061096698 0.00608099997044 0.0289242808537
0.026057300804 0.00608099997044 0.0282534228743
0.0177640323968 0.0132080196958 0.0297351109861
0.0192482844436 0.0104034240139 0.0297050910229
0.0168611846534 0.0151122305184 0.0298291023703
0.0193624070267 0.00868074472014 0.0270449567292
0.0170806295669 0.0122167865311 0.0267388540522
0.0235199882732 0.0165968259015 0.029303137939
0.0256880460328 0.0130076866008 0.0285004801134
0.024509223765 0.0147844242817 0.0279059192443
0.0219592104008 0.0091006878998 0.0306988583358
0.0234638907067 0.00756947560479 0.0308898279205
0.0187881400114 0.0150598474652 0.030694026396
0.0201112114437 0.0129076195429 0.0307504965644
0.0225902184706 0.0124654544194 0.0308974648499
0.021926117378 0.0149493663066 0.0308878762816
0.0260361442081 0.00693186500445 0.0306848993399
0.0270908945742 0.00952966475772 0.0288387011234
0.0265727100037 0.0111635320002 0.0278495725187
0.0273007387319 0.00811030338772 0.0273889624674
0.016931942754 0.0167750408275 0.0274017506208
0.015585569194 0.0155527338806 0.0265560001135
0.0189015130465 0.0125082193035 0.0265560001135
0.0148737551014 0.0157479397633 0.0286699409074
0.0201099371831 0.00824527457723 0.0293067164996
0.0176766313805 0.011478647055 0.0285623497483
0.020973895788 0.00654637181403 0.0285260119986
0.024408400713 0.0147209918728 0.0297674226541
0.0245170654619 0.0111841361902 0.0307121285129
0.0263215835084 0.00886061153107 0.03049610752
0.0216900680346 0.00767671984721 0.0265594983038
0.0237842491059 0.00718889624398 0.0266730746914
0.0253338595058 0.0096066361619 0.0268129747524
0.0236332487376 0.0115857018414 0.0267383370436
0.0230748230268 0.0164027571242 0.0268767455455
0.0220885870237 0.00987247757153 0.0265560001135
0.0180921736154 0.0168360006064 0.0309008694437
0.000536000006832 0.0269181962793 0.0268134773099
0.020022767609 0.0168360006064 0.0289674608361
0.00157625572854 0.0284622828528 0.0294767298039
0.00880365891824 0.0188049179515 0.0271299414861
0.0112628816768 0.0179097037296 0.0277172528571
0.00341641047929 0.0210849486981 0.0285947355837
0.00640822453281 0.0197555141314 0.0278450205425
0.0157103900291 0.0183505742399 0.0309260003269
0.00862693481654 0.0222077333984 0.0309260003269
0.0081350204456 0.0259440839927 0.0309260003269
0.00920640000457 0.0242558209262 0.0309260003269
0.00658055221096 0.0245518818272 0.0309260003269
0.0128100266773 0.0209255523532 0.0309260003269
0.0019868888235 0.0242686621954 0.0309260003269
0.00572818010268 0.0264914247221 0.0308543042263
0.00360225673563 0.0255447020506 0.0309165765464
0.0111037330078 0.0215162126882 0.0265560001135
0.00838606741981 0.0210666809839 0.0265560001135
0.00591444026524 0.0220689452293 0.0265654459484
0.00509075477264 0.0255542138586 0.0267396838318
0.0027919938881 0.0252724892094 0.0267255996645
0.0147739377587 0.0206778173565 0.026680211101
0.0201903813557 0.0182851869673 0.026832531473
0.0177633511515 0.0205223298699 0.0268047953228
0.0146682051119 0.0183477641516 0.0266173218245
0.0167835343543 0.0189081067297 0.0267115907693
0.00943015020586 0.0271611436212 0.0293964756596
0.0144998325379 0.0228301457562 0.0307655256295
0.0171176427376 0.0200149085399 0.0309260003269
0.0119172306827 0.0229366779218 0.0309260003269
0.00230521893219 0.0285123439423 0.027087532443
0.00537278396222 0.0282183781005 0.0280161625228
0.00897156168238 0.0272928507677 0.0274303648859
0.00375466735788 0.0273993517916 0.0268384092818
0.0168606532335 0.0234148621248 0.0290364745347
0.013543279052 0.025419685911 0.0288772296033
0.0109069189883 0.0267530885459 0.0279447222217
0.0116293225237 0.0259539389627 0.029927336381
0.00640387550114 0.0221675254138 0.0309153403307
0.0040496896175 0.0224261734163 0.0305844877666
0.00957715443744 0.0205909341706 0.0308707103605
0.0074806062096 0.0201210506357 0.0298800283302
0.0119863548492 0.0183528664721 0.0299144125
0.00567691708556 0.0206896855346 0.0297043800416
0.00216259152627 0.0223247223412 0.0299693292784
0.00935035819067 0.0189705876544 0.0294157816182
0.0206389907225 0.0200058217208 0.0272185935973
0.0196785747571 0.021179970245 0.0287035399398
0.0150414837151 0.0229767890899 0.026805201167
0.00990015572837 0.024053524892 0.0267044618382
0.0117277068639 0.0252337836041 0.0268582712154
0.0128231509268 0.0235896191941 0.0267550137536
0.00688492993856 0.0267151071043 0.0268337552332
0.0169540766038 0.0230633166189 0.0270308136077
0.0180199165896 0.0219799750527 0.0298490903547
0.0217599020808 0.0172858445931 0.0304002145134
0.0202119780338 0.0182840507855 0.0308043976254
0.0191273071452 0.0200608308261 0.0305499162416
0.0213765606306 0.0188984570478 0.0291577469701
0.00400938580589 0.0284785259417 0.0294509381679
0.00760272716159 0.0275535168587 0.0297286095669
-0.01862699911 -0.0185932354955 0.0295193962418
-0.0205224026862 -0.00794848668687 0.0265560001135
-0.0191281738479 -0.0114418260807 0.0265560001135
-0.0282386717176 -0.00500798843285 0.0279737810329
-0.025763032887 -0.00400499999523 0.0288631412651
-0.0241718519992 -0.0119021983139 0.0265560001135
-0.0240060037303 -0.00943793936703 0.0265560001135
-0.0205049372792 -0.0181102175613 0.0265560001135
-0.021229045652 -0.0130998883265 0.0265560001135
-0.0249358826887 -0.00644230898064 0.0265560001135
-0.0219654762564 -0.0153037493465 0.0265560001135
-0.0258510783733 -0.00947256456136 0.0265560001135
-0.0271757924752 -0.00624788559654 0.026675201442
-0.0198366678807 -0.0201099754487 0.026642263444
-0.0228495555254 -0.017378271928 0.026843049413
-0.0271722358655 -0.00953241246877 0.0291642518105
-0.0276168220703 -0.00795559917679 0.0280233228774
-0.0259918153035 -0.0121237206732 0.0271872487354
-0.0243775888644 -0.0152518536788 0.0281224042965
-0.0252980587857 -0.0135938993137 0.0288411972073
-0.0211522928839 -0.0182804284694 0.0302592950292
-0.0226890250077 -0.0173196290713 0.0298530142321
-0.0217495292486 -0.0191574510062 0.0281330862308
-0.0263730431501 -0.0115925124061 0.0296376270741
-0.0226063694692 -0.0142302369619 0.0308110396142
-0.0195995462424 -0.014959142257 0.0306440211929
-0.0214489592629 -0.0160111280279 0.0307467495609
-0.0240936623927 -0.0131317626978 0.0306546939298
-0.0206551162557 -0.0114832071736 0.0305877297265
-0.0224098227623 -0.00760384302078 0.0304902228028
-0.0239223962472 -0.0108476583824 0.0308798168288
-0.0222305951727 -0.00970500173999 0.0307724202055
-0.0249442978361 -0.00689408482838 0.0309183234235
-0.0254394264581 -0.00428652591573 0.0309260003269
-0.0269114304384 -0.00788231779578 0.0302208107327
-0.0276941344652 -0.00581799897104 0.0302033498832
-0.0253236532115 -0.00891473027655 0.0309114194548
-0.0207109555599 -0.00837354510125 0.0295598405984
-0.0214474511836 -0.00589688799765 0.0292051220522
-0.0216039516048 -0.00422992610456 0.0268425284613
-0.0188203619407 -0.0127535063094 0.0293684669551
-0.0201168950228 -0.0208115964858 0.0286014482784
-0.0263310742554 0.00208110278834 0.0267368253663
-0.0274362643991 0.00433871993229 0.0268372974
-0.0276298420537 -0.00177879759614 0.0268548954041
-0.0242065945459 0.00607800018042 0.0271663119782
-0.0237524389506 -0.00400400022045 0.029295450608
-0.027781628393 -0.00304175097669 0.0298654038424
-0.0276282182397 -0.000432552608781 0.0304583909704
-0.0214050837906 0.00459090060894 0.027321952604
-0.0226768156661 0.00498541343974 0.030100151148
-0.021917310157 0.00338842883163 0.0289786577838
-0.0216335250675 0.00148399550981 0.0276907493774
-0.0219072867303 -0.000600128308854 0.0283703606859
-0.0221351734972 -0.00270688180791 0.0286664272209
-0.0234950778337 -0.00150154689276 0.0303820643279
-0.0228171448712 0.00116450139597 0.0300527148042
-0.0284193014897 0.00167867624585 0.027550163322
-0.0287110004574 -0.00137052620374 0.0287110231709
-0.0287110004574 0.00413567639175 0.028617664946
-0.0285022836998 0.00265026180546 0.0298220956666
-0.0246565922441 0.00593751735009 0.0308946751428
-0.0260620298097 0.00453397219159 0.0307748410597
-0.0234698600664 0.00303651643302 0.0306321614735
-0.0254157572732 0.000667921719734 0.0309025243701
-0.0259003006418 -0.00164379679561 0.0308957092206
-0.0229031622777 0.0036508209149 0.0265560001135
-0.025010699008 0.00397051798786 0.026635302667
-0.0254345233101 -0.00344876371598 0.0267371034311
-0.0252001354992 0.000606716428152 0.0266489734877
-0.00300953568591 -0.0285185319921 0.0292958982317
-0.00518099788805 -0.0282083467363 0.0280842631952
-0.00752405300511 -0.0247404555954 0.0265560001135
-0.00638131363283 -0.0228448150068 0.0265560001135
-0.0146552030739 -0.0217207219595 0.0265560001135
-0.0053424038259 -0.0209902590215 0.0267387388993
-0.00245308030182 -0.0239531408621 0.0265560001135
-0.00123929380646 -0.0259769323687 0.0265560001135
-0.000474000000395 -0.0255522292781 0.0285431889247
-0.00900220241616 -0.0260969769341 0.030589999631
-0.0175958372459 -0.0203901502455 0.030589999631
-0.00659594529081 -0.0233094576661 0.030589999631
-0.0140456970625 -0.0223866053427 0.030589999631
-0.01010349306 -0.0244173285371 0.030589999631
-0.0112172394302 -0.0224997325338 0.030589999631
-0.00906226646723 -0.0226976283836 0.030589999631
-0.0163561835037 -0.0218659768937 0.0304968707153
-0.0130488360744 -0.0240025803772 0.0304931746097
-0.00684997620005 -0.0207732569057 0.0283802201763
-0.00360538809023 -0.0215500131638 0.0286298632167
-0.00863597578327 -0.0202265734533 0.0277061216623
-0.000474000000395 -0.0282939610312 0.0274503839383
-0.00966949847874 -0.024268286201 0.0265560001135
-0.00354490058501 -0.0270160879849 0.0265560001135
-0.0129463564348 -0.0232118094338 0.0265560001135
-0.018341102367 -0.0215584846036 0.0272125002621
-0.00688368380085 -0.0275369303587 0.0268389564325
-0.0110633635153 -0.0261491651649 0.0267807300462
-0.00949370676808 -0.0271288822027 0.0278696755941
-0.0134698999464 -0.025259929799 0.0272945267527
-0.0164140446334 -0.0234016831738 0.0268669955516
-0.0175924778363 -0.0227967219919 0.0288287411793
-0.00175489530115 -0.0221590037849 0.0287978286628
-0.00889745185978 -0.0207180839585 0.0297626545944
-0.0132950359858 -0.0202773639536 0.030589999631
-0.00326359040673 -0.0234145702895 0.0305426305524
-0.00495007957651 -0.0223437376643 0.0303780035816
-0.0111910730468 -0.0203031201719 0.0300937195463
-0.00651068806958 -0.0264784520218 0.030589999631
-0.00351569629973 -0.0253893323902 0.030589999631
-0.00134746453277 -0.0248973053579 0.030589999631
-0.00176373299492 -0.0272261161981 0.030589999631
-0.00460700903582 -0.027103077098 0.0305164397945
-0.0111881840286 -0.0260022132525 0.0299759505315
-0.0134154241539 -0.0255603191601 0.0292973961854
-0.0155278546882 -0.0243583120828 0.029285534278
-0.00763779387853 -0.0277100970995 0.0291599036527
-0.0186260007322 -0.0182329718585 0.0270046932125
-0.0137242116152 -0.0201409999281 0.0284854221489
-0.0163329143803 -0.0201409999281 0.0285944520265
-0.0145427694695 -0.0155802826467 0.0269809165978
-0.0128796541322 -0.0169868900437 0.027061633421
-0.0179492151486 -0.0170216651665 0.030589999631
-0.0163482175061 -0.0185339089859 0.030589999631
-0.010879019364 -0.0201409999281 0.0280006008048
-0.0186260007322 -0.0164280434954 0.0285812443535
-0.0174434342527 -0.0149530234867 0.029801130398
-0.0153617529946 -0.0165905487889 0.029732679318
-0.0115315594176 -0.0184291392805 0.0280547177819
-0.0162955526688 -0.0143052752188 0.0282375119033
-0.0137782829014 -0.016789925311 0.0287850005999
-0.0133095573458 -0.0190597937421 0.0266218118176
-0.0157060153616 -0.0199707139273 0.0267794365595
-0.0185382344202 -0.013938228476 0.0279102098782
0.0173419993371 -0.0213925914265 0.0302522410459
0.0113410137539 -0.023119411609 0.030589999631
-0.000474000000395 -0.02334807484 0.0296070183091
0.00142150193442 -0.0267280453319 0.0265560001135
0.00375770566144 -0.0272142651957 0.0265560001135
0.00650043684697 -0.0265956630199 0.0265560001135
0.00282330713481 -0.0253907894495 0.0265560001135
0.00694653005514 -0.0222804120281 0.0265560001135
0.00589722216623 -0.0244182641558 0.0265560001135
0.000858115465937 -0.0219159286345 0.0276027112755
0.0019258739728 -0.0235547956233 0.0265560001135
-0.000138553524815 -0.024115674692 0.0265560001135
0.00407362823285 -0.023134294 0.0265560001135
0.0144521758077 -0.0213828586485 0.030589999631
0.00386919315877 -0.0255946422326 0.030589999631
0.0128580985236 -0.0232659386109 0.0265815033303
0.00843535548363 -0.0209766331458 0.0265939020579
0.00854706645378 -0.0252142947979 0.0265560001135
0.0109575009545 -0.0233040752059 0.0265560001135
0.00885842034515 -0.0229886953788 0.0265560001135
0.0157828242223 -0.0234016985942 0.0270309407871
0.013937327013 -0.0251788365336 0.0277301699481
0.0063842922401 -0.0279386246728 0.0286932344281
0.00971490864497 -0.0267308398384 0.027072163421
0.0115033014365 -0.0263195997709 0.0278713375779
0.00986064049004 -0.0269130415104 0.0292524145832
0.00472502512602 -0.0275847276036 0.030124549104
0.00288905879706 -0.0286756065895 0.0283953839292
0.00123387401697 -0.0285461571344 0.0294320353647
0.00865639151034 -0.024478296929 0.030589999631
0.00232279004355 -0.0273589236519 0.0304937455364
0.006481917611 -0.02654574425 0.0304841421436
0.0162040469366 -0.0231761156597 0.0301342227305
0.0121792392371 -0.0256567930024 0.0295760777303
0.0144904373833 -0.0242527295811 0.030115572229
0.00662394674551 -0.0210758628525 0.0285985490857
0.00496451099973 -0.0219420492351 0.0298543655638
0.00242673043236 -0.0222420283 0.0293983921105
0.0098258194231 -0.021008103114 0.030057310752
0.000415952685742 -0.0267334369591 0.030589999631
0.00635087412084 -0.0231845417535 0.030589999631
0.00849262101116 -0.0224480391469 0.030589999631
0.0010765380595 -0.0241903464738 0.030589999631
0.0125233290355 -0.0171954690576 0.0276309842962
0.0153458221476 -0.0208119992167 0.0272704287975
0.0135927418355 -0.0208119992167 0.0285940694871
0.0158622281388 -0.0182547287891 0.0267179133196
0.0172239577792 -0.0205053427154 0.0268741307164
0.0110653939844 -0.020603593347 0.0266583129214
0.00988580727729 -0.0191763848336 0.0281422281961
0.0145758647541 -0.0158796009186 0.0284028128459
0.0137280137213 -0.0173214763305 0.0294603596199
0.0134116718379 -0.0195856700051 0.0304107982086
0.0115586775104 -0.0196680028348 0.0297789868989
0.0161903537669 -0.0181417203736 0.030589999631
0.0235893028135 -0.0123161931389 0.030589999631
0.0251351233826 -0.00905124501491 0.030589999631
0.0252965428298 -0.0110782121933 0.030589999631
0.0173419993371 -0.022201935134 0.0283235920875
0.0173419993371 -0.0182021106411 0.0288664664212
0.0251969927928 -0.0124920100867 0.0267679895607
0.0258503296991 -0.00803163845004 0.0267595798611
0.0230001630083 -0.012047109839 0.0265960081111
0.0243911186929 -0.00960539082628 0.026678315776
0.0243480950255 -0.00677065570499 0.0266907441945
0.0230080212817 -0.00546344137969 0.0266302773489
0.0204444396945 -0.00747396538784 0.0265560001135
0.0224456179899 -0.0155075673834 0.0265560001135
0.0197886384828 -0.010688104081 0.0301901218525
0.0190884679124 -0.0134816365501 0.030589999631
0.0258231414397 -0.00441824574971 0.030589999631
0.0220586168684 -0.00744272976405 0.030589999631
0.0237703524586 -0.00499903241067 0.030589999631
0.0241821650023 -0.00701492854507 0.030589999631
0.0180208993159 -0.0191444273916 0.030589999631
0.0210700671558 -0.0139978008778 0.030589999631
0.0190494328665 -0.0161982286238 0.030589999631
0.0216379273352 -0.011593413415 0.030589999631
0.0228618598419 -0.0168973559467 0.0298519879811
0.0248081830076 -0.0143449487043 0.0280041352935
0.0229340668407 -0.0170913229965 0.0277444357303
0.0207066141189 -0.0197166118675 0.0294020420348
0.0177923952778 -0.0122033163142 0.0270276929408
0.0174292520627 -0.0134598597514 0.0285693427351
0.0173419993371 -0.0155500213023 0.0296328499041
0.0189142024079 -0.0102837265223 0.0285648923381
0.0209735023313 -0.00536859513018 0.0274682212256
0.020041436485 -0.00787939714233 0.0284627882348
0.0210880797983 -0.00613566604524 0.0292188366568
0.0212019152722 -0.0175380612962 0.0266135753696
0.0185326147819 -0.0189019974136 0.0267373363832
0.018329074798 -0.0156512234684 0.026623330816
0.0191624664301 -0.021407553898 0.0275621025932
0.0203884951795 -0.0199306712981 0.0272196694536
0.0266079393818 -0.0102109510344 0.0270709609162
0.02793916402 -0.00607683751184 0.0279189001152
0.0275375908842 -0.00783227458609 0.0286843197515
0.0261081216135 -0.0120070119844 0.028429031427
0.0266807939117 -0.00674786117565 0.0305632439151
0.0238983598746 -0.0153099354424 0.0296524944262
0.0249035694157 -0.0133826608353 0.0297029410299
0.0209961255104 -0.0177726691222 0.0305186426919
0.028468104677 0.00268610571615 0.0290167637586
0.0211938535952 0.00351475151205 0.0266576791233
0.0236400385417 -0.00400400022045 0.0279842809832
0.0254314136524 -0.00400400022045 0.0287429383691
0.0256367218833 -0.000594555773043 0.030589999631
0.0240454089385 0.004686320719 0.030589999631
0.0251746921648 0.00249628219071 0.030589999631
0.0241325765791 -0.00274311148734 0.030589999631
0.0272778867853 0.000826176501981 0.030589999631
0.0274307223702 -0.00299704799679 0.030589999631
0.0215505968212 -0.000955094380154 0.0273617796443
0.0214160155564 0.00160459123245 0.0280523741787
0.0282192964273 -0.00100456274086 0.0298580158596
0.02839892542 -0.00363758760266 0.0279634541189
0.0233661407874 -0.000374361631051 0.0304443339378
0.023301089239 0.00276854362715 0.0304683596838
0.0215849389467 0.00455798556015 0.029094407447
0.0221078207207 -0.00390975063334 0.0292977177135
0.0219905375645 -0.00355199314232 0.0265666731515
0.0244511985407 0.00285520479024 0.0266401957722
0.0234424114906 -0.00126198472561 0.0266231624072
0.0253225229999 -0.00363441520574 0.026743259584
0.0267017506359 0.00278346733807 0.0267929918019
0.0250015426577 0.00556144940125 0.0266712131766
0.0266946857335 0.000107515975412 0.0267924857732
0.0273237295655 -0.00205425982419 0.0268375414923
0.0260226278811 0.00475887368648 0.030589999631
0.0277832920293 0.00493818843757 0.0299410922699
0.0283209644121 0.00441590792846 0.0274373896487
0.0286822399282 -9.24573469179e-05 0.0277252833759
-0.0199280500896 0.00407412018426 -0.0271090173304
-0.0164783377741 -0.00270286953287 -0.0255479998887
-0.0149907799724 -0.00951303170178 -0.0255479998887
-0.0187705786002 0.000704020197126 -0.0255479998887
-0.0180444892554 -0.00104376741023 -0.030589999631
-0.0165169040897 -0.00604055165991 -0.030589999631
-0.0185423951108 0.00174439658383 -0.030589999631
-0.014470997481 -0.0137260766397 -0.0273743515043
-0.0174058935796 -0.010122197234 -0.0272503528188
-0.0186074077252 -0.00800115120662 -0.0263149782528
-0.017172355075 -0.00808204413093 -0.0305346805835
-0.0182631689491 -0.0047661840526 -0.0305408597484
-0.0146940658366 -0.0106873542486 -0.030589999631
-0.0158715800703 -0.0123039860594 -0.0282229647096
-0.0146064747963 -0.013704598281 -0.0292639303717
-0.0173824176884 -0.00994617151106 -0.0293276394466
-0.0195151254459 -0.00526335800404 -0.0274717475266
-0.0199913159166 -0.00335434500289 -0.0285235604575
-0.0188620913382 -0.00740953564964 -0.0284649438842
-0.0202468585692 0.00121538190065 -0.0299469144044
-0.0201481445374 0.00182345650822 -0.0267835318284
-0.020289271576 -0.00117131212297 -0.0266665759518
-0.0200998870319 -0.00181064825023 -0.0296455403937
-0.0202798587081 -0.000297185479106 -0.0283796184002
-0.0171360615836 0.00434145377527 -0.0270913399197
-0.0164579689723 0.000951663146805 -0.0267791633284
-0.0169412160999 0.00336741957487 -0.0295013194664
-0.0159960363082 -0.0013575420997 -0.0285189705432
-0.0156326396394 -0.00326630883373 -0.0291623785333
-0.0148048236389 -0.00824273946651 -0.0301727468864
-0.0164771280286 0.00091187166849 -0.0297076777102
-0.0149992053221 -0.0063655815869 -0.0286924944258
-0.0153826957276 -0.00446780128983 -0.0268807829991
-0.0149206317943 -0.00694443710635 -0.025953055606
-0.0161389407459 -0.000736404841527 -0.0258152072426
-0.0144649802193 -0.00908606564337 -0.0274504849839
-0.0185068889292 0.00507100019604 -0.0291190736152
-0.0196579788269 0.00398585416789 -0.0301439094984
-0.00658981742669 -0.0227048769733 -0.0203631496724
-0.00724436479408 -0.0226700424166 -0.0123587847171
-0.00731242542851 -0.0225784385314 -0.0158931331191
0.000533999991603 -0.0222484524107 -0.00416881937562
-0.00162129100667 -0.0218007124476 0.0264637717308
-0.00899698081061 -0.0203481791619 0.0257187558835
-0.00894823956711 -0.0201409999281 0.023463108783
-0.0109014805656 -0.0201409999281 0.0163304754258
-0.0101891974358 -0.0201409999281 0.00889641120682
0.000533999991603 -0.0238840104078 0.0145374979278
-0.00131113735063 -0.0215853746048 -0.021465635241
-0.00749539100698 -0.0201409999281 -0.00804844023226
-0.00589115410771 -0.0201409999281 -0.0162277440907
-0.00891465791568 -0.0201409999281 0.0125566910539
-0.00860696074933 -0.0201409999281 -0.010583452877
-0.00916289967855 -0.0201409999281 -0.00141786236883
-0.00831472798295 -0.0201409999281 -0.0182919247715
-0.00752643910737 -0.0201409999281 0.00825994909591
-0.0108920425551 -0.0201409999281 -0.0172541264794
-0.00757056911703 -0.0201409999281 -0.0208542342097
-0.00941871422157 -0.0201409999281 -0.00346547193608
-0.0066447663134 -0.0201409999281 -0.0135564465152
-0.00717181209058 -0.0201409999281 0.000477035077914
-0.00941881962674 -0.0201409999281 0.00214239852887
-0.00955031269914 -0.0201409999281 0.00443740798458
-0.00611136596084 -0.0201409999281 -0.019222961479
-0.00722714845178 -0.0201409999281 -0.00219220645328
-0.0020789427733 -0.0213748107776 0.0221178563277
-0.0038787783864 -0.0210419836346 0.0231955541841
-0.000133978208995 -0.0217439924148 0.0211436858357
-0.00659584149196 -0.0205278550579 0.02458862293
-0.000626654233024 -0.0217482773734 0.0233473565714
-0.00345666490143 -0.0212703078241 0.0259494702483
-0.0119666412138 -0.020185816827 -0.0116536048789
-0.0109632455802 -0.0211046175892 -0.0134873363624
-0.011081947852 -0.0209206430219 -0.0192435863167
-0.00995303124283 -0.0220608734881 0.00766075802628
-0.010098788492 -0.0211771407815 -0.021342281078
-0.0126497450842 -0.0204634407835 0.00923157488606
-0.0129052071453 -0.0206246277198 0.0206593241215
-0.0103130707771 -0.0219635129703 0.0112469274504
-0.0100637062303 -0.0223892750514 0.0251922219686
-0.0114835306119 -0.0209266666939 -0.00979091361255
-0.0123078874593 -0.021105547516 0.0173874721247
-0.0109804127476 -0.0212233140491 -0.00763231354901
-0.011966120265 -0.0211462377904 0.0114250036672
-0.011281492495 -0.0213392087931 0.00462964841194
-0.0110217942092 -0.021658473528 0.0134184234292
-0.0116233253352 -0.0214831636644 0.0191228902904
-0.0114330752347 -0.0212033482168 0.00183203642562
-0.0112052014425 -0.021231474451 -0.00209744355157
-0.0115530910749 -0.0212516153755 0.00681546850453
-0.00882809281474 -0.0226877102869 0.0158487940655
-0.0097655364483 -0.0219789254605 0.000260248339861
-0.00955877359899 -0.022521352325 0.0213356199853
-0.0090806881369 -0.0223266528113 0.00387932918464
-0.00893961583435 -0.0227208204293 0.0193586130663
-0.00964429594302 -0.0225284238025 0.023190316034
-0.00945242948181 -0.0222214260022 0.00573022163907
-0.00785077952068 -0.0225039865703 -0.00980046699382
-0.00894575461635 -0.0218554876311 -0.0199223017996
-0.00810559897777 -0.0227806762052 0.00727372513213
-0.00781456477322 -0.0226400794877 -0.00425643804472
-0.00871843043125 -0.0225941345934 0.0096244479579
-0.00953839869928 -0.0216905194843 -0.0169479662311
-0.00914652303933 -0.022052299402 -0.00743254187487
-0.0095223262521 -0.0218186528699 -0.0114097520907
-0.00940839030471 -0.0217861028915 -0.0149016683548
-0.00875839971352 -0.022408768509 0.0019078604676
-0.0118475600314 -0.0214741995454 0.0257401649914
-0.00303332054009 -0.0205548395714 -0.0205500447971
-0.00290220306416 -0.0208639246588 0.0042025173669
-0.00152731612466 -0.0211568978057 0.00549183979003
-0.00114686388298 -0.0214118248425 0.0153998970433
-0.00137685782061 -0.0214301882783 0.0188855057276
-0.0010744999992 -0.0212924837488 0.00806430816029
-0.0022297085105 -0.0208677871755 -0.00282726405931
-0.00240138708148 -0.021055932092 0.00935774535994
-0.00106645623881 -0.0213765056506 0.0125936488452
-0.00454299723686 -0.0206904725557 0.0123429050909
-0.00637593050034 -0.0204397171782 0.018305548606
-0.00149332043994 -0.0209674249458 -0.00528344021198
-0.00496815278701 -0.020683200029 0.0165217972707
-0.00592621997063 -0.0205655905871 0.0203778771829
-0.00020188587332 -0.0213451437384 0.0015602898667
0.000327994610816 -0.0212255119462 -0.0107181873352
-0.00583864427645 -0.0206255650725 0.0227296444599
-0.002851744251 -0.0211158062228 0.0174969064308
-0.00347686393753 -0.0207902306513 0.00634236933031
-0.0060539907842 -0.0204258010298 0.0140741149031
-0.000730996322184 -0.0211830700135 -0.00164575343615
-0.0039664047186 -0.0209406168336 0.0198760078917
0.000239102444497 -0.0214751850706 0.0039555222015
-0.00274227095515 -0.0208013768085 -0.000955993641975
-0.00496713610625 -0.0235889020486 0.00700712492844
-0.00511206803226 -0.023885714823 0.0252914096869
-0.00396003175753 -0.0239180989988 0.0158483887793
-0.00476722974535 -0.0235335324273 0.0019031495512
-0.00362756347293 -0.0240482677593 0.0199883353291
-0.00514572554281 -0.0238212639758 0.0219589737631
-0.00459475060357 -0.0235228141318 -0.000395127216587
-0.00160583758465 -0.0241739992052 0.0194726326287
-0.00371642764436 -0.0236343497872 -0.00264807098639
-0.00399628820797 -0.0232863649991 -0.0196769750853
-0.0033868948605 -0.0239634759072 0.0128253290507
-0.00372785655184 -0.0233651528026 -0.0178223027284
-0.00411857504054 -0.0234361497439 -0.0099786201279
-0.0035402940532 -0.0237963379435 0.00483150797097
-0.0032696293083 -0.0240674601597 0.0180509959951
-0.00307377022668 -0.0241538676224 0.0221052783562
-0.00284337997374 -0.0235504495119 -0.0158029853084
-0.00335712231907 -0.0241574838839 0.0240254641715
-0.00273927832969 -0.0236952816116 -0.00766132654218
-0.00246570318286 -0.0237610706972 -0.00532169692168
-0.00291567494229 -0.0236039544243 -0.0121302562661
-0.00238614805108 -0.0238789993382 0.00133887397697
-0.00291835347386 -0.023921901965 0.00713122445714
0.000493745946137 -0.0239524047597 0.00980972825188
-0.000336159679262 -0.0241739992052 0.0215702807823
-0.000870088161479 -0.0241739992052 0.0174487128917
-0.00184192341731 -0.0235090640109 -0.0193460843749
-0.00144974759229 -0.0236149736815 -0.0142320702501
-0.000262167202885 -0.0240584788237 0.00759266334929
-0.00120243042591 -0.0238733089411 -0.00111932236705
-0.00041031405263 -0.0235031766197 -0.0209389970001
-0.000809109103536 -0.0238279768343 -0.0038135355127
-0.00110809339752 -0.023725418248 -0.00883847294852
-0.0010608042695 -0.0236890679218 -0.0107574781952
-0.000297456622016 -0.0239271682031 0.000846100465369
-0.000867329687663 -0.0235706053569 -0.017046792368
-0.00137147550537 -0.0240888734864 0.010604702955
-0.00120757301109 -0.0239884338103 0.00499041457912
-0.00155317489868 -0.0241478749757 0.0140221791101
-0.00782575377373 -0.0201409999281 0.0155643866268
-0.00705712273231 -0.0201409999281 0.00546471885937
-0.00349936127869 -0.0205750429783 -0.00776956718135
-0.00379313577893 -0.0206532904749 0.00192198398482
-0.00667850808838 -0.0201645776254 0.00276324158197
-0.00343660794499 -0.0206128977279 -0.0057447642466
-0.00521719711555 -0.0205087930948 0.00959414074862
-0.00798190671054 -0.0201698042152 0.0201022274108
-0.00477756199025 -0.0204397027455 -0.0013067113856
-0.00405053759735 -0.0205307725673 -0.00392535029754
-0.00685822017127 -0.0202541301292 0.0118201126963
-0.00236873893354 -0.0207465271709 -0.00960127274485
-0.00505896485031 -0.0204582219475 0.00374181427238
-0.00431710719471 -0.0203897806147 -0.0146261337528
-0.00122334516909 -0.0208593532014 -0.0181142439258
-0.0048658410325 -0.0203226015357 -0.0119299561309
-0.00136518067742 -0.0208689696991 -0.0139375417
-0.00310724596313 -0.020554343718 -0.0184497526491
-0.00146155264919 -0.0208385789166 -0.0158619421908
-0.00533916414719 -0.0202659881309 -0.00943232361157
-0.00598175227957 -0.0202039901086 -0.0041248556604
-0.00302876333698 -0.0206150485664 -0.0122452850727
-0.00540559982479 -0.0202707416218 -0.00744382758799
-0.00538472399396 -0.0237099376733 0.0180832676166
-0.00589376479878 -0.0230649055396 -0.0108508004286
-0.00599443848628 -0.0229175971032 -0.0176399459064
-0.0058512061492 -0.0232166896315 -0.00314317728978
-0.00594444339878 -0.0231358625816 -0.00642594302232
-0.00548073312667 -0.0235779172486 0.012066049786
-0.00493077595057 -0.0232364225022 -0.0127926499126
-0.005370402554 -0.0230908263651 -0.0155430625327
-0.00521569563536 -0.0235979825618 0.0100648240616
-0.00743790401331 -0.0230795850448 0.0110928082959
-0.007082781953 -0.0232201927303 0.0139710418151
-0.00678743302828 -0.0230265818495 -0.000881733651566
-0.00773386956924 -0.0231286950017 0.0179292609018
-0.00767387196827 -0.0232018431233 0.0211585607257
-0.00660624435662 -0.0232362507927 0.00824668290099
-0.00621636303938 -0.0230301860443 -0.00861018783563
-0.00763833635532 -0.0232819104141 0.0251117428436
-0.00624224723627 -0.0232642947991 0.00475045340907
-0.00694608755264 -0.0234203643069 0.0231897694179
-0.0199128823203 -0.0082429644896 -0.0218499992043
-0.0167917985294 -0.013753999956 -0.0125755912526
-0.0178007907397 -0.013753999956 0.00926791632978
-0.0170902686657 -0.013753999956 0.00030117699922
-0.0224041233517 -0.00535000022501 0.0109078742732
-0.0229703897904 -0.00535000022501 0.0259602719395
-0.0214533762391 -0.00535000022501 0.00702537133981
-0.0214970525702 -0.00535000022501 0.00488157168068
-0.0203668735884 -0.00583635850334 -0.0201789246396
-0.0198877785992 -0.00669813760152 -0.0176750522119
-0.0184548559218 -0.00982111773313 -0.02020588432
-0.0194459009677 -0.00771808738989 -0.0195006576964
-0.0208634792161 -0.00544768775154 0.00284738442041
-0.0206884050092 -0.00552597799 -0.00250274415474
-0.0198035254324 -0.00807675018735 0.0162956880668
-0.0192118174699 -0.00970887732175 0.0256381403029
-0.0197470781996 -0.00755500151324 0.00131733035151
-0.019452453049 -0.00898054781445 0.0203260131402
-0.018334492744 -0.0110513433398 0.0142494767022
-0.019109619524 -0.00910742419183 0.00655881881261
-0.0204887239807 -0.00670974772295 0.0177287348437
-0.0204718981705 -0.00695810211762 0.0227250242125
-0.0194961012514 -0.00903076729849 0.0236336176557
-0.0199963902127 -0.00758282294843 0.014142080627
-0.019132773733 -0.00923308715521 0.0106330781976
-0.020024680622 -0.00671745087555 -0.00474840048748
-0.0188432337866 -0.0100834947672 0.0164171236845
-0.0208200009041 -0.005774764276 0.0120013234882
-0.0201406682106 -0.00706515539625 0.00906002404231
-0.0180734518921 -0.0120527826721 0.0249630299416
-0.0192885967399 -0.00923115572565 0.0181961163211
-0.0205172448169 -0.00676368294732 0.0203847670978
-0.0198092854723 -0.0078732462988 0.011809743479
-0.0199265274579 -0.0073587116266 0.00548100400972
-0.0203496511384 -0.00573824546145 -0.011819654354
-0.020334924062 -0.00599322120375 -0.00656578269571
-0.0196916583275 -0.00776460104563 0.00352135576327
-0.0208379025902 -0.00630752899078 0.0253556959473
-0.01786151375 -0.012394687378 0.0226241443048
-0.0208431556588 -0.00584911174529 0.0148735167763
-0.0186827593894 -0.0106733619205 0.0223996817912
-0.0191136342349 -0.0093760249972 0.0130469595974
-0.0195375557062 -0.00783590565431 -0.00233257843252
-0.0231390078488 -0.00535000022501 0.0151103088036
-0.022314993575 -0.00535000022501 -0.019828139292
-0.017495562687 -0.0118214285218 -0.0183455660195
-0.0181291928203 -0.0104386513295 -0.016340086271
-0.0188528943158 -0.00885931052878 -0.0150765243323
-0.0173248848182 -0.0121939004922 -0.0110158312352
-0.0183138319248 -0.0100357116189 -0.0130800167587
-0.017210925808 -0.0124425943467 -0.0162278125227
-0.0181291079759 -0.0106616476681 -0.00603790498666
-0.0184736534168 -0.0100298510354 -0.00362600530628
-0.0195444955798 -0.00737378329176 -0.0132883787743
-0.01906827974 -0.0086799754788 -0.00589378895322
-0.0189951188778 -0.00917500646052 0.00253631078509
-0.0196890977808 -0.00717761371205 -0.0105666278175
-0.0176494650644 -0.0118537163458 -0.00165092897284
-0.0180623558424 -0.0115108605642 0.011504647595
-0.017852224852 -0.0117088569859 0.00539194277161
-0.0182331301687 -0.0102550931992 -0.0106572988935
-0.0175997651345 -0.0126714961543 0.0160069222974
-0.018033601365 -0.0111304707324 0.000571005925086
-0.0176353241963 -0.0117774815158 -0.00428150062844
-0.0184440316976 -0.0105660515349 0.0081073683392
-0.0190833832504 -0.00888655763323 1.71811246525e-05
-0.0186823122095 -0.00992017249919 0.00459795770427
-0.0196820758665 -0.00729369664043 -0.00805838852879
-0.0175762727931 -0.0128482564047 0.0191550227517
-0.0172853629496 -0.0123831294435 -0.00762534356861
-0.0181668075364 -0.010499949188 -0.00806778173504
-0.0173920437188 -0.0126087296209 0.00355904093254
-0.0220149866072 -0.00958165358528 -0.00912058437036
-0.0220837306096 -0.00969252606296 -0.00282582722337
-0.0213179205031 -0.0107840962601 -0.0175046318082
-0.021418295024 -0.0109977907932 -0.00707896159952
-0.0222189115564 -0.00959425749393 0.00201519728366
-0.0221534830995 -0.00940169750972 -0.00604999935136
-0.021587214108 -0.0101114228988 -0.0192256471046
-0.0218133710443 -0.00994255024543 -0.0112331590386
-0.0221693907629 -0.00961335071197 -0.000161070305085
-0.0220315657984 -0.0103771163254 0.0107161768123
-0.0221008209747 -0.00995377668618 0.00430784793741
-0.0227855703563 -0.00739390031693 -0.013176910112
-0.0228399708044 -0.00760917473753 -0.00558742259995
-0.0232828885861 -0.0071249240344 0.011489108105
-0.0229165394186 -0.00718758457644 -0.00938926687913
-0.0231621322742 -0.00654086042618 -0.00748074325627
-0.0229651077769 -0.00736424855122 -0.00292388910625
-0.0233934572387 -0.00688590586396 0.0133906760545
-0.0225089118196 -0.00790663286223 -0.0196404939645
-0.0229190252672 -0.00801206304402 0.00870490158977
-0.0235991511782 -0.006813598479 0.0244917965854
-0.0228734739436 -0.00777222047789 1.93832114838e-05
-0.0235008347208 -0.00699131322992 0.0223162028259
-0.0224448481702 -0.00998227739728 0.0247372424165
-0.0223521270925 -0.0100300118481 0.01982906036
-0.0223476707747 -0.00974099763697 0.0126513015056
-0.0228064265589 -0.00859247498052 0.01519431534
-0.0223684447363 -0.00943407388947 0.00669184899315
-0.0229478476786 -0.00844734760255 0.0209570173791
-0.0226352212262 -0.00916247660319 0.0176143246893
-0.0224103412611 -0.00833205411073 -0.0168374462798
-0.0228984636427 -0.00792057704421 0.00518411557468
-0.020047423403 -0.0127282072198 -0.0211627947813
-0.0198519778886 -0.0132240988241 -0.0189966384853
-0.0191938269591 -0.0137537459513 0.00539877533125
-0.0188832687742 -0.0137535621048 0.0213087481235
-0.0196706668787 -0.0137538792776 -0.0107420013337
-0.0198769414811 -0.0137364430696 -0.0023937812064
-0.0213613987678 -0.0113061849679 -0.00195936126321
-0.0218101491915 -0.0110392355265 0.0158096520859
-0.0212542876644 -0.0114154960928 -0.00492658402385
-0.0213029025692 -0.011696193621 0.00565000361702
-0.021446624856 -0.0118417308966 0.0177966760175
-0.0215932385783 -0.0111866456179 0.00773419310645
-0.0216457762302 -0.0116596094726 0.0239037912538
-0.0197068494335 -0.0136722414488 -0.0156923023351
-0.0209857710637 -0.0121555273646 0.00224653595656
-0.0209158938407 -0.0117623556366 -0.0130652511037
-0.0210401169246 -0.0124005561898 0.0123259723048
-0.020746280721 -0.0121603016906 -0.00951960256298
-0.0198412993198 -0.0135344046295 -0.0131557997006
-0.0203096392058 -0.0132092480621 0.000345650431329
-0.0209841698502 -0.0115702316283 -0.0154539451203
-0.0212339214103 -0.0123271534738 0.0197540303263
-0.0201406292052 -0.0132958948931 -0.00545064991311
-0.0201829200274 -0.0131443378888 -0.00791028336313
-0.0210153560793 -0.0125306969198 0.0150126167783
-0.0204220416021 -0.0131478890408 0.00417356940909
-0.0210188358371 -0.0127466538737 0.0220412023747
-0.0205266539406 -0.0130935192951 0.00784191265865
-0.0234323029772 -0.00594432630478 0.00369846942869
-0.0235892278061 -0.00646667960577 0.0188581787176
-0.0233344465757 -0.00606341560871 -0.00163599235388
-0.0230694051924 -0.00633363549803 -0.0165688011683
-0.0235387321092 -0.00659375743072 0.0167131753613
-0.0234837927848 -0.00589539460525 0.00720709340393
-0.0209438189339 -0.0107925835301 0.0265560001135
-0.022653072128 -0.0076707162079 0.0265560001135
-0.0237133443112 0.000404275830622 -0.0195883387012
-0.0236953084279 -0.00139590946779 -0.0204003802925
-0.0239392348229 0.000595880557952 -0.0106631354814
-0.0238157688278 0.00166388825154 -0.0154761000247
-0.023882344681 0.00111607370571 -0.0128792688594
-0.0237723007587 -0.00132549051124 -0.0173580367983
-0.0237011874184 0.00239011371037 -0.0199574818435
-0.0208771797089 -0.00535000022501 -0.00837263100804
-0.0213201858997 -0.00535000022501 0.00906440343628
-0.0214723427164 -0.00535000022501 -0.0147164152198
-0.0227567960426 0.00507100019604 -0.0063956710503
-0.023260876499 0.00507100019604 0.00247537958827
-0.0216118198255 0.00507100019604 -0.00115775722303
-0.0224656148863 0.00507100019604 -0.00907189288625
-0.0216477247177 0.00507100019604 0.00106774147724
-0.022203920942 0.00507100019604 -0.0138992646102
-0.0213418538387 -0.00383205546706 0.02398957863
-0.0215209399177 0.00328657308515 0.0243870436363
-0.0213941628346 0.00212165579947 0.0219812562187
-0.0213926228953 -0.000802619972954 0.0235477014748
-0.0214520731811 0.0012721930289 0.0238377371562
-0.0216944843811 0.00507100019604 0.0248602377441
-0.0235256143534 0.00411849567156 -0.0212758403188
-0.0237760526159 0.00493394632504 0.00795988715969
-0.0238042896769 0.00418562287652 -0.000436903602556
-0.0236662401829 0.00383983103768 -0.0151093288541
-0.0237267892153 0.0037103306264 -0.0125866520368
-0.0238539604442 0.00467745586093 0.00995524873084
-0.0240701194338 0.00359497196555 0.0142369040493
-0.0238199355354 0.00368371195309 -0.00530370346773
-0.0238438070844 0.00372500550269 -0.00285461840428
-0.0240990682746 0.00314845286478 0.0113727987557
-0.0240634514536 0.00423552793057 0.0212136807758
-0.0240994491847 0.00359654337875 0.0166683838388
-0.0238681065554 0.00423229126758 0.00510423187688
-0.0238179327018 0.00331795551867 -0.00976545214537
-0.0239762317194 0.00461742121097 0.0185244849825
-0.024260257383 0.00119995476732 0.0180161197206
-0.0242879886871 -0.00241338535573 0.0210920835051
-0.0243013504317 0.00138446649513 0.0222281208863
-0.0242023082279 -0.000448727583358 0.0121631307918
-0.0243216900267 5.2840308248e-05 0.0244018130527
-0.0242901122338 -0.000361103606416 0.0211821207013
-0.0240713106827 -0.00147574686783 -0.0012365851728
-0.024233528451 0.00140751160907 0.0152559621349
-0.0242793287926 0.00194338561976 0.0199298251544
-0.0243404027505 -0.00137798875163 0.0264144938759
-0.0243366694706 0.00224003307199 0.0258047459588
-0.0241730303062 -0.00123601214525 0.00920314354352
-0.0242261093246 -0.000490781112394 0.0146120263909
-0.0241305397505 -0.00102747719079 0.00482295078179
-0.0241508979443 0.000260261025208 0.0068349047956
-0.0242543566727 -0.0010095012925 0.0175476867655
-0.0225926408169 0.00012796420565 0.0265560001135
-0.0215064356175 -0.00163023708546 0.0255357516907
-0.0206439998001 -0.0035142639067 -0.0202849078094
-0.0206439998001 -0.00262057052683 -0.0154518183462
-0.0206439998001 6.83414435378e-05 -0.0193927044017
-0.0206439998001 -0.00434091608596 -0.0163710572229
-0.0206439998001 -0.00190369499335 -0.0180652571956
-0.0206439998001 0.00251519587227 -0.0186648968338
-0.0206439998001 -0.000691080105019 -0.0163209257416
-0.0206822910183 -0.00346970435143 -0.0120304655004
-0.0208023473527 0.00192652967117 -0.00729261425402
-0.0206988877694 0.00186620673623 -0.0141886518431
-0.0206789592219 -0.00172232289124 -0.0133246999242
-0.0207793265435 -0.000707863778882 -0.00722066745519
-0.0207423470972 0.00109330882263 -0.0108026587428
-0.0206610722209 0.00143178891978 -0.016456485133
-0.0206709489413 0.00393423923664 -0.0173283729725
-0.0207449113605 0.00317157617147 -0.0119045867663
-0.0208470784484 0.00270062758072 -0.00476954684426
-0.020816906841 0.000591662053245 -0.00549882086786
-0.0207223987271 -0.00116856580344 -0.0107531380493
-0.0208791481346 0.00257141219912 -0.00254130482982
-0.0208424729671 0.00441757703792 -0.00613048146121
-0.0207846749384 0.00391488414569 -0.00969553043993
-0.0212127247952 0.000981654449111 0.01587225988
-0.0212437061318 0.00354355785982 0.0159245777647
-0.02128192209 0.000330508787234 0.0194836371196
-0.0213054667784 0.00313956938939 0.0190506897834
-0.0211898590958 0.00287730824626 0.0137574707432
-0.0210620478466 0.00349531997076 0.00740765131636
-0.0213034500443 -0.00155429357762 0.0215295621929
-0.0212328152157 -0.000449531829362 0.0176018529674
-0.0210922815332 0.00294942521453 0.00912886213868
-0.0211624332921 0.00407758044935 0.0118095089492
-0.0211417312975 0.00190487852644 0.0120272224505
-0.0213015937951 0.00495780742267 0.0178715750012
-0.0208523989709 0.000236461473914 -0.00321355886676
-0.0210991437699 -0.00372966708012 0.011634071992
-0.020982975385 -0.00247219918257 0.00480136845056
-0.0212258698499 -0.00464235236838 0.0189690939454
-0.0209731548423 0.00258588968143 0.00294384583487
-0.0208818569109 -0.00520636200785 -0.00015651763703
-0.0207720095935 -0.00324460301555 -0.00681715943666
-0.021016937358 -0.00112289577893 0.00635513812367
-0.0211227375459 -0.000138404768187 0.0120275347137
-0.0212666775549 -0.00397592693072 0.0210828631581
-0.0211627127204 -0.00127288546596 0.0145601525623
-0.0208102105969 -0.00459821078475 -0.00432729102034
-0.0211395404137 -0.0037527364951 0.013903029945
-0.0209956996157 0.000579225746878 0.00472545958393
-0.0210511589357 0.000574400201739 0.0078335038376
-0.0208186849848 -0.00153440406496 -0.00464447382649
-0.0208899474907 0.000727183621062 -0.00123695255977
-0.020856069411 -0.00213453627747 -0.00239510301247
-0.0209322573525 -0.00134586491633 0.00166904794125
-0.0210660843008 -0.00132515700127 0.00916059877231
-0.0210088107301 0.00318305051616 0.00478691648083
-0.0210353994305 -0.00312023803641 0.00790563208101
-0.0209421349815 -0.00308210602387 0.00267115893397
-0.0211830270392 -0.00405691663855 0.0164177464425
-0.020925291922 0.00144952618953 0.000556314327284
-0.0207204009628 -0.00337873029771 -0.00967357481751
-0.0208769836472 -0.0033581826219 -0.000907220237301
-0.0236185894817 -0.00330586378402 -0.0183602949221
-0.0237317378143 -0.0043147205044 7.09204017198e-05
-0.0235128623504 -0.00379785426945 -0.0207027894362
-0.0237911699178 -0.00482609619125 0.00955983588161
-0.0237019563892 -0.00314405379988 -0.0141678990701
-0.0237700615677 -0.00457514497254 0.00547065043878
-0.0237957884626 -0.00371460050472 -0.00164287487442
-0.0234759708527 -0.00480913547089 -0.0128120896776
-0.0235485526749 -0.00394420642252 -0.0166716108056
-0.0236785425646 -0.00378401874202 -0.00917924335845
-0.0241872669839 -0.00293276110918 0.0183460440033
-0.0239688782286 -0.00342861231782 0.00779013071412
-0.0239370090719 -0.00405731855687 0.0119320224422
-0.024043865567 -0.00431793335778 0.0222367815486
-0.0242998051979 -0.00276368390477 0.024668494484
-0.0240012344661 -0.00269740739485 0.00263619865993
-0.0240860792256 -0.00340756538279 0.015958008008
-0.0238596632349 -0.00298626929119 -0.00453941739013
-0.0240005489644 -0.0014410310762 -0.00739557684682
-0.023870634097 -0.00212761527928 -0.0112801994461
-0.0240503373488 -0.00204855339661 0.000950441238307
-0.0241323366459 -0.00255180207451 0.0107790897973
-0.0242025466785 -0.00224619200256 0.0133938812516
-0.0225772422245 -0.00535000022501 0.00137198626296
-0.0230672212295 -0.00535000022501 -0.010672654344
-0.0229626570556 -0.00535000022501 -0.00495842544999
-0.0227397816268 -0.0052471642225 0.0234123940155
-0.0228735357671 -0.00527305216207 0.0207385246462
-0.0217046237242 -0.00251574433499 -0.0218499992043
-0.0210386478514 0.00322875222651 -0.0218499992043
-0.0240887421788 0.00112427884357 0.000482222529762
-0.0241815109657 0.0012143572813 0.00994738011968
-0.0240402686837 -8.69361361148e-05 -0.00446350636057
-0.0241313870482 0.000922596395199 0.00483325936812
-0.0242079671635 0.0016509859269 0.0126466940709
-0.024091908493 0.00276023986515 0.00772287517803
-0.0239612318171 0.00188365367452 -0.00602260636393
-0.0243173145618 0.00260331349232 0.0239273344852
-0.0239334665044 0.00180145711435 -0.00847522160683
-0.0237222668649 0.00321167333337 -0.0179778621157
-0.0240130792868 0.00158863253231 -0.00345967380362
-0.0240412930785 0.00239941426327 0.00230303181816
-0.02385092437 -0.000873404756896 -0.0142282382689
-0.0239780774986 -0.000868961595989 -0.00913944688896
0.0186878863228 -0.00707647705963 -0.0287402891353
0.0180261758463 -0.00847984614559 -0.025989076797
0.0189054399616 -2.20113407605e-08 -0.0255479998887
0.0167024574263 -0.000278906583013 -0.0255479998887
0.0196978164503 0.00303260432413 -0.0279848084416
0.0195956357855 0.000963949441715 -0.0302917242176
0.0197279296536 -0.00274170709807 -0.0278306006008
0.0197167397232 -0.00229380333112 -0.0298343001087
0.019896642733 -0.000393096781426 -0.0279567061528
0.0158319819113 -0.0119016528521 -0.0293427638215
0.0168934831738 -0.0070471599046 -0.0307049106739
0.018413660288 -0.000850613119005 -0.0308463212349
0.017786543035 0.00282880175945 -0.0305862080973
0.0163489983165 -0.00470250647762 -0.0306102775619
0.0154231538636 -0.00881637216452 -0.0305856078867
0.0165912659663 0.000640581690137 -0.0303840605823
0.015929656135 -0.00265760639791 -0.0291354824215
0.0154673232768 -0.00674176946667 -0.0262805535562
0.015677874922 -0.00514797456849 -0.0285800333385
0.015458129605 -0.00738727277619 -0.0283422788475
0.016378477058 0.00208412848508 -0.0289901460203
0.0165262870068 0.00367030811585 -0.0261424161953
0.0160929619514 -0.000553080250977 -0.0276289541151
0.0158363088439 -0.00305454130265 -0.0255503394285
0.0168927639243 -0.0105904813065 -0.0257349025865
0.0194369735726 -0.00497451859072 -0.0279405863233
0.0192704485325 -0.00496964650782 -0.0299654651692
0.0168408126961 -0.0105185081108 -0.030159915359
0.0177554365479 -0.00912563690336 -0.0280665605871
0.0198069232478 -0.00819197100234 -0.0245974452949
0.0177953427063 -0.0020853593109 -0.0255479998887
0.0170241666569 -0.00529899963508 -0.0255479998887
0.0177867821889 0.00188663507149 -0.0255479998887
0.016102671512 -0.000855536476476 -0.0223988385681
0.0157073254461 0.00126354959382 -0.0226062739642
0.0157948483482 -0.0110238283014 -0.0222071370642
0.0157128420685 0.00359727139951 -0.0226740115665
0.0159502561883 -0.00477559053276 -0.022337233871
0.0183637556841 -0.00168482724869 -0.0221859999001
0.0203424088722 0.00224107320297 -0.0221859999001
0.0169822727382 -0.00319708918631 -0.0221859999001
0.0210075918952 -0.00241431114929 -0.0221859999001
0.0177513188377 -0.0107936917145 -0.0221859999001
0.0191443658531 0.000277187758004 -0.0221859999001
0.0175028463832 -0.00798203008093 -0.0221859999001
0.0153259998187 -0.00843550673292 -0.0248628715049
