0.010495048207038315 -0.018081265372611732 0.00732636006321884
0.009923311134338987 -0.018968928666335476 0.019356212130330012
0.010941594317406796 -0.017869630991828468 0.015918371578668527
0.010233707284103423 -0.018100953662758597 -0.0015923875959042632
0.010933077047743179 -0.017525862831967977 0.002765640260251433
0.011656847658176232 -0.016708853561507312 -0.0010094570143755117
0.011108178451850536 -0.01764594347842012 0.013718377482644744
0.011853529801003229 -0.016713511995853234 0.006430010103573547
0.012914456946459242 -0.01554701528109626 0.002057886613703064
0.010371261870009734 -0.018131340801460706 0.004623734364755044
0.011083696433875136 -0.01719644040387741 -0.003972791045079353
0.012169436423809602 -0.016331862434581006 0.003846904173119224
0.010483679238624723 -0.017736730035229322 -0.005960364275331677
0.011387702105178858 -0.0170298605727948 0.0010363067838266606
0.010123373045410762 -0.017953563355731086 -0.01238464044788792
0.011572280968845968 -0.01656540556419009 -0.011678376534016478
0.01169114402030698 -0.01640638185554119 -0.01431666589101035
0.013371170753869394 -0.014876691924641272 -0.00872597312237325
0.01177727769650681 -0.01640740271536523 -0.009285103792613016
0.013590992619296761 -0.014755944071498491 -0.003252134258943889
0.012007102889623866 -0.01623449678441494 -0.006349113280992629
0.013218038612704418 -0.014980163361133595 -0.011383116202077936
0.009321692196669213 -0.021373250743455034 -0.015704290730246626
0.01086234398769199 -0.02084747209888947 -0.02098443112662836
0.017604339026310124 -0.013081706379249746 0.016489933881724105
0.01829779138423582 -0.013081317628492316 0.013426263776447175
0.016096189362855222 -0.013081999975390765 -0.016381996706466846
0.017685313218910887 -0.01308154323829663 0.001267236281660474
0.014608130704494971 -0.014082600755422857 -0.01868224205792419
0.01580589722059369 -0.013493659793838719 0.002855578591042819
0.01515341109808067 -0.013736305639852378 -0.0034144251238202306
0.01610022635485775 -0.013418931236048929 0.0076357948177675624
0.0157009067003199 -0.013281290450890187 -0.012284711647947632
0.014250472245624946 -0.014264985907607403 -0.0012488401140199573
0.01723212984156217 -0.013103352177514597 0.024434325721051652
0.01571181948514557 -0.013719148054606625 0.01265929922739171
0.014170907692910828 -0.014344505960017974 0.0007931444320600058
0.0161572812786758 -0.013252803603136395 3.897099742149017e-05
0.01629056384916057 -0.013090862394495199 -0.0049966905150821035
0.015588546964035936 -0.013389600489607231 -0.009625147682759438
0.01626088403535627 -0.013287319692871478 0.005140166367384307
0.014663885786977013 -0.013971662685026493 -0.0072375108289222745
0.013878665433029404 -0.014495473975530526 -0.005437737917811826
0.014709685487672375 -0.013940483492065612 -0.01463625204198727
0.011031316391744112 -0.021231436670781978 -0.0038231033466458687
0.011102667696456438 -0.02126321423553813 -0.00016268464683964323
0.011427742535709863 -0.021518001744844705 0.022410926110661665
0.011099846048098324 -0.021608228788748823 0.018253679349278778
0.011269953678817762 -0.020897177461684267 -0.015194907754841933
0.01071249630576373 -0.021763712826948146 0.01596368541454993
0.010835731091914661 -0.021652409646607387 0.013377651145489316
0.010671743561805247 -0.021658018579244577 0.00918039232603736
0.011196427447689334 -0.02127698674534479 0.003147239661670186
0.00953631193258276 -0.02212090322857368 0.010934185641869678
0.010690786481318437 -0.02134769670175901 -0.005688611029285319
0.010356470573972978 -0.021715412475594657 0.005215995031571866
0.010152662573092488 -0.02165942404722568 -0.0018402468593178532
0.01481946597930122 -0.01880419368912499 -0.0024227910025403036
0.01486778966493938 -0.018846258376887512 0.0011767363904797244
0.01524112791973912 -0.0184197858906006 -0.005125833340488316
0.014792328898211492 -0.01896385249364749 0.0038757292631415763
0.015299642142253708 -0.018187086712650496 -0.013642607572430958
0.014806748419169 -0.01863937502238068 -0.010349382732213088
0.015539794393883042 -0.018606474621131755 0.013794075414955111
0.01393325830166104 -0.01927440503647401 -0.012071402166103922
0.01577438353621103 -0.017942735276956445 -0.007057279367087733
0.016825016819226716 -0.01688451268267937 -0.008483302739794103
0.016880158999834218 -0.016608893892191088 -0.01854843391503465
0.016239781345763545 -0.017284489160507933 -0.016290558118912113
0.016008306606343982 -0.017868115079576603 -6.664468572412877e-05
0.01606297500670158 -0.01792201313957193 0.004805372202117504
0.014955365081456208 -0.0183539368153404 -0.017896796310863657
0.019746730507939778 -0.013960813738621208 0.014720053746615766
0.02006612047425695 -0.013457625223259882 0.019169006767190244
0.019370508813340785 -0.014393523666126406 0.008140053552104707
0.01955124089224783 -0.014477934795060717 0.021002432179417965
0.0194353679004034 -0.014209574226620857 0.004364921695302
0.019173911009016463 -0.015099358660895405 0.025389680239433436
0.019110828924995424 -0.014963974419780902 0.01675169453523464
0.019470486068813103 -0.014640890639038338 0.023114828609389515
0.018985252198656818 -0.014999128718191245 0.011488608525151
0.018206851088568312 -0.013081478241676638 0.003260236183445602
0.017650897411280574 -0.013081767237422496 -0.010822608313618818
0.017909427048746086 -0.013081621833698098 -0.0037370436666891126
0.016971620747769946 -0.013454790926980386 -0.022185999900102615
0.018098049637318328 -0.013081421932884694 0.0063866238350574886
0.017112271351994803 -0.012760432364972672 0.009535942977984473
0.018233532796366067 -0.012858446699530932 0.018398681815749173
0.02238752444610859 -0.006359000224620104 0.0178061181664697
0.0217382920570461 -0.006359000224620104 0.020309496326441717
0.022437118047594243 -0.006359000224620104 -0.01770795058200422
0.021006380685454393 -0.011305648003158204 0.026556000113487244
0.020406359874046792 -0.006359000224620104 -0.005786816462464943
0.020641846055378978 -0.006359000224620104 -0.014942486784558293
0.021188919009239592 -0.006359000224620103 0.004486748783505473
0.020190246792279317 -0.006359000224620104 -0.018130255713029234
0.020810730314243343 -0.006359000224620104 -0.012792478493632319
0.019001661971080625 -0.012971363968955677 0.009482397408907987
0.01758465542596843 -0.012866567062485804 -0.014956459537282463
0.01963930915829229 -0.01304498227813719 0.0006996034883363731
0.018166307202094494 -0.012911041769859126 -0.006014553953737861
0.020203137319320334 -0.013070980278724373 0.02216091341533409
0.019941230720956778 -0.013080805504556828 -0.004180717581894025
0.017759665260616744 -0.012886632111094516 -0.0172620686514584
0.019414107286364637 -0.013034595163648442 -0.007870063386385018
0.021620572452097326 -0.00923560145527817 -0.021586876160881223
0.020662944028650727 -0.011237311679112846 -0.02100792648690023
0.018741450389481818 -0.010572979779377087 0.02631754652896581
0.020296582079080742 -0.006359000224620104 0.012054448469472201
0.01916847763399911 -0.008594159092056693 0.014532416259371381
0.019135144686483942 -0.009064185050992268 0.019597172499893407
0.020029186261123818 -0.007175916273452543 0.01863860396744716
0.019727572559372537 -0.007618832749395743 0.016519244577081926
0.018629272793776266 -0.009187722497741623 0.008248681032576059
0.01820500444966277 -0.010414130900056247 0.012860539755420982
0.0181893880605739 -0.010273126656990459 0.010687770532496255
0.01886000142194514 -0.009453159024094625 0.017474155757009297
0.019138836849409094 -0.007351050764013474 -0.0018673304583917676
0.0202725547475967 -0.007092217202980273 0.023792836120500756
0.01882083305302101 -0.00862321338254155 0.006030774665291011
0.01786939150693634 -0.011344782858566379 0.016011804455750858
0.019324416533070574 -0.008847962149429732 0.02170385113381775
0.020153858479098043 -0.007158998261880434 0.021605680428971617
0.01886439032239718 -0.008088304226708847 0.0004102945541775184
0.018352698186174465 -0.010761212185515828 0.02099551330238154
0.01828436812377864 -0.010722100680227668 0.01876044515428955
0.019760568502531925 -0.006998462173808732 0.009553903498921108
0.019379354732070586 -0.0072096820032943555 0.00248845671203345
0.019610114111618133 -0.007024299080655826 0.006041447007620487
0.017674508773964044 -0.012772522478503735 0.02216279201605502
0.018248068723159858 -0.011265286689436979 0.023840884345936363
0.019279591095198233 -0.009112743593001675 0.02372286157705764
0.020396670417676968 -0.012856597848016139 0.012479914233814466
0.02071317026032904 -0.012704551834710339 0.024440990636583886
0.019805493920266166 -0.013031852740898804 -0.017725825127970624
0.020574937077741377 -0.01265259675068756 0.010657306881208979
0.020934121671769744 -0.011108752955846294 -0.015895178356381823
0.02167717739995563 -0.009311940235756275 -0.019306565642002012
0.020596224098077445 -0.011569543534865698 -0.018920122742206547
0.022239683738420057 -0.009309306540797993 0.008954058238623294
0.02187243708493678 -0.009820658693092364 0.0005698261268854829
0.02217107521086655 -0.00927661328941112 0.004600314501397319
0.021585129393134304 -0.009864219920436346 -0.01373891723422481
0.02167899396044457 -0.009794760193225857 -0.010264782296256231
0.021862341770733595 -0.0099483497208925 0.002809616702195133
0.02141401557818758 -0.011545203900122017 0.02296474699939901
0.021425000341200415 -0.010625246653003528 -0.003601835379430261
0.021811604104759977 -0.0103436371509919 0.010612482301830092
0.021432829694015762 -0.010687744218014269 -0.0012969863797221252
0.021580379859641025 -0.010866576371006154 0.012595447185683813
0.021878855691428563 -0.01043727597555947 0.01730320126565826
0.0219416412837804 -0.01042770940678598 0.02068128154038804
0.021424810405623825 -0.011263831466992271 0.015272794158860093
0.02134626223978697 -0.010625329378613149 -0.00819057873357518
0.02215837143766192 -0.010164243390042956 0.0255269121865495
0.02104690226886468 -0.011057155943569185 -0.012086859467183204
0.020969276820183215 -0.01142951562858682 -0.005544851193831356
0.02059683665211834 -0.01228469897624266 -0.0011355318786414876
0.02025053174243252 -0.012623848445267342 -0.010245143485674242
0.021017148755578384 -0.011751651740813971 0.0064037145496090575
0.020876488211156608 -0.012408631660844709 0.017743907168538867
0.020704703113807045 -0.012228082738328835 0.0031219077603042663
0.02029675566277667 -0.012406789694345157 -0.014005414393974989
0.020904816445052182 -0.01203549829409755 0.008484240110827128
0.022438106234893465 -0.009062153018240513 0.014491724614335334
0.022579412960754375 -0.008567944034371944 0.011705244684910123
0.02285591949292751 -0.008323153281941633 0.021644556176201257
0.02260542793380286 -0.008734517092114607 0.016680920976575024
0.02224461136722169 -0.008595215527424423 -0.006064767250565582
0.022989625152438575 -0.006359000224620105 0.003448153619501588
0.023057103389397843 -0.006386185845357383 0.005791255359680844
0.023017993760398574 -0.007666553420954134 0.0194657433826846
0.023035122001182406 -0.006803180014927898 0.009662183388454381
0.023185970823804775 -0.007242896451110641 0.024712473363082906
0.02302455457301427 -0.007198855625220322 0.013983769869776983
0.022129277844942587 -0.008342751494177757 -0.017726334303285837
0.022289194887932 -0.008127503738927292 -0.012477034021791776
0.02235961148405919 -0.008015834066111619 -0.010413716167003359
0.022845701830527317 -0.007505766922120418 0.007660823779547507
0.022583377369371507 -0.007853086112905212 -0.001034760430236544
0.022739895093314748 -0.00712621055197967 -0.0034805268035391045
0.022334412971519408 -0.0077422794147678446 -0.015757893563603142
0.017767662589213366 -0.009886791260109988 -0.01792861769486414
0.017904468145687996 -0.00975542408166642 -0.02053518657001113
0.018649347296880017 -0.008026313680111672 -0.014694840170438882
0.018923966809225996 -0.0077792966891598436 -0.020256884867038822
0.018839927978672125 -0.0077978838385937875 -0.017428430097836577
0.017272950208751726 -0.01076066285316822 -0.01566869027655514
0.0176781812051489 -0.009905606508389793 -0.013905071404159424
0.01803250211234163 -0.009157972831606938 -0.011612001651105317
0.01882453275937885 -0.007486751143164386 -0.010413420490818932
0.01746593120209295 -0.012857562815256116 -0.01968716161608311
0.016799025058646055 -0.0118233821166951 -0.012037485787602002
0.017981556686894516 -0.009524398710527824 -0.0060182736645641634
0.01714246853379259 -0.011620030658756112 -0.0010220723602040122
0.017367146131524562 -0.010942988680201715 -0.004673119581165922
0.017096607351573617 -0.011329108130684589 -0.008841087840799584
0.017861168129454645 -0.009686622492074899 -0.00806454859632324
0.016549412835746413 -0.01261786124012745 -0.007137048668627076
0.018539417126206784 -0.008435403434969076 -0.004084084715719879
0.01801314932519545 -0.009719319446076647 -0.0017730408649479475
0.01850872430257817 -0.008988617664912067 0.0025996492164547
0.017480576052743182 -0.011037428473316365 0.0008232206533873779
0.01769989699615738 -0.011136120310751962 0.008537023369022515
0.018866284475385176 -0.007561823515955603 -0.006561844736547077
0.017476035088688877 -0.011245610704195561 0.0035417421529220614
0.017639009215018115 -0.011084828422286138 0.0060683965494491565
-0.0192827361629652 0.006414567410268194 -0.0277559079024225
-0.01822039919586637 0.008933625940435641 -0.02915926644590164
-0.015903949858841304 0.006706556625257075 -0.02795102614944353
-0.012607671789937942 0.011254818291361199 -0.027403835244365515
-0.011319841405110706 0.013070905923597336 -0.027578508314833567
-0.014789234735211956 0.00818254544013172 -0.02600957499513862
-0.013590158651370556 0.010073955606588691 -0.025547999888658524
-0.01663356078094075 0.00698696544689002 -0.025547999888658524
-0.012163721113122888 0.01276539901079098 -0.02979630819646538
-0.014914724667992464 0.008197673685568852 -0.029295883467496068
-0.015622766696194173 0.013092865618957263 -0.02671010370893264
-0.01667421693334189 0.011583524880323891 -0.02972304367582273
-0.014931329135873734 0.013687725391944131 -0.029920371032239032
-0.017358668371229426 0.0050781707505681666 -0.026662305421630506
-0.01721699270602453 0.0053465668537241075 -0.02979809691791551
-0.01635646870218536 0.009431853730787438 -0.0304338441708413
-0.01625954682095473 0.00733206398894117 -0.030187980574267838
-0.01424533709392999 0.01031583374162235 -0.03024706642731411
-0.014338431607800867 0.014400472287131845 -0.02770972632189242
-0.018226466391191957 0.009174835597085073 -0.027251735202978338
-0.016851954337116382 0.011416277162416754 -0.02681940227721198
-0.007722791100816077 0.016964794515019803 -0.025547999888658524
-0.009790295985264798 0.015927521522052047 -0.025547999888658524
-0.011899769895024039 0.014866915355994041 -0.025547999888658524
-0.0053151418617038 0.016118800075794675 -0.02720074666321677
-0.012370655439754814 0.016020595339437067 -0.029780366933782942
-0.009937837201315821 0.01572097614238712 -0.03058999963104725
-0.0037075638291373756 0.019825999443502093 -0.029251274628877225
-0.0018366504529446542 0.020177052057076792 -0.02744800677115128
-0.006370877869834194 0.019292415148231573 -0.02684173581260348
-0.004178335660045504 0.01989025743615255 -0.02725165929837455
-0.006101929954091722 0.019431460394715758 -0.029027671600957036
-0.006687843708862815 0.015661368865990035 -0.02837916004380043
-0.008534425854883516 0.015046024531161549 -0.02722572806586155
-0.0036586337722312543 0.016670805233350804 -0.028403653249626834
-0.010357880631289383 0.014484000392258167 -0.029025870060083052
-0.012348450991800373 0.016156146761231057 -0.02768893085169629
-0.011717715157192877 0.016742175743765523 -0.025744769444096666
-0.0021718472567356195 0.017320323788728564 -0.029872138253272257
-0.007390031896927848 0.015793301993456958 -0.03034367479447746
-0.004034980019782042 0.01729494961960139 -0.03058999963104725
-0.00039982259486595205 0.018939796741702333 -0.03058999963104725
-0.007858388054603656 0.018810222389829295 -0.027960633515691335
-0.009906454181590602 0.017788732847560645 -0.02848106860079106
-0.009293155660779201 0.018140616699644584 -0.026300853012194113
-0.007468142656916823 0.018089808157262636 -0.03058999963104725
-0.017465969889010165 0.012466000393033026 -0.02245597220197748
-0.005929244700894956 0.012466000393033028 -0.02257344754022895
-0.00014200000441633165 0.017390121900553356 -0.024400779743231054
-0.0057329958421923 0.021379581157933536 -0.021849999204277992
-0.008985673105563207 0.019922614202979104 -0.021849999204277992
-0.0074381983912477434 0.012466000393033026 -0.024467429732982195
-0.012861919600926322 0.015115584500080336 -0.021849999204277992
-0.009453952384422998 0.01732687544024293 -0.021849999204277992
-0.0018238776707869663 0.021869483494948532 -0.021849999204277992
-0.005021850990151388 0.01804454013683498 -0.025546999648213387
-0.0037486004479781745 0.016415087399165466 -0.025546999648213387
-0.0013840722263189732 0.018399591887753922 -0.025546999648213387
-0.0035504092554266577 0.014193355111282398 -0.024866929485157105
-0.010649176393358318 0.013137463867904335 -0.025496639961985968
-0.008239758758932366 0.01414206012904627 -0.025484661459222707
-0.0010972141555160395 0.015633232467969674 -0.02498493357975918
-0.006153767942767018 0.013960369979935345 -0.0251460227614751
-0.01702886015967582 0.013646731999264212 -0.024653940950941956
-0.01610032347687087 0.015421342312876965 -0.02427258697819475
-0.011102850923459844 0.013506216767859007 -0.021931010402354602
-0.0022331224431378907 0.014961082703245638 -0.022322440358309957
-0.009381015537801234 0.014044198742193573 -0.02190619242517786
-0.0036184302883194024 0.013315484584186042 -0.022462106812364876
-0.000427786585151434 0.015999556186076996 -0.022306453010833442
-0.006652294110224837 0.014443625821100842 -0.02205767995650653
-0.014112668253723072 0.013719646955411825 -0.021849999204277992
-0.007968815614027975 0.015961234097220754 -0.021849999204277992
-0.004374416401672922 0.02319939876001113 -0.021849999204277992
-0.015475465700450391 0.01748300341363651 -0.02318971699565924
-0.018326880732639973 0.01478731680416994 -0.022824142819658704
-0.008460784529663716 0.019583540331167035 -0.02495343419889687
-0.01368914940786474 0.019237267636998942 -0.022681162933237208
-0.0006338857872939258 0.0231116723316111 -0.023495690582542885
-0.0037483496090284464 0.02206168586600546 -0.024152290354428264
-0.005074899308022422 0.020134597902905123 -0.02510420774259991
-0.0031338764713891064 0.02048039709342621 -0.025100001027670005
-0.007241550199091513 0.021547159744112226 -0.024089085806638193
-0.005906173692267136 0.02275910715101037 -0.023363975895827394
-0.010797072648851618 0.020940115353274984 -0.022836242340739575
-0.019383308548409944 0.012668841887208755 -0.023370611745373533
-0.01380957916351147 0.01659200155553663 -0.02479062188228461
-0.01208556945591373 0.01868608414921187 -0.024350615747775542
-0.021751504914401667 0.005071000196039677 0.02201111228370668
-0.017618000507354733 0.01265112465609594 0.010156408566739149
-0.017618000507354733 0.013193164819234042 0.017433445938211996
-0.01761800050735474 0.011675238036096151 0.0028649292767551505
-0.017618000507354736 0.012649486467405206 0.015422109160754127
-0.017618000507354736 0.013312910382664748 -0.009045787543358785
-0.01761800050735474 0.011442625946290207 -0.002288174343313149
-0.017618000507354736 0.01296389757561765 -0.006945855112295458
-0.017618000507354736 0.013708807470506203 -0.0013019068575877996
-0.017618000507354736 0.014459502962489938 -0.0037289251600386188
-0.021650022992801637 0.005071000196039677 -0.009519141465665758
-0.021524158491347624 0.005071000196039677 -0.019480718589187766
-0.021368140647572725 0.005071000196039677 -0.015790929713908004
-0.021501487572802833 0.005071000196039677 -0.003987734522177611
-0.02179955315817476 0.005071000196039677 -0.0059926839306658096
-0.021548040132095502 0.005071000196039676 0.013896983229620082
-0.021424365082573133 0.005071000196039677 0.007997585976544942
-0.017752371411486965 0.013185215172277102 0.026556000113487247
-0.0226267142759848 0.006768481678340108 0.026556000113487244
-0.017618000507354736 0.015293220668922355 -0.00810747926668268
-0.017618000507354736 0.014728271531747146 0.008532175259377904
-0.017618000507354736 0.01620620852431599 0.022363718435047045
-0.017618000507354736 0.015849148739973326 -0.0003174490644925025
-0.019571657011646322 0.007141888583650232 -0.008987527862992097
-0.020029372976683626 0.006433941162445798 -0.005534578975264791
-0.01878713044915945 0.008672512982791454 -0.004263847683073416
-0.02038530634986705 0.006260939992257495 0.00981628376719008
-0.0200843236463713 0.006531579483665534 0.0010071926981323866
-0.018957960878129877 0.008274704014864543 -0.007456932449265529
-0.02007532829492184 0.0066582441502694234 0.004722139364668548
-0.020783050670170895 0.005619532823514369 0.011937214652438936
-0.019758053225937256 0.006992969347050164 -0.0029052247388830126
-0.01919351273290492 0.008065731985462694 -0.00046781098566368775
-0.020411908175909627 0.005882212766238288 -0.0013088928364376317
-0.018686430970758672 0.008588413270773785 -0.01307049826055584
-0.020446427638047337 0.005634448775711524 -0.007569676210461147
-0.019720320744941747 0.00677231315529949 -0.012550865874797115
-0.018168325368044403 0.00960437768742781 -0.009778784420525384
-0.020288505940926845 0.005823909887649492 -0.010599408931509716
-0.022904683987583288 0.008177404876506096 0.011471024601414682
-0.023170915613625078 0.007639126606839276 0.01833879404535505
-0.022696811240819778 0.008885270065949165 0.014101211962769037
-0.023040458559496386 0.007579570432593343 0.005987666520460039
-0.02353730334182694 0.00664755381468025 0.02082002700056454
-0.02323935089276586 0.007672903690043366 0.024888414814823553
-0.022920988496325876 0.008292121811556134 0.015996057566580638
-0.022980981134531498 0.0076712307511180074 0.003658688290149273
-0.022696557260673808 0.009153393027580491 0.021532167382641597
-0.022906668894370805 0.00686831696710747 -0.019640349729121712
-0.023149668151865206 0.007048783141429746 0.0007328137193157377
-0.022812699852667383 0.007521710656534534 -0.013968853928829825
-0.02345741167789929 0.006431303324791016 0.010682514701687426
-0.023074703820258925 0.00705386914615075 -0.004413813253558527
-0.023468070679581055 0.0065513674650331255 0.013677436643658284
-0.02316784247064954 0.006850286136033825 -0.0017154826807218452
-0.023111957301557597 0.006771453067754174 -0.007100341339350139
-0.020124530141418608 0.01394134058260045 0.02356091787140891
-0.01996606559074972 0.014097730387637439 0.020304812923992
-0.019384269165738245 0.014777574957742928 0.013649623738344038
-0.01933232950847734 0.014914553865513925 0.016881480926427307
-0.01926630131477301 0.014801132139189143 0.006568095221339978
-0.01803488129314954 0.01602427636194645 0.026556000113487244
-0.017618000507354736 0.012782061787905571 0.02353205033193976
-0.018465194425988377 0.010203655410359513 0.01166776623249948
-0.019370172657536062 0.0090144218603815 0.023454753699147145
-0.018898835561695103 0.009804694603671567 0.020223263768283668
-0.01948618066343824 0.008212386789299435 0.013913585908649932
-0.02031796131994959 0.006548725159580146 0.015038702462603333
-0.018003763205043884 0.01089114146723404 0.007037957286494999
-0.017834957320002304 0.010552370920719392 -0.004698719709963427
-0.018576990873638528 0.00949991209441627 0.003649921316609111
-0.018437383864833637 0.010512210502351592 0.015933518792598578
-0.018948999746856085 0.009088777639213674 0.009817574812650144
-0.019988681704273762 0.007354003984297403 0.01708891593145846
-0.018198792227618776 0.010176043233308674 0.001771919740486158
-0.017660459488897412 0.011998329544112923 0.013728654136097012
-0.0183785037877836 0.011068168999791166 0.023309275971182427
-0.01818629319906241 0.01134284289893495 0.021181641724722703
-0.01938659899474248 0.00870395744397634 0.01875371026687992
-0.02036801727325755 0.0067044287602357824 0.019458968321003203
-0.018117859618041333 0.009847277939294324 -0.006685326247041573
-0.018699747910515305 0.009371140625566233 0.0058024847380142765
-0.02037015101945932 0.007032022327632288 0.025108155212230143
-0.018232949537880738 0.011083072235277958 0.01841272533540464
-0.01817705308911239 0.01067536434168984 0.009498196167479489
-0.02026011031272236 0.0071085233669905944 0.022516199964894998
-0.01835794105240873 0.009622913342288592 -0.0020079238103569382
-0.02351113950045334 0.006043280593089334 0.007929567673170785
-0.023316546076382408 0.005778756775598682 -0.010095585476727391
-0.023456809919153287 0.005932220392144414 0.0022756038195796647
-0.023128326963628307 0.0062115946838226695 -0.016027605055454336
-0.023515135179381447 0.005417345625956007 0.004571746402829598
-0.02365193294471985 0.006116951921107436 0.023109830606737717
-0.02146972893510398 0.010789880671683034 -0.010591030176510837
-0.020722987071814365 0.012174219640665005 -0.01395576072736853
-0.020924286894989468 0.011691067623148093 -0.016945131942846452
-0.021339810441453944 0.011293563022823413 -0.0018641948864999407
-0.02110932298149607 0.011657299788306685 -0.005154316082052521
-0.020777065786005793 0.0119280687655728 -0.018881247688782386
-0.02108682190377912 0.012024990052104558 0.0062936695155059695
-0.021691196448571835 0.010916365760518383 0.009824364691741652
-0.022440309576118478 0.009654334990326892 0.018390097084907568
-0.021696284355482723 0.011215980091944877 0.020926172566019936
-0.021568741472596138 0.01129756270126331 0.014691469153112122
-0.02182039914684425 0.010403346563887897 0.0007180177801280486
-0.021141380216883044 0.012271449660427498 0.01890355198877524
-0.021896249084941213 0.010571433266337377 0.012187659928435537
-0.021658454606071704 0.010326349673866522 -0.013669468391177967
-0.021452071040349727 0.010912030063957492 -0.007501295564190763
-0.022243340287996977 0.010207261821057242 0.024060556710884615
-0.021162372301470184 0.01237843851874084 0.02424475125255572
-0.02167734535957717 0.011136041281381825 0.016701714231744012
-0.022020011880557924 0.009455594399919066 -0.015597597409915684
-0.022352635517610707 0.009529000990717247 0.008547570526718043
-0.0226169357330832 0.008253462629376188 -0.0093382096021367
-0.022436934176246044 0.008986216424452026 -0.0009355125510726436
-0.022096251798214527 0.009142391920128482 -0.01923560109918711
-0.02234609225731371 0.008972967190718564 -0.0073407820126982996
-0.022479085025631902 0.008494049348099504 -0.01181281291688024
-0.02229815678764981 0.009529398247357972 0.004938142185282157
-0.022414857402346076 0.009153527164316529 0.002247306828633124
-0.02215304917343824 0.009515553254276242 -0.005089996356156179
-0.021706214267333226 0.009968752602494156 -0.021820005137140722
-0.017938589202915814 0.010086217347368762 -0.019814239461774005
-0.018928553572110412 0.008119597691228293 -0.015257656722977622
-0.0179756586239518 0.00981401861394202 -0.015127700005949027
-0.01788663970387819 0.009972310481247616 -0.017787808244051906
-0.01977817280814901 0.006915667856408908 -0.019914164129775234
-0.019228440615880853 0.007684371868101927 -0.018071012672898276
-0.019954114776975927 0.006350682549572769 -0.016475993867278486
-0.018539905985107647 0.015409823163820585 -0.009983635028453725
-0.01799573819740021 0.015738748442561398 -0.01634900859031324
-0.01899539149594177 0.015261103282783215 0.011659361021751809
-0.018725297471476998 0.015455762831691634 0.004317329832936712
-0.017800451232729227 0.016343377631480287 0.024154683197532126
-0.018798328703999733 0.015527623089300715 0.02033763832207109
-0.01939307538996339 0.014233237831468033 -0.01134085202165002
-0.0192499192093991 0.014674469889490909 -0.00034715966334672704
-0.01917528819987406 0.014834559091691587 0.0021593140064590866
-0.02047324420768923 0.013229301378719135 0.012930189782946796
-0.01936150558464506 0.014200382401606485 -0.014918174956967244
-0.019604172920064975 0.013989794639923923 -0.00877600421218583
-0.02003693661833006 0.01374910085196501 0.008396223656698287
-0.019856385373660298 0.014049042790084237 0.0104320470493606
-0.020740253188750647 0.01291233467348128 0.0162274781027099
-0.02072863881464514 0.01254057309119624 0.0005716227076916752
-0.019606168033610955 0.013745172221362926 -0.01901271213141309
-0.020093709751712922 0.01338838881953199 -0.0038126316319076776
-0.02062058982960291 0.012428693510690017 -0.010476852065201861
-0.020089009756020012 0.013338537066138075 -0.006102487904773471
-0.02081467780902536 0.012494532990090335 0.003934698985708732
-0.0197924738169014 0.013405536980787239 -0.02138066266135661
-0.018442632322956592 0.015347024353156354 -0.01867692248852562
-0.0011767260572382418 0.017388538233011726 -0.0021099559158350347
-0.0013301950318061959 0.016638562713689978 -0.004170228379823741
-0.003157207146662247 0.017635824150847638 -0.0016229735949916239
-0.004008914530879077 0.018373498282508192 0.0003085546313728103
-0.00013800000306218863 0.019461009060162186 -0.012105317368776871
-0.00013800000306218865 0.022106555064654285 -0.014417650510505198
-0.00013800000306218863 0.02040523739091857 -0.0036385576656884997
-0.00013800000306218863 0.02229044045947732 -0.011501448144558033
-0.00013800000306218863 0.02162963346940945 -0.0015650957333973475
-0.00013800000306218863 0.02128683296861358 -0.01795938875190591
-0.00013800000306218863 0.018896668833455484 -0.00985761855224251
-0.00013800000306218863 0.021871733521432086 -0.0071679431368056115
-0.00013800000306218863 0.022151280941586797 -0.00478403471142421
-0.008542000316083431 0.018767643282163383 -0.01401176098642878
-0.008542000316083431 0.020263895471728396 -0.019436207462630882
-0.008542000316083431 0.022080536186386404 -0.017078245774662524
-0.008542000316083431 0.021158332603795387 -0.008860334950698063
-0.008542000316083431 0.020487475268403298 -0.010796782933179695
-0.008542000316083431 0.018292238573914394 -0.017428535177522478
-0.008542000316083431 0.018999378063150357 -0.006763398777410272
-0.00854200031608343 0.018709728063512485 -0.009374629695897184
-0.008542000316083431 0.020143210985349567 0.0013410813465264842
-0.00013800000306218863 0.01913328613690374 -0.018693983090447275
-0.00013800000306218863 0.017532445655495197 -0.013569194794439656
-0.00013800000306218863 0.016826776468867197 -0.011509474609999277
-0.00013800000306218863 0.017276047668804088 -0.016072601893276254
-0.00013800000306218863 0.02112605600679322 -0.020598109246811006
-0.00013800000306218863 0.021099362902686162 0.000622715316818007
-0.0003869153646793325 0.01760486713842052 -0.0204954986277998
-0.0018130753675757 0.016612954239417884 -0.019122868010368922
-0.006920924890656201 0.019626033912187254 -0.021848000586032867
-0.0077977657547354425 0.022258951401932365 -0.021848000586032867
-0.007897244448716676 0.022643050705075753 -0.005014373467333945
-0.00775837573264764 0.022735675651361385 0.00047016965160726195
-0.007644526702088241 0.02270177899365764 -0.007732576745637527
-0.006726492307171544 0.022954375725085734 -0.011326969236063206
-0.006343286613723622 0.02302146902651765 -0.01562261555039711
-0.006669128668558074 0.022877863856539456 -0.018279625239340916
-0.00708122559988531 0.022804025918014562 -0.013783036327101993
-0.003806261185821712 0.01962070053038671 0.002249517551857285
-0.001447340218375385 0.02006776387247623 0.0023314065354476704
-0.00849913291053385 0.018239812837237943 -0.0030447937439017267
-0.007797601955353851 0.017159470916193777 -0.007518033346048901
-0.004808920097643293 0.01588817151409276 -0.010755551894613332
-0.0030052674661880346 0.01662308209962382 -0.0055759212388341245
-0.005444097899922675 0.016821142319188975 -0.0069200024850444
-0.007108137540393157 0.016524495368519434 -0.009887582987896226
-0.007684418009194799 0.017584707115664996 -0.0053926071726670645
-0.004705752736998788 0.01745333144214193 -0.0032261424647154454
-0.007182054954414893 0.01871955622276802 0.00046726405038875524
-0.004435853718481494 0.016266643967297344 -0.008608748825954846
-0.001209391110119069 0.0160349823143638 -0.006733339065963992
-0.0024557347456236464 0.0157518354312274 -0.009367850627392631
-0.005835127648307514 0.015528353432618039 -0.013554980659679645
-0.0032501661198486576 0.01747586121973727 -0.02051925043091096
-0.005901334140214376 0.01772421566698153 -0.02092119669467584
-0.0021020364713343663 0.018912636928001374 -0.021848000586032867
-0.0034609829864316066 0.02079498146695353 -0.021848000586032867
-0.00591432665578283 0.02327297489278197 0.0006804324522357518
-0.004759856039632865 0.023418066006124595 0.0026916813032833342
-0.0060571640743465 0.02320046542762829 -0.006125392647168257
-0.006902796658318947 0.023012560541115393 -0.0018185910667599208
-0.005580643008045607 0.023347228598644118 -0.003601692041202793
-0.005286591894431498 0.023344337676943862 -0.013362712555362082
-0.00338354914255321 0.023719009615307138 -0.0027117213368716294
-0.004446590305531104 0.02360717825994568 -0.0010738968506747593
-0.0036562622508522313 0.023611422580653175 -0.015165059604264071
-0.0038638922389876897 0.02363820684583194 -0.006910874016828623
-0.004442952253580381 0.023550095588655784 -0.009912961863053014
-0.004916222806991023 0.023358174787810677 -0.0191914017641998
-0.004927711225548626 0.023382154203422295 -0.016711095124478468
-0.001622047500283551 0.015491999685764313 -0.013887493978830823
-0.0032533080847035874 0.015491999685764314 -0.011883839687375214
-0.0038427026196220532 0.015491999685764313 -0.014766269488127573
-0.0010165614244508291 0.02389499917626381 0.000901320192765035
-0.0005389797992959475 0.02376567339133971 -0.012929949882020671
-0.0005226007953827653 0.023853078822552165 -0.0062175354245620675
-0.00017274725668696314 0.02374469609578946 -0.008624913000014299
-0.003151829070395864 0.0236830590768222 -0.012259423979987118
-0.0024368731152858763 0.023769636725115766 -0.008479467204909857
-0.0019185630729439756 0.023875064900057155 -0.0010569486554671637
-0.0021525857150960625 0.023823922875069063 -0.004796810884963798
-0.0010861917892639006 0.023822416365789446 -0.010620090840041738
-0.002211403171686486 0.02363141362214457 -0.01807147359909953
-0.00242825852425439 0.023568209620150164 -0.02059380265813172
-0.001508300433301889 0.023695996846595947 -0.01566944780970105
-0.006481268881459656 0.01615550321786451 -0.018780577842489446
-0.007723778259637994 0.015491999685764313 -0.016502716011830204
-0.0029153294040441553 0.01570941438132209 -0.017773045418955635
-0.0008089793487489421 0.015676890463250628 -0.01718983942913432
-0.0051938280279246055 0.015602599256391313 -0.017696038890337575
-0.0018401778069033915 0.018235185779607657 -0.00017434606701333816
-0.005779659643022746 0.018920797880088505 0.0015771960830324562
-0.0007960067377364687 0.023641645723305404 0.026556000113487247
-0.00013800000306218863 0.0224373536072729 0.014119511115135312
-0.00013800000306218863 0.022225963607255452 0.018416796435143705
-0.00013800000306218863 0.022045473412743356 0.022977620819839988
-0.00013800000306218863 0.021589949449672987 0.010366760688964761
-0.0021021633714745883 0.020842230064810757 0.008375356052527963
-0.005903857586853413 0.019742793197093877 0.0049346227276740595
-0.003961773995144204 0.020413833634261393 0.01052868302981404
-0.003579713648210925 0.020370948642104987 0.005495818899461773
-0.00036386481422374863 0.0217822183781286 0.025283301458059765
-0.0012655869010894378 0.021294273039631106 0.016500670979927294
-0.0018784915390363264 0.020782730320513206 0.004222814496419485
-0.0014627345962339143 0.021183940275179208 0.014452448371542033
-0.0017036290752659312 0.021043624302766982 0.011756832882821488
-0.005349981008586561 0.02116504297362273 0.0030249999836087227
-0.0026063489280070875 0.022810846913616956 0.0030249999836087227
-0.006899830103641452 0.01963322052612334 0.006808831575311507
-0.007102512517336566 0.019861228615654772 0.0030249999836087227
-0.008542000316083431 0.02047668352947629 0.013431148372391025
-0.008542000316083431 0.020387886092672457 0.024560697876980543
-0.008542000316083431 0.020941968932584366 0.02044454422123728
-0.00013800000306218863 0.024111803234994053 0.022501335780887047
-0.00013800000306218863 0.02372912888489595 0.015888233029482945
-0.0002664496765180821 0.02413191159768712 0.019616591276596634
-0.0012398523626754336 0.024032398683810657 0.012647443835980045
-0.0004748623404329988 0.02394849055718888 0.006771140117057091
-0.0009153736109032479 0.02391254173326792 0.004253550746365556
-0.005351952852352938 0.02349822535949456 0.005218072148797271
-0.007442548105512262 0.02314521094457062 0.022869370073936798
-0.005587266286867729 0.02366658189770647 0.02386285498561551
-0.006336382198854532 0.023420909184621346 0.02050045955112391
-0.005837052176134551 0.0235329067935464 0.018382084184809064
-0.0062678134208501 0.023501674996807137 0.025717101890912506
-0.005495149595297229 0.023539677613123675 0.011042447114219188
-0.0053091835180528795 0.02364758177019507 0.01582898210249563
-0.007783911578456839 0.022955014059120593 0.016449590605163527
-0.007449644857035909 0.023023282375536577 0.014436937867250636
-0.00809260414005481 0.02274999471443214 0.009245111286040043
-0.006407019667030368 0.023213904393216255 0.006734578187609608
-0.006234831440453518 0.023297621954645173 0.008797149703037417
-0.008131637955183997 0.02277802222950854 0.01177822474149191
-0.008542000316083431 0.02196373017248011 0.007225265041345937
-0.008542000316083431 0.02223942546074672 0.005317200641069619
-0.00721455834050386 0.022888380874781192 0.003958338210189857
-0.001830580872700322 0.024205958613792496 0.024802295851751012
-0.002394992370285935 0.024090718228697794 0.016731712813297602
-0.0024697943859541046 0.024060724733913307 0.014631190586886448
-0.0019079546276281562 0.023979895858235793 0.008970534797476167
-0.0024467627441260484 0.024151919069274733 0.021017766400270862
-0.0034895894210021125 0.023779138706429077 0.004517565143334628
-0.002773619524464482 0.02408721314335078 0.019198178028310066
-0.0026771343175571376 0.023917120855578233 0.006357041822383362
-0.00275105933813739 0.02398001282852658 0.011473412132249516
-0.004141399968281547 0.023745432668924524 0.008433841846001398
-0.00451763197740606 0.023761705151309823 0.013228820350294608
-0.0035840928154524223 0.024026941618416644 0.022841988146904794
-0.005582169424448827 0.020418181993417994 0.01918063048579458
-0.005115569449098753 0.02027298545990391 0.013534344991774402
-0.006079691812697444 0.02047895901079965 0.02301684216648462
-0.004185001226857894 0.02095846749563611 0.024920740362133792
-0.006938712473083031 0.019936801681575543 0.01461070216895013
-0.0022077013139589234 0.021308328342953493 0.023410800616869922
-0.0034756842869093623 0.02068280551103003 0.015061369513986508
-0.0029852292797561144 0.02096767182624331 0.01928767640044644
-0.00718057876222404 0.019973371338452506 0.016638773371179423
-0.006122652486605387 0.019944049008407374 0.010802127244025395
-0.0036518023309197135 0.020740303818710174 0.017255128657918083
-0.005105006131010717 0.020064585056536473 0.008642459489681833
-0.0025678820395742185 0.021134809504523004 0.02113583779614875
-0.00469508341681991 0.020673849710166232 0.020795855088143432
0.014159136474274546 0.010235656416632533 -0.030456245569655344
0.01262535164213429 0.011389470475450652 -0.029370185709392836
0.01549301506191793 0.0069074459457667894 -0.02884336979206113
0.01292806768600449 0.010916339380359491 -0.02615036219921285
0.0140766749276072 0.009121119691633161 -0.027041447742288657
0.016611735540482526 0.0051589378774229465 -0.028630469003973178
0.01722803137622267 0.005071000196039677 -0.026712816125071752
0.015619642829441017 0.01240560115067615 -0.029213131019751537
0.018513452229262515 0.007757645800267835 -0.028934795371122327
0.017833754025219146 0.00931733890202394 -0.027422334047768608
0.01591751526914052 0.01226715265201565 -0.026478097853909352
0.01691727715435034 0.011078781860092531 -0.02799583261658508
0.014155889812885434 0.013008937646832254 -0.030868005081472232
0.016783132287687158 0.009192864256446753 -0.030481524508272573
0.017232655182334584 0.006270668553297869 -0.030636119702679696
0.011885699392216826 0.013536659048327265 -0.025582628791724172
0.012031718088754568 0.013719211920744148 -0.028197139671122834
0.009179529531347111 0.0172772113854037 -0.030597435682936013
0.0073801045013260754 0.018289627515447007 -0.030617457774483634
0.011574051025709105 0.015657259421642606 -0.030600022210054534
0.002694118617863358 0.020159081375783303 -0.025958425348155196
0.003671914965154565 0.019898193200496895 -0.027913904747964187
0.006668649872820124 0.017110835978455096 -0.025547999888658527
0.009011331825494235 0.018089901358368972 -0.02877822588252337
0.010078489357497736 0.017362663302670243 -0.027196906442229444
0.007144937709623725 0.018820054865832776 -0.02853810780928238
0.0016525043919836764 0.020197000354528427 -0.02773206481432614
0.0014127854144947998 0.017661854874567832 -0.030213000236800496
0.0070052100266386275 0.015165130207195269 -0.026101352808769226
0.00042547829883195416 0.017632683305378018 -0.028597582774825922
0.004905509454522675 0.015952566970017193 -0.02633588399312779
0.0026588658197864838 0.016795110813860783 -0.027165208718503638
0.009368406136925253 0.015078632978034853 -0.030646898571585278
0.004006515839749952 0.017122315846175067 -0.030637813809381697
0.014069577803063525 0.013925446295117024 -0.027541545947984504
0.011847327343522486 0.013821403502399349 -0.03052553544330405
0.007066141327672812 0.015358594700991806 -0.03001370986624348
0.01010644021837891 0.014002096441629037 -0.028837295218476743
0.008862907191658137 0.014468450375150316 -0.02709055174572818
0.0048421126484383525 0.015976342253226257 -0.029114948017836303
0.0002172016258891345 0.020197000354528427 -0.02923911088463
0.011789338047481467 0.01630135540564366 -0.027615788938242174
0.013833679660198009 0.01460268494897893 -0.02968687529281345
0.004891783040448261 0.019269465283632242 -0.030087736364465767
0.002158392258919236 0.01994843422667795 -0.030045084432966582
0.00705057895417348 0.019626052957496073 -0.02515734026417569
0.011642306575859605 0.013476000167429447 -0.0235593845765803
0.014010209511391944 0.013476000167429447 -0.024134734445341723
-0.00013800000306218863 0.01948129257751645 -0.02469493753185468
0.010854541427226314 0.018518902232623664 -0.022523000836372375
0.004823194620035403 0.01805811685915017 -0.025546999648213387
0.00856082288416994 0.01788557369900965 -0.025546999648213387
0.0015708997946895108 0.01855143848026468 -0.025546999648213387
0.009095736119282582 0.01578005844534922 -0.025546999648213387
0.007731941864479881 0.014538849884657892 -0.02254956481976643
0.00951705383573009 0.014258677210007401 -0.022563451985906126
0.004115148030729597 0.014469179755738422 -0.022624224677813436
0.0014430526116490255 0.013735633841658702 -0.022789397738384374
0.0002787663611110471 0.01808899488413238 -0.022673733850758503
0.01295732275183213 0.014886576664819483 -0.022523000836372375
0.01214972583549382 0.01683558770645005 -0.022523000836372375
0.015822721665541366 0.014095182330573292 -0.022523000836372375
0.0058787337317611175 0.019866593536906153 -0.022523000836372375
0.009378614845414234 0.016727713461085314 -0.022523000836372375
0.005892002766772026 0.016170543054672276 -0.022523000836372375
0.005294617598166663 0.017996277804689053 -0.022523000836372375
0.006732634324397661 0.022249501827066333 -0.022858298555523193
0.008522356562810774 0.02164566487286991 -0.023457094409757583
0.009542276429683253 0.013476000167429447 -0.0251462488701496
0.0014439473580383985 0.015724432039166052 -0.02496418206779437
0.003632109035540598 0.01413124091662776 -0.02467328856139598
0.018571827926188278 0.014151791869641455 -0.023251729055877433
0.016618842973283084 0.014607659534790554 -0.02405603394588777
0.01342542561676095 0.019216403861810852 -0.02304864417612129
0.010984596016978496 0.016990555627460373 -0.025507411984934555
0.009808048365516983 0.019543378844548563 -0.024507205425004
0.013912878567819253 0.01751863860162036 -0.024177357512769067
0.013414774470927525 0.015379722873155852 -0.025337395451093557
0.0023589743337561514 0.023502394177134744 -0.022894230133508043
0.000714761371393942 0.021604257949958586 -0.024592535830143758
0.0027981485193607353 0.021464981259247642 -0.02456366650633581
0.004975278809045479 0.020046873478642944 -0.025138371309419483
0.006088260508805318 0.023091111090111666 -0.013377927914580194
0.005482762582583211 0.02339755881107368 0.0022177868683686697
0.007178904596674919 0.022964059595106306 0.003674359081097507
0.006083394776117088 0.02317856672705683 -0.00422314747298664
0.005985596100339192 0.02314092330431853 -0.010961722565482009
0.007143112896553603 0.02293284720632461 -0.0006441270728013612
-0.00013800000306218863 0.023249094292320565 -0.019204244205751186
-0.00013800000306218863 0.018789331493674514 -0.00508753908026028
-0.0001380000030621886 0.01972124203220303 -0.0013604314969637471
-0.00013800000306218863 0.021540540352708765 -0.009738707817568217
-0.00013800000306218863 0.02349545639645001 -0.0029834965576191388
0.009610000066459179 0.012973405586491613 -0.008528729241116369
0.009610000066459177 0.01991951039985614 -0.012706763274205553
0.009610000066459179 0.018310177613689055 0.003456300484718333
0.009610000066459179 0.01597857923422494 -0.014633601990279842
0.009610000066459179 0.016186329965192744 -0.0123032075273065
0.009610000066459179 0.017976668431057257 -0.01326635654933414
0.009610000066459179 0.01722788406494423 -0.016241825851475683
0.009610000066459179 0.01656103336389545 -0.002197096580094567
0.009610000066459179 0.013496467880008408 -0.010387677463596532
0.009610000066459179 0.017845728854779926 -0.010782437312210364
0.006979171202932498 0.02081030430756465 0.007058999966830015
-0.00013800000306218863 0.018153253098556237 -0.007259071067412702
-0.0001380000030621886 0.01972216014171783 -0.016267294602370762
-0.00013800000306218863 0.020143563053466495 -0.01431157304694288
0.0020183229799357622 0.021041042804963758 -0.02252200059592724
0.003852620741942216 0.02025678969901391 -0.02252200059592724
-0.00013800000306218863 0.022102184204531642 0.004538760372750628
0.001352085105677424 0.01709371422873052 -0.0010238095022124297
0.0008863111125953941 0.019312549583256768 0.0029501555825083813
0.0032778821610413237 0.016418633442010847 -0.00044829829521376595
0.00846187870039787 0.013479216837539063 -0.0011445822668593513
0.0015258629304526316 0.01819168320276905 0.0013470442182132141
0.003233394373230291 0.018361858236921928 0.0033955778324279247
0.007029099041420779 0.014564132543918749 -0.00040686028229714594
0.006856016964774801 0.0178887379152011 0.00435279851974011
0.005345766958513411 0.019675217688798874 0.0061528547489683935
0.007446409273830581 0.018932529784758057 0.005938634418596043
0.0019542083913292375 0.02024124662781915 0.0056667592986879055
0.00918913623627739 0.016143775139613813 0.002905718888563679
0.005119805249228947 0.01707712623679059 0.0026565541035386006
0.006544679664154388 0.01571159094901979 0.0013787322160878496
0.009610000066459179 0.019390753947410643 -0.020791783385546346
0.009610000066459179 0.01622912342380769 -0.018173401504817298
0.009610000066459179 0.020431246979257155 -0.0006179923269275832
0.009610000066459179 0.02179450009436253 0.003294618247698935
0.009610000066459179 0.02111759155563797 0.005538609320955987
0.003544624924401004 0.01461471728875081 -0.004392900890280753
0.007085849685971274 0.012533868463154336 -0.005493433900402557
0.0011755420859667816 0.01551331012217118 -0.005506249104359199
0.001784150613246554 0.014753265541431988 -0.007203650933405615
0.00488366329580699 0.023092335467671733 -0.02232083534171812
0.008787927043567548 0.014240896505206904 -0.01931166705566868
0.007940972214775084 0.019942546606972568 -0.02252200059592724
0.007390136853409493 0.015844191077546196 -0.02094868588030977
0.002395029076034294 0.018551961301176298 -0.02252200059592724
