-0.01612796493857973 0.11338193177451358 -0.001713217251186284
-0.007639569720374262 0.11763132471381685 0.022198422370362857
-0.0033216794638745183 0.11457275346926134 -0.0074033944293914085
-0.009928363712518441 0.11621929310193989 0.013620863727689982
-0.01566337174950599 0.11171758818646944 -0.015581300716312071
-0.009027143124707763 0.11371362742028114 -0.007497276194867617
-0.021779837394734106 0.11243876707921585 -0.0025431540382893567
-0.014745562609590179 0.11622472966356726 0.019265354176218063
-0.012222867022395768 0.11757953618373283 0.027022838220125234
-0.024322019755197717 0.11373421531691552 0.010580416888263314
-0.021697233577525857 0.11643015441250516 0.02872087839341025
-0.022976371594493866 0.11492108109487528 0.018352006376790107
-0.0062300448463677065 0.11861899287729764 0.028394504433662746
-0.02778732662801338 0.11135411517780976 -0.00413886271979467
-0.033013651202200185 0.11118715768896152 0.00045401863888357846
-0.01800795134324956 0.11478199469748254 0.011654589102241588
-0.026788033774436 0.112465076122569 0.0034295405951311926
-0.03096612478518944 0.11355392121410487 0.016669380734870662
-0.03268331015739804 0.11403642190816578 0.02238480488823879
-0.02990374528794961 0.1236957858508732 0.03782200068235397
-0.020869071775971207 0.1255802926280889 0.03782200068235397
-0.018708200076792178 0.1313952697544871 0.03665708918234821
-0.028275551405237666 0.12958050976687924 0.03742981109554064
-0.03675399214574487 0.11649232500853432 0.00902925995660446
-0.036984871713143234 0.11186206925238877 -0.005175375505175904
-0.036367168850809255 0.12163380859559435 0.032828177957886465
-0.036895061570309626 0.11563768821292748 0.00035010409484738207
-0.0006502035540741721 -0.12108000027197896 -0.008117115274600439
0.03623836887870446 -0.12593429411173548 0.015090909683752193
0.033585946016447994 -0.12334766227864344 -0.013978491470572596
0.03175016611035462 -0.12209341346215839 -0.029187042615663142
0.035919870397636625 -0.12349468541505632 -0.007905692933466175
0.03717059728310264 -0.11103507237018531 -0.02659899730163961
0.03659069511096927 -0.11770776670054443 -0.02755816923807735
0.018804261923744025 -0.11035413810371886 -0.027933142134979085
0.031220870893982997 -0.10863045739175348 -0.02340522217576464
0.023139139082089824 -0.11488330485611922 0.018121894721771895
0.006732210292481608 -0.11812937451035652 0.02563260766749722
0.020970711193383944 -0.11432098026262492 0.011610326358427932
0.01774753710731382 -0.11627307677063412 0.023035509195912695
0.03349659654524757 -0.11252113605608158 0.011011368493695429
0.03087845079861657 -0.10997127806651372 -0.011013001583255841
0.030183101554187956 -0.11399409540434965 0.018715675546513176
0.03125745875297882 -0.11089560456231584 -0.0036219496913843033
0.03327811814737234 -0.11595330346606758 0.036764856933284164
0.0041049341818263155 -0.11944284279054716 0.03284319168718611
0.02507572125260661 -0.11319210245769207 0.007333715046518049
0.02802947964891421 -0.11589603929472342 0.03087342204106079
0.011303768889940436 -0.11823992006266625 0.031223287313911108
0.02733356360460417 -0.11506776626199344 0.023879925041078703
0.021041403584973445 -0.1166756806135605 0.029508352070313895
0.026035390787769924 -0.11217959269366434 0.0006672022221380827
0.012439952588797284 -0.11419072923084453 -0.032061567673335824
0.02697918441052741 -0.11473491153596573 -0.031664147178316435
0.006183008104684011 -0.11888680436760525 -0.03151960914227475
0.022664433829246815 -0.12122625417729002 -0.030786313318852117
0.001432006032959298 -0.1295785298591648 0.006251032197000357
0.004385053031069358 -0.12682865865081788 -0.019862774153678583
0.01309514390963683 -0.12608402643054387 -0.02693408045474751
0.010962461403133674 -0.1267865440639972 -0.020262710034833886
0.004729657397427226 -0.1287240023918028 -0.0018638805073812985
0.006744813671276536 -0.12581886123174357 -0.029452188441547435
0.008349046062720626 -0.1276796579473955 -0.011781366279761715
0.0003428938578439916 -0.13104132300135943 0.020142263441002773
0.02266173172671577 -0.12369159887518717 0.03782200068235398
0.025982443388344077 -0.11826795277500901 0.03782200068235397
0.010801772171024036 -0.12572051982258567 0.03782200068235397
0.015422890594455282 -0.12925701288472422 0.03782200068235397
0.018330322890372994 -0.11796048681048328 0.03630912802398732
-0.0005716323401585893 -0.11719386032715315 0.002421841715104402
-8.055819793429622e-05 -0.12429116469378662 0.03109712171444482
-0.00042059896652592104 -0.12461592576813751 0.00880826561130732
-0.0005237612457505124 -0.12349926360108503 0.002653765542902667
-0.0003575509810745408 -0.121446320805108 0.014495464658567409
0.010798171673538698 -0.11168222395700975 -0.02553025375244365
0.00028196856871606167 -0.11355369163248208 -0.02016007090060954
0.005658599672548823 -0.11233942076797178 -0.028614660402816135
0.02487063163339674 -0.11103858996650914 -0.009564612644490331
0.008682269827769633 -0.1154333484510579 0.006167604792215278
0.015227931912597399 -0.11154645637797814 -0.017429254832214955
0.013609817031250278 -0.11510771553612423 0.009646521486066501
0.0011908689333865825 -0.11834566435358582 0.02062496150023369
0.02206170552370186 -0.11052219086782833 -0.017282549875848673
0.007786913941679837 -0.11286268691623672 -0.01594745170480481
0.004370223965146483 -0.11425639643247915 -0.008819012596873402
0.010323638178873903 -0.11315912745406975 -0.010365465539571104
0.0031943965201441608 -0.11692834115204911 0.011543033199413345
0.028030206723653323 -0.10948919698974637 -0.01828514733127282
0.014015311713801588 -0.11355487772005678 -0.0025333290226886877
0.00511468994567436 -0.11503855883341225 -0.0015020819868568364
0.02056479761745954 -0.11229615091911531 -0.004656104197100158
0.007292764129134159 -0.11690630068609997 0.01646894332363046
0.02980667537716293 -0.1250095561354738 0.03782200068235397
0.03650223451006668 -0.11523710737916695 0.02451839777778771
0.036669288711510414 -0.11947369091165114 0.014240554395602551
0.03678434358288832 -0.11730827132562807 0.007161918011962257
0.036950471850868236 -0.11514934281275076 -0.0030589582359568795
0.036570824580885855 -0.11947308476372387 0.02029846197635282
0.022976495542408777 -0.13088360603894328 0.0367179070256972
0.035529540915526236 -0.1280922077487295 0.036986474567837574
0.0363355236096551 -0.12703348419048283 0.031171285422685664
0.03230885424191614 -0.1273693354469968 0.020393765511860666
0.025712199421084048 -0.12898808408215884 0.02215540917460137
0.032326237677785426 -0.12575247057517513 0.00554927624933047
0.028065439332430817 -0.12425173244997258 -0.016744977207832665
0.01865654661212369 -0.13152746445098337 0.03147518670884021
0.03190819359786433 -0.12813709268409548 0.026661238206880718
0.028722066322207605 -0.12755122530047475 0.014925837019458477
0.023918404276773074 -0.12715054737519665 0.0016739096382293699
0.025014806140221352 -0.12628575887013954 -0.004101176665156924
0.025709131484823285 -0.1276083262086356 0.009452161503195746
0.024685774208402962 -0.1300902533122666 0.03025430991993176
0.03158362814073875 -0.12486457775018357 -0.004100135875278574
0.019444173069315167 -0.13025026755752914 0.02129012516973873
0.01734876822540842 -0.1285009400158956 0.0011071813575102285
0.0189727763347023 -0.12611908240742573 -0.01753373636983451
0.02236284582822998 -0.1259225630962598 -0.01266821241536799
0.017093936846497196 -0.1300814317261855 0.015094563407040526
0.014823968835083265 -0.12796387574803864 -0.008781511972827154
0.01970506105027879 -0.12524701379422495 -0.024087947504150768
0.025468282732010326 -0.12377729260442732 -0.026226876125432137
0.015004369197880315 -0.1299102864337313 0.009416233092397832
0.0013942944635741148 -0.13211095401353193 0.03029987992637433
0.0085053578598179 -0.12996493799869258 0.00992050853368318
0.012896686324022714 -0.13225696471123943 0.03168645216782621
0.00821644030177895 -0.1317125466995115 0.02651645493707181
0.008460289947400793 -0.12926255139293655 0.0032503824018306105
0.014057436213173704 -0.1314326024215885 0.023857999282686268
0.005441992867581567 -0.1306713221391872 0.016628596751805894
0.005814831978154312 -0.13226268142009828 0.034515092977259784
0.004822243836059212 -0.12594277508725324 0.03751606716404881
0.07596869413665815 -0.107506308063199 0.02266354848940614
0.07119298402546284 -0.11074734372585046 0.019985938996301522
0.07365102074838079 -0.10803173429736035 0.01311679294093985
0.07603811866672801 -0.10533161638740929 0.005950791843526271
0.07481042774983859 -0.10447476812770115 -0.008044082170305118
0.077489048916554 -0.10344972404984791 -0.0003000482500767456
0.07725054415705768 -0.10842142020549007 0.03743692898218834
0.07179435758634159 -0.11113564566213115 0.026593834838983917
0.0767563109349485 -0.10789850929176527 0.030401742425533416
0.07742647958918693 -0.10114460870764831 -0.018819011722134623
0.07110463172981944 -0.1125514157353607 0.03366883464186922
0.07792646433631971 -0.10530707714901798 0.016906540562811656
0.0566279133673205 -0.09523076395330166 -0.025581338053375202
0.07296520299062254 -0.08565453940573972 -0.022358335236126535
0.07055300637252605 -0.08682703834266103 -0.028465249050962548
0.0621833654386348 -0.09193094838707899 -0.025498687820283725
0.05601053565092469 -0.11585267613619685 0.03782200068235397
0.04371155378759676 -0.1178018555936611 0.03782200068235397
0.06291714958167818 -0.1161548752964687 0.03760590783223348
0.07858747308889959 -0.0827468991026124 -0.019186920896910035
0.07141142837827116 -0.09790427325011036 0.03782200068235397
0.0670756738320549 -0.1036726120045391 0.03782200068235397
0.07865457525394534 -0.09697218618218431 0.03782200068235397
0.04866464331955224 -0.1122388550561692 0.03782200068235397
0.06335840927060309 -0.1093861774768463 0.03782200068235397
0.055117672737809716 -0.10925042564065203 0.03782200068235397
0.07998195273742903 -0.08856699695476311 -0.004441462614305209
0.08013171058180368 -0.08705968620435468 -0.012236636410180825
0.07965013707276367 -0.09736010968485243 0.012830158682471329
0.07961484181260936 -0.09022710352658862 0.014667342492255781
0.07979709405674401 -0.09046551814242164 0.00518077486936854
0.061061513107847985 -0.09313166697393693 -0.018518630516571277
0.06798046725175597 -0.08870310334051472 -0.020624864263063532
0.057166620994861306 -0.09596427475123501 -0.013608900862006952
0.04488713960182083 -0.10262481870480725 -0.023018853568469194
0.04001679570787984 -0.1062030560573594 -0.016482357067495346
0.039700920792497374 -0.10534874220039346 -0.02797061807266378
0.052135497006438894 -0.09839624511890886 -0.02072063858799672
0.04169811312382743 -0.10575664364678447 -0.010089140899786696
0.04696174361735882 -0.1021518467781807 -0.014276394174144526
0.07964568412075895 -0.0943369789690443 -0.015453615247450392
0.040924761458018856 -0.11301437724937015 0.03694324988473882
0.07348902207761435 -0.09369352630378927 0.032384298785382334
0.0499695870537044 -0.10697996545584637 0.03228112141893318
0.053686665954243984 -0.10320905500371055 0.02227642707281243
0.04793754225229699 -0.10682004779794643 0.024429432421098282
0.07342873565599523 -0.09048719571142015 0.012952377065420614
0.048196337905015894 -0.10570981218883296 0.018649509723149993
0.0559877129682633 -0.0997286941458858 0.009210884397363537
0.07478430271206271 -0.0874595624209632 -0.0006053646582572965
0.06447936834454449 -0.09370839162599415 0.0019126366476659995
0.07299503120462525 -0.08955767359507702 0.005907175557742363
0.07511375721935544 -0.09141373498952239 0.024224167294192318
0.07011477279312141 -0.09338857190807288 0.019110100258162767
0.06445910908173048 -0.09818151556950364 0.02866793727428848
0.06821308820923513 -0.09056840657284243 -0.004252135762140102
0.0413771910155763 -0.11116478274358733 0.028230786362417548
0.055274324969046315 -0.10354855793894274 0.029697677090233722
0.06093788603563529 -0.10090613734582457 0.0330626878255076
0.07539881797074574 -0.08596369618226206 -0.0074911985541879075
0.06741040586036816 -0.09570683667045943 0.023838827614630145
0.05808937168440731 -0.10020224271449288 0.019179457389642583
0.06329297973712542 -0.09691450811430488 0.01711454449173425
0.06376469402363813 -0.09540638479956022 0.009670826640745414
0.051247358899685645 -0.10312968466569565 0.013273512461741188
0.06837459350144387 -0.08954755664524015 -0.010796953338933702
0.0439804981337074 -0.10523296823964023 -0.003586071329017307
0.04211058465100781 -0.109662712856539 0.02084278444017422
0.06382493357399494 -0.0926977398655685 -0.007789381386650171
0.044391559145470744 -0.10706905332195282 0.011831082771456208
0.039286089795014065 -0.10975477809384204 0.008922979142302057
0.058133151112773854 -0.09769426806221 0.0037820393229083486
0.037389935108934305 -0.10866838407094892 -0.007573426686323414
0.04770609842392757 -0.10385441542189094 0.0028364417269239398
0.04241856785686015 -0.10724966022176426 0.004365112788767687
0.05748462409407774 -0.0970994785713967 -0.0035114609502001574
0.05290282754276755 -0.100883241705019 0.004039941114213852
0.04802073205509774 -0.10236720727251486 -0.006762196787808632
0.03691726407163624 -0.10992956978421205 -0.0003519451399966638
0.04603219484922922 -0.11956737196710987 -0.012194456941049911
0.04654408296019641 -0.11855468647447388 -0.018757059444435217
0.06203068269661863 -0.11077058800108842 -0.026810588945958575
0.04347575066037955 -0.12235632386856908 0.0016711815215744562
0.051030036874226345 -0.11829920893339799 -0.0044250478275585925
0.05241970065051675 -0.11585554716187127 -0.019694172680324896
0.04544603629775547 -0.12056528907731917 -0.00602749288938354
0.05869299693333008 -0.11279448348608948 -0.022188717184170075
0.050070280056786765 -0.11941942832183519 0.0013903968105290366
0.04366151181545488 -0.11902626041161544 -0.025404136612551573
0.05729153530692216 -0.11957617198072798 0.030287893037242608
0.0607460696165817 -0.11703755676455563 0.02180604295505948
0.051372882619829766 -0.12101938881227788 0.019995120659999463
0.06549383990033082 -0.11443562329693101 0.017726000406460017
0.05438950670313028 -0.1190389766214268 0.014607779603435594
0.04576285579613081 -0.12355877985375636 0.02024543071729274
0.06177897869536219 -0.11336723708101028 -0.005598150213203878
0.0476494868334333 -0.12189989753831058 0.013285833682047055
0.06130118281540297 -0.11563219348737386 0.011923024565947741
0.05061975499432346 -0.12217959306566324 0.027027188303169924
0.05708392039476879 -0.1160907122763172 -0.0002784347355378825
0.05999592945229413 -0.1131022952730757 -0.014675996683819454
0.05659073549862541 -0.11712211058567051 0.0066468571044679455
0.055835058963735 -0.11553352787229726 -0.009810985943147294
0.06464903285338548 -0.11635442974273683 0.030887663011184636
0.06349117564325796 -0.11392344761591332 0.005696923614641359
0.05105097725724056 -0.12275971654296167 0.034506233905771316
0.0429986555777735 -0.12536623197309651 0.025278390658873568
0.04599394013408521 -0.12465688411306856 0.031276235837271064
0.042007278750690547 -0.1259770258293555 0.0369720274233091
0.03679719829225196 -0.12015023966916424 0.03291886374720092
0.03695861537491539 -0.12171997529707915 0.027004729331673458
0.0359492017018005 -0.1141083146406434 0.01687705423773804
0.03844333373187192 -0.1206333657811334 -0.02279305717404852
0.03785028127346492 -0.1238313058954314 0.009393407428696088
0.035832338953661745 -0.11391058653022414 -0.016000318217883093
0.03585581835264039 -0.11451872629098489 -0.009720294318288877
0.0373608400373433 -0.12244474789725861 -0.0009007010305471467
0.04001338251395704 -0.12169699853841313 -0.015763754285166773
0.07773197840699152 -0.09961238691443695 -0.029039370677956283
0.07352525231794041 -0.1044732190358367 -0.015350562086474655
0.06634875235777146 -0.10876522501018127 -0.0212178034092283
0.06748011359921 -0.11088186498075309 0.00047812765430795164
0.0653806563499435 -0.1107300420797789 -0.011343677654758546
0.035807092483299635 -0.10947358879160146 -0.032257994730279
0.04723374143624178 -0.11584529018529036 -0.030437130347655907
0.06339518255553502 -0.09622378380123767 -0.031920823781436056
0.06946055742514327 -0.10473545586619902 -0.03043155351070684
0.05308193245265776 -0.10045433104821436 -0.03214879692103461
0.08517395887212034 -0.09658375388087666 -0.01121859392633301
0.11297247599957645 -0.05741227523508338 0.03782200068235397
0.10926971007966148 -0.06166713674284792 0.03782200068235397
0.10737189140022729 -0.06872619885437817 0.03782200068235397
0.08495535801841658 -0.08323937214563606 0.03613540882664291
0.07900975613134674 -0.09165177570198255 0.029128292751074345
0.07884960940608074 -0.0961044188352351 0.01928345607983231
0.08181435589001813 -0.08922380071640099 0.037822000682353966
0.09825428603235672 -0.07111183996934443 0.03782200068235397
0.09209905821499348 -0.08123447129908323 0.03782200068235397
0.09935533189609919 -0.08446444655913234 0.03782200068235397
0.10092545206012368 -0.06205741829453343 0.03782200068235397
0.10406182577331323 -0.08134497697632434 0.03769584372524526
0.10405880083464233 -0.0815677689909609 0.023574961235631676
0.09690281219037099 -0.081590027498082 -0.026514484389756825
0.10129985236273262 -0.07805489478517073 -0.017965994908071544
0.08758391548378396 -0.09361188501000481 -0.016038262131221448
0.09737055101086671 -0.08267230114301305 -0.0163994131066565
0.09543421771652656 -0.08617198973469481 -0.007899231495555915
0.09715368859566391 -0.0856069131957034 0.0006031730187547896
0.09310789664195232 -0.08768251771843738 -0.014693108961207058
0.09982703412854306 -0.0817617685098741 -0.004904406176192937
0.10306219840498052 -0.07719783084241164 -0.011005814434428007
0.10126207403373653 -0.08228462227076104 0.008469080159591656
0.10098857988768585 -0.08427244491690142 0.019097521880230395
0.09351225513834135 -0.06021882398572374 -0.03247401880906431
0.09933085507980818 -0.054886353912551575 -0.032247057508881044
0.08367341106655947 -0.0747984737712003 -0.03241768551973259
0.0888970008417679 -0.06961989607727975 -0.03224489985059576
0.09869594835467994 -0.07026548280423128 -0.031101119356920164
0.11581280323804548 -0.04707104125867312 0.00955420208856444
0.10994466691640156 -0.04731751062105885 0.024627964713803855
0.12141344576468992 -0.04758523898068649 0.026399003649150828
0.11314257509338341 -0.047163273250025096 0.015583164767288292
0.10136609721407018 -0.07582360859543906 -0.030359600454031143
0.11942211380894144 -0.04929492783642131 -0.002430103399798135
0.11674165313722475 -0.04889029359389057 -0.028271084265123692
0.1196752826841608 -0.05077707220716256 0.0036846099621945794
0.12275824974084207 -0.05048110362595483 0.03167965688627309
0.11061354174670054 -0.07230284052235893 0.024445486671859883
0.113530818533979 -0.06918872368247056 0.035093421370332264
0.11551886622082816 -0.06491964756358853 0.030704674340785106
0.11704676234276074 -0.06255140339584793 0.03671723739804393
0.12067848362027822 -0.056450270492466335 0.03532632416409125
0.11716433838758974 -0.058947526367215244 0.015618769284201847
0.11648297067650483 -0.058202253534882564 0.00633244325476409
0.11627120708431588 -0.05660922779247942 -0.0030229062448477294
0.11857809543125225 -0.059157097588768984 0.028534547954213587
0.11306894987472953 -0.06379043927790375 0.004102018913027793
0.11483429602678899 -0.06464938584391339 0.023067941190313704
0.11297824220396682 -0.06129013723462777 -0.008543944118028437
0.11435753159832246 -0.06305752401379489 0.011483800592325219
0.11486259710383809 -0.056650006563193994 -0.014705651238802282
0.11235305029217578 -0.06806718369711269 0.018388639746029414
0.12111849797013109 -0.05374228116676329 0.024932856662112812
0.1201795421658855 -0.05398400288246086 0.017830791597672813
0.11737031770480746 -0.05190875150316739 -0.012848631778703459
0.0849907590852327 -0.09575233491690308 0.03782200068235397
0.08909883206093798 -0.09112345100874515 0.03782200068235397
0.09381988701779129 -0.06494077814561981 0.004125102196797573
0.0993286177494569 -0.06168367617517309 0.026928905149875722
0.10646252990825528 -0.05339772857518491 0.03485523580168038
0.10385012264613591 -0.04980914666628647 -0.003221706598302721
0.10904035921265995 -0.04908463025588655 0.030714218491170325
0.09763170727850079 -0.06259145235219195 0.019396987993494614
0.1014673404043851 -0.05722777844999462 0.018832865310024247
0.09394109016968308 -0.0676250458375948 0.019263723427710846
0.08785931321489235 -0.0775504192648631 0.027703800507615936
0.09220389329388785 -0.07274679112041293 0.0338191409182764
0.0985014072502933 -0.05989620540091033 0.011413629166028798
0.10305902443450561 -0.05644106962054268 0.026241750361680517
0.09826697392181691 -0.056749742434628006 -0.007004028197756088
0.1049615907411986 -0.05130398369952435 0.01280871386194229
0.09529416506205832 -0.06796894823177385 0.030940317996580837
0.10466642802711598 -0.05006539118223656 0.004081759161262745
0.10772402874532813 -0.04858923093765577 0.01850050775652829
0.10070539521847785 -0.05606919390161445 0.007132755388271274
0.09570233315378684 -0.06634303096781502 0.025276366859878004
0.08845965617336883 -0.07780208018280926 0.03341075988942976
0.09178879183041691 -0.07193619577317165 0.026492171916252624
0.09758410211638026 -0.0591771608347435 0.000916950281304306
0.10391326358127645 -0.048465380091505444 -0.009898868331302973
0.08384142643371666 -0.0834337051526483 0.02970084011236974
0.09404507674425852 -0.06610614511814589 0.011953763016536754
0.08167073858617717 -0.0772444077372261 -0.02468471124001098
0.08593959220137651 -0.07092551428454598 -0.02702257515924497
0.08132277016572409 -0.08484667972786356 0.01792170121496621
0.09112046027044128 -0.06777533167211745 -0.0012685109756377234
0.08547236986307225 -0.07394575178263016 -0.011557987344420234
0.07989545301466414 -0.08359341628874137 -0.0010388846275396109
0.08061056380033024 -0.08444514897704034 0.009762661948740493
0.0884738512460425 -0.06934189438400093 -0.01379618340395787
0.0889065192501614 -0.07277248411632495 0.009696790895992208
0.10041940742949249 -0.052218544483647024 -0.015726741263227102
0.09191315397474982 -0.06554753429163986 -0.007745781846743579
0.09682656232353909 -0.05756291803553196 -0.014016387496696581
0.09273763855655393 -0.06264271888901406 -0.017901228237373078
0.08029072708510551 -0.0815333247901032 -0.009790157608953132
0.0884524512228478 -0.07046348585859111 -0.007447027425904387
0.08662123552034806 -0.07687093807652635 0.014851156985119658
0.0836642539246213 -0.0825490151837827 0.023701787666162075
0.08206689716505994 -0.08146747528858736 0.004349754768071727
0.0853507780458231 -0.07762876958833072 0.008871389351540478
0.08530906025318231 -0.07302296465873291 -0.018261015503599536
0.08924594393652449 -0.06723775163914862 -0.019722618540004604
0.08492942743454361 -0.07656595233822744 -0.0007560596803904054
0.0961112573349527 -0.05702257713784327 -0.02362598195320479
0.10106735354953768 -0.04930834477648761 -0.028813082095088694
0.10174370527061177 -0.0493585768261239 -0.022041399777640823
0.09209847247185025 -0.0622741851930549 -0.02616903801394726
0.08019698169380679 -0.10275419523210416 0.010138854130721691
0.079940175705812 -0.10046271866219253 -0.007286559309573455
0.07862350154573117 -0.09479275837157312 -0.005482411002597886
0.07865020945152015 -0.09275070711579458 -0.023486098113857476
0.10847207302585202 -0.046412905323162335 -0.025091104581276544
0.11224779763432371 -0.0467144849351035 -0.010336781734399232
0.10967410632807 -0.046441434357185014 -0.01623529778951618
0.09011848309283348 -0.0982415438614481 0.031689437829387074
0.09786698409590049 -0.09002151094735718 0.03387096000101726
0.09509605670320298 -0.0906512275817596 0.018244403339927478
0.08905209391661693 -0.09716780049687836 0.01720193829748026
0.10078791085841987 -0.0861145588335681 0.02949995570204808
0.09470960454023555 -0.0901521737998119 0.012298717647901542
0.09262738788869286 -0.09047451234047478 -0.00040430708363239703
0.08974279758057169 -0.09242940289171911 -0.0083187187596792
0.08770044155670847 -0.09680641735344259 0.00529241379489449
0.09157739909577836 -0.09282821958568468 0.007257456701269061
0.08733404267328858 -0.09621787130078835 -0.0010855501306692335
0.09357693757123603 -0.09324821254756258 0.024139745070927494
0.0920491177117694 -0.0963461326271442 0.03762463963083145
0.10727070022755492 -0.07690041158872446 0.019557608534158416
0.10831265184582911 -0.07779779977522762 0.03264470384471527
0.10567816566946117 -0.07807492811745244 0.01296009413969566
0.10526629492835689 -0.07717522203413044 0.004498549581609317
0.10690633285301687 -0.07304194240498443 -0.002661417729415501
0.11150989850104229 -0.06243711022224285 -0.015069502287824355
0.10537844466763166 -0.07260104132305216 -0.01709901602601185
0.10928250151381902 -0.07020928045205206 0.003307985305841199
0.11172041214602729 -0.06000146704772391 -0.024776188571263107
0.10919460751746284 -0.06836735059258905 -0.0060334040527940625
0.11133154939676104 -0.06791705185100215 0.009160560109003178
0.10851104546349266 -0.06728690108660942 -0.01663052271844947
0.10688142323026792 -0.06843582765050182 -0.02442301928876099
0.10376596808272477 -0.073818948695384 -0.023766003134107327
0.0824482235309271 -0.10447988664514025 0.0365300636200078
0.08248392180320235 -0.09311485241012657 -0.03068265859767412
0.09274505197557811 -0.0861652432690581 -0.026173913053348617
0.08746082185857432 -0.09216674312903152 -0.024487868821611903
0.08819208755448164 -0.08999410930250148 -0.030291281981445747
0.08308343593845371 -0.09684904668080249 -0.020756088037951
0.08221959515343617 -0.10054276528735187 0.0028057253525547252
0.08401013263357418 -0.10276633615058722 0.02970312269685973
0.08334436160111808 -0.1018594976644152 0.0190882628019744
0.08611049115491713 -0.09892549305180465 0.011817243475076258
0.126233171636526 -0.02671900187119124 -0.004471096792112232
0.12454615903770194 -0.024425697352259572 -0.023113852000513108
0.12528930329939322 -0.024771859612910514 -0.015861588592172553
0.12535837521500606 -0.028227839530144266 -0.010237685258997046
0.11554434451258735 -0.0344041892235303 0.03782200068235397
0.12323602239725316 -0.045666986148420935 0.03782200068235397
0.12068739949867098 -0.018035513544572432 0.03782200068235397
0.11834738096403982 -0.040103135844052964 0.03782200068235397
0.12308769055991953 -0.03460777754774621 0.03782200068235397
0.11116585729420411 -0.012100057544205185 -0.026669426666147706
0.10967315083501122 -0.01918207157579159 -0.025123876830151964
0.11276344398671687 -0.004719136947875334 -0.027228630392921636
0.11390942082906177 -0.0005730789813904053 -0.021301084918364764
0.1271786385366021 -0.020413069713418566 0.03782200068235397
0.12453878973100022 -0.007499421494041684 0.03782200068235397
0.12353448989262514 -0.027256511938031178 0.03782200068235397
0.11257400485462739 -0.04765599966049194 -0.004287891956363438
0.11319869862659301 -0.04765599966049194 -0.021420190890809467
0.11109321963514068 -0.04765599966049194 0.001551166647984891
0.11974600436395054 -0.04765599966049194 0.015074451110922475
0.13277906775697912 -0.00238270710264648 0.03165431235737499
0.12021936044710614 0.0015795858632965303 -0.02457410914140687
0.12735770533039162 0.0011789365224017115 0.0125420485586764
0.13017524059735763 0.0007471194861329893 0.007060404328519608
0.12848025259066054 0.0008739136660964236 0.0005761613960093594
0.12188172456717461 0.0013027754487918081 0.009784617807928473
0.12547968947119068 -0.0187720633162223 -0.02131470316451603
0.1279344092969693 -0.009061631871621418 -0.007303586222676144
0.12892997924114274 -0.0052730895105648915 -0.0014922637241830154
0.1262271344779285 -0.005414983017100329 -0.02599219791832474
0.12851590618475792 -0.0015748633309285464 -0.008444620697600503
0.13183353076879437 -0.005529224890427706 0.025178323708817986
0.13113325648352525 -0.00473391655276429 0.01811514636166074
0.12661762803687826 -0.00886483795252443 -0.01946822924046322
0.12482635623085848 -0.017715506525736672 -0.028174925498642797
0.12567003111773178 -0.012314124802388622 -0.02513427811114028
0.12697612608665212 -0.012100482093108822 -0.013419939375567992
0.1286615727542138 -0.011038547291122615 0.0010206677810442634
0.11666180908690532 0.0011808689369466362 -0.031840341482848145
0.11510818398399222 -0.017794287411249044 -0.03174033493438384
0.11009657422486908 -0.027923268819453406 -0.03213088676315349
0.1067235256239525 -0.041197599960650984 -0.03219528093648051
0.11635973960592548 -0.025258530512375837 -0.03133563103411738
0.11828648772895241 -0.00931588102540318 -0.03155580614529001
0.12780999009300087 -0.02052346343045802 0.002529304696162157
0.12750706300950818 -0.016088472498949017 -0.00498106056285794
0.12850511254081243 -0.024792276698344936 0.013576072039916995
0.13151712769477136 -0.016762524810150406 0.03366270898432444
0.1308158906074366 -0.016099130959283763 0.026333811109211507
0.1305902380235607 -0.02261643946922617 0.03102413505629609
0.12952441243995325 -0.015877078121854616 0.013883027390756461
0.1310124617071335 -0.024672314344599055 0.037171634121825836
0.12614151123959583 -0.01898417325921572 -0.014867612058515325
0.12913349045939912 -0.013025513711392066 0.007198390069647955
0.1321374305506219 -0.01067981692766414 0.033161167671955497
0.13057472759169841 -0.010687292923865985 0.018384787448595667
0.1295077616221793 -0.02311149548349355 0.021301627868183088
0.11679029430942889 -0.022933411568715787 0.037682284435512026
0.12156402893658946 0.0003221504947323509 0.0370261508570037
0.11581879342196694 -0.04745895547037524 0.03782200068235397
0.11658980406104678 -0.04765599966049194 0.03182914753633052
0.11516522173019177 -0.04765599966049194 0.021839452294736474
0.10668332149350931 -0.034410323558456725 -0.020733334655917802
0.10986513929861629 -0.020143267845371612 -0.018231031941492455
0.10531975032079155 -0.039866251397416966 -0.024062257599829936
0.11158486927210498 -0.011967616219036983 -0.018470968550165855
0.108086278579948 -0.027473462742651833 -0.02184494681561544
0.10866263150481581 -0.02694870900922796 -0.01510287757892046
0.11237198155238459 -0.015282390782125822 -0.00549430111795938
0.11641750057106032 -0.005831183222161559 0.0106207508443855
0.1164606301955666 -0.002165298702655665 0.004652753903045418
0.11067622787012316 -0.024370341097199346 -0.0034207836246969367
0.11919950771574961 -0.004075187440200782 0.029871653525799544
0.10737757178083628 -0.036287438385063764 -0.009309116735121725
0.1093777255320858 -0.03147528404161696 -0.001581647168791181
0.11474333718234864 -0.0005807386751373988 -0.01182621899284166
0.11462108264924808 -0.015548650736773247 0.012972411726635286
0.11377780266158351 -0.007009643559051534 -0.008485328779862297
0.11416217916466828 -0.01292126971345552 0.004773216673457322
0.11490659100735146 -0.005175281531574232 -0.002606424690050206
0.11325441397514499 -0.01935529500523786 0.008585474232889412
0.11106346337160215 -0.017650228270671 -0.011893527954889495
0.1124751489097659 -0.019300336996116177 0.002251385585658957
0.10548503365444992 -0.04307380472245959 -0.012774969870653336
0.11837736384112776 -0.0021461436090105448 0.019966720664331226
0.10892365850793892 -0.02938274148632173 -0.00882102715921681
0.11313840841308806 -0.006186624818420773 -0.015022238002455935
0.11695567484341908 -0.008394088516279142 0.01934361432648193
0.12873616760603845 -0.03341828479056125 0.03668949238339554
0.12902322342439507 -0.02861409870943979 0.023633659716595538
0.12958387206187622 -0.02934954122196436 0.029799779103838797
0.1231184366505674 -0.03517044982219327 -0.012119620668434347
0.12042172834849063 -0.04064361197271514 -0.020398621738547805
0.12172755783154207 -0.04060782431285928 -0.008852339442313891
0.12438105241502706 -0.03772201701828301 0.006500262927361746
0.1201666529754565 -0.04350567437362186 -0.014423104994577322
0.11862958960030608 -0.044659838431256316 -0.024808070912650186
0.12238195799489718 -0.0426381675073885 0.003580634972959698
0.12164283896863909 -0.04269529827332955 -0.003255309722592069
0.12583861208458152 -0.03833752190426534 0.02231039829977968
0.12556902095706038 -0.0417542010431097 0.030964038058116827
0.12544395319108753 -0.03695406425325075 0.01401887885240732
0.12778249523854146 -0.03530789705314185 0.030837246722663077
0.12335449964982187 -0.04199676914335482 0.010716789225658035
0.11951569414485365 -0.047359925896405024 -0.008156619410711274
0.12268117636153084 -0.04682043584446862 0.020152474636380965
0.12861284968689787 -0.012880545610618303 0.03782200068235397
0.13238585411978038 -0.0048280771070391155 0.03728116483938392
0.12843633234877372 0.0006283263844893922 0.03471076833707008
0.11591873573955701 -0.01480930355030086 0.021894074420889684
0.11160627946021062 -0.03185275441380667 0.015892200159597896
0.11131207804676208 -0.0294183975734286 0.009922366929854015
0.10791013354911531 -0.041682238893103345 0.00336189929418621
0.10794941990859651 -0.037872702135529145 -0.0022322026276325084
0.11183624504458006 -0.0360653740588288 0.024129043034757183
0.10941456856072188 -0.035020297963565185 0.004348604052667115
0.11232391328848365 -0.0398212981429619 0.03359294888926943
0.1067199311775926 -0.043909656804760666 -0.0021226443118789566
0.11321744727407383 -0.025728417070820835 0.01851053457582175
0.11449126601662518 -0.01965626238438011 0.018679082759162618
0.11285471906775277 -0.029966525472736826 0.022340990873316424
0.10993853867866424 -0.041923839757663575 0.01895040244907942
0.11804604128178509 -0.012329619518380738 0.034017861315452536
0.11447714718626305 -0.024080643943978415 0.025412394061579163
0.11372291227940137 -0.03081196929661267 0.030160183475984093
0.11112745880956562 -0.04209165486705862 0.02812788320867357
0.10815628574620964 -0.04597635391777301 0.01184613340059806
0.11613379841763506 -0.019029760987164437 0.0300312464936063
0.10908348774143928 -0.03979116365455925 0.009239984031620197
0.12273472073348715 -0.02814571963405895 -0.03023495395209909
0.12658400872812797 -0.029564537429872237 0.0028759835054512177
0.12317614939023713 -0.032495592184162495 -0.01915396297798087
0.1280507847062583 -0.029892196253777426 0.01678518914878631
0.12466942310750839 -0.032831668724940734 -0.004986523115119899
0.10930301828553253 0.022627350117494054 -0.021858725046573997
0.10541279457940003 0.03960826902245112 -0.024999902087959783
0.11080943627170017 0.016438405148470288 -0.019231514538260455
0.10697152711032212 0.03297123658021324 -0.023132327230212323
0.10801362199495977 0.02764022234173566 -0.025145548066612854
0.1282177270461725 0.02850454437822145 0.03782200068235397
0.11728108803314503 0.035819905206167166 0.03782200068235397
0.12499291950071784 0.03417830603125006 0.03782200068235398
0.12139777639370695 0.026687147442756146 0.03782200068235397
0.1108369925111366 0.047240492055711764 0.02150053863521076
0.1167196141871287 0.04700218177286469 0.030991566861794422
0.11591098624365678 0.04712808627984379 0.024931530333304423
0.10827517949505383 0.04781944192133812 -0.006891467414582072
0.10495281870515483 0.0474062844407505 -0.01733167781724388
0.11370365703905788 0.014707004941545273 -0.03208827392058947
0.11824756281429191 0.016077740599111424 0.03744831697654458
0.11882938997587736 -3.3972667603151424e-05 -0.0003601511969359653
0.12582216760951498 0.0005599825480093188 0.02630593611920227
0.125225365073954 0.0004361720104744331 0.020512871889396288
0.12969508140179506 0.013005968177514446 0.012247146009255146
0.13042201287041338 0.01390704996870733 0.020007720705699263
0.12888731628354355 0.009963619559987506 0.0016692159893732465
0.13056487997017704 0.0066463452347928515 0.014410998092059521
0.13174688084379607 0.008030521250681722 0.026952246402287813
0.13129624909143128 0.005305073642660003 0.020066552003390546
0.1310920286861121 0.023337332093281576 0.03539522752751985
0.131940300979557 0.01318045951838313 0.0337188248112367
0.1304683911903861 0.020736129004609024 0.02698687238581504
0.1282675885369677 0.005378630737838664 -0.008601581887830782
0.12976205458963735 0.007853212937065849 0.00794870873788338
0.1281722786772354 0.008279685096074484 0.03782200068235397
0.12853699612008962 0.018490620008439772 0.037822000682353966
0.13292341341037567 0.004613570191123214 0.03494369097636835
0.11913612617501812 0.010150701295602292 0.035957898112647
0.11161278449699118 0.04021590786959828 0.02755758709267689
0.11580001879491107 0.024837663893093394 0.033705129389394864
0.11422805615094675 0.02943402639504042 0.030118535368014197
0.11518553369945408 0.030654944639574085 0.036671406983510575
0.11270057516096223 0.040933639523192386 0.0342750604096365
0.11715917140531833 0.015279389892999916 0.030170049329553937
0.11278773661904457 0.031199292140855213 0.022457372139304804
0.10583609784046726 0.042268590090358424 -0.013415087347402262
0.10811085297788309 0.041397162497153396 0.0028812342567631176
0.11179379160742503 0.03023106230024499 0.013101489365589757
0.11023803367548068 0.0407303638002322 0.01836572603814189
0.11431151422031181 0.02353986844554204 0.021649372298184175
0.10824345806600662 0.03791038084424897 -0.0018621663334671273
0.10685380761570556 0.04141610016512767 -0.006890779892465747
0.11606989390031938 0.01582751131937772 0.022583267429381743
0.11324319243208075 0.023049550874891613 0.012505337922400241
0.10980372391915827 0.038567604861541274 0.011394983166290815
0.10988995267953924 0.03200012576500442 0.0011852257863507378
0.11562826061782584 0.00564925952685567 0.0015411635678837148
0.11865190604144701 0.006150538369612437 0.02661972629481233
0.11700623612488734 0.005548087121333723 0.012399035755067006
0.11060783525405046 0.022393449155154035 -0.009637510732112409
0.11353762448054752 0.011384322516862737 -0.005258881322776768
0.11333508533322664 0.005404209890771956 -0.017244585399287006
0.1146408088930565 0.01764104784630565 0.014417525578323775
0.11153229799723609 0.023321575960667727 -0.000626980012083141
0.1120999705182377 0.016639874760839262 -0.007661640723986107
0.1126027789887337 0.021593092482851673 0.004948577902761483
0.1088727053798797 0.032388628374171245 -0.006207960036186955
0.11737188452830698 0.007832234369497976 0.019285327202740846
0.10778825717082251 0.03222859006176091 -0.015168308659003562
0.11496700096172206 0.003406217134435186 -0.007640798174816175
0.11243229265409194 0.012238086480623404 -0.012629441947350509
0.10945073151801601 0.024368692308956143 -0.015478987973898474
0.11405164280499074 0.012314366756937251 0.00046861486855695467
0.11540206004596536 0.010810051800229916 0.008674075774311167
0.11124053195085515 0.04764910046515067 -0.023015507687736057
0.11386743504487747 0.04760418545629291 -0.0031186794545248957
0.11324326086530853 0.047526258807944366 -0.01524290515576427
0.11819079884013528 0.04692780808468664 -0.0206677944497384
0.12382109986671502 0.027550541403971722 -0.026977250504989062
0.12645640790569815 0.033506813127513864 0.013648867233987371
0.12495774427418953 0.030549184155006362 -0.008510550079465133
0.12470577539145136 0.0414709574113708 0.020741495425954146
0.12432908116754207 0.035684405937512535 0.0006072746601423953
0.12519556740773505 0.04416101794137342 0.03296086945249687
0.12624923908920943 0.02871999843624766 -0.002057729555719031
0.12451856592705696 0.03999111589156437 0.014766659812012865
0.1268760212027155 0.03628647033080863 0.025489299398501055
0.12471574551693321 0.03678179807110964 0.007290000253539734
0.12804994840577932 0.03482001498204806 0.031921367631966006
0.12811027794064878 0.03061302423866326 0.020319955670742997
0.12494943179782232 0.015431929104860895 -0.028680279855112005
0.12594546963620545 0.007076339116831665 -0.028609607274342273
0.12721723953735975 0.027343014179171298 0.0034136552215728085
0.12741273896103994 0.029201277339933496 0.010038433204458984
0.12932436769688638 0.028375399908856198 0.025740792816320992
0.12497715505865616 0.026275752748540566 -0.018905929083041315
0.12805780968851427 0.01631055879735709 2.0132451919373847e-05
0.12721757459078573 0.009213732532591792 -0.014810904261854068
0.1279010948696115 0.01152588750225989 -0.006155672638517112
0.12639400790997707 0.02454283861562863 -0.0073935217311427125
0.12478563920240307 0.021758069383397985 -0.025143413389056873
0.1257191825840891 0.019582205075205868 -0.018576774961446108
0.12599959714590134 0.012903996981446508 -0.022539472024909454
0.1293590364205966 0.02452211249697067 0.02025050828843874
0.1266002311644498 0.016761010344939948 -0.013135673018097902
0.12875711769164544 0.023333234580511817 0.013463235245985798
0.12874765040959385 0.017453137540241533 0.007582127783720534
0.12162942616023104 0.040149984289550425 -0.01080427685447225
0.12192837666641522 0.03419314532041194 -0.025316319031167343
0.12228971652611917 0.040337521309600215 -0.00431896405294826
0.12331973525172807 0.033808035672120505 -0.013903952602675636
0.12275787542650737 0.04616732879263192 0.016731480017059444
0.1193997840262158 0.04637469201739724 -0.012898084166285854
0.12198688016637747 0.045570457810829725 0.00806749973323585
0.11937048262289512 0.04187202726244633 -0.02616534803334939
0.12387111744006979 0.04604527489843957 0.02640002741992174
0.12047483249819138 0.04098755348602497 -0.018778680566434624
0.1201452069983136 0.04157242435856957 0.03782200068235397
0.12684712376214993 0.04013058515049191 0.03736428505678088
0.13165719070338902 0.000661448283694191 0.024304259469894778
0.12580611888896062 0.0005688970235968113 -0.023144557621549437
0.12126233452358377 -0.00012775647361316795 -0.01185433778787057
0.12795403407292233 0.0013959498802470136 -0.015212859897296312
0.12219960294751989 0.021707678436442727 -0.030548880903035137
0.1253565771956186 0.0009270734144887147 -0.029541705401707623
0.1061297267299213 0.03482606841571745 -0.032499998807907104
0.11206865309460583 0.009735952442416458 -0.023239032596223598
0.10931617495933915 0.02075281184446147 -0.029652276501881358
0.11342585762175261 0.002868989610301765 -0.026789256040705825
0.09694604320348545 0.08209191443472347 -0.02258633209656246
0.09811981405770967 0.08228023321905825 -0.013399741599163417
0.10460921320944433 0.07572690487947065 -0.007414912226996251
0.10187930929067904 0.07758403009402538 -0.01524031570243776
0.10606139994072737 0.07694907845820863 0.009786577772365506
0.10230459039227954 0.07547740653636459 -0.02474273202353397
0.10225718863510205 0.0794027186514507 -0.001910853151940328
0.10414700487605491 0.07825783373719433 0.004336700500769599
0.07893824301275414 0.08028285194572335 -0.023917524671361667
0.08321928059304878 0.07375067397282824 -0.031160233891830993
0.10200054650337177 0.06619763990251368 -0.03105666089064564
0.10239799125430551 0.048276283135514825 -0.032420095441767056
0.09014227688169496 0.07528100659155415 -0.03162348968821811
0.09663397054262539 0.0602337799434228 -0.03210375967638723
0.12130548173976982 0.0538929819461563 0.03774712976080734
0.11217003114504143 0.04913761052700663 0.03782200068235397
0.11166028444013053 0.05663701261500073 0.03782200068235397
0.1099297310750339 0.06650405179559742 0.03782200068235397
0.09811742797925649 0.06602198631209243 0.03610734071681724
0.08464176980563418 0.07784441919673292 0.003009421552548507
0.08089933987351956 0.07944476648416011 -0.013178883551679293
0.09916839722846602 0.05980081347100462 0.01665890392245417
0.10170758812630942 0.06020964880695306 0.03385607111865167
0.09311868699652603 0.06722017142117184 0.010579461399422903
0.09349769536825574 0.06842037932186844 0.017882220821396542
0.09829128564186068 0.0643325000253713 0.030144866581742966
0.08343087307443611 0.07804021943745537 -0.0035671051512057737
0.08618468469861809 0.0797974301438961 0.020545474420799348
0.10675769552478297 0.05213778427434799 0.031121977036767775
0.0869624875123045 0.08124854187137584 0.031325277091414416
0.08686789705912011 0.07607913649792612 0.009257542003635821
0.08070466551944908 0.08303506887584697 0.0005586727909302531
0.09836467806972196 0.06274687062393673 0.024000976188104924
0.09369124748485366 0.07017957554906844 0.02637692193368337
0.09125807634786999 0.07512940760310721 0.0321040528809705
0.0890155046162108 0.07171970640302464 0.004241957525962351
0.10268267446978815 0.057460362422755804 0.028377932680448432
0.08895583680052455 0.07686238298145696 0.025257084241357225
0.09017497654223938 0.07287430115089662 0.01611852645153957
0.08859537909718018 0.07092755652850607 -0.001615361916254691
0.08455523765682396 0.08060583703929132 0.013961141104176615
0.11664397054430142 0.047170056494137316 0.011422635373736497
0.11740509974471715 0.04729180355991224 0.018212547796782934
0.0967637720920429 0.0853940024971962 0.014384568432066935
0.09527050471771016 0.0853940024971962 -0.006165437492828259
0.08541105551095451 0.0853940024971962 -0.023788228111864426
0.08418754429410247 0.0853940024971962 -0.010990582522284659
0.10048375719877786 0.0853940024971962 0.02938514333458884
0.07571430835834818 0.0841209618986928 -0.03076615107972486
0.11535022418689918 0.049130751194359654 -0.02899038302655533
0.10812053444589059 0.04655215519417591 -0.028622288825040986
0.11529373807934361 0.047025916054930936 0.005721732023786642
0.08293292950174805 0.07480891835887052 -0.02370035998276193
0.0877204063572955 0.06827396827145017 -0.023151404885356153
0.09375277895536543 0.0598588616818384 -0.024493944428418984
0.09726043906481097 0.05477872797758633 -0.02737762941285316
0.08489588626121902 0.07306637137451451 -0.017411078782331755
0.09724240782574525 0.05591470028604226 -0.018343772504074242
0.10285524191624287 0.049816055864827256 -0.009593185380980125
0.09649996171820059 0.06174124529500962 0.007611405335796805
0.10638857311049338 0.04720674004705959 0.002557873138701936
0.10225588728912431 0.053651215093532774 0.006669136271096724
0.10286125435199386 0.05418389791803601 0.014042650603674555
0.10595505834632224 0.049137171774584876 0.009764355548200652
0.09597327798314301 0.061203050184314 0.000792548606975931
0.10325083648877398 0.050624033135928934 -0.0022908874051966108
0.10216736001346849 0.05633418014485262 0.020502567711127132
0.10685575162333354 0.05058303760340947 0.024263639670875883
0.09876324245642583 0.05639815712691823 -0.0044363855416768485
0.09225030412734561 0.06563670434378334 -0.00291365924034438
0.10074114395047604 0.05061592338155707 -0.0209757374852974
0.09004295719307832 0.06738753872084505 -0.00985255666218694
0.10683867371255154 0.049016375892419486 0.01567508544525813
0.09472648182549098 0.06059190128794899 -0.011769062389079755
0.08610436483661738 0.07244226790519717 -0.011805805270336351
0.09253102544885983 0.0664420627384787 0.003521258777519542
0.08998160290207186 0.06611092950619278 -0.017203374844241507
0.11653608952520751 0.06373973782681301 0.032965489585777795
0.11907734724939752 0.0597799622070677 0.03753844951501601
0.08713072467119526 0.0853940024971962 0.024829437913313213
0.08971265835788826 0.08539400249719618 0.015707209922313572
0.09275108013739786 0.0853940024971962 0.021475378054750895
0.08371666187618779 0.0853940024971962 0.017712933523752958
0.09191550961411243 0.0853940024971962 0.030044389896426018
0.08991902610469926 0.08252057275662858 0.0377897871763563
0.09992524908958281 0.08217836378740158 0.03700261033186327
0.10487665014424884 0.07096846770605425 0.03782200068235397
0.09934084597810261 0.07347772778670683 0.03782200068235397
0.10623819691951468 0.06153569748498332 0.03782200068235397
0.10469234426676356 0.07815452388035002 0.03782200068235397
0.09310798782910149 0.07748374058308351 0.03782200068235397
0.10520965494841053 0.05557243772070033 0.03591473867643619
0.11186981943011917 0.058140492735328356 -0.030038090935252643
0.11865882944047892 0.05021335435545949 -0.00622394691545472
0.11318525254017435 0.05995321099970556 -0.012778520366593148
0.1069434904253548 0.06837700222591876 -0.024180795257971052
0.11006374494501778 0.06493805215211511 -0.014927895141900335
0.11879870695719773 0.05765441216037084 0.021758877227135907
0.10454198943376453 0.07136524183679116 -0.029731037152123198
0.11475689192624382 0.05928404719830511 -0.003226418359262446
0.11655481595592287 0.05968886825960552 0.013086408923284916
0.11198590995922653 0.06049225006192503 -0.019937240200448098
