-0.0139506743395 0.033199767268 -0.0380499996245
-0.0196918826899 0.0863546612517 -0.0380499996245
-0.0682616466383 0.0257951928402 -0.0380499996245
-0.100868204434 0.026992615346 -0.0380499996245
-0.0634370706389 0.0298179154015 -0.0380499996245
-0.0960114625341 0.0231760704245 -0.0380499996245
-0.0568427780756 0.0479382137085 -0.0380499996245
-0.0406794843229 0.0691220497104 -0.0380499996245
-0.0264207557495 0.0888791674278 -0.0380499996245
-0.0467231476091 0.0140613714605 -0.0380499996245
-0.00614964472363 0.0801537860917 -0.0380499996245
-0.0169105961029 0.0799389842069 -0.0380499996245
-0.0325562811046 0.0283089206361 -0.0380499996245
-0.0055273935248 0.0512553960415 -0.0380499996245
-0.0116982734114 0.0537880484546 -0.0380499996245
-0.00878113310238 0.0213132534684 -0.0380499996245
-0.0202891499096 0.0641971030869 -0.0380499996245
-0.0354362500012 0.0152891439323 -0.0380499996245
-0.0233662450843 0.0390987079549 -0.0380499996245
-0.0460387843681 0.0350422112674 -0.0380499996245
-0.0443538288566 0.0407470475865 -0.0380499996245
-0.0759494439445 0.058454097127 -0.0380499996245
-0.00617066937653 0.0310075958225 -0.0380499996245
-0.0770832376519 0.0462982917989 -0.0380499996245
-0.0295185822911 0.0204757665934 -0.0380499996245
-0.0243230289111 0.0325881190595 -0.0380499996245
-0.023252127306 0.095700623248 -0.0380499996245
-0.0134359645458 0.065358021113 -0.0380499996245
-0.0103700418456 0.0396760650956 -0.0380499996245
-0.0287700789043 0.0740979090775 -0.0380499996245
-0.0140024647056 0.108119653762 -0.0380499996245
-0.120739168393 0.00268447066027 -0.0378711066506
-0.121432996665 0.00932277876226 -0.0360825693655
-0.0924802167478 0.00590770038445 -0.0380499996245
-0.09849862772 0.00740329589585 -0.0380499996245
-0.0788580871902 0.0103201443603 -0.0380499996245
-0.00756887166627 -0.00035771998758 -0.0380499996245
-0.113329211231 0.00446097333528 -0.0380499996245
-0.101115022098 0.0197051194092 -0.0380499996245
-0.106759275057 0.0172139938755 -0.0380499996245
-0.0442073764813 0.0078297021178 -0.0380499996245
-0.0827037859833 0.000467079206978 -0.0380499996245
-0.0932967751957 -0.000282519184851 -0.0380499996245
-0.0981229956776 0.0140596877402 -0.0380499996245
-0.113526335381 0.0187808240403 -0.0380499996245
-0.08664124756 0.0116870594788 -0.0380499996245
-0.118737639204 0.0161506036351 -0.0380499996245
-0.0597114852568 0.00345197508233 -0.0380499996245
-0.0547565240051 0.00718803044381 -0.0380499996245
-0.0431815080317 -0.000278875225524 -0.0380499996245
-0.0728963206097 0.00934797760112 -0.0380499996245
-0.0244579063814 0.00162291038329 -0.0380499996245
-0.111083288065 0.0121604894551 -0.0380499996245
-0.103827152611 0.00128764462656 -0.0380499996245
-0.0366136274475 0.00353940261458 -0.0380499996245
-0.105248410262 0.0105822412476 -0.0380499996245
-0.0764306459144 0.00228366480922 -0.0380499996245
-0.0654044836488 0.00254354922422 -0.0380499996245
-0.081598241947 0.0562918689765 -0.0380499996245
-0.0652740760853 0.0710337886471 -0.0380499996245
-0.0272046283877 0.102724049075 -0.0380499996245
-0.00737921721061 0.118305773736 -0.0380499996245
-0.0203447574458 0.107656474722 -0.0380499996245
-0.0384889237691 0.0983719762227 -0.0380499996245
-0.0627110699634 0.0769612486621 -0.0380499996245
-0.0372367768778 0.0924072198657 -0.0380499996245
-0.0504202326387 0.0847728749709 -0.0380499996245
-0.0445916989686 0.092163977992 -0.0380499996245
-0.0721860300258 0.0671829068759 -0.0380499996245
-0.0171319928458 0.115473784215 -0.0380499996245
-0.0984743801864 0.0443761089737 -0.0380499996245
-0.00485829766278 0.122397287638 -0.0345241762588
0.00028636034655 0.0698541515923 -0.0333830507121
1.65865591733e-05 0.11470893294 -0.0377796806881
3.86334274907e-05 0.108123924085 -0.037420372532
5.12946451571e-05 0.0110631302287 -0.0370686759054
2.15945578615e-06 0.116245390369 -0.0303360310417
-0.0330105483496 -0.00151712689457 -0.0373732762458
-0.10306918711 -0.00183056817594 -0.0327992777827
-0.0251724608301 0.0248284005203 -0.0309464513614
-0.0254374969169 0.0640370955189 -0.0305604491437
-0.0689184534206 0.011074621361 -0.0306475551082
-0.0101334705119 0.0145065966889 -0.0311963631919
-0.0292202310727 0.036451270832 -0.0307927046642
-0.00253158798317 0.0402149802176 -0.0310203001735
-0.0373383401967 0.0107068110196 -0.0309640063269
-0.0191622245927 0.0551077638329 -0.0307099260381
-0.0152348703348 0.000799835635159 -0.0312798477347
-0.0125381872376 0.0963074170953 -0.0303727045467
-0.0477528136939 0.0331394660831 -0.0306414901756
-0.0157154989247 0.0815265455758 -0.0304857529474
-0.0141040389816 0.090431896335 -0.0304146420549
-0.0172699640871 0.0268218253351 -0.0310052476545
-0.00509704471663 0.049629943678 -0.0309028268904
-0.0189410317763 0.0201444892907 -0.0310539828458
-0.0912483452036 0.00882339833962 -0.0304483515979
-0.0084768978724 0.0873453450469 -0.0305005682981
-0.0082985531144 0.0216101978574 -0.0311450832563
-0.0617664898768 0.0102321526941 -0.0307266450212
-0.041563226417 0.0181601477567 -0.0308492740516
-0.0542167490648 0.056735852334 -0.0303467320507
-0.0776653922605 0.00392014119699 -0.0306308571822
-0.0728633531354 0.036430583644 -0.0303605474597
-0.0462187220021 0.0111887660559 -0.0308713185331
-0.0517846335683 0.0484463239202 -0.0304518800311
-0.0245289918576 0.0171657717772 -0.0310277500221
-0.0601669514124 0.0276670926921 -0.0305720150156
-0.00401056541951 0.0831647371329 -0.0305856922711
-0.005172152858 0.0761046430658 -0.0306432172814
-0.0129844911027 0.00796392213912 -0.0312320922401
-0.0467933433476 0.0541749390398 -0.0304453137478
-0.00823382463755 0.0276151447351 -0.031087009056
-0.0310564994775 0.00875610235568 -0.0310453123909
-0.0864806859907 0.0162593747247 -0.0304228755529
-0.00383345496113 0.0133826578481 -0.0312697652805
-0.0826832343316 -0.000792280085916 -0.0306272242372
-0.0558568747447 0.0375217478557 -0.0305183563671
-0.0377932290098 0.0247343136747 -0.0308223411168
-0.00208624030715 0.0566833490859 -0.0308636869255
-0.0102913980445 0.103266252089 -0.0303269204043
-0.0569496062908 0.0213512725838 -0.0306656434173
-0.032646381928 0.0311418580227 -0.0308106774238
-0.0810152603879 0.0190811844652 -0.030449428684
-0.0225764277811 0.0495929267465 -0.0307300257667
-0.0360801830227 0.0557619164029 -0.0305359286329
-0.0194879093103 0.0937527267308 -0.0303288350781
-0.00753009763215 0.0706143504436 -0.0306735410571
-0.0268602844965 0.0558791815621 -0.0306261208355
-0.0861766168244 0.0244964948552 -0.0303453465835
-0.0359857699852 0.0365956680277 -0.030724268581
-0.0198692307043 0.0611118138452 -0.0306442152613
-0.0582219767251 0.0459034060564 -0.0304129714389
-0.0454206582962 0.0472351977264 -0.0305267682542
-0.0203754342519 0.00487987760443 -0.0311890276686
-0.0478972613525 0.0256173886288 -0.0307136088908
-0.0563427320229 0.00810041778954 -0.0308012203591
-0.0181808493066 0.0120774590307 -0.0311403919284
-0.0304995129094 0.0153597927259 -0.030986260424
-0.0476724704964 0.00385405884624 -0.0309286343154
-0.0402141354055 0.0419679014533 -0.0306298505461
-0.0262775430932 0.00106064868997 -0.0311679010573
-0.0736616156559 0.0283715713385 -0.0304314390911
-0.0363982546366 0.0621364208268 -0.0304704486688
-0.0409848292623 0.0322260764807 -0.0307174695752
-0.0148931159552 0.0756532937158 -0.0305513278043
-0.0841689179601 0.00819437888476 -0.0305246358417
-0.0248123979279 0.0742036710657 -0.0304672346036
-0.0146545628424 0.0673384801624 -0.0306349920463
-0.0301322598206 0.0708507274952 -0.030447316874
-0.0447390944054 0.0622678500773 -0.0303865333453
-0.0923903790347 0.0146070665687 -0.0303804859895
-0.027902660656 0.0431772179201 -0.0307399921688
-0.0337114515662 0.0757998658099 -0.0303634669692
-0.0627154581522 0.0201120727832 -0.030620639536
-0.0467182240651 0.0411451999258 -0.0305734607155
-0.0382803529124 0.00088687795657 -0.0310506918798
-0.0175497408473 0.0360193671349 -0.0309125438412
-0.00456509784961 0.0950060549827 -0.0304644160996
-0.076370409575 0.0109114606307 -0.0305753261468
-0.106388218052 0.00310129486598 -0.0303543152098
-0.100651313044 0.00534793529452 -0.0303891817239
-0.00859452068948 0.0619542755284 -0.0307476730126
-0.00437569607723 0.101358800004 -0.030404176284
-0.0701540125363 0.00405410717043 -0.0307039602971
-0.0682296280665 0.0180431515559 -0.0305862418815
-0.0746372565474 0.0187317744276 -0.030516030156
-0.0673132145906 0.0260828665054 -0.0305167094232
-0.024047717341 0.0818609931567 -0.0303999379511
-0.0624126526618 0.00266210604353 -0.0307942624287
-0.0126568787405 0.053612123905 -0.0307889967092
-0.0372366838683 0.0484169682691 -0.0305962892938
-0.0101094807156 0.0386438692794 -0.0309605903162
-0.0667354659802 0.0436086178864 -0.0303510689085
-0.0538790837946 0.0286425129523 -0.0306247695481
-0.0216556514246 0.0690962752936 -0.0305484468856
-0.0534874369029 0.0140733176397 -0.0307711048267
-0.0068452328383 0.00748844035966 -0.0312975612405
-0.0247521582476 0.0105565895903 -0.0310901627447
-0.00254175525783 0.0199209056427 -0.0312186317864
-0.117536272465 0.00230236050689 -0.0303452813242
-0.123461463841 0.00544441340432 -0.0303807999488
-0.0486643051496 0.106865986502 -0.0372467573443
-0.061256634744 0.100787738372 -0.0370496091563
-0.0665416396447 0.0979651137654 -0.0369995063844
-0.0708337183504 0.0931912747938 -0.0372570609317
-0.0910173878809 0.0629789568566 -0.037784252123
-0.0465756577129 0.101568746933 -0.0378316228283
-0.0739315552137 0.0858228089121 -0.0376186805144
-0.0894376353903 0.0564825450174 -0.0379665138211
-0.0829887473279 0.0708105905203 -0.037773068395
-0.0543588579194 0.0980604966559 -0.0377487356581
-0.0664031952306 0.0885665859994 -0.0377137625126
-0.0539094711074 0.0907340023381 -0.037926316862
-0.0893105928388 0.069238539427 -0.0376764247
-0.0588675718917 0.0873296444744 -0.0379003564351
-0.0716390284576 0.0782688949723 -0.0378401766339
-0.0350929586726 0.103973496562 -0.0380175044488
-0.0934553540856 0.0502458345552 -0.038025299979
-0.100554822928 0.0526149331431 -0.0378218792793
-0.0744072391142 0.0729223101738 -0.037904766582
-0.0616682248667 0.0936395495062 -0.0376967431476
-0.0852558075206 0.0638152405213 -0.0378860196371
-0.0991350069394 0.0623173424362 -0.0372580282395
-0.107430755697 0.0460218055055 -0.0376704389382
-0.0928509063558 0.075382815287 -0.0368867420692
-0.0855331348221 0.0796159088395 -0.0373506278693
-0.0283244747195 0.117954211404 -0.030410964902
-0.0414347151977 0.1089197672 -0.0304201659769
-0.0169987646505 0.10958633408 -0.0303576286284
-0.0680652804111 0.0963153917452 -0.030454984937
-0.0474725132894 0.0983743198007 -0.0304064850138
-0.049174007442 0.105562877701 -0.0304311441655
-0.0767990934087 0.0878217770783 -0.0304541684814
-0.0369048593466 0.103370447445 -0.0303926523066
-0.0625128280868 0.0992263234977 -0.0304485192389
-0.0236769715592 0.113989200727 -0.0303875874315
-0.0307669787627 0.0932254371599 -0.0303503228228
-0.0916153983609 0.0428731673875 -0.0303763586058
-0.0702113392964 0.0561880886865 -0.030356032509
-0.0293482315145 0.0849756088136 -0.0303257806166
-0.0629960555212 0.0733343483718 -0.0303813295528
-0.0621333095138 0.0659650786826 -0.0303604303014
-0.0530877786832 0.0902097074228 -0.0303991263183
-0.0853970303608 0.0436685859023 -0.0303626487819
-0.0798321781294 0.0575692994741 -0.0303838775802
-0.0290580977671 0.101602340169 -0.0303672760892
-0.0743885852293 0.0725946586622 -0.0304082695485
-0.0919433685439 0.0212010297019 -0.0303221442709
-0.0383100825835 0.0974438207375 -0.03038011802
-0.0599528954664 0.0578157332384 -0.0303342165841
-0.0359228362824 0.0904306247494 -0.0303562667459
-0.0729006403861 0.0799170479653 -0.0304231033916
-0.0942646220465 0.0359098438951 -0.0303653743225
-0.0229508594943 0.101873132024 -0.0303525149077
-0.0247603052578 0.0893645681747 -0.0303253222338
-0.0457997339016 0.0925428304892 -0.0303866161641
-0.0417046917384 0.07533476527 -0.0303325513909
-0.096056458878 0.025808415062 -0.0303442508659
-0.105596383664 0.0117636859142 -0.0303327116867
-0.0984428184858 0.063334651736 -0.0304455984346
-0.046981763676 0.0715812034689 -0.0303363668602
-0.0974304857866 0.0486551190252 -0.0304057538173
-0.0641666553859 0.0500501952254 -0.0303251524684
-0.0991215550362 0.0160598220202 -0.0303272444132
-0.0696410263255 0.0650931122354 -0.0303772072592
-0.0821441685454 0.0728872951565 -0.0304286314291
-0.0507296404119 0.0656722127684 -0.0303308395913
-0.0585110650352 0.0838324269101 -0.0303966478023
-0.102896573456 0.0294022218222 -0.0303706814408
-0.0939513558219 0.0682685394856 -0.0304467681036
-0.08715340501 0.0372408204873 -0.0303507661727
-0.0671296470034 0.0788454428797 -0.0304057832932
-0.0984667053523 0.0415136814625 -0.0303902368741
-0.0814867100188 0.0329934625883 -0.0303256439741
-0.0788444677873 0.0636302517022 -0.0303967729626
-0.0852726484157 0.0502836081575 -0.030379135306
-0.00447328336022 0.110397965856 -0.0303274255793
-0.0507813102166 0.0782545173898 -0.0303629274587
-0.0756071601555 0.0434287963601 -0.0303372751651
-0.0498546395081 0.0840265417088 -0.0303752434143
-0.0575811913583 0.0778151445236 -0.0303790125884
-0.0425721530292 0.0867216236793 -0.0303636666417
-0.0885386467286 0.0585962169474 -0.0304085097963
-0.0791412231423 0.0506970441678 -0.0303646752355
-0.0377053466251 0.0809661508428 -0.0303367374667
-0.0718129540801 0.0481907345959 -0.0303397718979
-0.11227380775 0.0424541527695 -0.0304349618428
-0.115075386466 0.0176242739707 -0.0303767037282
-0.109106045228 0.0317925428237 -0.0303930780106
-0.105235160603 0.055501834242 -0.0304440919884
-0.11996226527 0.0227058630988 -0.0364793607257
-0.118222537805 0.0378647476374 -0.0311213821832
-0.119331089167 0.0290424310261 -0.0345973619424
-0.0394603221192 0.110981153443 -0.0374065986685
-0.0295032140084 0.11574492201 -0.0374991223718
-0.0340720156185 0.118122748184 -0.0335840009797
-0.0580881632076 0.105923562731 -0.0356678252068
-0.0422579757286 0.1153056962 -0.0334343049394
-0.0538796372367 0.110329925223 -0.0338968176695
-0.0832707710119 0.0862655180396 -0.0361782181308
-0.0776237676684 0.0917555134506 -0.0360851389272
-0.048022411439 0.114521972998 -0.0307128094219
-0.0203142239505 0.120396959084 -0.0361450007875
-0.0116385223307 0.122155991977 -0.0347006519405
-0.112935081506 0.0463216237495 -0.035163432084
-0.115994293463 0.0341454682024 -0.0373060546471
-0.108460731866 0.0521533733728 -0.0367870600335
-0.103831627052 0.0577202030271 -0.0370436638049
-0.113233986992 0.0393797717667 -0.037460363001
-0.100022724993 0.0689994106287 -0.0353703496861
-0.104986547024 0.0651469645489 -0.0331764676823
-0.0919296718419 0.0828969513873 -0.0321797363261
-0.000468530316246 -0.0585984963149 -0.0312096241436
-0.000623202026287 -0.0789224018379 -0.0327353002016
-0.000174718441493 -0.0521962775297 -0.0365599916319
0.0261972271409 -0.0257555858209 -0.0380499996245
0.0972064548631 -0.00451421550326 -0.0380499996245
0.0479478729873 -0.0560960882036 -0.0380499996245
0.0344599209448 -0.061459928598 -0.0380499996245
0.0365728124202 -0.0736029658346 -0.0380499996245
0.0519967210277 -0.00519659905854 -0.0380499996245
0.071774495743 -0.00747069656266 -0.0380499996245
0.0608951905282 -0.0220516155114 -0.0380499996245
0.0115075542552 -0.087145346102 -0.0380499996245
0.0828062536443 -0.0167208257722 -0.0380499996245
0.0181426148418 -0.0383308034014 -0.0380499996245
0.0241843025327 -0.0446914016347 -0.0380499996245
0.100609768808 -0.0107594202246 -0.0380499996245
0.0216688787435 -0.0213147618355 -0.0380499996245
0.11185718456 -0.00708736436168 -0.0380499996245
0.0624773817672 -0.011092392807 -0.0380499996245
0.00266375324776 -0.0279497545115 -0.0380499996245
0.0289062210041 -0.0709228111349 -0.0380499996245
0.0352605150767 -0.0550220777091 -0.0380499996245
0.0421706785041 -0.0495070845308 -0.0380499996245
0.110816970231 -3.17288175153e-05 -0.0380499996245
0.0427514066157 -0.0146816746654 -0.0380499996245
0.0563847135873 -0.017113200113 -0.0380499996245
0.0843577252419 -0.00932637892156 -0.0380499996245
0.0879069101072 -0.0037610349947 -0.0380499996245
0.0317540744143 -0.016559780932 -0.0380499996245
0.0925155073198 -0.0140774900228 -0.0380499996245
0.0247544306029 -0.0131844579792 -0.0380499996245
0.0399976979587 -0.042448859347 -0.0380499996245
0.0788780145421 -0.0210395208264 -0.0380499996245
0.0763711842026 -0.0382886427133 -0.0380499996245
0.0268621836958 -0.0375423619288 -0.0380499996245
0.010431563557 -0.0706938640937 -0.0380499996245
0.0770892437579 -0.0278429917803 -0.0380499996245
0.0213500197682 -0.00558031706552 -0.0380499996245
0.068811854868 -0.0305604711739 -0.0380499996245
0.0103013730719 -0.0460913271311 -0.0380499996245
0.0628363751281 -0.0281199561291 -0.0380499996245
0.04131400515 -0.0567634241228 -0.0380499996245
0.0180337328594 -0.0615048061301 -0.0380499996245
0.0536450700199 -0.0424956688816 -0.0380499996245
0.0154302001698 -0.00724346696828 -0.0380499996245
0.0983576209597 -0.0179989557497 -0.0380499996245
0.0706325870583 -0.0433945758732 -0.0380499996245
0.0435545538346 -0.00305606482377 -0.0380499996245
0.0256554212616 -0.0911233887351 -0.0380499996245
0.00533135962748 -0.08392264517 -0.0380499996245
0.0826619799464 -0.032830612103 -0.0380499996245
0.0881053243733 -0.0213604040723 -0.0380499996245
0.059781479565 -0.0383129654266 -0.0380499996245
0.00779020530332 -0.0206840327865 -0.0380499996245
0.0744591080236 -0.0144020927654 -0.0380499996245
0.0440855832504 -0.0639604101141 -0.0380499996245
0.00707054821615 -0.0589237742885 -0.0380499996245
0.0329915018999 -0.0337988096474 -0.0380499996245
0.0524650988952 -0.0345745295919 -0.0380499996245
0.0599923129031 -0.054399232132 -0.0380499996245
0.028886857605 -0.0511253698524 -0.0380499996245
0.059801104113 -0.0484176542727 -0.0380499996245
0.0552248662331 -0.0249678097526 -0.0380499996245
0.0649530523619 -0.017715351464 -0.0380499996245
0.00642145129063 -0.0778920289778 -0.0380499996245
0.00187527082416 -0.0408922381844 -0.0380499996245
0.0511376540669 -0.0620109841878 -0.0380499996245
0.00374263240363 -0.066995723777 -0.0380499996245
0.0709992234847 -0.0229685795436 -0.0380499996245
0.0447717107833 -0.0359725897675 -0.0380499996245
0.00116318154252 -0.0905120025192 -0.0380499996245
0.0100882805019 -0.0378380174874 -0.0380499996245
0.0269050042762 -0.00733275138224 -0.0380499996245
0.026355635357 -0.078089077934 -0.0380499996245
0.00896190971765 -0.0980034611584 -0.0380499996245
0.0218774376067 -0.0525748805452 -0.0380499996245
0.0018888744031 -0.0339963845684 -0.0380499996245
0.0139853114798 -0.0659210770425 -0.0380499996245
0.0393731483039 -0.0252899331367 -0.0380499996245
0.063023462172 -0.00283260010037 -0.0380499996245
0.0872980676862 -0.0272267620997 -0.0380499996245
0.0193761327636 -0.0954803937812 -0.0380499996245
0.0341557585444 -0.00811094209245 -0.0380499996245
0.00489734280024 -0.0154150048856 -0.0380499996245
0.0266395773485 -0.0563843256402 -0.0380499996245
0.0190271872519 -0.0764818742521 -0.0380499996245
0.0464863837992 -0.0731211372472 -0.0380499996245
0.0116989405813 -0.0272611035507 -0.0380499996245
0.00329035781894 -0.100071975957 -0.0380499996245
0.0150030393247 -0.0994409999729 -0.0380499996245
0.0149051252105 -0.050688209638 -0.0380499996245
0.107216291953 -0.0113733551536 -0.0380499996245
0.0332562906891 -0.0804316812163 -0.0380499996245
0.0137468531434 -0.080715668753 -0.0380499996245
0.0170726285903 -0.0156223853862 -0.0380499996245
0.0359580968756 -0.0484538364804 -0.0380499996245
0.00595847929354 -0.105993139006 -0.0380499996245
0.0342248678379 -0.0416666640749 -0.0380499996245
0.0334998476344 -0.0273056009716 -0.0380499996245
0.051112749043 -0.06790354935 -0.0380499996245
0.045658852548 -0.0293379957907 -0.0380499996245
0.00753264084733 -0.00640362084061 -0.0380499996245
0.0287897287445 -0.0847743466811 -0.0380499996245
0.0250232761257 -0.0649646926299 -0.0380499996245
0.0334611178612 -0.00171405129205 -0.0380499996245
0.0101972620256 -0.0113435618376 -0.0380499996245
0.0499546708339 -0.0140139145031 -0.0380499996245
0.0797481383877 -0.00167773333882 -0.0380499996245
0.0532824034499 -0.0518808866838 -0.0380499996245
0.021332149808 -0.0694766213661 -0.0380499996245
0.00531676672299 -0.113035473745 -0.0380499996245
0.0238370188506 -0.0322696699876 -0.0380499996245
0.044899096746 -0.0217981991836 -0.0380499996245
0.0667970179782 -0.0484526472385 -0.0380499996245
0.0461018609128 -0.0425724657608 -0.0380499996245
0.106143419348 -0.0226403494941 -0.0380499996245
0.0963275726414 -0.0270229097493 -0.0380499996245
0.0818590087897 -0.0428721149804 -0.0380499996245
0.015794669043 -0.106393855058 -0.0380499996245
0.0748359974545 -0.0483839571156 -0.0380499996245
0.112881203309 -0.0288405162532 -0.0380499996245
0.0804546334238 -0.0528409883632 -0.0380499996245
0.0997317734182 -0.0336546888473 -0.0380499996245
0.0938189807053 -0.0399432866304 -0.0380499996245
0.105094212214 -0.0356888918823 -0.0380499996245
0.0636739367169 -0.0600126955099 -0.0380499996245
0.0402093556452 -0.0868548779301 -0.0380499996245
0.113142406235 -0.0149301000068 -0.0380499996245
0.0917513412872 -0.0314597948119 -0.0380499996245
0.103383441135 -0.0276967091863 -0.0380499996245
0.0575874412679 -0.0738667842227 -0.0380499996245
0.0585656594579 -0.0674157249688 -0.0380499996245
0.0422263113188 -0.0811292454552 -0.0380499996245
0.112089296335 -0.0208114852035 -0.0380499996245
0.0747867789649 -0.0610122842931 -0.0380499996245
0.0893095254118 -0.0504233647566 -0.0380499996245
0.0706716629659 -0.0544013041913 -0.0380499996245
0.0914760844911 -0.0559397962752 -0.0380399866206
0.0809050198195 -0.0760195630886 -0.0377475524055
0.0676667216704 -0.0793979075231 -0.0380331374292
0.0907031729944 -0.0676573978465 -0.0377117008545
0.0884660888658 -0.061748118739 -0.0379539994733
0.0772301455383 -0.070301960479 -0.0380261152463
0.072732618784 -0.0876876036387 -0.0376369197666
0.0599207290168 -0.0931734822056 -0.0378469407881
0.0742755257929 -0.0770759740116 -0.0379095942039
0.111233464724 -0.038674672258 -0.037979771132
0.0825091078707 -0.0672753917817 -0.037962521315
0.0647762588813 -0.0893897774903 -0.0378183883158
0.0974769841903 -0.0574108893626 -0.0378206263725
0.0521761568713 -0.0821072857842 -0.0380499996245
0.0299895195058 -0.107758514879 -0.0380499996245
0.0664915159417 -0.0730383001239 -0.0380499996245
0.0455925759133 -0.0986401130944 -0.0380499996245
0.0160320894071 -0.114872103173 -0.0380499996245
0.0248665109759 -0.101648259139 -0.0380499996245
0.0514676253133 -0.0888149394559 -0.0380499996245
0.0399911961642 -0.102082299657 -0.0380499996245
0.0218929396085 -0.107584348651 -0.0380499996245
0.0317126087544 -0.100799800851 -0.0380499996245
0.0815916697504 -0.0596242530215 -0.0380499996245
0.0257985653975 -0.116310854306 -0.0380499996245
0.0992876006801 -0.0456411067236 -0.0380499996245
0.0590654983601 -0.0849719255282 -0.0380499996245
0.039090087831 -0.0964360429027 -0.0380499996245
0.0499749151059 -0.0946371395834 -0.0380499996245
0.0861090789718 -0.079010516979 -0.030461470879
0.0707541456215 -0.0952834489455 -0.0304663280247
0.0797223455625 -0.0867508388466 -0.0304667552992
0.0264248331739 -0.103341725134 -0.0303496135204
0.0747902783983 -0.0906377577709 -0.0304638143163
0.0563457286938 -0.0960064241509 -0.0304220227367
0.0610306205945 -0.100805812952 -0.0304533394021
0.0693953496197 0.00110119817805 -0.0326284668862
0.108444587155 -0.00466643662509 -0.0303190208234
0.00646641185163 -0.00507122204984 -0.0313300015213
0.0696457006656 -0.0159248343563 -0.0305913547349
0.0240441765808 -0.0291385723034 -0.0309116252988
0.0441188017017 -0.017841162465 -0.0308260642707
0.010968194077 -0.0737003049822 -0.0305910975929
0.0836290653072 -0.0054029779129 -0.0305585814333
0.084373935795 -0.0177356993382 -0.0304264376756
0.00356781877646 -0.0458516057035 -0.0309464131226
0.0238031814625 -0.043963294279 -0.0307640913469
0.0753268759245 -0.0137189315345 -0.0305571150554
0.0326823319311 -0.02322963301 -0.0308854037058
0.00359417907143 -0.021701876948 -0.0311903938292
0.0407686564332 -0.0347827462611 -0.0306880690023
0.0251034696817 -0.0056896720506 -0.0311382363875
0.0776249289126 -0.027340029528 -0.0303964809125
0.0434616074287 -0.00963596877068 -0.0309155907393
0.0708959844824 -0.042226406438 -0.0303129034191
0.0569120004924 -0.030768412321 -0.0305679804831
0.0434903408546 -0.0576384311804 -0.0304298222647
0.0313065337062 -0.0514042243113 -0.030614148841
0.0206692765987 -0.0180438364345 -0.0310574273392
0.0507966604912 -0.00695534619534 -0.0308696897954
0.0228763407096 -0.0671586695729 -0.0305387259237
0.00960907391115 -0.041422283643 -0.0309310762586
0.0126232373203 -0.0249647011583 -0.0310675207934
0.000124945144638 -0.031646516747 -0.0311243489375
0.0150305701677 -0.0819704710465 -0.0304670193738
0.0383457804668 -0.0207078035931 -0.0308545356619
0.0947587515957 -0.0104576887869 -0.0303966764765
0.0690497213402 -0.0277429613671 -0.0304777620366
0.0751053332703 -0.0346050743786 -0.0303480840893
0.0104876744232 -0.0179667162651 -0.031159553362
0.0509592040458 -0.0222726279961 -0.0307131574816
0.0689705293189 -0.0348336972773 -0.0304068367312
0.0167217379069 -0.0746919745542 -0.0305237982828
0.014049691096 -0.0114203892024 -0.0311903051961
0.0489354684359 -0.037077409448 -0.0305835703182
0.0554725300753 -0.0420845374362 -0.0304678608575
0.0919991903524 -0.0168707125656 -0.0303592853177
0.0463672104177 -0.0654747830727 -0.0303219318556
0.062043781837 -0.0354983544348 -0.030469062334
0.0382109093001 -0.0504085428448 -0.0305554938047
0.0190204707049 -0.0490341634914 -0.0307604124449
0.0576123796401 -0.0490436714602 -0.0303761785461
0.0887543819958 -0.0116345273249 -0.0304445408278
0.0377969916948 -0.00572574137748 -0.0310115222892
0.0359844850628 -0.0713472695226 -0.0303658872947
0.00525902362222 -0.0370754612501 -0.0310183384232
0.0115453462407 -0.0892723687345 -0.0304278615428
0.0192907955932 -0.0602844666586 -0.0306439394915
0.0593487902285 -0.0252747254768 -0.030599286561
0.0805548374504 -0.0104991323522 -0.0305376408364
0.0110473458565 -0.0344460908721 -0.0309873150432
0.00281667893404 -0.107049083429 -0.0303349569667
0.0047731307171 -0.0657507023899 -0.0307331621601
0.0320826362874 -0.0452301589091 -0.0306688662795
0.0416409719302 -0.0257139376538 -0.0307711053148
0.0168858353471 -0.0923116553873 -0.0303439647306
0.0146896301863 -0.00401604811314 -0.0312588206226
0.0306195435971 -0.0676453014311 -0.0304567296626
0.0058502528803 -0.0774029820222 -0.0306045930056
0.0205782590564 -0.0353923427235 -0.0308828757389
0.0370140347419 -0.0604337309475 -0.0304660155671
0.0730287429604 -0.0217193757724 -0.0304990762197
0.0573432917596 -0.0154895852619 -0.0307182129395
0.0110027628753 -0.0953005332387 -0.0303722952889
0.0505034490731 -0.0538525737909 -0.0303983039212
0.0627549890834 -0.0103249951715 -0.0307165788738
0.070568969204 -0.00593716818163 -0.0306831769179
0.0283189865703 -0.0369671194001 -0.0307898989478
0.0470580079083 -0.0315143087515 -0.0306585217896
0.00653833100618 -0.0296274325654 -0.0310809315223
0.0260745586581 -0.0206336378672 -0.0309774315465
0.0267837104354 -0.0607281915334 -0.0305648685062
0.0358141400418 -0.0300100966275 -0.0307856546152
0.00704689950576 -0.10133886835 -0.0303506014201
0.0500443487981 -0.0471448606917 -0.0304707135252
0.051424405601 -0.0157871551407 -0.0307741190609
0.00391902524212 -0.0526173005396 -0.0308744910665
0.00538314178547 -0.0931113679344 -0.030450372665
0.062670333736 -0.0425356948614 -0.0303916521914
0.00454206506846 -0.0139702125534 -0.0312591544505
0.010624313064 -0.0502456401482 -0.0308317339553
0.0113790743343 -0.0672396259035 -0.030652349121
0.0645797626605 -0.0225923120186 -0.0305743474143
0.0378909157727 -0.0425685207854 -0.0306379705945
0.0939179122168 -0.00351783839311 -0.0304752336178
0.0295384210597 -0.0139902773097 -0.0310101417603
0.0205452278277 -0.00977265620446 -0.03114231433
0.0222949178956 -0.0879149609295 -0.0303345904265
0.0253374396703 -0.0527034814458 -0.03066042396
0.0603404953507 -0.00415957496088 -0.0308029675669
0.021811246137 -0.0808021084878 -0.0304113420686
0.00603171330008 -0.0853370323856 -0.0305225441784
0.1039243964 -0.00929905385511 -0.0303171611876
0.0104566737083 -0.0601730199614 -0.0307330000774
0.0174555150535 -0.0413821144089 -0.030853380288
0.0547046367716 0.000833830937914 -0.0367070618781
0.116314309758 0.00114052236886 -0.0328874948692
0.0646548124478 -0.071544594683 -0.030374151385
0.0912030030459 -0.0565471250717 -0.0304117926998
0.0185284419565 -0.103620938818 -0.0303262317112
0.0715193360254 -0.0710747932669 -0.0303937822638
0.0676850105215 -0.0493216371776 -0.0303188774183
0.0519496549998 -0.0682007228636 -0.030325580769
0.0903981069943 -0.0460692330703 -0.0303789000725
0.0623387276526 -0.0858688750482 -0.0304086694394
0.0806501497369 -0.058878071064 -0.0303862862744
0.0767818774752 -0.0543814837585 -0.0303613956746
0.0697586790236 -0.0786357086417 -0.0304103563377
0.0842513655022 -0.0515964069164 -0.0303761526222
0.108800703011 -0.020274652917 -0.0303602699456
0.085862543856 -0.0634678303156 -0.030415558503
0.0838775732038 -0.0300135983262 -0.0303123266431
0.0100074535205 -0.108696651187 -0.030314911392
0.059995615954 -0.0560019994669 -0.030314760918
0.09001144073 -0.0259619315093 -0.0303193200177
0.0695125053526 -0.0636228029649 -0.030366001584
0.102951189112 -0.0243568285468 -0.0303542348802
0.0638770623291 -0.0790954382673 -0.0303937024529
0.0218375601686 -0.0981647782396 -0.0303205064623
0.102792766006 -0.0393576930962 -0.0303973171936
0.0771243753766 -0.0406876625176 -0.0303226723909
0.0814429396305 -0.0683525756898 -0.0304162277472
0.103131047825 -0.0606950103285 -0.030460321585
0.0671979227343 -0.0555187877551 -0.0303353859679
0.0333392952442 -0.0807812022704 -0.0303051978702
0.0507776879017 -0.0917714042267 -0.0303904523622
0.100630161313 -0.0510787640681 -0.0304247441969
0.0467005498824 -0.0727128913441 -0.0303226308927
0.042960014182 -0.0948287080044 -0.0303754211058
0.028498259227 -0.0853921377415 -0.0303037829315
0.0873346370475 -0.0394946861009 -0.0303504359843
0.0364851677397 -0.0978481561254 -0.0303643869766
0.0987966825697 -0.0307089092357 -0.030359976499
0.0413366256091 -0.0839719582124 -0.0303389247857
0.0499674699151 -0.0793217145116 -0.0303518167861
0.0630489466473 -0.0647139997603 -0.0303494017784
0.0752682049452 -0.0632146995191 -0.0303824202855
0.0785303536211 -0.0478780928697 -0.0303478557026
0.0351595118778 -0.087423652262 -0.0303300566469
0.0569142869758 -0.0610220696433 -0.0303199163332
0.09715253284 -0.0404805086478 -0.0303833273799
0.0573991105873 -0.0814140286154 -0.0303806233322
0.0283921958601 -0.0969748524042 -0.0303370980914
0.0835816813069 -0.0444219367896 -0.0303532676375
0.0930111146019 -0.0357836812512 -0.0303570198011
0.106539161989 -0.0334815451776 -0.0303917096049
0.102532405032 -0.0182278236453 -0.0303351536135
0.100314352475 -0.0638466217986 -0.0370679485216
0.108735356695 -0.0443352979258 -0.0378082391898
0.103670738669 -0.0538428246912 -0.0375519470544
0.0880609114136 -0.0756901699765 -0.0373945667392
0.11126751571 -0.0511412688595 -0.0343622778652
0.100956869599 -0.0710659985303 -0.0326915076795
0.0844782165953 -0.0830288557846 -0.0369449857217
0.0178805062297 -0.117984284114 -0.0303838919891
0.00568077594594 -0.114646930746 -0.0303225204057
0.011230537214 -0.117628058345 -0.0303587135868
0.0397484103565 -0.111238692722 -0.0378149408812
0.064511706862 -0.0985399939049 -0.0372029341679
0.0545489233881 -0.104859148582 -0.0372866746313
0.0716806187689 -0.0934434146944 -0.037209009024
0.0975884540733 -0.0768959885286 -0.0312842517811
0.0858163649754 -0.0895802086888 -0.0326783476995
0.00142267158268 -0.120560385733 -0.0374477060082
0.00838138512435 -0.122107532336 -0.0346939174256
0.0150264413321 -0.121089517024 -0.0361928471962
0.122852274433 0.000445505929001 -0.0345645288783
0.11861034407 -0.0223409273025 -0.0378697590061
0.120166430468 -0.0112053619405 -0.0373846698778
0.122591386811 -0.018034072715 -0.0331608006345
0.114454927468 -0.0434511070607 -0.034713568242
0.119456447732 -0.00501313225496 -0.0303556198254
0.106501426888 -0.0543410172524 -0.0304526467039
0.11455332211 -0.0228222959654 -0.030386583588
0.120415865967 -0.0312555304587 -0.0304495613988
0.12044668202 -0.0247708257459 -0.0304217630447
0.117812668352 -0.0385501783225 -0.0317577016622
0.118019611354 -0.0317142227346 -0.0360970184465
0.0501042150642 -0.111358667497 -0.0347825152608
0.0660727215193 -0.105547472817 -0.0318719009687
0.0759103926628 -0.097714494412 -0.0331100397156
0.0618802216449 -0.103759253685 -0.0365212579581
0.033355980269 -0.116419497703 -0.0370914196965
0.0425277668008 -0.117264706084 -0.0308710641486
0.0469210965886 0.0586022801114 -0.0380499996245
0.0684462569109 0.0328708941362 -0.0380499996245
0.00840769659281 0.0823423213308 -0.0380499996245
0.0623423464267 0.0199689147951 -0.0380499996245
0.0248686753062 0.0222079537811 -0.0380499996245
0.0130234747706 0.0150549103472 -0.0380499996245
0.00612934165046 0.0217270896844 -0.0380499996245
0.0211115499674 0.066880478515 -0.0380499996245
0.0859917759731 0.0215896849707 -0.0380499996245
0.07091345224 0.0463442470911 -0.0380499996245
0.0473413652805 0.016297409464 -0.0380499996245
0.030148883341 0.092115728955 -0.0380499996245
0.0832887329157 0.0419341690047 -0.0380499996245
0.00743462950179 0.0729844625035 -0.0380499996245
0.024845690102 0.0965971780368 -0.0380499996245
0.0265111839966 0.073165919713 -0.0380499996245
0.0714521554877 0.052652582899 -0.0380499996245
0.0252746872632 0.0869163471297 -0.0380499996245
0.0753995249291 0.0327410818094 -0.0380499996245
0.0351121948106 0.0895930531157 -0.0380499996245
0.0790676497428 0.0223930102241 -0.0380499996245
0.0900230311541 0.0272503361591 -0.0380499996245
0.0118255753236 0.0773033929645 -0.0380499996245
0.0394916132766 0.0566351046144 -0.0380499996245
0.00638224879973 0.0978826365332 -0.0380499996245
0.0303747025391 0.083112898719 -0.0380499996245
0.0233964195752 0.0592084796158 -0.0380499996245
0.093531206784 0.0339610824897 -0.0380499996245
0.0531014044576 0.0711068907104 -0.0380499996245
0.000707614072422 0.031632150459 -0.0380499996245
0.0383653727832 0.0784115837019 -0.0380499996245
0.0487747082962 0.0779608437355 -0.0380499996245
0.00773980082356 0.0115995545804 -0.0380499996245
0.0153808856616 0.0379234941995 -0.0380499996245
0.00673862745834 0.109028191344 -0.0380499996245
0.0413533356539 0.0640187405654 -0.0380499996245
0.0272736093853 0.065157398675 -0.0380499996245
0.013536370165 0.00839018122726 -0.0380499996245
0.0502507905237 0.0297986810489 -0.0380499996245
0.0315666778583 0.0125984739743 -0.0380499996245
0.0125796373754 0.0867738012032 -0.0380499996245
0.0217722602523 0.0507746380624 -0.0380499996245
0.00616998065082 0.00309486151443 -0.0380499996245
0.0136709572018 0.0218656891489 -0.0380499996245
0.0585446429986 0.0261969675366 -0.0380499996245
0.0883300953051 0.0367801426401 -0.0380499996245
0.0622631885665 0.0484822185917 -0.0380499996245
0.0566954602083 0.0511717276504 -0.0380499996245
0.0547072424982 0.0580145427044 -0.0380499996245
0.0617859898798 0.0693639242203 -0.0380499996245
0.0474403666848 0.0350040005506 -0.0380499996245
0.0797880711818 0.0369434619076 -0.0380499996245
0.0272701464156 0.00745221925874 -0.0380499996245
0.0739554126674 0.0185473056849 -0.0380499996245
0.0326248863312 0.0692646951299 -0.0380499996245
0.0613650846435 0.0350374977315 -0.0380499996245
0.0114534509353 0.0938617163371 -0.0380499996245
0.0215537684987 0.0120880490669 -0.0380499996245
0.0593360604134 0.0631496017994 -0.0380499996245
0.0845089210011 0.0506514099631 -0.0380499996245
0.0114340604325 0.0421538181538 -0.0380499996245
0.0148156644976 0.0689911034512 -0.0380499996245
0.0165782139465 0.0558964873526 -0.0380499996245
0.018161442279 0.0749389764596 -0.0380499996245
0.105407569302 0.0288869017697 -0.0380499996245
0.0245578144116 0.0801573581113 -0.0380499996245
0.0310543052856 0.0285071144957 -0.0380499996245
0.040607178625 0.0363319485941 -0.0380499996245
0.0100987551745 0.0640774569906 -0.0380499996245
0.100776426697 0.0346124871346 -0.0380499996245
0.013946821503 0.0285468940534 -0.0380499996245
0.0658515609561 0.0542126541933 -0.0380499996245
0.0391513286889 0.0148473327179 -0.0380499996245
0.0686283263914 0.0395913264913 -0.0380499996245
0.0353961277791 0.0208973804428 -0.0380499996245
0.0171417275885 0.0919921861455 -0.0380499996245
0.00296652450136 0.0583647479224 -0.0380499996245
0.0834393340095 0.0316026416871 -0.0380499996245
0.075634510545 0.041662780597 -0.0380499996245
0.00690170167598 0.0538861351646 -0.0380499996245
0.0498913605621 0.0498466326631 -0.0380499996245
0.0777334378972 0.0503271041148 -0.0380499996245
0.0705470308087 0.0605376558614 -0.0380499996245
0.0508728373848 0.0402561856227 -0.0380499996245
0.0191549133238 0.0450598563644 -0.0380499996245
0.0281528749119 0.0457530172475 -0.0380499996245
0.059442655538 0.0417466068852 -0.0380499996245
0.00392043109555 0.0483976110842 -0.0380499996245
0.0339734554037 0.052371659476 -0.0380499996245
0.0338162393109 0.0362584620001 -0.0380499996245
0.0395638557076 0.0429862982323 -0.0380499996245
0.0183430931877 0.0815081979385 -0.0380499996245
0.00947242110035 0.0335721664863 -0.0380499996245
0.0332714175355 0.042070754473 -0.0380499996245
0.042918992542 0.0697684499745 -0.0380499996245
0.00379476255168 0.0868876963869 -0.0380499996245
0.055022414908 0.035571276231 -0.0380499996245
0.0403377244161 0.0500268082788 -0.0380499996245
0.00456331342214 0.0393636899868 -0.0380499996245
0.0529835474494 0.0646544714107 -0.0380499996245
0.00462132033616 0.0671755119843 -0.0380499996245
0.0208865383995 0.0320704277662 -0.0380499996245
0.0408371761737 0.0262584467968 -0.0380499996245
0.0137552756301 0.0491351375682 -0.0380499996245
0.0728569696927 0.0264264689397 -0.0380499996245
0.0183882643399 0.0987700568778 -0.0380499996245
0.0958890981567 0.0409499259787 -0.0380499996245
0.0974947595664 0.0252897694343 -0.0380499996245
0.0310222113662 0.0597062404376 -0.0380499996245
0.0532923953325 0.0199188588794 -0.0380499996245
0.11911425084 0.010872553403 -0.0380499996245
0.0849037195473 0.00415299976513 -0.0380499996245
0.037749260821 0.00826385963794 -0.0380499996245
0.0869448126765 0.0160243122887 -0.0380499996245
0.0235710841519 0.00200315444019 -0.0380499996245
0.0617027176403 0.0132023676162 -0.0380499996245
0.118223562167 0.00450871970796 -0.0380499996245
0.0612515958806 0.00524951990113 -0.0380499996245
0.0966759184176 0.0127136275557 -0.0380499996245
0.0481570030213 0.0100131957205 -0.0380499996245
0.0742868922341 0.00332567269764 -0.0380499996245
0.105508653289 0.00449707277491 -0.0380499996245
0.11915382024 0.0210239426607 -0.0380499996245
0.112858768326 0.0235728815328 -0.0380499996245
0.0742150074701 0.0123909833779 -0.0380499996245
0.0906530711792 0.00151632387764 -0.0380499996245
0.109346851012 0.00957630011228 -0.0380499996245
0.0803761724161 0.0138692979488 -0.0380499996245
0.09602905391 0.00608804300704 -0.0380499996245
0.0558323258349 0.00954450035941 -0.0380499996245
0.044820870014 0.00302331071232 -0.0380499996245
0.0873188162727 0.00945090172744 -0.0380499996245
0.093649255734 0.0189857571841 -0.0380499996245
0.0674130701088 0.00347559239331 -0.0380499996245
0.104160705406 0.0213598328525 -0.0380499996245
0.107250651266 0.015774056067 -0.0380499996245
-0.000195134357191 0.046175517108 -0.0330827658081
-0.000266579224899 0.0628116310522 -0.0318238187422
-0.000140153624475 0.0918843680549 -0.0358310923505
-0.00042483506883 0.106006816497 -0.0313240256941
-6.11372222106e-05 0.0787187030396 -0.0370820772637
0.115862668411 0.0398299072324 -0.0343441076492
0.114362219681 0.0474146935267 -0.0322016259033
0.117292529713 0.0338646031101 -0.0357309536739
0.0678527917047 0.0698768888671 -0.0380499996245
0.0505526148096 0.0881480637546 -0.0380499996245
0.0533763084822 0.0818999854931 -0.0380499996245
0.0586257717764 0.0756372390702 -0.0380499996245
0.0786705525186 0.0609740493944 -0.0380499996245
0.0249674246089 0.111220512082 -0.0380499996245
0.03197135743 0.100153215202 -0.0380499996245
0.00714921583138 0.119670164217 -0.0380499996245
0.0430630488177 0.0876414841412 -0.0380499996245
0.0203935188409 0.115237072539 -0.0380499996245
0.00994278172042 0.114764281763 -0.0380499996245
0.0147255111378 0.10965098287 -0.0380499996245
0.0904806435372 0.0492690550447 -0.0380499996245
0.023599997 0.103357194255 -0.0380499996245
0.0358035720888 0.00049172081689 -0.0323244135002
0.0501045844022 0.000393349591796 -0.0319799741501
0.0192947127918 0.00060527898175 -0.032429986292
0.00826363518136 0.000681157569563 -0.0318701632003
0.0149734314158 0.000731758315947 -0.0380027557628
0.101077870009 0.000675627286592 -0.0375300434206
0.0546816394426 0.0159726715664 -0.0307518055503
0.0392224031606 0.0144281982411 -0.030922475382
0.0688665712811 0.00944695270625 -0.0306744635877
0.0546539779061 0.00933482539869 -0.0308183203736
3.76720982348e-05 0.00761543561963 -0.0313839923697
0.0370820276736 0.0555611271861 -0.0305335185036
0.022217934017 0.0429371103211 -0.0308087706262
0.00455404676209 0.0492507974332 -0.0309231677399
0.006419069861 0.0829133478206 -0.0305685290108
0.00753384135171 0.00719243933608 -0.031312928855
0.0934755392678 0.010329519019 -0.0304185074339
0.0761596979242 0.00745044748602 -0.0306211408015
0.0441592114215 0.0585089158816 -0.0304330268625
0.0107441996213 0.0357273269721 -0.0309959462095
0.00524431956359 0.0554113372668 -0.0308547611657
0.0578600992061 0.00132494174654 -0.0308660492659
0.0244707784329 0.0837807105482 -0.0303785795067
0.0387785598398 0.0218773848106 -0.0308525997942
0.0159345773603 0.00782674469599 -0.0312222302373
0.0359588859341 0.0470873965129 -0.0306293550227
0.0914764725078 0.00453485802196 -0.0304964073101
0.0552309800123 0.048549317131 -0.0304212162064
0.0506175423389 0.0629908079453 -0.0303234420528
0.00824259150155 0.0287695571581 -0.0310904994415
0.0931301319598 0.0206952454374 -0.0303185399972
0.0260191038104 0.0279560654886 -0.0309200864763
0.0645574061829 0.0356991841942 -0.0304557778735
0.0423951146716 0.0504397297822 -0.0305312637047
0.0754187097009 0.0261277365851 -0.03044220769
0.0877195503655 0.0158203515553 -0.0304215238433
0.0317047587065 0.0322381501713 -0.0308202555129
0.0360431248736 0.0624257792739 -0.0304754520218
0.0137360223357 0.0484309702047 -0.0308391334277
0.0754962376297 0.0143331654573 -0.0305591234549
0.0568209263031 0.0234608931728 -0.0306555979173
0.00507080391024 0.0903736295613 -0.0305076258769
0.0481346164212 0.0387603085031 -0.0305901668925
0.0667549601886 0.0460100623913 -0.0303308186418
0.0298153434207 0.0553576537027 -0.0306085286353
0.00451786595354 0.0659699335175 -0.0307566960106
0.081764835431 0.0321916951859 -0.0303179628101
0.0293551697028 0.00262544076244 -0.0311393486532
0.0979662769133 0.014177946175 -0.0303350044285
0.0135568914999 0.0144129570958 -0.0311803876954
0.0508150116863 0.0445407853584 -0.0305055659337
0.0656525219291 0.0152655229376 -0.0306486807571
0.00443952588217 0.0206704590766 -0.031209512249
0.042536540429 0.0331173553477 -0.030702697982
0.0244617439146 0.0706299063802 -0.030509898054
0.00911909823409 0.0434613779934 -0.0309350914909
0.0289288598416 0.0121784218465 -0.0310483038601
0.0244741451789 0.0190955374439 -0.0310240190585
0.0319836520579 0.0774203398553 -0.0303665954546
0.0487610951069 0.0107060821707 -0.0308638195905
0.0840041589936 0.00108010271011 -0.0306059261256
0.0705928855947 0.0192153159441 -0.0305596506329
0.00533546266834 0.0737848492735 -0.0306705022086
0.0336977499777 0.0179024083559 -0.0309432917256
0.0751341172106 0.0357572797288 -0.030348975632
0.0853141134508 0.00931455345598 -0.0305106011361
0.0407591842409 0.00585908989539 -0.0309925498858
0.0477241452423 0.0171126361449 -0.0308103047149
0.015266433032 0.0411906964299 -0.0308960118799
0.0619166594249 0.0513192871237 -0.030326430864
0.00270912145817 0.0308362931268 -0.0311254490831
0.0295151583132 0.0479457019347 -0.0306855049893
0.0207224296252 0.031569295659 -0.0309372259754
0.0133525341878 0.0961589249352 -0.0303667223022
0.0992813661152 0.00716632338751 -0.0303917637294
0.106091598679 0.00764554799233 -0.0303185861332
0.0168878390554 0.0568842964359 -0.0307231264174
0.0243546605349 0.0054965438763 -0.0311609192064
0.0813463801353 0.0162519099241 -0.030481223575
0.0524162406206 0.0336190425777 -0.0305984693963
0.0130669018741 0.0870827622153 -0.0304601591487
0.0116394079447 0.0769148815949 -0.0305759576936
0.0335724680789 0.00781470355267 -0.0310452120296
0.019832346337 0.0768956945156 -0.0304938669986
0.0399139393003 0.0403337359276 -0.0306570268847
0.107820536279 0.00136970416896 -0.0303638470195
0.0445034286946 0.0665024340211 -0.0303498050197
0.0267799124524 0.0387222461977 -0.0308050132387
0.0105509618038 0.0233036455355 -0.0311218589881
0.101991525796 0.000686216880882 -0.0304292084195
0.0581113665452 0.0309989747257 -0.0305674177632
0.0229081589925 0.0534095756519 -0.0306973371596
0.00337275568477 0.100317749675 -0.0304254501706
0.00626965834981 0.0138214203348 -0.0312594765645
0.0193605190217 0.0638587205969 -0.030628697524
0.0501235656789 0.0250124444225 -0.030707377449
0.0112953001565 0.0636836888728 -0.0307114435738
0.0688996868269 0.0299916753147 -0.0304691215647
0.0487555012879 0.05025950631 -0.0304691843663
0.0375638646513 0.0730083062719 -0.0303545793753
0.0153606874413 0.0703301144575 -0.0306042920247
0.0837679429722 0.0231834065154 -0.0303877364149
0.0317726615068 0.0678335191935 -0.0304643783674
0.0275004232197 0.0620172304907 -0.0305653236537
0.0626919171845 0.021249255213 -0.0306187044665
0.0514242173662 0.0561357233185 -0.0303837453408
0.0592757617008 0.0378718762125 -0.0304871411137
0.117185722444 0.0107609245066 -0.0303523875594
0.00464416154249 0.123419993928 -0.032549220762
0.000392308334528 0.121023364184 -0.0371847222683
0.0136480942135 0.120907916643 -0.0374080180242
0.1021279137 0.0617622250889 -0.0364757787715
0.106346951254 0.0528734554653 -0.0368158996234
0.0822934061508 0.088043416104 -0.0363014239913
0.0920612007887 0.077740737457 -0.0361738859025
0.109422272684 0.0429085489516 -0.0377855066867
0.121702340021 0.0224408208021 -0.0319802246963
0.119579697442 0.0283802987429 -0.0347993356077
0.0577087072399 0.0636979192702 -0.030335136755
0.104234039235 0.0538114583052 -0.0304325555479
0.0803882313915 0.0602961069511 -0.0303867223875
0.0359474020994 0.0929558350902 -0.0303607744177
0.0967996420979 0.0332669842935 -0.0303530389442
0.0800126031992 0.0451975459523 -0.030342062993
0.084664814429 0.0658877355995 -0.0304144663357
0.00401196330554 0.1113431323 -0.030327438112
0.0372387764399 0.0861661886256 -0.0303446462273
0.0690355275971 0.0640852112857 -0.0303669304279
0.0427992311217 0.0832825105764 -0.0303513692925
0.105556490993 0.0206637906196 -0.0303403240707
0.0955440458024 0.0271255120868 -0.0303318868292
0.0461756084333 0.0890878457041 -0.0303772931049
0.0728882132323 0.0752403503506 -0.0304096076574
0.00917721650642 0.108262877378 -0.030332522728
0.0626268425712 0.0676745078829 -0.0303599498457
0.0895675109667 0.034822609853 -0.0303379500898
0.0156122121019 0.102185709952 -0.0303323834102
0.101878284559 0.0595457323241 -0.0304427507477
0.0886155792926 0.0610394665009 -0.0304111515732
0.0576968123542 0.0816790054467 -0.0303870785905
0.0668612045748 0.0812145248601 -0.030410554147
0.0522133646462 0.0865146496033 -0.0303862061957
0.0722925241702 0.051818829501 -0.0303402949299
0.0635121594623 0.0755664094132 -0.0303851587941
0.0841993417564 0.0517171428503 -0.0303722459106
0.0633108392192 0.057775711273 -0.0303331898634
0.0499160229379 0.0809876084042 -0.0303640089286
0.0212330765174 0.0957168774792 -0.0303289072385
0.0969817497483 0.0417913969587 -0.0303781717921
0.026865507714 0.0925187283353 -0.0303349162499
0.0965850826518 0.0481812253936 -0.0303955672753
0.102255134415 0.0277181257298 -0.0303517740978
0.0897780824153 0.0693595900075 -0.0304383489398
0.104938625737 0.014466362746 -0.0303207372589
0.0722870993113 0.0429089902509 -0.0303145264879
0.0685247101449 0.0715954176996 -0.030387255215
0.0841334522434 0.0775991125014 -0.0304468789031
0.0850791538649 0.0405440902395 -0.030342333
0.0541977348071 0.0729265667231 -0.0303523039363
