0.00170566958043 -0.0147703000513 -0.0744960010052
0.0203513407624 -0.00529235000391 -0.0744960010052
-0.0130776361665 -0.00671054551183 -0.0744960010052
0.0130394536932 -0.00518701272841 -0.0744960010052
0.018802060408 -0.00765444594432 -0.0744960010052
-0.00402440167635 -0.00984970580658 -0.0744960010052
-0.0156924438854 -0.00914495952908 -0.0744960010052
0.00613180502653 -0.0163145814317 -0.0744960010052
-0.00480673603659 -0.00585529615787 -0.0744960010052
-0.000742718483012 -0.0206911419742 -0.0744960010052
0.0139185651913 -0.00833273076445 -0.0744960010052
-0.000903666864588 -0.0153803704023 -0.0744960010052
-0.0120789276535 -0.0138993805078 -0.0744960010052
-0.00716664609668 -0.00542241090663 -0.0744960010052
0.00847087535756 -0.0112184514959 -0.0744960010052
0.00643892850383 -0.0100221114645 -0.0744960010052
0.00125332899902 -0.00630803181815 -0.0744960010052
0.00506565048261 -0.0120224718581 -0.0744960010052
-0.0031462621713 -0.00734243224462 -0.0744960010052
0.00287482791903 -0.0124174894978 -0.0744960010052
-0.00332952406739 -0.0145580148662 -0.0744960010052
0.00133373535647 -0.010029930995 -0.0744960010052
0.000550292251318 -0.0170182697322 -0.0744960010052
-0.00647255618129 -0.0174828882764 -0.0744960010052
0.0257332061192 -0.0111000206744 -0.0697003436172
0.0244214524016 -0.0148069690407 -0.0689207258417
0.023675299633 -0.0169410336568 -0.0684633684932
0.0240654292149 -0.0120803095272 -0.0707450216728
0.0252163601474 -0.00926985595527 -0.0711879755764
0.0270155237137 -0.00679723910745 -0.070832810915
-0.0100120693666 0.0250229114044 0.0733535324433
-0.0129143537256 0.024512486184 0.0698481803333
-0.00897483229911 0.0264774446429 0.069817415942
-0.0106440394577 0.0253250615816 0.0710343937532
-0.0107668821115 0.026049091572 0.0680790803766
-0.0137577841884 0.0230171513984 0.0739002847707
-0.0230378109418 -0.0107986211003 -0.0725485925738
-0.0205407432278 -0.0152029624872 -0.071532729566
-0.0219215471909 -0.0135323691394 -0.0716855128017
-0.0224838899207 -0.0174392760183 -0.0692950455523
-0.0228838864564 -0.018443123699 -0.00753927595935
-0.02296589926 -0.0182818770662 -0.0219722994398
-0.021257522973 -0.0199406091932 -0.0307077687187
-0.0226188902924 -0.018497217314 -0.0458722505281
-0.023475326712 -0.0175676604099 -0.0593281465035
-0.021878355857 -0.0196005409876 0.0202762716246
-0.0233512485344 -0.0181754489806 0.0287174281088
-0.0190105622025 -0.0220340376678 -0.0582542933262
-0.0202613480846 -0.0207670525681 -0.0614207868215
-0.0211030667898 -0.0198945268603 -0.0671740542672
-0.0222788015299 -0.0193019923924 0.0387491458265
-0.023491482245 -0.0177322643315 -0.0264370110573
-0.020169608096 -0.0209515319549 -0.0445283680473
-0.0222595603712 -0.018914403568 -0.0352809566912
-0.0224224363198 -0.0186732615001 -0.0495520133904
-0.022905456623 -0.018292407795 -0.0310445255934
-0.0223149605874 -0.0190766523204 0.00431634125455
-0.0217130992397 -0.0196564649424 0.000409188938263
-0.02292634362 -0.0182851721233 -0.0285639569515
-0.0230227730023 -0.0186314983857 0.0519902777254
-0.0206939443129 -0.0203605530821 -0.0567474060311
-0.0224727458441 -0.0191243236395 0.041677015862
-0.0189655266128 -0.0220927824799 -0.0557516665515
-0.0207871813751 -0.0206130951098 0.00615993994262
-0.0230086303945 -0.0184137840151 0.00980024576887
-0.0228037904649 -0.0186012058486 0.00666636574388
-0.0222226692114 -0.0190397198247 -0.0191832257681
-0.0207761670739 -0.020319891058 -0.0491987030032
-0.0225582691916 -0.0184468689437 -0.066055482458
-0.0219404826302 -0.0195560607076 0.0234766585722
-0.0179199939798 -0.0231572544797 -0.0521224055483
-0.0216092962979 -0.0198538065289 0.0174491601637
-0.0226473333536 -0.0184878102153 -0.0424131255152
-0.0177106055796 -0.0233143633058 -0.0615994576861
-0.0215960445526 -0.0198516374391 0.0146452479232
-0.0237145743311 -0.0175226342607 -0.0240262346616
-0.0197772357565 -0.0214697761532 -0.0215540767195
-0.0182393065925 -0.0227567645223 -0.0669505793165
-0.0211778432428 -0.0202365629579 0.00866293350525
-0.023537283487 -0.0179484685454 0.0212337995952
-0.0228334123406 -0.0187207325668 0.0338027160997
-0.0214791313951 -0.0197353368479 -0.0277737215637
-0.0223040467116 -0.0192636290905 0.0363575447623
-0.0204598442781 -0.0205815088993 -0.0590984267238
-0.0236522354454 -0.0173717989283 -0.062808020732
-0.0194022698999 -0.0217000277383 -0.0478231242358
-0.0203649879835 -0.0207712756953 -0.0418103736699
-0.0211327597886 -0.0202109178656 -0.00420011458841
-0.0240066467202 -0.0169960574664 -0.0667515574434
-0.02347560633 -0.0177095782587 -0.0334516088471
-0.0210350711783 -0.0202934093077 -0.00694856647835
-0.0222107751464 -0.0190667612217 -0.0164246895585
-0.0209956059573 -0.0202299279116 -0.0256755258408
-0.0195177972855 -0.0216806573441 -0.0303450111398
-0.0191462716127 -0.0218710240733 -0.0632467310321
-0.0229717444439 -0.0185000877156 0.0187995582839
-0.0212680833822 -0.0198399979979 -0.0470967345656
-0.0208378528243 -0.0201738225991 -0.0645651482757
-0.0236819404982 -0.0174758987811 -0.0384638744436
-0.0197366418735 -0.0214967746225 -0.0240210263153
-0.0201014667371 -0.021083303936 -0.032937184904
-0.0196024495948 -0.0216126942401 -0.027322765151
-0.0234724880098 -0.0178940611398 -0.000446989540935
-0.0208002967489 -0.0204937429502 -0.0131749428443
-0.0223660270265 -0.0187843653564 -0.0395890329383
-0.0227436081816 -0.0186074955604 -0.00313029279884
-0.0181549083352 -0.0229578899189 -0.0456942404011
-0.0200513772005 -0.0211044872674 -0.0381886779001
-0.0195077811698 -0.0216631416876 -0.0353533939444
-0.023883586471 -0.0171742423061 -0.056698672594
-0.022204723162 -0.0191050499887 -0.0105572973392
-0.0185327439283 -0.0226167457778 -0.0390833009216
-0.0213719858106 -0.0196998734814 -0.0537064611452
-0.0229849241113 -0.018095595435 -0.0524124154117
-0.0234191381198 -0.0178670803837 -0.0150559485554
-0.0235939434198 -0.0177909858833 0.0028765365836
-0.0217754673855 -0.0192501467892 -0.062192504507
-0.0197893743084 -0.0212886297616 -0.0523116406947
-0.0207939899923 -0.0204736219439 -0.0179830702985
-0.0275606041491 -0.00729071514261 -0.0695541856352
-0.0244221081594 -0.0125995319952 -0.0706345696638
-0.0256342429933 -0.00788354078681 -0.071642558043
-0.0272630198135 -0.00928889060785 -0.0688573918976
-0.0243235884466 -0.0158106791576 -0.0690406715533
-0.025503023292 -0.0104127824955 -0.0704540871417
-0.0276096370041 -0.00217531466589 -0.0696173970451
-0.0280206652736 0.000584208062201 -0.0689279339952
-0.02651504871 -0.00526654783626 -0.0712437010032
-0.0249638190211 -0.00530955140604 -0.0733347407382
0.0165047707257 0.0242716708752 -0.0253364129063
0.0160717029957 0.024657776429 0.0107316072277
0.0130175152312 0.0262809560564 0.00513074395085
0.0153720445854 0.0250491424042 0.0140638627216
0.0145482254546 0.0253824130309 -0.0121615490696
0.0136656013515 0.0258499566739 -0.0141432179769
0.0114910643502 0.0268158696073 -0.062987376211
0.0144730489773 0.0256307533248 0.0369582826054
0.0182418328562 0.0231680612183 -0.0648002789144
0.0152833230237 0.0251165984997 0.018700566789
0.0161734802182 0.0243022922844 -0.0603239790275
0.0144936200231 0.0256473706103 0.0435081621724
0.0158317524614 0.0246182083833 -0.0292050253149
0.0169485473936 0.0241144921115 -0.00592667750282
0.0146048653723 0.0252167502388 -0.0441010376411
0.0138653705293 0.0255768168788 -0.0532446807123
0.0153504720375 0.0247355218055 -0.0628181390366
0.0111581217938 0.0270849561064 -0.0418180717352
0.0167844381079 0.0241591667883 -0.0162837486347
0.0180782864448 0.0233185184912 -0.0500811339293
0.0148550927912 0.0253034713517 0.00829132557983
0.014380685008 0.0253802334 -0.0340311867952
0.0148740682314 0.0252835329499 0.00599694261831
0.0183917503994 0.0231256093475 -0.0557266454318
0.0132947446217 0.0258738614087 -0.055761489636
0.0132380059816 0.0259642155266 -0.0416357515881
0.0108551418552 0.0271792260493 -0.0581522305499
0.0133133744506 0.0258526889461 -0.0583916260373
0.012158238022 0.0266893025042 -0.00786796856903
0.0156106769038 0.0248289494425 -0.00756880532213
0.0119197545576 0.0266230550212 -0.053923991042
0.0122481384204 0.0266235319148 -0.0119560067769
0.0145096570649 0.0255703197015 0.0273392265961
0.0119975165583 0.0267082706543 -0.0238696410033
0.0152666876938 0.0248019858301 -0.0577866472363
0.0115582254808 0.0267573217447 -0.0682664437768
0.0153272259088 0.0247308781878 -0.0668786917643
0.0152075824312 0.0248753557635 -0.0479772095147
0.0158682064151 0.0246316545178 -0.0213803210627
0.0125919719547 0.0264657550187 -0.00542624021713
0.0169633928921 0.0239329979499 -0.046935369586
0.013723240365 0.0258089501212 -0.0164896129793
0.0167023100729 0.0242655989605 -0.00159363331087
0.0155228625457 0.0250349886432 0.0299412575106
0.011394370571 0.0269670122409 -0.0395853036541
0.0127546861243 0.0262832687752 -0.0278223431592
0.0131860522259 0.0262291518848 0.0143669216107
0.0124185136287 0.0264431222404 -0.0328847952989
0.0136508146585 0.0260526988773 0.0318954977394
0.0160910483771 0.0244454872173 -0.0369827498532
0.0157619992355 0.0246039428354 -0.0414676888226
0.0172565458124 0.023749070269 -0.0530466887492
0.0119814437026 0.0266242528318 -0.0457780620202
0.0134031609793 0.0261238650589 0.0171519553816
0.0140702406865 0.0257889660399 0.0230147093952
0.0145269979514 0.0256518276731 0.0488160000275
0.012890025365 0.0263296156188 0.000383054371856
0.0125898739349 0.0262812990658 -0.0492946213613
0.0172729509614 0.0238806759934 -0.0198472735314
0.0177545375941 0.0235419669306 -0.0385277597636
0.0126068017022 0.0263318966604 -0.0351769764893
0.0143511683264 0.0252482611211 -0.0689884207321
0.0189760265746 0.0227575911634 -0.0682464688441
0.0121484141805 0.0264732784533 -0.0601830125888
0.0139904136648 0.0256501805108 -0.0199654856076
0.0122526731196 0.0265133472694 -0.0374230337514
0.0142072962524 0.0255112580388 -0.0251599400052
0.0174036101354 0.0237497891711 -0.0341321848169
0.0151305120996 0.0249872273672 -0.03135669641
0.0150740956577 0.0249862097151 -0.038787990347
0.0138285234081 0.0258130829202 -0.00209351762667
0.0134922371586 0.0259597987735 -0.0102758855903
0.0108092583775 0.0271713449122 -0.0658633740285
0.0186659352415 0.0229542529982 -0.0612840423307
0.0147166299635 0.0253229141683 -0.00476109855158
0.0153754808638 0.0249969509825 0.00216504250111
0.0171436519889 0.0238499322242 -0.0435945953383
0.0167131837298 0.0242160472942 -0.0119205227285
0.0104426893976 0.0274353959438 -0.0501703012266
0.0128389491611 0.0263866107563 0.00734525276116
0.0151788489157 0.02487527445 -0.0516587559309
0.0129630320143 0.0260105556095 -0.0657297875228
0.0164619300332 0.024361173262 -0.00964059454432
0.0283322539495 -0.00579455961865 0.0492559795931
0.0282272131676 -0.00677403278957 0.0284942848728
0.0284548889978 -0.00596291854306 0.0178677737259
0.0274066689009 -0.0102280542715 0.0442865835726
0.0276415166412 -0.00970666184334 0.0199570155194
0.0275801638688 -0.00978882497406 0.0286047568873
0.0278568847725 -0.00932833528722 -0.00658707219092
0.0282792150689 -0.00632052854571 0.0374413167591
0.0282312822163 -0.00837652634078 -0.0402599458178
0.0274044682043 -0.0106803668949 0.0255425829553
0.0280563869027 -0.00856233979799 -0.0135557708657
0.028537124201 -0.00632258063268 -0.013643644556
0.0279758339958 -0.0080188175692 0.025419114782
0.0286192066707 -0.00599831696939 -0.0161247428335
0.0281895838826 -0.00681247751868 0.0343048029785
0.0280389792687 -0.00855491946872 -0.00979901303062
0.0289684625214 -0.00288982607059 0.0466223562395
0.028352319666 -0.00544999032253 0.0598988410088
0.0279968507241 -0.00746897789285 0.0445778913129
0.0281734334817 -0.00780389871849 -0.00454035519317
0.0282057954121 -0.0084282900566 -0.037415192111
0.0281866055087 -0.00739227380487 0.0103089591834
0.0275513209511 -0.00949354345185 0.046828699488
0.0283441924634 -0.00757461927324 -0.0285835641521
0.0278057673892 -0.00909974110531 0.0132136307308
0.0283444139089 -0.00806191415089 -0.0492898425775
0.027631376588 -0.00906716121335 0.0490784557451
0.0271825562282 -0.0111589595839 0.0491290966343
0.0283426331379 -0.00660268660257 0.0129370852548
0.0285079017516 -0.00593001121433 0.00878058910203
0.028400501158 -0.00606583697734 0.0242582209721
0.0278186449957 -0.00849770553299 0.0361950387577
0.0287751157814 -0.00351862394529 0.0581914252996
0.0276368706662 -0.00876271442308 0.0609013641511
0.028886083909 -0.00317179435309 0.0509554398687
0.028118071222 -0.00836506502837 -0.0173880569216
0.0284180547728 -0.00731266663457 -0.0320813792609
0.0274207563775 -0.0103835824346 0.034906207564
0.0273023203053 -0.010455271358 0.0552855103454
0.0286801127346 -0.00403782037944 0.054961763555
0.028142473508 -0.00787007149786 -0.00122433767517
0.0279947700308 -0.00716676046035 0.0578040753487
0.0287089523406 -0.00518851004635 0.000467085289637
0.0280088332325 -0.00903483999305 -0.0241878532799
0.0282897179212 -0.00711352897336 0.00173937244338
0.0273924055535 -0.0101030522353 0.052407353416
0.0272984089935 -0.0108123962725 0.0409159510033
0.0286076388034 -0.00473959537867 0.0395355059616
0.0281036229491 -0.00853945079774 -0.0219254934011
0.0289058342249 -0.00349998073027 0.0331341868986
0.0282446835403 -0.00626890675142 0.0464583367115
0.027996399551 -0.00729367250886 0.0521004801415
0.0287427377392 -0.00451357506709 0.0224053804458
0.0281219614087 -0.00747539905532 0.0195667186197
0.0284188753218 -0.00682257462102 -0.0114625353925
0.0287219825323 -0.00526398155695 -0.00530963011365
0.027626706136 -0.00987369995733 0.0158027639617
0.0277223543351 -0.00880587730858 0.0421679446625
0.0273124398963 -0.0103428966737 0.0580494623405
0.0279563874265 -0.00852832376163 0.00766009914844
0.0274831445862 -0.0101766078188 0.0313460342679
0.0284001502311 -0.0059164640918 0.0306613863454
0.0287214689907 -0.00505119259121 0.00381468645786
0.0289207154819 -0.0035318171971 0.0288416812756
0.0280302565175 -0.00796458599791 0.0169573680074
0.0279183152273 -0.00816579927189 0.0305602696798
0.0280543106786 -0.00731788581229 0.0396226561222
0.0285937826585 -0.00538050896458 0.0150990677548
0.028400899122 -0.00649988107638 0.00577500128059
0.0286587142134 -0.00395072162168 0.0628862234751
0.028216483327 -0.00832159837429 -0.0350045913964
0.0285896299842 -0.00621785853025 -0.0195854613134
0.0279136745609 -0.00837195978072 0.0227361888826
0.0244293388543 -0.0154472741578 0.06406429703
0.025323776644 -0.0136795734995 0.0649088173775
0.0217805401991 -0.0180407376946 0.0681828025849
0.0230788866142 -0.0162406465184 0.0674894146067
0.023151601261 -0.01767993319 0.0635910483601
0.0241774759893 -0.0168317020059 -0.0430588899013
0.0256211902997 -0.0141372418159 -0.00749421719282
0.0249362539966 -0.0152900585384 -0.0472600785219
0.0273401506009 -0.0105977744601 -0.0255808011964
0.0263945719176 -0.0122816203458 -0.0636353530682
0.0267449651735 -0.0118904399204 -0.00707272653162
0.0253742942516 -0.0145692095502 -0.0188339305241
0.0268178404653 -0.0120185847693 0.0429056928782
0.0250117723809 -0.0153142905246 -0.0152710007579
0.0277285733139 -0.00985539386295 -0.0191957046839
0.0252778266441 -0.0148110603194 -0.00993595424302
0.0265022853574 -0.0123063701759 -0.0197985640388
0.0260312294134 -0.0134010184724 0.0079053624608
0.0273516173332 -0.0104507528778 -0.0482122017978
0.0263867586776 -0.0127846827125 0.0252734719784
0.0272904987179 -0.0105067718637 -0.0603062539567
0.0270613941893 -0.0113204635077 0.00447747498297
0.0280873566497 -0.0088886891669 -0.0645487429092
0.0269274739967 -0.011490114637 -0.0134667219629
0.0235612200453 -0.0179390017588 -0.0660545573713
0.0269754209249 -0.0113430569976 -0.0227870953972
0.0274845663996 -0.0104591098292 0.00184705942464
0.02623956073 -0.0128486934145 -0.0167873106046
0.0252744535812 -0.0147096251408 -0.0296696350008
0.0244291435299 -0.0162573540241 -0.0559481645092
0.0277112592047 -0.00974536651089 -0.045586015326
0.0265147429144 -0.0123632448209 -0.00487653202183
0.0253165841885 -0.0144698598096 -0.0580236962441
0.0279374093582 -0.00931128055357 -0.0422062548161
0.0241659811228 -0.0167687312316 -0.0587414435688
0.0256297582286 -0.013793035156 -0.067151436432
0.0257415654763 -0.0136027548495 -0.061042746115
0.0269240109094 -0.0112540616735 -0.0577882421515
0.0269259724219 -0.0116301495022 0.0115281852732
0.02772407936 -0.00959598323115 -0.0681541156735
0.0238772695009 -0.017382591438 -0.0521683947971
0.0242197361129 -0.0167761310676 -0.0377676668523
0.0245113925903 -0.016127569155 -0.0495954243553
0.0267310220043 -0.0116804784611 -0.0504609224764
0.0267005448009 -0.0117641421393 -0.0463263662896
0.0253199369092 -0.0147626468309 -0.00339388359203
0.025375073308 -0.0146898188061 0.00345022210095
0.023920208362 -0.0172372537712 -0.0630033011204
0.0271008030674 -0.0109773724079 -0.043717341844
0.0256203798131 -0.0138938225675 -0.0521910166894
0.0260692051097 -0.0133894559881 0.0196598634209
0.02505400852 -0.01513672512 -0.0322409503151
0.0258913802206 -0.0137065089315 0.0125744921517
0.0246258482131 -0.0158140608583 -0.0649973255568
0.0255721550772 -0.0141574340257 -0.0217120461707
0.0269502373956 -0.0117297204795 0.0385487094409
0.0257517759246 -0.0136763633696 -0.0438887078027
0.0271646476675 -0.0111351246516 0.00836483842329
0.0265489230719 -0.0124178509444 0.0175618481891
0.0261836613281 -0.0128814663324 -0.0312162182748
0.0261289459471 -0.0128646356305 -0.0542608374135
0.0268508867171 -0.01135379673 -0.0662910620176
0.0279310461798 -0.00937426701391 -0.0330401682049
0.0269192286557 -0.0115677542778 -0.00231492976228
0.0279567960231 -0.00918897150843 -0.057438679986
0.0266546481835 -0.0123573004695 0.0451135569717
0.0263034675262 -0.0126761310335 -0.0249335074632
0.0257328172287 -0.0137491265463 -0.0375374672337
0.0266951161827 -0.0121542238844 0.0228447530558
0.0270368810608 -0.0112861222156 -0.0107354122598
0.0270194320145 -0.0112162721832 -0.0298464342687
0.0261576609597 -0.0131129341765 0.00151290732435
0.027690551844 -0.00973340129206 -0.055328043382
0.0265030133557 -0.0124925470851 0.0144268255642
0.026428436355 -0.0123375930644 -0.0410629569196
0.0253613189003 -0.0145568807035 -0.025819608347
0.0269600750702 -0.0113098483604 -0.0344467394535
0.0280190217558 -0.00903991543779 -0.0619109008495
0.0244527844965 -0.0162924631857 -0.0409136087829
0.0261209777445 -0.0132343531582 0.0102686334874
0.0255899778774 -0.0141736603648 -0.0122458169407
0.0253218897309 -0.0144318205886 -0.0630253831132
0.0272799546755 -0.0105662836025 -0.0533002570956
0.0272756654679 -0.0106569954595 -0.0383197839397
0.0242192300368 -0.0166425029941 -0.000635752105904
0.0239352299979 -0.0169506680507 0.0432204646808
0.0240083319571 -0.0170347880215 -0.0115990720759
0.0268058073937 -0.0121082223695 0.0600671006963
0.0259900062897 -0.0135372368898 0.041211358984
0.0253273546216 -0.0147097731296 0.0227555132397
0.0235054479077 -0.0178985817206 -0.0186697020233
0.0257204929465 -0.0139122375318 0.0608429445229
0.0238510744467 -0.0170366988806 0.0576237339358
0.0234739660029 -0.0178677255736 0.00350830479254
0.0247812161546 -0.0155539294049 0.0400951269021
0.0259826498706 -0.0135955894616 0.0289318396616
0.0241985315514 -0.0166895468566 -0.00398713639471
0.0235639545206 -0.0178233812241 -0.0245841523904
0.0243631602648 -0.0161683315787 0.0618322056637
0.0229881266452 -0.0185867823489 0.0274286537396
0.025555976823 -0.0142975580198 0.0311676803103
0.0230689723541 -0.0184897217912 0.0174306879775
0.0259367111316 -0.0135996613451 0.0482176762375
0.023978115664 -0.0169242345826 0.0312441826354
0.0249051067631 -0.0153726253596 0.0334473000754
0.023225524354 -0.0181096891871 0.0492290684697
0.0249049780187 -0.0153228312707 0.0467664671618
0.0259825215438 -0.0135750532116 0.0344583350835
0.0234374610764 -0.0179026784174 0.0103861772252
0.0265404162733 -0.0125730277515 0.0539523419763
0.0245839551496 -0.0161208625676 -0.0234307056547
0.0246184640777 -0.0159120396811 0.0168847669009
0.0237383945063 -0.0175628671892 -0.0325501188971
0.0233352042454 -0.0182800189551 -0.0447709789803
0.0230895143945 -0.0185178985456 0.000817303856834
0.0240700645441 -0.0167944019226 0.0250512750154
0.0241789928777 -0.0168207532132 -0.0302685142573
0.0242453561072 -0.0165636424187 0.00878292410548
0.0244239938789 -0.0161159376973 0.0488116295947
0.0241033251738 -0.0168670679903 -0.00905104895872
0.0240634618527 -0.0169768887964 -0.0206241984327
0.0233392048803 -0.0181282531248 -0.00612388548986
0.0231805608534 -0.0182159804202 0.0408575214022
0.0254978402493 -0.0144544712709 0.0151548009262
0.0234281637096 -0.0178712151367 0.0228887323692
0.0239834677454 -0.0170101016439 0.00600124477877
0.0245164872139 -0.0160929472732 0.0139211058963
0.0251891396706 -0.0150020170168 0.00620755447405
0.0240035100704 -0.0171323907108 -0.0354562777249
0.024498323536 -0.0162013829845 -0.00690528039688
0.0249466939788 -0.0152938658759 0.0359832101042
0.024093032826 -0.0167089591999 0.0376232688254
0.0255448256918 -0.0142674419296 0.0441334303027
0.024792461447 -0.0154619141491 0.0596158926434
0.0257754856445 -0.0138392008092 0.0559103519353
0.0254576885602 -0.014388904484 0.0504219742474
0.0230065843503 -0.0185206233695 0.0368647435615
0.0247844073681 -0.0154943860081 0.0545387604041
0.0245287323501 -0.016082090431 0.0113829137379
0.023412997759 -0.0181328156894 -0.040060598983
0.0240837933176 -0.0166675996988 0.0527359117784
0.024343635283 -0.0163599971202 0.019442153053
0.024818000487 -0.0155382662486 0.027955774343
0.0236114881611 -0.0177550066657 -0.0274509339429
-0.0112772242844 -0.0260336930528 0.06898010335
-0.0122949444299 -0.0253308129849 0.0709709743153
-0.00718609811649 -0.0282741377497 0.0634144337312
-0.00819490229172 -0.0274520811305 0.0659100202489
-0.00967772546233 -0.027546676956 0.0641501152431
-0.00351540362965 0.027679572503 0.0696041048915
-0.00455808555588 0.0281771672582 0.0673031576876
-0.000538412070673 0.0286909251721 0.0643644608795
-0.00302966891764 0.0285040319155 0.0655471695282
0.00128931212629 0.0291889999062 0.0497246775002
-0.00252770704146 0.0291889999062 -0.0394461731736
-0.00234860443698 0.0291889999062 -0.0330669928693
-0.0029634132097 0.0291889999062 0.0490549127617
0.00085191131146 0.0291889999062 0.0561502718353
0.00113747897681 0.0291889999062 0.0248581712365
-0.00109949647364 0.0291889999062 0.00271759324067
-0.000499420153915 0.0291889999062 0.0184117223454
-0.000661230318156 0.0291889999062 0.0211885088084
-0.0031376895617 0.0291889999062 0.0328252341163
-0.00307649209804 0.0291889999062 -0.0255997139002
-0.00238025988213 0.0291889999062 0.0534555445083
-0.00137606481867 0.0291889999062 -0.00582892583111
-0.000677991864327 0.0291889999062 0.000399179358334
-0.000538023858418 0.0291889999062 0.0277746865595
0.000302537013371 0.0291889999062 0.0464399905929
-0.00124606214942 0.0291889999062 0.0424928451006
0.000370946573955 0.0291889999062 0.0158598237103
-0.00309127094114 0.0291889999062 0.0224696906353
-0.00321721101212 0.0291889999062 -0.0308731557617
-0.000852843920295 0.0291889999062 -0.00291463992655
-0.00242525548984 0.0291889999062 0.0384413578226
-0.00161446018084 0.0291889999062 0.00659222707112
-0.00157954832064 0.0291889999062 -0.00920278314793
-0.00117013253208 0.0291889999062 0.0402366913227
-0.00160997908107 0.0291889999062 0.0613342247436
-0.00146130362672 0.0291889999062 0.0256221234322
-0.00320823689609 0.0291889999062 0.0302833807663
-0.00301176423522 0.0291889999062 0.0186296652614
-0.00317461655054 0.0291889999062 0.0457259102592
-0.00133910868451 0.0291889999062 -0.0136792540228
-0.0026100901647 0.0291889999062 -0.0279374754633
-0.0015073546239 0.0291889999062 0.00929466517564
0.000484486647797 0.0291889999062 0.0305982233841
-0.00147006677661 0.0291889999062 0.0145354988263
-0.00262448013947 0.0291889999062 -0.0416961314165
-0.000648556508041 0.0291889999062 0.032642073884
-0.00330239139442 0.0291889999062 -0.0234500081131
0.00106364069736 0.0291889999062 0.0379169290376
-0.00340294960327 0.0291889999062 0.011225239569
-0.00340464171511 0.0291889999062 -0.0152989659979
0.00191002120039 0.0291889999062 0.0609096561868
-0.000787315088501 0.0291889999062 0.0592059291022
-0.00137876042063 0.0291889999062 0.0507993900138
0.000986757965081 0.0291889999062 0.051942722594
0.00166511641721 0.0291889999062 0.0409907289758
-0.00307974371766 0.0291889999062 -0.0188556962662
0.00179573596328 -0.0290900003165 -0.0416362398104
-0.00115485121865 -0.0290900003165 -0.0431333934028
-0.000785453911421 -0.0290900003165 -0.0577277697511
0.000746722263056 -0.0290900003165 -0.0532741947472
-0.00266198010698 -0.0290900003165 0.0141211350968
0.00288127062777 -0.0290900003165 -0.0607439707714
0.00322987381472 -0.0290900003165 -0.0644402212737
-0.00101767881081 -0.0290900003165 -0.0268625315768
-0.00251631257668 -0.0290900003165 -0.0398474009591
-0.00169279047461 -0.0290900003165 -0.0660000600758
-0.00313557005716 -0.0290900003165 0.0162985493126
-0.00104286890341 -0.0290900003165 -0.0293466488829
-0.00046987944801 -0.0290900003165 -0.048402452639
0.000722964504282 -0.0290900003165 -0.0617669999346
-0.00241254608541 -0.0290900003165 0.0320660193044
-0.00320808218382 -0.0290900003165 -0.00225987110625
0.000601372555601 -0.0290900003165 -0.04635102634
0.00133249360527 -0.0290900003165 -0.0368870853758
0.00018080875587 -0.0290900003165 -0.00649963423577
-0.000479017143213 -0.0290900003165 -0.0178479363992
-0.000344903481995 -0.0290900003165 -0.0207607447915
-0.00088160009856 -0.0290900003165 -0.0548615735778
-0.00365869615998 -0.0290900003165 0.0448166787259
-0.00203693386479 -0.0290900003165 -0.0457907349528
-0.00100293216327 -0.0290900003165 -0.0245183269492
7.51728572036e-06 -0.0290900003165 -0.0511834565492
-0.00100554426328 -0.0290900003165 -0.0122017547293
-0.00390790594211 -0.0290900003165 0.0586057830682
-0.00272815726941 -0.0290900003165 0.0255322930373
-0.00249348252958 -0.0290900003165 0.00790666761317
-0.00265584545543 -0.0290900003165 -0.0565579714782
-0.00308911971509 -0.0290900003165 0.0232828317849
-0.00199199785567 -0.0290900003165 -0.0314617806705
-0.000236631609257 -0.0290900003165 -0.0638946228622
0.00119822073912 -0.0290900003165 -0.0590219733162
-0.00135546063624 -0.0290900003165 -0.0042064696078
-0.00287663250485 -0.0290900003165 -0.023491343035
0.00157263373654 -0.0290900003165 -0.066244037296
-0.000184897811398 -0.0290900003165 -0.040600179698
-0.00138083561164 -0.0290900003165 -0.0601622752956
0.00173202485508 -0.0290900003165 -0.0491330811021
-0.00219544898046 -0.0290900003165 0.000942658054477
-0.000679491808962 -0.0290900003165 0.00487937607768
0.00140015610933 -0.0290900003165 -0.0337231161871
-0.00248616712806 -0.0290900003165 -0.0346806653353
-0.000293357526161 -0.0290900003165 -0.000824239504914
-0.00177832501102 -0.0290900003165 -0.0526413271108
-0.0027480428101 -0.0290900003165 -0.006189810761
-0.0020608851044 -0.0290900003165 0.0106748882157
-0.000907026448606 -0.0290900003165 -0.0375948234517
0.0111355562476 -0.0270323908658 -0.00836239795076
0.0122325970556 -0.0265875142426 -0.0227135746091
0.00653271020065 -0.0283418462834 -0.0480694252533
0.0113695825528 -0.0266244187218 -0.0675741294251
0.0113311636623 -0.0267159965661 -0.0534409597199
0.0101108119138 -0.027684116992 0.0474006905719
0.0134003851822 -0.0259413099588 -0.0689536148472
0.00441993502928 -0.0289414562699 -0.0665555426604
0.0103298466046 -0.027510119591 0.029259094585
0.0133544352092 -0.0260770177597 -0.0473547789542
0.0101111497196 -0.027254987526 -0.0295454135309
0.00805847094534 -0.0280645653665 -0.00678807389431
0.00677698805093 -0.0282464623572 -0.0506055737318
0.00999029186116 -0.0271290055039 -0.0593501146135
0.00874646934801 -0.0278613337722 -0.00219887410601
0.00951798603985 -0.0274219345187 -0.0349854456202
0.0144039850704 -0.0256588052873 -0.0597564976499
0.0105830374848 -0.0273050832427 0.00758797226514
0.00531443642241 -0.0287577089081 -0.0461536845039
0.00954775014369 -0.0274264228178 -0.0324049958241
0.00689610456833 -0.0281560937756 -0.0597081760762
0.0103087072154 -0.0275039408823 0.0268899338345
0.00974920018755 -0.0272242452073 -0.0566497750301
0.00979014201467 -0.0271701846172 -0.0639035651458
0.00943099706112 -0.0272612521028 -0.0689935078171
0.0102304998793 -0.0274563558443 0.0136902154078
0.0113805097596 -0.0269270752061 -0.0126395426761
0.0129035778626 -0.0261244555049 -0.0657406279423
0.00661935554808 -0.0284606478582 -0.0215933737471
0.0094222747252 -0.0275417579995 -0.0192038378511
0.0107076074852 -0.0274725379807 0.0450524194705
0.0082248760548 -0.0277034389254 -0.0616314835638
0.0122485752077 -0.0266744449592 -0.00616905866408
0.00914063990728 -0.0277543612373 0.00212773471569
0.00921566218941 -0.0277799518762 0.0111926699394
0.0107241733575 -0.0270683453474 -0.0264531364433
0.00641680252415 -0.0283316163606 -0.0568181964487
0.0117517776946 -0.0268985971375 0.0043992327878
0.00939310830138 -0.0277587751838 0.0179793457897
0.00904635589744 -0.0278991068089 0.0224643688495
0.00823084943159 -0.0280830157917 0.0068036114528
0.00640166919715 -0.0282765360538 -0.0675998069843
0.0111722789935 -0.0269734177047 -0.0167489509721
0.00794305731547 -0.0279711547008 -0.0304262063819
0.0138808001237 -0.02591662289 -0.0447241969103
0.0102202155925 -0.0271051822458 -0.049907778159
0.0126606260687 -0.0262945662571 -0.0497227946425
0.0130265145855 -0.026236557411 -0.0383013806183
0.00780186724998 -0.0278927265241 -0.0529147495669
0.0113037160943 -0.0271348673974 0.0200480932506
0.00518227372928 -0.0287659710603 -0.0525554461434
0.010123159564 -0.0275994307469 0.0329483882138
0.00898318558511 -0.0279076662576 0.0202313817238
0.0140938872894 -0.0258062843777 -0.0518030664472
0.00846683809377 -0.0278972288169 -0.01244117784
0.00619214931514 -0.0285259375237 -0.0353665937654
0.0122758920451 -0.0265255219829 -0.031249576404
0.00912531213168 -0.0277208838813 -0.00479089072104
0.00873089192177 -0.0277281748464 -0.0270107187746
0.00671714733251 -0.028365246282 -0.0328707038976
0.0127758029647 -0.0263051372865 -0.0409564361412
0.0119403608776 -0.0267963578183 -0.00268869393163
0.00740081369291 -0.0281853399853 -0.0243564194674
0.0101495868903 -0.027276898096 -0.02332284726
0.0113550178819 -0.0270108062399 0.000857374210987
0.00919445541646 -0.027639008524 -0.0153511410316
0.0105303470818 -0.027416298734 0.0243919325855
0.0128971377535 -0.0262938220578 -0.0357481506955
0.00698296370611 -0.0280951315701 -0.065460795339
0.00528803155359 -0.0287821505053 -0.0433450491576
0.00650541376403 -0.0284597824933 -0.0285453032317
0.0103912286647 -0.0270728192046 -0.0455111592636
0.00845054933471 -0.0277451083779 -0.0406962847821
0.00793029950525 -0.0279326639966 -0.0380906972601
0.0124880768646 -0.0262837628643 -0.0619531346084
0.0144618402072 -0.0256222803094 -0.0628563056694
0.00503282157437 -0.0287694226705 -0.0608513304439
0.0102182113645 -0.0273265332303 -0.0103270607575
0.0125273482046 -0.0264570975961 -0.0285222209578
0.0105732917061 -0.0270454315416 -0.0395630445817
0.0122525872675 -0.0265981111732 -0.0196205357474
0.00858835413364 -0.0280144292955 0.0158277759325
0.010240380433 -0.0271408458882 -0.0423084976966
0.00758612153905 -0.0280088769474 -0.0449520726983
0.010527896606 -0.0270741475237 -0.0371205626565
0.00696713261039 -0.0284082810637 -0.0102403963542
0.00746482788432 -0.0263843949541 -0.0703881772888
0.0106188004243 -0.0257984963078 -0.0701677990876
0.00496172771068 -0.0258624382751 -0.0714842783991
-0.00174785144444 -0.0248601469354 -0.0740520018655
0.00452282013789 -0.0285563068512 -0.0690766294742
0.00295695108569 -0.0269590509247 -0.0709484053435
-0.000621188268664 -0.0266758002225 -0.0720124403178
0.00114148112351 -0.0288664430149 -0.0692879945901
-0.00185172155457 -0.028225985959 -0.0703582600741
0.0101569197975 -0.0253450445282 0.0698904116331
0.0104330200822 -0.0266904646596 0.0643887171961
0.00508705199838 -0.0268113579752 0.0730212131712
0.014650154157 -0.0238707021001 0.0677695467452
0.00788611152812 -0.0262549238285 0.0703459440725
0.0147469566444 -0.0225427961668 0.0725720359511
0.0135888087763 -0.0237338290095 0.0700851180923
0.0162295074214 -0.0224848196233 0.0702695164247
0.00924855015498 -0.0251763256163 0.0720651413133
0.0112067892152 -0.0253690016415 0.0680167007206
0.00700394946551 -0.0272923080343 0.0679647465153
-0.00922829445004 -0.0266047201816 0.0684545223132
-0.00567689730965 -0.0269344176301 0.06965451412
-0.00571475102343 -0.0277565912086 0.0666425378782
-0.00799053604984 -0.0258792216803 0.0719254032699
-0.00246167240774 -0.0287800016571 0.065121325802
-0.000295225530455 -0.0270698090832 0.0727959215538
-0.00349771046402 -0.0276100637182 0.068671513135
-0.00099942113629 -0.0275303463448 0.0706476833602
0.00203191565103 -0.00152751684651 0.073714657362
0.00328886146595 -0.0107157193755 0.0734724799485
-0.00214216934055 0.00123094468915 0.0738301673226
-0.00760730081843 0.00698613837729 0.0740345968226
-0.000326870090006 -0.0112080725177 0.0735010255939
-0.0058698204563 0.00844793491614 0.0740512833223
0.0162512712952 -0.0208639892593 0.0730745118502
0.0103137840395 -0.0193534219233 0.0731789355731
0.0124167800171 -0.0234120557657 0.073054510921
-0.00182084801528 0.00444197279328 0.073906226945
-0.00391668957387 0.00517069713505 0.0739479387048
-0.0094775380342 0.0132620765077 0.0742114201298
0.00802257319726 -0.019739488844 0.0731951861879
0.0164777205318 -0.0186764939542 0.0731262419237
0.00583163302141 -0.0182942308004 0.0732557509797
0.0077441153171 -0.0169349220504 0.0732679212708
-0.00438969845695 0.00257939118494 0.0738889676996
-0.0086502083131 0.00471583970044 0.0739900166551
-0.0129725699888 0.0182533833266 0.0743746829119
0.00648589414725 -0.0212386827036 0.0731753078499
0.0058492117884 -0.0133764516741 0.0733775882694
0.0131432711823 -0.0176400374201 0.0731895540714
0.00463060191837 -0.00347325488684 0.0736370761829
0.0134946512134 -0.015347257431 0.0732424883414
-0.00683142964342 0.00272338796348 0.0739200688837
0.0132621532005 -0.020936576977 0.0731064096516
0.00956942094268 -0.0129617508748 0.0733459377967
0.000418562890112 -0.00830542286348 0.0735646513553
-0.00818721271476 0.00928607394492 0.0740982079697
-0.000344487562678 -0.00452500998648 0.0736670654718
0.0105234800594 -0.0217945606792 0.0731159942304
-0.00321415840332 -0.00140487091166 0.0737768446577
0.00241020103319 -0.0214360593335 0.0732163589541
0.00762076852338 -0.0146213206831 0.0733267242587
-0.001691682437 -0.00651342282074 0.0736329108577
0.000853531441592 -0.0145892510778 0.073403813358
-0.00262591862884 -0.00354632879722 0.0737170722716
-0.00662813443099 -2.3959670514e-05 0.0738496010812
0.00620002357969 -0.010941198847 0.0734340644318
0.00592768928839 -0.0242421206313 0.0731070702166
-0.00203883716233 -0.0094514468793 0.0735639171178
-0.000746841375768 -0.000864955384327 0.0737624264135
0.0104268669251 -0.0155869655445 0.0732711258999
0.00249106416073 -0.00380171152453 0.0736530464559
0.00563603055425 -0.00729552689408 0.0735308907733
-0.00157527621872 -0.0135579687806 0.0734567869747
0.00384200519301 -0.0235977670079 0.0731465737892
0.00176700752463 -0.0181480910312 0.0733052017225
0.00316306856928 -0.0067913346405 0.073571282359
0.00408565533686 -0.0150425228363 0.0733561266422
0.00221099062843 -0.0129654850773 0.0734288034839
0.00430007294312 -0.0199895982024 0.0732309468531
-0.0115642946759 0.0120772931032 0.0742055454678
0.0280147740218 -0.00253882290923 0.0685101573112
0.0288326628216 0.00037675407923 0.0649655955966
0.0277021333395 -0.00453369794626 0.0698650776786
0.0271832193873 0.00376289980314 0.0676789342205
0.0249919076823 0.00708786782131 0.071604446414
0.0236227278572 0.0120039830802 0.0726650554647
0.0261568937038 0.00425102525032 0.07004184171
0.0247812373115 0.00938242477764 0.0710132904096
0.0258749234141 0.00831933856877 0.0687615656534
0.0277939763736 0.000608810972348 0.0676771917451
0.0267732634522 0.00139256189644 0.0698808840039
0.025685228364 0.00287336756636 0.0719134179058
0.0262042169698 -0.00170669034557 0.0728436976192
0.0252987866717 0.00106393330531 0.0730541026122
0.0229268918504 0.00712681918066 0.0731047320767
0.00331149828398 0.0171421390445 0.0737985212055
0.0166727881562 0.0159500266519 0.0732873390858
0.00866696255354 0.00968554759624 0.0736414750778
-0.00863017154066 0.0205988173392 0.074238996922
0.0232096500068 0.00469663101109 0.0731104023009
0.0168139952615 0.00592093091802 0.073350608593
0.0116499325449 0.00952689804707 0.0735266143235
0.0183599502335 0.0114745907865 0.0732524419113
0.00573660384028 0.0133795575504 0.073730052829
0.00244796381027 0.0144267214453 0.0738507034729
-0.0108594322903 0.0191115845489 0.0743358448656
0.0154807392998 0.0114302764208 0.073364661033
0.010924606726 0.00725039299546 0.0735704152719
0.01327877215 0.00475490511074 0.0734960173099
0.00617547043615 0.0184765252781 0.0736780498433
0.00833156854685 0.0166461998981 0.0736067905115
-0.000297586460431 0.0120924192711 0.0739734270616
0.00291553100669 0.0106896463162 0.0738581500016
-0.000382304903903 0.0175563758293 0.073939259865
0.0185406169725 0.00160296473013 0.0733130980245
0.00204902656029 0.0190693032594 0.0738343812469
0.0117894745004 0.0121191556175 0.0735034181105
0.0123097137832 0.0169576874447 0.0734500239625
-0.00865577607734 0.0184318036156 0.0742548489531
0.0149466550953 0.0172652373718 0.0733454171822
0.0203827920609 0.0092275079454 0.0731892195067
0.0188281426455 0.00418948469423 0.0732841890013
0.0143807480754 0.0150357314974 0.0733826992804
-0.0124730151228 0.0206071361115 0.0743883117252
0.0210703506163 0.00467387873402 0.0731937131365
0.00565900855162 0.0164281092598 0.0737121684728
0.0224660249591 0.00990570702409 0.0731035943204
0.00817169831866 0.0128732355365 0.0736388716676
0.0143498008454 0.00262422116077 0.0734689939905
-0.00651242481404 0.0166804162383 0.0741835439037
0.0167297050862 0.0133171459326 0.0733031774234
0.0101721411402 0.014765652938 0.0735481400111
0.0064931364923 0.0111896106027 0.073715660312
0.026173951893 -0.00437066848343 0.0730573437858
0.017131104286 0.00915386884041 0.073316117899
0.0223991438185 0.0139286415358 0.0730786132553
0.0147078007446 0.00673056609905 0.0734269258918
-0.000379620790537 0.0150440370542 0.0739563798186
0.0186356044938 0.00723618995902 0.0732707851483
-0.00391942247974 0.0181711355665 0.0740725333736
0.0220141834339 -0.000227712433487 0.0731906309364
0.0130118338918 -0.00729742320428 0.0733804438486
0.0222635197085 -0.00745265553146 0.0731407196635
0.00412803528798 0.00582275109432 0.073780350971
0.0197135698794 -0.00741806313144 0.0732066852535
0.0138117412079 -0.0020882632296 0.0734280499241
0.0165180442164 -0.0141270761549 0.07320100286
0.0176919006199 -0.00906043302581 0.073237136779
0.00762509960192 0.000157306577374 0.0736163775846
0.000924514073992 0.0020130174076 0.0738128084702
0.018245560219 -0.0128324073508 0.0731735593246
0.00925851496061 0.0051385631142 0.0736395873676
0.00457730130117 0.00266129068155 0.0737274436105
-0.00634045784416 0.0127515679112 0.0741399634947
0.0248130264706 -0.00862161036285 0.0730599233407
0.00714590408105 0.00298181993976 0.0736656452399
0.0103331908544 0.00167257141549 0.0735666275388
0.0223427227318 -0.0106890269925 0.0730963397692
0.00485883763026 -0.00109598546356 0.0736710498243
0.0200025290663 -0.0156249088536 0.0730918821296
-0.00235091827306 0.0132227278921 0.0740436294688
0.0152443411871 -0.00849476046593 0.0733074204763
-0.00932627065026 0.0155846696855 0.0742537432071
0.000598562972956 0.00549217874814 0.0738667044719
0.0217345583065 -0.0132325315072 0.0730786851733
0.00345253459977 0.00821508664204 0.0738290074137
0.0224291311562 -0.00310882693441 0.0731932999004
0.0138664149345 -0.0128699078521 0.0732855770954
0.0200696345989 -0.018441632581 0.073053303757
0.00575920041429 0.00739257934742 0.0737589830846
0.0176972712547 -0.0163398113799 0.0731417546546
-0.0147868156644 0.0211425691528 0.0744667549537
0.0174387075074 -0.00614937288419 0.0732817303968
0.00959797964437 -0.0085612795603 0.0734516157202
0.0030581435572 0.000858579829019 0.0737428867576
0.0138196942781 -0.00527411380816 0.0733861615949
0.0171207258653 -0.00196101126041 0.0733447008985
-3.60594218051e-05 0.00780660859978 0.0739132913486
-0.00459111829064 0.0108816004847 0.0740705528422
0.018621524068 -0.00429001029649 0.0732756697208
-0.00266854538445 0.0084879739644 0.0739898398909
0.00903713628081 -0.00252881244148 0.0735449542615
0.0119708514079 -0.0109613839659 0.0733592489919
-0.00496931655391 0.0149244183618 0.0741331661119
0.0198371101542 -0.0104489513085 0.073163854817
0.0138971949063 0.000275279945026 0.0734567793033
0.00950495692376 -0.00601299490437 0.073487347669
0.0271361676332 -0.00695790406704 0.0701696074841
0.0272649715641 -0.00809185152769 0.0671775047154
0.0287759947564 -0.00251298663152 0.0651010344551
0.0280879936124 -0.00510761625138 0.0659512545597
0.0280898120952 -0.00643986781285 0.0636068441615
0.0274850809399 -0.00878306311965 0.0642446734182
0.0241564448491 -0.0125026445548 0.0707282298715
0.0239821367074 -0.0138329746543 0.0689562246191
0.0267442196629 -0.0065875251434 0.0728374590051
0.0251435229907 -0.0103439122373 0.0713621969377
0.0255617360006 -0.0120821447557 0.0669908268906
0.0219740004586 -0.0168494298844 0.0700719690211
0.0220765047268 -0.0155973167291 0.0719357125683
0.0268325299472 -0.0113914364966 0.0641541194863
0.0107132413166 0.0256679687094 -0.0704967590801
0.00652582860198 0.021244690981 -0.074388898208
0.0106317908826 0.0209561335731 -0.0734859665181
0.0152854963407 0.0186129105564 -0.0737324425001
0.0075222276161 0.0244075600001 -0.072133584922
0.012810940305 0.0220699952779 -0.0722087466315
0.00506393661716 0.0249314887318 -0.0724530040238
0.00284020390517 0.0243926767158 -0.0733798136455
0.010804772674 0.0235541179378 -0.0718039617006
0.0191291240196 0.00570862367178 -0.0744960010052
0.0170627827136 0.0165297241 -0.0744960010052
0.0189022629323 0.00293522919266 -0.0744960010052
0.0119739470309 0.0130265940136 -0.0744960010052
0.0135249253549 0.0107603523559 -0.0744960010052
0.0135748625631 0.00857024589483 -0.0744960010052
0.0106860692481 0.0163431225221 -0.0744960010052
0.0215917454431 0.00770589991088 -0.0744960010052
0.00806789742833 0.0193493952059 -0.0744960010052
0.0021922613959 0.0221301458387 -0.0744960010052
0.006237671927 0.0176791613069 -0.0744960010052
0.0110999343515 0.0189144224554 -0.0744960010052
0.0160005887702 0.0095094921121 -0.0744960010052
0.00903017582088 0.0143798871113 -0.0744960010052
0.0224520751127 0.00229851141858 -0.0744960010052
0.0187178781373 0.0111576803605 -0.0744960010052
0.0153963406748 0.0143657484477 -0.0744960010052
0.0169982271959 0.0125526878799 -0.0744960010052
0.0130271849129 0.0152510719426 -0.0744960010052
0.0164598605772 0.0065098784856 -0.0744960010052
0.0211272602344 0.0147225222434 -0.0733494598315
0.0280095361282 0.00654949222817 -0.0692045673408
0.0241545824523 0.014037223072 -0.0703375889951
0.0256707728218 0.0123523521117 -0.0693772000436
0.0265108707743 0.00877836957799 -0.0699236738247
0.0246331833587 0.00455042394319 -0.0727256541395
0.0222681789364 0.0123951569967 -0.0730155890339
0.0248325978853 0.00798115678489 -0.0717679030995
0.0210854740076 0.0108918964865 -0.0743981545783
0.0253494337931 -0.000334146147286 -0.0732100186014
0.026864967609 0.00269867758381 -0.0711860159978
0.0270965152707 0.00496147480081 -0.0704663871295
0.0162234736777 0.0205393870941 -0.0721103317724
0.0185348291412 0.0194074561606 -0.0718329798046
0.014659380407 0.0234359047908 -0.0704730992022
0.0176194917789 0.0221559669497 -0.0699725379036
0.0191256351985 0.0163798287298 -0.0741075744579
0.0225984004139 0.0177951560539 -0.0695670174011
0.021338003328 0.0165891208319 -0.0719382482242
0.019401760688 0.0207767442192 -0.0701193700928
-0.0264982779572 0.0128509968534 0.00703677129108
-0.0234633122689 0.017821180698 0.056170418956
-0.0246707101118 0.0158946389856 0.0258542089315
-0.0257528162368 0.0142535105878 -0.0194615215363
-0.0248791813337 0.0156698763057 -0.00227576187357
-0.0241939880832 0.0167486793561 0.0180062877775
-0.0230931510738 0.0184257523788 0.0625067314744
-0.027030827637 0.0117029530166 0.0569754392413
-0.0249036662238 0.0156500307266 -0.0069703544242
-0.0266505185589 0.0124500820546 0.0367471451215
-0.0253788123467 0.0149879083147 -0.0392813172743
-0.0263072485976 0.0131115060193 0.0212353992236
-0.0257120959514 0.0139505082225 0.059659164208
-0.0247434339467 0.0157138330242 0.0377741195527
-0.024223897068 0.0165389379895 0.0516415915941
-0.025441028254 0.0146668353613 0.00623080563293
-0.0231622950647 0.0184018515498 0.0424277301576
-0.0249180624813 0.0155787135191 0.00292906361594
-0.025252387009 0.0148872253871 0.0280755131468
-0.0239661107891 0.0171774332003 0.00990084823674
-0.0253094103086 0.0146520949919 0.0572362776205
-0.0261567844589 0.0132149153541 0.0540205524469
-0.0255212763185 0.0145071073278 0.0109402005931
-0.0254347734251 0.014810627724 -0.0220120428139
-0.0241141401949 0.0167624450401 0.0441299671362
-0.0255526894876 0.0143579911377 0.0311614279127
-0.0266803065887 0.0123519370813 0.0467415403775
-0.0243942341058 0.0161939520764 0.062899060206
-0.0251823547844 0.0152206989513 -0.0172252365963
-0.0265503612976 0.0127064865833 0.0187615208278
-0.026722809165 0.0122684043411 0.0490096641905
-0.0251908271147 0.0149154924604 0.0444690628229
-0.0263263319866 0.0129780783685 0.0426119849479
-0.0272214879572 0.0113647818534 0.059393817589
-0.0255668257094 0.0145227556815 -0.00894989566702
-0.024238053435 0.0166086007494 0.031707077044
-0.0242924861162 0.0164347932865 0.0487951905557
-0.0234120687614 0.0178940938485 0.0593357466463
-0.0250657923167 0.015083276556 0.0543413827329
-0.025396468987 0.0146920349013 0.0170912939949
-0.025645047635 0.0144652236616 -0.0251932739349
-0.0256644604284 0.0141280560731 0.0393046838877
-0.0254158888209 0.0149503827867 -0.0448038502701
-0.0257369249302 0.0140309371879 0.0335574175034
-0.0238323410682 0.0173567655203 0.020499599114
-0.0273890719693 0.0111039771446 0.0537863363245
-0.0241363379016 0.0168220901612 0.0233964704945
-0.0251393481852 0.0153486035657 -0.0287273809374
-0.0266113965185 0.0126788145218 0.00243254137483
-0.0243622580426 0.0162598156386 0.0605518951028
-0.0242944629691 0.0166026931544 0.0124414963765
-0.0266110526061 0.0126468712712 0.00933718839173
-0.0255573289783 0.0147594872644 -0.0557386383513
-0.0257460440719 0.014236465573 -0.0133805093017
-0.0238737752395 0.0171293673038 0.0536899702263
-0.0254610359335 0.0144233612679 0.0506271234219
-0.0240620520294 0.0168399380606 0.0466305266577
-0.024068740392 0.0169178789376 0.0276556304366
-0.0263843804439 0.0129533740031 0.0267396077179
-0.0262118968928 0.0133857116161 -0.00227633138097
-0.0267804232331 0.0122540029969 0.0311086148424
-0.0255122154756 0.014482065113 0.0195510400698
-0.0261081628704 0.0135510308846 0.000370799293625
-0.0269106914956 0.0119355778755 0.0513042134621
-0.0269491796467 0.0119020920434 0.0444107986351
-0.0243081456668 0.0166009887466 0.00782605099705
-0.0256888484122 0.0144239052675 -0.0323568353621
-0.0250825749263 0.015243374113 0.0142579239685
-0.0255266753624 0.0143257909486 0.0474583397488
-0.025171528138 0.0149604854942 0.0419400148613
-0.0261526420807 0.0135278234482 -0.0108833663613
-0.0244081754049 0.0163001911401 0.0352799256523
-0.0257471614865 0.0140604844633 0.023562761975
-0.0254734759942 0.0148669548955 -0.0480451148725
-0.0263907342223 0.01309022796 -0.00461712855521
0.0194506269557 0.0205566018937 0.0664678017085
0.0219498443506 0.018216032604 0.0678988510115
0.0166056078276 0.0237256846111 0.0630191735633
0.0221539642853 0.0173852809729 0.0703217822661
0.0205018742917 0.0203726501697 0.0641832960277
0.0211765458833 0.02051469548 0.0617793372139
0.0242268420193 0.0165886825929 0.0479965592434
0.0244872304659 0.0164121568553 0.00219703239932
0.0229531643576 0.0183503314945 0.0307230900399
0.0224242160552 0.0189846285692 0.0496900362968
0.0235872277497 0.0174203767452 0.05355250967
0.0238116273931 0.0172213593416 0.0266800924865
0.0215757847712 0.0200832679067 0.0582905025031
0.0248317188634 0.015941423596 0.00532808366558
0.0248510254445 0.0159576155827 -0.0059340568459
0.0247875513516 0.016070158692 -0.0134442825064
0.0249040096537 0.0158174631012 0.0127490925335
