0.02065795045321502 -0.09384547443629794 0.018960911223126493
0.007951263078276354 -0.09367130346126094 -0.0008015575685983677
-0.013541544317542918 -0.09319637856468353 0.003961195433403541
0.0153058943524307 -0.09375351556234794 0.014575808914767188
0.01694759730980639 -0.09376988372949109 0.018428376203944836
-0.007905789896499546 -0.09325830764464442 0.015971052127488027
0.008180321269467817 -0.09369387672622607 -0.004561102927202871
-0.006865633575091569 -0.09339185473953707 -0.007675332944227848
0.012624647947774317 -0.09381744150763949 -0.010916654064581813
0.020266205872118158 -0.09386763303462742 0.012521483005187656
-0.03679078060232225 -0.09266231757682471 0.01341763776849752
-0.033542513717604465 -0.09275752321148364 0.0077358616339344545
-0.010393682445083161 -0.09329443931455117 -0.0027728923126843167
-0.023940278572304047 -0.09298425305229067 0.0025265146776058166
-0.011378942855734826 -0.09320037104960392 0.012757088807739913
0.024470639489510136 -0.09391700989790766 0.02080853942908803
0.016523654242726955 -0.09379434988457556 0.011356685595473814
0.006351916167262175 -0.09361607704892305 0.003764421814524039
-0.03396045981183433 -0.09272974344814729 0.011755968509935735
-0.007055705751378972 -0.09329986216646952 0.010960202622517862
0.00550171671159245 -0.09365787139950715 -0.00887753823811515
-0.006556576550555198 -0.09338096320771974 -0.003990777990929695
0.007752898108819202 -0.09357646808228515 0.018399078845464507
-0.04034145694533816 -0.09259801358133486 0.01120659388067258
-0.02600661561566921 -0.0929234833491565 0.006184530294713846
0.003957637519360267 -0.09349503850819997 0.018724606127956598
-0.015772824406129277 -0.09311635514624236 0.010961557864951623
0.005229399731615647 -0.0936702032709406 -0.012703342999933573
-0.027991425517603075 -0.09289589455037933 0.0031786964914617645
-0.0012330676811589192 -0.09342260983161961 0.010922586667129176
-0.01765260595884026 -0.09310946795057239 0.004039616216646803
0.01899269096070862 -0.09386642472076093 0.0070997203830615195
-0.007565792168049755 -0.09331053098120326 0.006426573851252704
0.022776885050149884 -0.0939037970013736 0.01605566413197981
-0.03425623404778791 -0.0927590104777544 0.0042389208558994175
0.011241955567434769 -0.09372603557790282 0.002277618564965136
-0.04593303643255816 -0.09249066819031745 0.009012312949640392
-0.01543732806384087 -0.09314012194733834 0.007423765471940597
0.016588593485569188 -0.09386282427981471 -0.002855856845130596
0.0018573339533318241 -0.09354314193421685 -0.0008268382023348692
-0.014786666021408363 -0.09311547852625102 0.015543772550042263
-0.01495348643540668 -0.09319915737758963 -0.002922138406759686
-0.002511183519024106 -0.09341662612930068 0.00649168211439312
0.00935548846564219 -0.09375642001991752 -0.012567816650372562
-0.029589568737828406 -0.09283162366187439 0.009665554253988188
-0.02166433676831784 -0.09305861833617425 -0.003076408611427075
0.006962592104370507 -0.09359953056561815 0.009991325478060479
-0.006487526320902098 -0.09335139799138809 0.0025786259719724394
0.019486169769666155 -0.09391010518009904 4.878103050925432e-05
0.01188962064345632 -0.09383027404639802 -0.016911380194730482
0.009418251188734008 -0.09367244966731386 0.00549591385845422
-0.04968379576173064 -0.09240289452452195 0.010879841553317027
-0.06555116742684654 -0.07086273617643782 -0.02041066665244025
-0.06261896233266835 -0.059171141479126235 -0.008393127199169379
-0.06412112318151422 -0.06123940405081285 -0.005949452941905304
-0.06421335998813882 -0.06487581152184065 -0.013496252704070427
-0.061453028313665184 -0.055524984241589206 -0.005813880238457166
-0.06315874470274896 -0.05787774204752549 -0.0030483404818751622
-0.06334849288880137 -0.06225917371000998 -0.01177604242457537
-0.06330729544249708 -0.05673092045574496 0.0001571128699696966
-0.05102001094492803 -0.05393553828963591 -0.005319536367068881
-0.054567742343859416 -0.05393608554265949 -0.005873839547491858
-0.03698943137833375 -0.05393361898382604 -0.010192187756768086
-0.03786232868586481 -0.05393358269496393 0.009798923736493612
-0.0430222146672669 -0.053934338388692396 0.00213460021348598
-0.05546741437510504 -0.05393599219106221 0.005550886264054493
-0.05221594338874061 -0.053935546543495264 0.006418385759268053
-0.05269538738272573 -0.053935674068409406 -0.0017266047023949595
-0.0465714168221871 -0.053934757712338036 0.009894598609425796
-0.04504949972510939 -0.053934645546200644 -0.002206149880802574
-0.03376092851061911 -0.05393313769372863 -0.004299660816975137
-0.05537860023922117 -0.0539360155651246 0.0009641225623233038
-0.038910267329527445 -0.05393377294711461 0.0034725136935767047
-0.03639083517141334 -0.053933408779600234 0.006590000521008294
-0.04235420273707721 -0.05393422122560905 0.005633832195866877
-0.03505245528241166 -0.05393327698903906 0.00024828590758590427
-0.02211367404261742 -0.0545178770540061 0.0036406210917351543
-0.02303151433776739 -0.05448463339064054 0.008696231293228619
-0.017888479538160532 -0.05471615132614194 -0.004641467149047459
-0.020796364968203054 -0.054553956561755615 -0.007469986858700522
-0.016230264367568595 -0.0548126417323353 -0.0017033161388239214
-0.030739619327881253 -0.054053997322836674 0.0009676269761552923
-0.03257462343967052 -0.05398001567537846 0.008583650988135998
-0.007977148213988532 -0.05526119024071549 0.0024176918284807827
-0.02771539220159997 -0.05418940463821034 -0.007117403207877087
-0.029095771982958863 -0.05415813535938184 0.006691511130827821
-0.011677441139557094 -0.05506743339370317 0.0030056708580078516
-0.019304243899428305 -0.05465705982847609 0.0005677374834278232
-0.02769862841251745 -0.054205600541178886 -0.0020441910163648486
-0.012229173981621154 -0.05501641115568834 -0.004240445138423084
-0.02570969431969341 -0.05432399675018867 0.0023618775425272927
-0.01648424187594768 -0.05481806927527021 0.004542322982122096
-0.004868633368710788 -0.05541772208566606 -0.00014329822267383893
-0.019868363857288136 -0.05464690108112515 0.007079226771478525
-0.008477000137561322 -0.05521926873123377 -0.0027212010567403337
-0.014038081947839004 -0.06046348436918689 -0.018644543401897282
-0.010622121816575606 -0.06241137734306276 -0.020171021195456888
-0.0242707963577265 -0.06182590835915336 -0.020096756046076317
-0.022131724589273528 -0.05805973423412969 -0.016878985698408865
-0.041317977611818525 -0.059773794604094654 -0.018898326177928738
-0.025708202012040045 -0.055840956558488176 -0.015130645184317563
-0.03457076459458668 -0.059367960178881365 -0.018353048081409678
-0.03846319974694345 -0.061300218791532975 -0.020089096512541982
-0.02583290115014083 -0.058474830849923866 -0.01733921633582676
-0.020362561738254348 -0.06070857111334467 -0.019042383297010475
-0.02903495806186128 -0.056210004793905484 -0.015540922381521865
-0.03270061051516373 -0.05637030944170409 -0.015786788650270247
-0.029779305989327483 -0.05990883697721541 -0.018659830198210534
-0.0056056250092443045 -0.062378110091349206 -0.019990340918708424
-0.055790565913111684 -0.09171954831151738 -0.006580019254591881
-0.054283088419353684 -0.09130235145879347 -0.023817106450532345
-0.05579603550813195 -0.09142086571668992 -0.014393143797030607
-0.05572481694996518 -0.09125243736842031 -0.019109122184002833
-0.057388771062684446 -0.09180818501757611 0.002415954148270555
-0.035886757451683515 -0.09196877900631685 -0.023733537553931608
0.013537045070517291 -0.09359653139243125 -0.020717071545890826
0.007452324422517451 -0.09304281779644526 -0.022284473231011265
-0.014924916829495254 -0.09268794889405602 -0.022356686460414787
-0.04314012269563943 -0.09161747449870425 -0.024556783797732004
0.033674714198353106 -0.07402594574719443 -0.0005206030479801033
0.034631878360593324 -0.07798660483764831 5.7781856058933885e-05
0.03713795463351646 -0.08769557125231081 -0.0018175549734368243
0.03647785318653751 -0.08582494646601675 0.0021982482254238036
0.032750141982345576 -0.07044354010361623 0.0001689337257142604
0.0351784329327433 -0.08077309322051078 0.0030799646603489614
0.03602127742384503 -0.08295893480857548 -0.0030868575637100428
-0.06766869375789705 -0.07375022895597098 0.02029856071395724
-0.06659182504722244 -0.0682047224359109 0.013828137194454903
-0.06675258778273055 -0.06636641412725512 0.007981558306208315
-0.0654969886872044 -0.06365501230577185 0.01003059922239027
-0.06768733959969656 -0.0697226311153414 0.00987407719975065
-0.06542296710192833 -0.06132788544657641 0.004613638817459568
-0.06437330680597383 -0.05991646521002541 0.008511951514672718
-0.06559168349295029 -0.06610361891447866 -0.009380630465130253
-0.06661774592449689 -0.06711596742752636 -0.006146359200043901
-0.06737924090627409 -0.06729564443961808 -0.002405677930691974
-0.06733495919154087 -0.06564767018712063 0.0012164005290589642
-0.06745259592323265 -0.07422727476967489 -0.01825775345987204
-0.06774995647808797 -0.07163011242297962 -0.010542798859223868
-0.0657279421733864 -0.06221116452663521 0.0004909627911825821
-0.06624648671947128 -0.07032600239316567 -0.01570224813285904
-0.06822340514955857 -0.07019007215198594 -0.004578599800679131
-0.02563672026740388 -0.09285796422673534 0.018469594755309494
-0.04916747545622816 -0.09238458576344297 0.014762448125996698
-0.055832829695840455 -0.09225866148315182 0.012905555303243499
-0.04432328773430701 -0.09248035295555246 0.015692155478702955
-0.049170233770743414 -0.09232383191647625 0.02075934021815687
-4.340492509490555e-05 -0.09337964579675817 0.021828853122617568
-0.05260206691470641 -0.0922897993891909 0.016759776147405293
-0.010060455165247733 -0.09319051227951196 0.019027128015785447
-0.031816824341970015 -0.09267347405327322 0.023440315675250005
-0.02364945744585011 -0.09285591666117865 0.022935093742878998
-0.01883566230642819 -0.09297464501036909 0.02153091443565506
-0.03989043072314497 -0.09250500663524791 0.022765853448472106
0.005211968176682177 -0.09348749173981973 0.022447212504580115
-0.0390142734284499 -0.09257681339620888 0.017550538350845166
-0.0033475667211728503 -0.09331889841678204 0.02074274908437387
-0.029336644686479382 -0.09275125380270016 0.021075876278540212
-0.046494172648181925 -0.09240059374531352 0.018915692876408707
-0.014348036310597312 -0.09309187260157549 0.019575301688399473
-0.044807570537934854 -0.0924024932906369 0.022346201580328635
-0.03062479470240658 -0.09275571046657627 0.017872121583812284
-0.03470812505405056 -0.09266574774898259 0.01800113487818148
-0.017521899320124726 -0.09303886724575916 0.018003768013102182
-0.0419196712372117 -0.092489777321937 0.01991735082266087
-0.03664248803347915 -0.09259755163911662 0.02058957549217627
0.025106191225046495 -0.07038788194708412 0.021890856186485227
0.010702785458618434 -0.06586407162927627 0.02183486106406641
0.019189412911008254 -0.068159028608529 0.021480958569263714
0.025065027250820222 -0.06757203229782155 0.018963868945691388
0.021577280487422107 -0.06648887572591448 0.018963124559432325
0.02721303912040636 -0.06202398838504007 0.007781388921104533
0.02877970834788919 -0.06340504145453982 0.004928213333919833
0.032769977474672696 -0.07905242376212562 0.015309125174095002
0.030196351835112205 -0.06870583305742506 0.011670028965765994
0.029438637964525022 -0.06500751978943463 0.00950280404019734
0.033044546031092484 -0.08186223202262019 0.01856407293796828
0.03163286128382946 -0.0714367334988735 0.008585781432307107
0.03206189180822378 -0.06981572672114593 0.003570155173874808
0.03209667098435262 -0.07454971726094267 0.011339336125596448
0.030731257851646335 -0.06638598506340959 0.0049145336593454875
0.03157631690234236 -0.07518116756774468 0.0151799322807601
0.03399218689124743 -0.0803084332587734 0.010524498872552454
0.03393947611140705 -0.07610241798376466 0.003460039198210401
0.0345285892037065 -0.08696219763194074 0.019001319286307734
0.03351600469855805 -0.07727802682898599 0.008045261367174825
0.03507040716765319 -0.08664073427976321 0.015209435005081082
0.031875464211813996 -0.0672506054686806 0.0002281776962719201
0.03599609250431766 -0.08501156199707793 0.0068365353744378144
0.035482552098457 -0.08595405828272165 0.011549412568185091
0.03270001927906351 -0.07338058775520344 0.00606943513358017
0.029073677450401965 -0.07025398814526493 0.017414619597774843
0.031393625612460736 -0.07744058810236903 0.01880086322250945
0.02829631951319613 -0.06685889803106387 0.016242046925327366
0.027925468996803555 -0.07283467208294254 0.021131451828483704
0.01899955653165075 -0.08486355597373237 0.02703536904636926
0.0122844777051276 -0.08045047132539938 0.026914489319789268
0.01462030222976973 -0.07742602417401886 0.025712984454737554
0.016677073875746035 -0.08190118439308311 0.026601895034009514
0.022260591901935554 -0.07638503360987303 0.02419715543974244
0.022208843625259628 -0.08479663829953422 0.026499656044192882
0.025405549210798274 -0.08645018029817511 0.02643520487288763
0.02544221060877676 -0.0743889939635353 0.02313976050451505
0.018555799173442848 -0.07607846970662491 0.024710900961656908
0.0263321885776214 -0.08007589692577768 0.024547290882469746
0.02245026838052577 -0.07982195124638589 0.025103947193154733
0.01623204061943621 -0.07147824779300789 0.02343618341498145
0.011260061285710731 -0.0731667596143194 0.024661733408555882
0.02164268291821927 -0.07264232379837857 0.023240817954122365
0.002512712101178196 -0.06463903460690237 0.022457238365060167
0.00790866290372302 -0.07299262819025626 0.024990153471676005
0.010709174679854163 -0.06993427483715901 0.02350068547991978
0.006035373137638816 -0.06859928957086299 0.02354450961553143
0.015379901566625723 -0.06806461834123669 0.022241895448888913
-0.03081054822869328 -0.08502823065597276 -0.028072538131822686
-0.014843143107817463 -0.08460701489795308 -0.02775899887812118
-0.03711300765619444 -0.08560178510796802 -0.028198970024658848
0.0366233907745282 -0.08861009457284329 0.006608191654277483
0.036463620798771135 -0.09081207608116526 0.00397289478253969
-0.03549802377406032 -0.07769375129152019 -0.026850972667957107
-0.04871774243353878 -0.07919146284455388 -0.0271178047703813
-0.043646548683691916 -0.07834490460636234 -0.026953715400425404
-0.055313148140125744 -0.0778699729381874 -0.026781476891131865
-0.0590326676707739 -0.07749029302072437 -0.02667476438277339
-0.03705390385820399 -0.0816406888569174 -0.02773805487508211
-0.041046696846662976 -0.08109870147233925 -0.027592999978569108
-0.04512015723200179 -0.08200628807463067 -0.027776451362522527
-0.03649403131156652 -0.07206794096241766 -0.024843901939668695
-0.05800754115604537 -0.07388287125810473 -0.025364733266727654
-0.04186461472897722 -0.07096799430659874 -0.02434743641117159
-0.0557093172772834 -0.0698609888407918 -0.023764890244517375
-0.0451636590070867 -0.06838975365452739 -0.023274977903620413
-0.05051646278317298 -0.07593424248193917 -0.026265828425790602
-0.047602767709330064 -0.07212451028614672 -0.02475761139993291
-0.03855765550879986 -0.07595252201279488 -0.02639066221672308
-0.05469920630963521 -0.07382979854205722 -0.025375818475411184
-0.046264610595837516 -0.07604410535518072 -0.02635190866623513
-0.05216037617658848 -0.06944411082241857 -0.02363158064237555
-0.04482497644917979 -0.06462987207496942 -0.021761578603876747
-0.04792965405889153 -0.066355092781583 -0.022427033609489656
-0.033187293888551385 -0.07134219183437358 -0.02450320888868601
-0.020468271963267656 -0.06804280411668548 -0.02290144564163067
-0.02115814713332415 -0.07143140981019398 -0.024354800741787648
-0.013988231959933695 -0.06669764372259641 -0.02222834853960817
-0.010455422230354307 -0.06606447972003741 -0.021904044263383105
-0.02674413492844443 -0.064925489794903 -0.0216715243923698
-0.043550200530196856 -0.06169132999418164 -0.020555022989861504
-0.03779964177948765 -0.06845264383064084 -0.0233444807117109
-0.04076432494610074 -0.06392779400096774 -0.021464008309923406
-0.03128666233875285 -0.07572375071815642 -0.02633916407940504
-0.028592694098239956 -0.07161278126992732 -0.024547216276758484
-0.02628764174158043 -0.06923766779587748 -0.023500318303054456
-0.03327209959782054 -0.06828046005031013 -0.023201020826136474
-0.0044414995028399075 -0.06510637867406878 -0.021402956358297236
-0.02322445682376893 -0.06473533212398355 -0.021536029169978585
-0.033804234488741404 -0.06496664219377116 -0.021798440975777413
0.0019970060245526012 -0.08386543594900016 -0.02729977191610618
-0.005499637293950969 -0.08418788520085978 -0.02754011815238255
-0.010236861909410207 -0.08303042611861082 -0.02741360435623941
-0.013997396703781306 -0.08087577527132922 -0.027060426970850808
-0.02482856322208516 -0.0786864817525722 -0.026864654021175542
-0.027477375631678576 -0.08337506941162752 -0.027885168635904144
-0.030441047480849335 -0.08044495409712771 -0.02735485798881975
-0.02073081492295739 -0.08176474405684564 -0.027398880289745742
-0.06081357643824692 -0.0591357320759973 -0.012870184203466813
-0.06549754703219178 -0.0736200755639858 -0.024345160079844014
-0.05855949632597725 -0.05616925852875507 -0.011631532025836337
-0.0621496852768646 -0.06464054963230023 -0.017612470553969802
-0.05797512960680223 -0.058830333802057974 -0.014980089617811394
-0.06035644726279215 -0.06208897949405705 -0.016422092563584144
-0.04339443721329947 -0.05393469092047455 -0.011790529626342779
-0.047219168174553475 -0.0622519879820908 -0.020490415967734637
-0.06203674726415137 -0.06802242790878768 -0.02125270542061773
-0.06201763761470983 -0.07211440379881195 -0.024203619578309327
-0.051979584016899893 -0.06426826564298511 -0.020852269666790893
-0.0517682138756433 -0.06089074843499601 -0.018468595292690716
-0.05058337252528197 -0.05730043071960197 -0.01615458984989424
-0.05475935367433728 -0.056583828878036646 -0.01468238098040055
-0.05736318696264203 -0.0625037597558313 -0.018348972365176897
-0.057532430478718026 -0.06681290477477982 -0.021413136670006
-0.03806970633950364 -0.054233677962912306 -0.013789054132500044
-0.04684158122534807 -0.05949961792859822 -0.018464304750007356
-0.039492205551369106 -0.05662618822712567 -0.016012727145577565
-0.05187547145134019 -0.05464617829366165 -0.01364579612476126
-0.043272718158488564 -0.05710575882704644 -0.016322705136690464
-0.04703291081147008 -0.056226463939163224 -0.01533912309828456
-0.062259672878928175 -0.08430612434065615 0.02431215422864279
-0.05803371408603997 -0.08776709923502593 0.027239916671955113
-0.06120290816469056 -0.08844587150812383 0.02381768319579238
-0.06088150541878974 -0.08955531086826449 0.020630896173282492
-0.0529141899984273 -0.09224324543168766 0.020343111428456875
-0.057299323299093124 -0.09093288077793549 0.01940846691927122
-0.05301727210273049 -0.09141183808032734 0.024786553922944318
0.011033832551040325 -0.05797704039297325 0.00015761848247910484
0.023416163474377808 -0.06037698353048318 0.0005351529220718777
0.013625416662001176 -0.058665523524299094 -0.002558072894030388
0.005128862302057151 -0.056748708594349426 0.001235924332305713
0.017778850143629264 -0.059536638550518606 -0.0034235855202484206
0.02200352441966343 -0.06042638752177642 -0.004359368006628997
0.017118560760847234 -0.05917614674067752 4.646433928380154e-05
0.027968249589792077 -0.06355050817611102 -0.00853964958865164
0.02987044376757765 -0.06427554533509858 -0.002298270030592299
0.02720964648239889 -0.061560777902878325 0.0012200269526448804
0.027237456916560744 -0.06203434970319703 -0.00549942278972726
0.031227177013669602 -0.06720397627793609 -0.005178237674485321
0.02939645127560819 -0.06698548834921425 -0.01114155046358534
0.029926629615046926 -0.06924184946393677 -0.013807237219527271
0.029538826735036 -0.07056538143016726 -0.017814128035849783
0.033908669499489 -0.07625102756039809 -0.005572168161901089
0.03200060507466468 -0.07186247331664052 -0.00851867373580762
0.03218803837411211 -0.0764119437594854 -0.014594238809853539
0.03517707431928468 -0.07979843554348541 -0.00458723616940178
0.03395496544237917 -0.07839066413524462 -0.008642948461798474
0.03265977346980325 -0.07087643856302883 -0.0036336910165522323
0.03178648475796005 -0.07335231328384831 -0.011913027246096237
0.03479078424275298 -0.08193788851343088 -0.009863457185016383
0.03657354918554828 -0.08562988957340087 -0.006479311274227057
0.029347922678594814 -0.08861767553988824 -0.024095818283499576
0.022710581782753 -0.09239503659659114 -0.02399817272333903
0.019445478423175365 -0.09144167932852627 -0.024760892531680623
0.024322181460131848 -0.0894025664343445 -0.024620325655344475
-0.0003908726224965994 -0.09168036846701573 -0.024839575487447238
0.009739849242435684 -0.09073143601596488 -0.0262459542627286
0.014986948288303744 -0.09174529117650276 -0.024877997313320497
-0.010262892516276646 -0.09158362166234545 -0.02489159991747917
0.0035320699604982357 -0.09097872835711773 -0.02584956107391675
-0.01817018690429743 -0.09203802492471641 -0.024192541075498352
0.011403701253549468 -0.09263573622574979 -0.02360792378911666
-0.005227739460058905 -0.09143264703619138 -0.025144034745086162
0.00114280668843985 -0.08851450098159203 -0.026969465831588695
-0.007399405612648585 -0.0889777578590159 -0.027121504397696224
-0.0022604616671814013 -0.08909779179344841 -0.02697885295722203
0.0052138093078138185 -0.0875629889947182 -0.026990815213140274
-0.019416414450982338 -0.08659843428819541 -0.02772449248913093
-0.010221970194960305 -0.08672716116445017 -0.02748030933598329
-0.02473493340123154 -0.08646330075454048 -0.027873528666230347
0.025562026265403007 -0.08572490296083403 -0.025298274949359927
0.02074196587378872 -0.08705877795837895 -0.0256695760089089
0.016139064160105177 -0.08853952447995696 -0.02600655811911244
0.013790615559516134 -0.08632556224658065 -0.026430872211237383
-0.026932589639052155 -0.05548764579031522 0.016779390855627067
-0.006009718150733623 -0.05749984422882442 0.014453889049730821
-0.004262286165384295 -0.060148427108511496 0.018411613120193907
0.0017403492324829413 -0.05962604095986488 0.015903793495402472
-0.009703168548682365 -0.05771703134791161 0.015822484768853104
-0.01455803774159991 -0.05659502104840605 0.015265558530148542
-0.008375975313126479 -0.05974268966713172 0.018851904328048532
-0.01354072528500547 -0.05840771954912477 0.01802284784732093
-0.001412667495875319 -0.0615326636850674 0.019953127945254518
-0.019245838669719826 -0.05776221886264507 0.018494879502096356
-0.002035939649539167 -0.058783649657523904 0.01552139345880621
-0.023413736484905346 -0.05502649305116807 0.014235998988969515
-0.016571226674657265 -0.0550394492341464 0.009240828014661983
0.003329831035359275 -0.05785576535682806 0.00976026208032312
-0.017469419363974694 -0.05554796767107113 0.012659603769850293
-0.001426562057551607 -0.055840424941683744 0.0023672810839377592
-0.01142706352011482 -0.055935022534977015 0.010282686741572252
-0.001274363964083868 -0.05744859304518483 0.010963600011681012
-0.008426348846381788 -0.055545314444392445 0.005950881750267702
-0.002382697332657584 -0.05651788312951272 0.006743838526370283
-0.004900883184980361 -0.055737137841999344 0.004379883787232054
-0.005450548046079489 -0.05655582873608417 0.009220383175812058
0.016175563144319994 -0.05951058947692449 0.00708814973029848
0.013894668040062853 -0.05960576487692497 0.00994194752489824
0.01329373362292915 -0.058592272127178144 0.004460401847155002
0.022152656752747663 -0.06035121339948638 0.006152061700269382
0.01758069648736361 -0.05917564771904568 0.003671690933156026
0.00755734196512788 -0.057611650154777705 0.00431535272393035
0.00658761014523326 -0.05876969100212892 0.012236280360310691
0.00832366005537739 -0.058499906987903645 0.0088797359239742
0.002851185446903075 -0.0570522377020842 0.00566738871296856
0.02206619869707294 -0.061427013010746316 0.009907120243617153
0.026490847932420614 -0.060802874990374935 0.0043701737865853435
0.019187702024350255 -0.06187679264004955 0.013657479517418379
0.024715359559623614 -0.06290290062416647 0.012860616487932127
0.017378666219116084 -0.06041569042939293 0.010104420891361734
0.007045629701558506 -0.060616445988179855 0.015981640575842553
0.006088006056586528 -0.06265987033735332 0.01955844407659653
0.01092356249582294 -0.060752308985370096 0.01487278289308757
0.014817186316496157 -0.06122355093963361 0.014291912186483905
0.018452059388277417 -0.0637050416205005 0.016996312283738185
0.02169751281067717 -0.0635917416987798 0.015707304996552256
0.011796876363351413 -0.06284420064888863 0.017901112666797704
-0.05309395895977515 -0.08963918357044369 0.028101538965174717
-0.06107680369110938 -0.08779198404056256 -0.02292070271101263
-0.06737058052104936 -0.08068249883199691 -0.02074601548786667
-0.0674339927466394 -0.07610561812025493 -0.02252708285644104
-0.06855075151588395 -0.07810782824759446 -0.01869996109068406
-0.06878080158939422 -0.07324672543382296 -0.0073608581480238255
-0.0679098347694492 -0.07359259882521808 -0.014161778864232637
-0.05831835622803773 -0.07964477516651837 0.026277529932859
-0.05617579606674716 -0.08313143134381024 0.027539218640975943
-0.059597211145578005 -0.08303446145242004 0.02621650980044757
-0.061546067416223364 -0.07831468029782869 0.02487302128498467
-0.049535623828555336 -0.08480143143937337 0.02850500313108383
-0.050117892672870874 -0.08002587849256115 0.027973042798371244
-0.04610736291682309 -0.0800385472216052 0.02839575008807063
-0.054032838941131575 -0.0775832585522089 0.027320837182829242
-0.052894810487700485 -0.08339243006819728 0.028013094604563717
-0.04196013754863709 -0.08096778670745026 0.02892317738697861
-0.048649965458215566 -0.088506692489544 0.028963337377263525
-0.04497367901686945 -0.08619294450523793 0.029121583079762436
-0.037308204462676686 -0.08171616492685592 0.029485814208093385
-0.03788583274500525 -0.09253281447668468 -0.013765986598086892
-0.013386435424747541 -0.09320608720583073 -0.01172477329265949
-0.037552662474820975 -0.09260855522013821 -0.006082404408867574
-0.016297210834841567 -0.0930923418230421 -0.015848250699470077
-0.046530113778580996 -0.09240136094087464 -0.0022867933946043705
-0.02660155098198355 -0.09292597451066997 -0.0032763358741587905
-0.045852206759806516 -0.09233661439502538 -0.011816787516562729
-0.024456346463007057 -0.09296103233534181 -0.0058450108376122195
-0.03747905978225964 -0.09251239568760476 -0.017365116815123652
-0.009331610419030821 -0.09331608390635077 -0.011551902009513641
-0.04421051898849247 -0.09235289056636421 -0.01499591490127025
-0.041051509087992405 -0.09254764383663822 -0.0023219480177649743
-0.004704607811351408 -0.09341178842817378 -0.014782588225834498
-0.01085424923375245 -0.09323602075331255 -0.016073151908905178
-0.02972209207840162 -0.09286172325156485 -0.0010637237342479514
-0.03324049961127402 -0.09259019586478613 -0.021459401852854908
-0.011971404351678774 -0.09327043395091333 -0.008679524756308841
-0.037856958690804576 -0.09267481137985792 0.0024717754494384746
-0.025307338375320617 -0.09290712188536424 -0.009425536685121815
-0.041553371949955925 -0.09245643251584856 -0.011265343081342956
-0.041888878855899224 -0.09249830930002095 -0.005418249778071054
-0.02509385719800045 -0.09287099406329197 -0.014236219358256945
0.007423199780368588 -0.09372189232021474 -0.01643765617402148
-0.04996619604681396 -0.09235624603218132 0.0030968278875449957
-0.005211841855220042 -0.09342826938436953 -0.01132716266767309
-0.016587522905462445 -0.09314245718088587 -0.009192937284272772
-0.018150648928332482 -0.09307476979252227 -0.012166684261638286
-0.0012236226330028183 -0.09348903280332914 -0.01661015227232101
-0.03375288260607355 -0.09264314472812873 -0.013795110616860395
-0.04984388772788738 -0.0922923376735939 -0.004627532328552577
-0.021220222882770076 -0.09302497034299434 -0.008449221556258426
-0.03697497632997492 -0.09266100337842885 -0.0018292046626662084
0.0027120288967653755 -0.0936074331386223 -0.015104414830021094
-0.013614324465011563 -0.09313867470964474 -0.01877467640857252
-0.030514909112563895 -0.09272514488314725 -0.014328253838073643
-0.02156870086807487 -0.09297153841608957 -0.013520676352823235
-0.03321754482919217 -0.0927753321705457 -0.00024332574458633851
-0.03299578982530049 -0.09271417724480963 -0.007957041123398735
0.0035531677183029287 -0.09358541636062073 -0.020223575485021246
-0.0018057564569557778 -0.09351011513650279 -0.012395243372871933
-0.01752362992806658 -0.09303128384811316 -0.019095612887413578
-0.028825099265577043 -0.092713454592271 -0.020870967308640645
-0.04977841446050698 -0.09225712307755352 -0.008877877698444048
-0.04144800162049216 -0.09257166593830435 0.001659858656565455
-0.009958889093851482 -0.09323113395315683 -0.019389541471129413
-0.018751246321877177 -0.09311653587727188 -0.005516786739134028
-0.044846399092000236 -0.09239397939760177 -0.008315342192279116
0.00975483531175581 -0.09375628860028609 -0.019655936464083014
-0.05429825603538589 -0.0922570751846287 0.005021590908575224
-0.046196517919037276 -0.09245311817773619 0.0026378918664701264
-0.05259239555929799 -0.09233674589050145 0.008934049244165482
-0.02968276087684444 -0.0927905935924716 -0.009363104980776997
-0.024501899360910753 -0.09284327682183265 -0.019244222952137555
-0.05101587824358716 -0.0919582583996647 -0.015072067737987672
-0.04921844661310215 -0.09190443881051436 -0.022248970797515432
-0.05363830838573086 -0.09222336317848226 0.0011095917263633029
-0.0511438182000461 -0.09182131993236364 -0.01886968069484945
-0.05350180964402371 -0.0921171735491346 -0.0025604331005872434
-0.052988515595618964 -0.09189559435562511 -0.010921316342308082
-0.0026863414975269225 -0.09329421660646892 -0.02091700833629886
-0.026137486335589565 -0.09245106267895656 -0.02258739419915048
-0.006305856731047683 -0.09330051201445161 -0.02070187065402488
-0.020888337869725257 -0.09289589468661734 -0.021325687115351648
-0.039346215526832484 -0.09227392299586076 -0.022496005477009695
-0.027653387779391796 -0.07580838062531393 0.027680540648478424
-0.031773897397502304 -0.07804832989128606 0.028453600697271444
-0.0021758944825941828 -0.079176324241389 0.027661320922462814
-0.03126396918575212 -0.07453812281688141 0.02746401096732889
-0.023209460502243838 -0.07692914734322912 0.027824647896785744
-0.016318149380182667 -0.07866893575333106 0.02804861275967
-0.027754256122637266 -0.07902957246480961 0.02857495794727822
-0.003498311193069567 -0.06831482458645273 0.024045277377682583
-0.0014331691148976623 -0.06566139686787459 0.023013635840691483
0.0014248723053665877 -0.0690956224211909 0.024086472342578172
0.0011160652789688986 -0.07429828267596728 0.025931806846135084
-0.011480053686443725 -0.0749861425229053 0.02677138762865155
-0.02754097124963017 -0.07224676217322104 0.02656937349363713
0.0055231266539596206 -0.07817666429455226 0.027087447598756066
-0.0020957836154002225 -0.07123852452413125 0.02500752007077026
-0.006601579226994314 -0.07178033527336643 0.025411917543695987
-0.00967941359149273 -0.0676660197294108 0.02411020112769309
-0.007210935030074623 -0.07585949044775914 0.026876176455472148
-0.011680398638326608 -0.07132286203868399 0.025491875491427347
-0.020740361493064165 -0.07084289088609622 0.025752776217383307
-0.0069612969292013795 -0.0658450262150225 0.023340496138030485
0.0015801543457773706 -0.07738050217709948 0.026994346641063333
-0.015822338915186838 -0.07234275331009901 0.0260472367366944
-0.002466428639474447 -0.07462745937535042 0.026217583758645673
0.00418692871434236 -0.07161871633937422 0.024843257936479176
-0.04553830059147927 -0.06905928830866245 0.02544601656680335
-0.04271080608153836 -0.07126707085745951 0.026296489267408837
-0.04630186925993546 -0.07333455392297863 0.026668931445708012
-0.04861263668566019 -0.07026999681826891 0.02559810028406547
-0.05007864491376135 -0.07479689465624415 0.026848310518035406
-0.05197281941999393 -0.07106747785816364 0.025607541420417296
-0.039175605189728006 -0.07875028006735443 0.02860090034950412
-0.03772587369725473 -0.07489435393656435 0.027657665721313607
-0.042913713276259924 -0.07767394194997652 0.02808484713060567
-0.061216363031511276 -0.09028731004484551 -0.01220758481989032
-0.058355987320190345 -0.09169192357850353 0.007677829454874237
-0.061384577684795376 -0.0905333655367549 -0.0014855226054442633
-0.05900124900251811 -0.09103652717340358 -0.009056874227559554
-0.05960250079753701 -0.09053544681853636 -0.020684117784298628
-0.05871717199300554 -0.09124752025282726 -0.004495157846438176
-0.06508492619800885 -0.08799225507947911 0.0005293899901297485
-0.06556651689127706 -0.08685771490044743 0.010332636754513158
-0.06462013879919731 -0.08862546671693416 -0.0028127578881273854
-0.06357276697023403 -0.08884401887407198 0.005669096906923842
-0.06309815351395123 -0.0884678765052857 0.01580972544135489
-0.0666115660750058 -0.08648809322191076 0.0038779980515470484
-0.061421469138829815 -0.09038566558222588 0.002017434272507876
-0.060432214141326594 -0.09040489285037495 0.010657192465318214
-0.059144782681119404 -0.09086638556902396 0.014549891332056765
-0.06428973271252927 -0.08728517641641041 -0.012528283824260807
-0.06534122758928868 -0.08493132587874205 -0.016000783225619587
-0.06410860952624506 -0.08531375071437344 -0.01996972148624773
-0.06215300342472 -0.08905755315424344 -0.015655789971430096
-0.06764968975746555 -0.08363667110133259 -0.007709542450837248
-0.06735456430137679 -0.08330183864956803 -0.011505513269860317
-0.06421089812704027 -0.08887542878346445 -0.007164467624167949
-0.06576025923721526 -0.08606207473810279 -0.009629240240868166
-0.06612122874831448 -0.08642619142548255 -0.0052088627243541945
-0.0675801968694943 -0.08495346633564435 -0.0017664987903305623
-0.0679831445741053 -0.08164541428177755 -0.015028522043455542
-0.06871928954619921 -0.07057003885468632 0.0036280110615515802
-0.06821322279706324 -0.07348431832409366 0.015580268362963761
-0.06866212115698414 -0.0779045655023752 0.01298932382137797
-0.06833730952238319 -0.07705371964663382 0.017548652807062255
-0.06842226783144209 -0.07276935317784225 0.011202102460437638
-0.06535927567623852 -0.0814849608010756 0.022073634077055208
-0.06599545060688172 -0.08325236509645893 0.018907707603293772
-0.06755789242122916 -0.07735255404282448 0.020904284772088666
-0.0635453721830735 -0.08613526736951391 0.0218541551376458
-0.06748453851752423 -0.08469547520781087 0.0085242623690337
-0.06785921645708269 -0.08241920629680985 0.014871234351022958
-0.06555376274758658 -0.08569670426510802 0.015249812969377502
-0.06843949069703659 -0.0823258139037171 -0.0035837462906741237
-0.06870136708081392 -0.08144023697879854 0.008363698593312013
-0.06868311265925846 -0.08067539854795419 -0.00902334841033585
-0.06863783006342197 -0.08162992544576958 0.004960844696665712
-0.06880100071430206 -0.07670303589965968 -0.009596941416361691
-0.06880100071430206 -0.07511798498709414 0.004652581949870013
-0.06880100071430206 -0.07653590261964285 0.0009981800419220374
-0.06880100071430206 -0.07891996229054797 -0.005769985360203042
-0.06880100071430206 -0.07982754744420956 -0.0005746913056670633
-0.06880100071430206 -0.07398020574788215 -0.0014071127263855393
-0.06880100071430208 -0.0695114168724332 0.0006002519029291521
-0.06880100071430206 -0.07799423737442636 -0.014579096033004385
-0.06880100071430206 -0.0773558451056838 0.008733912974440802
0.008608655479879254 -0.08042989096382852 0.02737564409621123
0.021601397130856882 -0.08887904452132649 0.027513153615397166
0.015599179687620418 -0.08677775528788662 0.027772264677390024
0.011096047006057565 -0.0862783653301612 0.028159513714944365
-0.0205444316055778 -0.08223606167997578 0.029074646113390896
0.002687896044468218 -0.08505132113704253 0.028592013696946132
-0.016305333012838326 -0.08274040938941972 0.028984793836031628
-0.03362309733501329 -0.08216583037449791 0.02963637619955473
-0.0025728345440418597 -0.08249465424544185 0.028333801711552732
-0.007062934156449602 -0.08035379277648215 0.02812132026960855
-0.0009073340360662863 -0.0854795355136834 0.028832123896136104
-0.012591199018560584 -0.08052692857616145 0.02839759778269572
-0.009048111509761992 -0.08406683490880379 0.02891962723484924
-0.013030686011706996 -0.08413881661454173 0.029108558021327016
-0.005083148499594682 -0.08529036223103115 0.028979545081844423
0.00564383839547243 -0.08264139358786537 0.028000544539784213
-0.02510973046508102 -0.08159473574518858 0.029152614497632994
0.006046241385650694 -0.08684938736875118 0.028788626768762936
0.0008921578444609204 -0.08100038158673185 0.027895282053380422
-0.03580431970446591 -0.08591300555613078 0.029221651964601948
-0.015981585125922147 -0.0870653827349468 0.028971312788737665
-0.019477244799799707 -0.08683994027123113 0.029018186513481488
-0.025162377357447075 -0.08740927517676528 0.028979558996754126
-0.04035534260289351 -0.08705095588780758 0.029107014254042614
-0.028867409107821162 -0.08347321861459694 0.02948293607998352
0.004566003655871609 -0.09053373377954455 0.027374933251411604
0.008106394584390744 -0.08966627169657687 0.027687375834717032
-0.019145059314235546 -0.09044508429380035 0.027881923761625536
0.01995216269090551 -0.09200236960788333 0.026424038342672
-0.015564897701832588 -0.09075058377382918 0.027676631504619867
-0.0290182591613234 -0.09042828039529173 0.028084170089099074
-0.006541004964436792 -0.0895890257945326 0.02801047567272951
-0.03325244514347322 -0.08912313910127552 0.028742933209315636
-0.0004487509147821419 -0.08977568267175762 0.02780798563546135
-0.03650716763323123 -0.09229998741750314 0.024788823775360465
-0.00947757737516855 -0.09262619285343715 0.0245899193960517
0.020787681025227135 -0.09350020614302454 0.023060170348258704
0.00966688674146731 -0.09281344113069323 0.024561554281274996
0.012568558343202947 -0.09234135961715383 0.025842975887971697
-0.018918771912381577 -0.09229433394688295 0.02521924149051292
-0.005408066426658996 -0.09282234523207888 0.02418221810762545
-0.037681866920845256 -0.09018630291089916 0.028329924399588514
-0.01263557349449963 -0.09164269189608437 0.02649436701663636
-0.02317707274164934 -0.09129143889445411 0.026830866951842017
-0.028648574724034113 -0.09219472907246852 0.02519675260655392
-0.0476497922635336 -0.09220824164972921 0.02472588621327041
-0.04229980153097033 -0.09148336094437086 0.026059878035220176
0.017417451315199155 -0.08964275524413157 0.027461411257381
0.021451116903614082 -0.06666022110025092 -0.018301273996949852
0.01186599766999688 -0.06495209894824047 -0.019350555834048863
0.026472684371826427 -0.07235139965003148 -0.02100633566221166
0.026513877926166995 -0.06785076104831868 -0.0179427130663231
0.02348204727144176 -0.06921662761328534 -0.019568123805657752
0.01802907005249796 -0.06397047593510422 -0.017264454070550866
0.02568064779122284 -0.0642903668945935 -0.015718607329942232
0.018002216374309685 -0.0683869945573587 -0.02026768897173196
0.029223658355008533 -0.07706796444551185 -0.022199994800498654
0.029575047154967254 -0.07399313759550427 -0.020312675966350644
-0.002235639208309972 -0.057784117182357216 -0.01194111839606962
0.013937910399728928 -0.06143629210303579 -0.01404167096776962
-0.006021948212380334 -0.05793671894847278 -0.01341418713913423
0.003052998165105278 -0.058660554764950704 -0.012008275100282337
-0.022602550639932717 -0.055295594118417286 -0.013411565405365205
0.009652036095290029 -0.06075977124795014 -0.014053037003731624
-0.009994512985316395 -0.057069863939802956 -0.012957129932918839
-0.009407826862706543 -0.05570367484015833 -0.00861773176835014
-0.025841131313273695 -0.054305374799911585 -0.01109409157831743
-0.0048930301711277695 -0.0560766562424155 -0.007825474831270694
-0.017639854567113443 -0.055102311208206675 -0.010850202259779734
-0.014080741765843454 -0.05542698172212672 -0.010532377645439694
0.020145173479703942 -0.062172723550832865 -0.013345504235130168
0.0069533999135461865 -0.05893457831255644 -0.011309152709681271
0.023120957983699657 -0.06204106109218793 -0.011505088804302377
0.026402537891468805 -0.06273235085545115 -0.011706933369584633
0.017554384136748008 -0.06051273690874173 -0.010213884685697613
0.0013866422031357862 -0.056160806789128465 -0.0005413804770263151
0.013005901685463742 -0.05917358823574517 -0.008696538497239429
0.0045179167763593694 -0.05767886469007216 -0.008978656316312767
0.0021757776372941587 -0.05678311978322246 -0.004786048580093588
0.018267567684289315 -0.059940663839275585 -0.00711232406638203
0.005773576874918784 -0.05731690962745596 -0.003784819611506329
0.010034881091049632 -0.05853059287078237 -0.0077367036047733045
-0.00021934967251205058 -0.05687055455086858 -0.009365111308840882
0.024848849969818045 -0.06123136620686716 -0.008057705512683744
-0.0017528580854136088 -0.05625205123619298 -0.006337108590792367
0.026057826882264712 -0.09378568327113448 -0.015040855540315338
0.025529257720937386 -0.09355721440602982 -0.018487665446507935
0.02043945837771194 -0.09375640381018917 -0.019800503408779063
0.026268646255333327 -0.09395500272512436 -0.0027494724658039724
0.03044938242683403 -0.09395500272512436 -0.009176155365485553
0.024589320934547652 -0.09395500272512436 -0.0097043743299583
0.02299246032716334 -0.09395500272512436 0.0006286486301714462
0.022723445606224447 -0.09395500272512436 -0.013718913155459091
0.019675787807195335 -0.09395500272512436 -0.015781309737776434
0.029910492560125415 -0.09395500272512436 -0.005447565309479103
0.020716806855882498 -0.09395500272512436 -0.004506809035840514
0.02636254043382404 -0.09395500272512436 0.0028983862973783847
0.026524997827987534 -0.09395500272512435 0.012245708167485358
0.021096316742810126 -0.09395500272512436 -0.010753891546024547
0.027216469455713325 -0.09395500272512436 0.00828264961679668
0.028439684377747226 -0.09395500272512436 -0.0001249623575405442
0.027106425432187213 -0.09395500272512436 -0.007118379027721059
0.03339551926557061 -0.0934862149046729 0.004634257969634511
0.0327633236765597 -0.09376447586521464 -0.0021803363988427463
0.03139242268540089 -0.09384796399598572 0.0016744118623799814
0.03132742172607339 -0.09359748892034436 0.01097525954308551
0.027735232970711246 -0.09385656528710085 0.01963127461282189
0.03669785470588257 -0.09103418567833048 -0.00019403278096043596
0.03716060492542909 -0.08961114453330321 -0.00474445999989791
0.0335517924815459 -0.09319953337204112 -0.0060449526893892325
0.03336518776255215 -0.0899127494895081 -0.020230201676428083
0.03262256851371233 -0.08505735341650783 -0.020557793507542395
0.03160440687509366 -0.08081446165483122 -0.020375248783806917
0.03066034664958097 -0.08218101654002442 -0.02325994314153369
0.035139144280590624 -0.08884999153017314 -0.015426071604958751
0.03380919880757878 -0.08564499314306559 -0.01740580053023815
0.032490237216981924 -0.07951522283618491 -0.01659010629218083
0.036846732427252164 -0.0886232480538133 -0.008795671033155343
0.03569019853768679 -0.0868289944545393 -0.011452187802517156
0.03395483481700476 -0.08293362914187392 -0.01430533109913096
0.02817171072616435 -0.09315299091419395 -0.02106936103343068
0.030427210603547205 -0.09311791024654333 -0.015851830007297226
0.03359779671930599 -0.09161107655665099 -0.01355388017786776
0.03370999051252397 -0.0923132205702184 -0.009547915622687668
-0.034393283356271946 -0.0596134539567537 0.020660753321621733
-0.030218981951012656 -0.0589640411747252 0.02030684091431085
-0.04390370828543359 -0.06330839857803136 0.023265190284533346
-0.03358897603177476 -0.057049368534836935 0.018612978310100267
-0.03051086588197617 -0.0615265008064704 0.02237455591666971
-0.03790890987390531 -0.06087258791559777 0.02153687425970142
-0.04747129504713379 -0.06336842601086742 0.02316589860816193
-0.00645823785363799 -0.06211399698744981 0.021659886580849892
-0.025977117201036168 -0.05905711109857121 0.020524654592956465
-0.022550431869783776 -0.05797349525674961 0.019058308877937937
-0.014600852399449797 -0.06055289847405334 0.02089243230984536
-0.03032609447812613 -0.055535201151684185 0.017351360772120995
-0.018615392853951987 -0.06118125932180456 0.021951228332655715
-0.03848254538554651 -0.06416654793540039 0.023617741294058546
-0.03875322712687439 -0.07028680710756514 0.026172648077755146
-0.04138386159587235 -0.06786343959699122 0.025191549331280337
-0.027764248550590474 -0.06406362922628003 0.0234552756282354
-0.03234608727634503 -0.06437131606347428 0.02363467422605804
-0.03500884059771272 -0.06734925626656513 0.024906049152360627
-0.016030974388666228 -0.06484212721299655 0.023317102666128815
-0.009673317903280309 -0.06335570856037459 0.022494900926504392
-0.03426396027963929 -0.07178386542872028 0.026712847355792452
-0.020407051529595842 -0.06753448920595032 0.024529684298184765
-0.030442988651903313 -0.06738483908326381 0.02486063127548034
-0.022509265396410624 -0.06224248891148544 0.022561077877373804
-0.030691832643480903 -0.07090826011587792 0.026235216050415896
-0.024168033647647448 -0.06773461687266623 0.02475296031182142
-0.04574469112197995 -0.08730670610768168 -0.027716366660404796
-0.05738227640267872 -0.08683015379262976 -0.025602532235897896
-0.06438367365994087 -0.07908183985236873 -0.026622156189803764
-0.06352267627911692 -0.08234070592648113 -0.025087032590424763
-0.05477670683197404 -0.08558531135591617 -0.027190483049150324
-0.05230838932959196 -0.08841734306311502 -0.027321569471878235
-0.05294612685884853 -0.08136908040717485 -0.027328107408212073
-0.04247499136446757 -0.08522713041587868 -0.027936378048242637
-0.06009483482910433 -0.08208112711159829 -0.026891433405673886
-0.051229902404101045 -0.08469232467827498 -0.02741058968351623
-0.017380960872816695 -0.08945344755954887 -0.026996957655762807
-0.033361567409903134 -0.08747249286217648 -0.027767901613664298
-0.012507797022163453 -0.08925790732831204 -0.027047956572469334
-0.0314488466247644 -0.09109592766930978 -0.02539277281516484
-0.021110796626565814 -0.09036778208653248 -0.02625685851203958
-0.025626821602564083 -0.09031180396678998 -0.026250169277648498
-0.047418200966296384 -0.0901149404972447 -0.026145284208308264
-0.03846950464639538 -0.0898893836311857 -0.026492065098911992
-0.05262606872929035 -0.05792236904396574 0.018298214386415018
-0.055821034929591035 -0.06027611771398404 0.019024341807402978
-0.056411196716749414 -0.06638486585121466 0.02318860617151248
-0.056875194760356615 -0.06352749506913025 0.02102171635557129
-0.05102273941725804 -0.06266579778961744 0.022141982732640748
-0.06136380070548155 -0.07191805868205711 0.023767686884890248
-0.05887523193178761 -0.07423390945054874 0.025187570602693117
-0.06377867922718913 -0.07553711792607856 0.02364581805112529
-0.05781602465198663 -0.06981820562892843 0.024422065494313992
-0.05503798608195743 -0.07254210113272586 0.02570606806635501
-0.05097810957365832 -0.06720065909882453 0.024498819458352774
0.018779240843519392 -0.08273610236923715 -0.025496321944150337
0.008940290022775431 -0.08433721942801305 -0.02697638393569602
0.01178204030721138 -0.08195058159797647 -0.026090642585384117
0.02860268767442345 -0.08480760039742388 -0.024892650664196114
-0.005576678864365374 -0.06989369225791991 -0.023180289471707444
-0.017077825109087647 -0.07491436343094768 -0.025444149629959147
-0.0009014550734999613 -0.0654984530019018 -0.02143009911019443
0.003677088483832378 -0.0771686967227079 -0.025347330418342695
0.0014053141528768433 -0.06810554258575509 -0.022250044404058957
-0.004761795557749679 -0.07400278865539908 -0.024593791411426084
-0.020515926241240764 -0.07460021094691882 -0.02548108598741967
-0.013570766295789176 -0.07516310392360709 -0.025381192808382268
-0.010085115235586889 -0.06904821156530819 -0.02307590120805482
-0.0006899178800221272 -0.07109140187951976 -0.02339259211814336
-0.024366003784816338 -0.07409389704217677 -0.025467979078715234
-0.008401032422372393 -0.07237816435031721 -0.024177410766471667
0.001952183088579247 -0.07372557567529611 -0.024207681212094406
-0.016454950186482364 -0.07073153413225614 -0.023942899126619496
-0.0029167372736524765 -0.07785111573664197 -0.02587111944331892
-0.019304705988456176 -0.07852036739561348 -0.02667507124979289
-0.001092186458601155 -0.08092939758230083 -0.026636904609929547
0.003944992860093695 -0.08069242891312828 -0.026382557546272556
-0.008252863879781571 -0.07877571941567543 -0.026326269174986015
0.016590990766374648 -0.07300169285696259 -0.02255274331398697
