-0.00256767628136 -0.0102823175197 -0.0169786712919
-2.30067443616e-05 -0.00795649172155 -0.0170284146651
-0.000477933621744 -0.00910161703677 -0.0170127088165
-0.00402436089556 -0.0132434179675 -0.0169349722874
7.11107909162e-05 -0.00567421336842 -0.0170507706184
0.00991848411603 -0.0118062941186 -0.0171019080561
0.00699566743255 -0.0136949018301 -0.0170520855127
-0.00809219320688 -0.0114559285452 -0.0169068830618
0.00607946742906 -0.00518362156743 -0.0171215055646
0.00379914063709 -0.0111469997757 -0.0170406927105
0.00373639226799 -0.00532298768339 -0.0170944063845
0.00713325689492 -0.0105031526587 -0.0170834158404
-0.00383063188365 -0.0121626260209 -0.0169472013775
0.0108641482948 -0.012963998268 -0.017101505238
0.0028676322569 -0.0115689234171 -0.0170264954198
0.000974610160517 -0.0122447974555 -0.0169993395876
-0.00307299304 -0.0136429107635 -0.0169417150364
-0.00212030917809 -0.0123023989208 -0.0169647263864
0.00209073584104 -0.0136647333275 -0.0169983639376
-0.0108638593738 -0.0135171772318 -0.0168571119769
0.00641919964662 -0.00975501180576 -0.0170825427532
0.00391968114484 -0.00965112547997 -0.0170559934518
0.00408478402795 -0.00365962584743 -0.0171137803437
0.00494966205068 -0.00957470238617 -0.0170680474616
-0.0027955347173 -0.00673009199762 -0.0170093453917
0.00616863159798 -0.0120051125196 -0.0170587648615
0.00726495921417 -0.012276945287 -0.0170682961461
0.000463954084324 -0.00981778494564 -0.0170163889941
-0.00259868434554 -0.00810492605263 -0.0169986698177
0.000652213988408 -0.0110475818095 -0.017006973692
-0.000255344918588 -0.0114273528611 -0.0169934338505
0.00804880570236 -0.00711093602976 -0.017125184166
-0.00273316214222 -0.0113925844872 -0.0169664778209
0.0121388251541 -0.0136835869919 -0.0171088174754
0.000206430488483 -0.0137653193323 -0.0169766780833
0.00760062049364 -0.00832424064895 -0.0171089156518
0.0083320174806 -0.0105806904802 -0.0170958899044
0.0038883822807 -0.0136462528931 -0.0170183286932
0.00882119430391 -0.0136793456093 -0.0170723299161
-0.00740957650944 -0.0142379586406 -0.0168884105772
-0.012192999546 -0.0142019888185 -0.0168360810062
-0.00962659187687 -0.0120705699619 -0.01688424768
0.00582797690612 -0.00844576212434 -0.0170882636287
0.00856340863179 -0.0116704057706 -0.0170882580388
-0.000991482238373 -0.00608103626059 -0.0170352711457
0.00701052079226 -0.00674349858948 -0.017117185016
0.00181750547971 -0.00996288221927 -0.0170299362068
0.00141948533283 -0.00898465575276 -0.0170346920202
0.00274971823994 -0.0129257852656 -0.0170125221697
-0.00905007326906 -0.0111233822932 -0.0168994432376
0.000628129795439 -0.00703691532152 -0.0170441738391
0.00281016333793 -0.00936859200904 -0.0170464169027
-0.00352205045162 -0.00952396463085 -0.0169752477056
-0.00121993144888 -0.0134109400469 -0.016964284216
-0.0132767642667 -0.0131208975676 -0.0168342476616
0.00374733504306 -0.0123814008779 -0.0170285912725
-0.0104404113227 -0.0111182384763 -0.0168841836392
-0.00112288363415 -0.00805031956765 -0.0170154285141
-0.00802091261367 -0.0129357558886 -0.0168938441759
-0.00409951116345 -0.0103760598629 -0.0169609300738
0.00713019609955 -0.00570284412783 -0.0171269997954
0.0105158281306 -0.00959770357051 -0.0171269997954
0.00393447218897 -0.00038928893246 -0.0171269997954
-0.000511655606171 0.00773608812215 -0.0171269997954
0.00484991264449 -0.000895239479671 -0.0171269997954
0.00241195178896 0.00290632867471 -0.0171269997954
0.00598235183977 -0.00282396153354 -0.0171269997954
0.00340851413405 0.000470082084368 -0.0171269997954
0.00563674039956 -0.00172041613377 -0.0171269997954
0.00099551758411 0.00376244043506 -0.0171269997954
0.000631903712934 0.00626164122499 -0.0171269997954
0.00649757485659 -0.00402942258112 -0.0171269997954
0.000638285246576 0.00494685457218 -0.0171269997954
0.00956150448962 -0.00802578253875 -0.0171269997954
-0.0019495328783 0.00957474582285 -0.0171269997954
0.00856950953307 -0.00591616322559 -0.0171269997954
-0.0098942839515 -0.00463612062854 -0.0169348928232
0.000237726856213 -0.00191541513644 -0.0170799226199
-0.00708073336736 0.00222046477098 -0.0170162563824
-0.00112668050786 0.00537750786627 -0.0171119773652
-0.0112905052979 -0.00640459459241 -0.0169055217977
-0.00422316552666 0.00506746558828 -0.0170711661081
-0.005195114757 0.00916243270707 -0.0170865907195
-0.00894197206621 -0.00822258899809 -0.0169226473428
-0.00840084413697 -0.00477599011115 -0.0169526270466
-0.0150467836619 -0.0117826392953 -0.0168223268169
-0.00898073541719 -0.00294069083852 -0.0169577358285
-0.0045815535792 -0.00677333267296 -0.0169869372726
-0.00524218414495 0.0107532550881 -0.017096716178
-0.00900882617429 -0.00646963439905 -0.0169336173332
-0.00281718329918 0.0015129828915 -0.0170648094308
0.00124217016856 -0.000219329425292 -0.0171039067289
-0.00640863428874 0.00582405441375 -0.0170489312705
-0.00837992161664 -0.00088631175728 -0.0169790854249
-0.000738403988845 0.00354250391749 -0.0171044743308
-0.00600922504749 -0.00512075600843 -0.0169802135011
-0.00844736064789 -0.00196793812963 -0.0169709573815
-0.00643064269652 -0.0060612243277 -0.0169686094629
-0.0142003149917 -0.0127603717001 -0.01682632738
-0.00601842309097 -0.00304665907644 -0.0169940673831
-0.0103186144013 -0.00771822611427 -0.0169088285716
0.00210784005579 -0.00151413729185 -0.0171060119304
-0.00743038397337 -0.00241856966431 -0.0169806402253
-0.00730911155264 -0.00543182708723 -0.0169618627063
-0.00672556840979 0.00410808401358 -0.0170334108966
-0.00196975707097 0.00396349779836 -0.0170919109918
-0.00721463424214 -4.74152325237e-05 -0.0169993078582
-0.00535229077195 0.00559126807727 -0.0170605735903
0.00385891543931 -0.0024844852899 -0.0171213748005
-0.00428902704032 0.00975078119966 -0.0171018843027
-0.00304999278204 -1.85247895754e-05 -0.0170515834233
-0.00237529093156 -0.00214898850782 -0.017045672383
-0.0130947756785 -0.00702563446235 -0.0168787758026
-0.0118841171674 -0.0088092718221 -0.0168819030299
-0.0107692337232 -0.00523970511511 -0.0169198860226
-0.00538087438893 0.00238830144838 -0.017038644365
-0.00323983054314 0.00588063222221 -0.0170889398439
-0.00323972085301 0.00967240750884 -0.0171144785761
-0.00681521369504 0.000942677036516 -0.0170109710254
-0.014159741423 -0.00888308445555 -0.0168529480514
-0.00762233544268 -0.0090492812938 -0.0169335823606
-0.00380035656059 0.0017243308085 -0.0170539377565
0.00187647214894 -0.00391388161922 -0.017086956433
-0.00106169726978 0.00254507357892 -0.017093713753
-0.00824395645342 -0.00734280489315 -0.016937301677
-0.00931253433938 0.00181260033862 -0.0169855996195
-0.00074109669389 -0.000628256818049 -0.0170763508542
-0.00364960567586 0.00710708468578 -0.0170920754722
-0.0108105317267 -0.00863685990075 -0.0168964899527
-0.00468549941227 -0.00520588459854 -0.0169961940374
-0.00404106862576 -0.000405111923608 -0.0170365858693
-0.00449449604582 0.00399182347712 -0.0170605286002
0.000248577784934 -0.00389671739803 -0.0170667143742
-0.0102220967374 -0.0100558004084 -0.0168942921636
-0.00122580160967 -0.0044601891644 -0.0170444815535
-0.00567864997195 0.00362586863578 -0.0170432554624
-0.00554734716093 -0.00164630120024 -0.01700938975
0.00290956416298 -0.00298240518346 -0.0171061492149
-0.00785313031002 -0.00631345760421 -0.0169491217467
-0.00462074734158 0.00658034733665 -0.0170763833029
-0.0146197857158 -0.00986416335017 -0.0168405874575
-0.000600513282983 0.00649733357469 -0.0171260993113
-0.0025548914769 0.0067073269459 -0.0171030730955
-0.00778609953565 0.00337680870476 -0.017015223316
-0.00827324296202 0.00251665728901 -0.0170033382722
-0.00415119309555 0.0131523165645 -0.0171265171073
-0.00527404206938 -0.00763965298935 -0.0169724427357
-0.00789199785134 -0.00372176212883 -0.016966090589
-0.0116315212657 -0.0076514374771 -0.0168928598111
-0.00739644102992 0.00496344153892 -0.0170307820658
-0.00263285289591 0.00262998376057 -0.017074637506
-0.00332972304676 -0.0048114961411 -0.0170158049009
-0.0115683043808 -0.0110227907902 -0.0168709445251
-0.0117953338706 -0.00336852668982 -0.0169196563763
-0.00648202475551 0.0104474113734 -0.017079151494
-0.00116458367075 0.000611227314496 -0.0170794027763
-0.00187370171026 -0.00525407217874 -0.0170310324779
-0.00187889351805 0.00856151701924 -0.0171240146486
-0.0128244922726 -0.00577141084431 -0.0168906029507
-0.00867313517772 0.00429710511903 -0.0170103286144
-0.00648217047252 -0.000916502413978 -0.0170026144497
-0.00876042525861 -0.00926598569907 -0.0169178904702
0.000854369660058 -0.0030648551755 -0.0170798926522
-0.00551573303752 0.0128028670554 -0.0171070993116
-0.00763031347413 0.00620910073201 -0.0170362468041
-0.00292210140158 0.00863475407646 -0.0171114620427
-0.0102733868645 0.0015587299245 -0.0169718738623
-0.0130320113231 -0.011016600639 -0.016852681805
-0.00291072857738 -0.00347118628503 -0.0170300715428
-0.00600422450108 0.00780795038432 -0.0170673500342
-0.00623886880123 0.0118135187439 -0.0170913929292
-0.00941999681409 0.000153305922103 -0.0169730805056
0.00260813885674 -0.000424553727958 -0.0171196066996
-0.00082455940624 -0.00174420372093 -0.01706779128
-0.0142262304414 -0.0110642378487 -0.0168374266454
-0.0122807665147 -0.010154290084 -0.0168678841145
-0.0122814613044 -0.00483564563598 -0.016903696151
-0.0133771004888 -0.012038705604 -0.0168414824763
-0.00450425432865 0.00830264532665 -0.0170894396733
0.00234821326868 0.000942127492957 -0.0171255607054
-0.00446240843404 0.000913721830312 -0.0170401990575
-0.0095815485073 -0.00157779850591 -0.0169594013423
-0.00848074662386 0.000834458303438 -0.0169894138308
-0.00982653362448 -0.005828399933 -0.0169277101523
0.00121351638454 0.0026391673366 -0.0171228001887
0.000505724991505 0.000625590552039 -0.0171003875833
-0.00344494031789 -0.00150007139139 -0.0170366662804
-0.00328862793012 0.00464723739143 -0.0170800227732
-0.00562216673474 0.000800010492248 -0.0170249298432
-0.000778883079348 -0.00333459835926 -0.0170576512813
-0.00711794390112 -0.00795904676062 -0.0169472326958
-0.00657740224176 -0.00388262513222 -0.0169814468833
-0.00567792759699 -0.000263275587359 -0.0170170713621
-0.0105670044542 -0.00343720755594 -0.0169345547081
-0.00467637820042 -0.00372869452511 -0.0170062568822
-0.00387030595079 -0.00268075904253 -0.017023395009
-0.00712619243283 0.0086494942073 -0.0170589869895
-0.0106305763324 -0.00148455965289 -0.0169469106659
-0.01295057552 -0.0082160600522 -0.0168725616609
-0.00368679986235 0.0111505778287 -0.0171188430037
0.000451751311455 0.00199550769494 -0.0171089389176
-0.00198859508299 -0.000153572859364 -0.017063947209
-0.0100802986565 0.0130432047537 0.0169614253798
-0.0112380252645 0.0155893219865 0.0169301105622
-0.0153879769088 0.00751238973006 0.0170247523317
-0.0143297813461 0.00427626923379 0.017064305393
-0.011330009359 0.0112563882718 0.0169821633495
-0.00598594080004 0.0154698553487 0.0169347007206
-0.0135145331442 0.00550466660177 0.0170500221322
-0.00923185045772 0.016363828767 0.0169220008602
-0.0145601969484 0.0142293225169 0.0169444712715
-0.00858081968479 0.00670174484521 0.0170385883188
-0.0111579128209 0.0135179473385 0.016955069089
-0.00638453391789 0.0116143678679 0.0169808276286
-0.0130519109449 -3.39680465519e-05 0.017116907718
-0.00973304576404 0.00585537783269 0.0170480749411
-0.0126591301931 -0.00440410449638 0.0171696989684
-0.0127284417138 0.0144389997204 0.0169430495056
-0.0123065759376 0.00209602580951 0.0170917398484
-0.0101929334303 0.0100661099392 0.0169971604008
-0.0102835447065 0.0151850641697 0.0169355452689
-0.00819450383894 0.00931421663702 0.0170074025905
-0.0108592162368 0.00820995631425 0.0170190825223
-0.0108990242756 0.000837180712744 0.0171077238846
-0.015509902232 0.0043605642641 0.0170625830916
-0.0127352736952 0.00405852510797 0.0170678813634
-0.0161266395656 0.013914973919 0.016947311118
-0.0148179759003 -0.00785502453745 0.0172099036459
-0.0114591228972 0.00642343117786 0.0170402071427
-0.0129307671334 0.00659959506236 0.0170372049872
-0.0120108706931 -0.000165356746693 0.017119112863
-0.0147728131158 0.00152552727779 0.0170971199099
-0.0111395608442 0.0145637758119 0.0169425029372
-0.00795719272966 0.0158363317722 0.016929109886
-0.0123426188349 0.0117281721502 0.0169758816703
-0.0140111754136 -0.00137301754982 0.0171324352153
-0.00941971565468 0.00811946687524 0.0170210350542
-0.00750295087032 0.00774568229174 0.0170266810619
-0.013937162317 -0.00634520495223 0.0171922753581
-0.00975251752003 0.00175982783838 0.017097316481
-0.00800343549277 0.0144099153562 0.016946236256
-0.014668038709 0.000531814603052 0.0171091332427
-0.0102357630356 0.00701950791366 0.0170337732303
-0.0158396753662 0.00638779762687 0.0170380055086
-0.00966149163108 0.00333183519085 0.0170784661178
-0.0156010838734 0.0029861631827 0.0170790569411
-0.0131069936831 0.0154743904977 0.0169303705694
-0.0107236574713 0.0120293778776 0.0169732314136
-0.0104215075486 0.00476671948109 0.0170607538203
-0.0153928790659 -0.00314197469085 0.017152879157
-0.00856271069003 0.00572483560018 0.0170503475374
-0.0158881869615 -0.0105226940449 0.0172413425606
-0.00471369417557 0.0150604494907 0.0169403881304
-0.014718716788 0.00523644914822 0.0170525247109
-0.0145875004235 0.0121004484288 0.0169700567941
-0.015620005807 0.0103229275919 0.0169908133882
-0.0120623331465 0.00868657781821 0.0170126282815
-0.0129483346809 -0.0030770606245 0.0171535662476
-0.0117922463424 0.0101012206863 0.0169957779007
-0.0124379978678 0.00766277243404 0.0170247150457
-0.0141549800769 0.00957953958153 0.0170006330275
-0.0152959225524 -0.00187146055973 0.0171376581229
-0.0125820140064 -0.00117487402735 0.017130910429
-0.0138506604557 0.00243782927397 0.0170867022109
-0.00658205123487 0.0165466537147 0.0169213931891
-0.0155223825333 -0.000644545712678 0.0171227672302
-0.00705010138207 0.0147779803603 0.0169423822924
-0.0152580988662 -0.00671919275196 0.0171959798341
-0.0140615911986 -0.00425012944592 0.0171670051955
-0.00798610822047 0.0125693690859 0.016968381135
-0.0134688939631 0.0137027742656 0.0169514587981
-0.0101288379301 0.00907689071647 0.0170090952707
-0.00709073243963 0.00878410045967 0.0170144405114
-0.0121017362346 0.00328018338401 0.0170776221165
-0.0051854278681 0.0134584003772 0.0169593711929
-0.00774762934556 0.0113518800181 0.0169831658893
-0.0147421253872 -0.00547055189332 0.0171812734344
-0.0126876191598 0.0105856057631 0.0169894150701
-0.0122303402388 0.00497986850731 0.017057104426
-0.0141824943192 0.00837844582514 0.017015060904
-0.0137612421546 0.0111475550064 0.0169820124253
-0.01359027961 0.00103761808431 0.0171036975383
-0.0129737832229 0.00939764452946 0.0170035297163
-0.0158536010239 -0.00805444887297 0.0172116801217
-0.0146190547132 0.0155617722723 0.0169284118437
-0.0118546076527 0.00109640899343 0.0171040326461
-0.00680032514028 0.0136602355327 0.016955974302
-0.00901527283029 0.0100006850217 0.0169986542923
-0.0155893542403 0.0126536623123 0.0169628022926
-0.00954705777076 0.0140664524025 0.0169494399345
-0.00924352359494 0.0121542132198 0.016972618839
-0.0113043104392 0.00397739908279 0.0170697161646
-0.00410678065602 0.0162077377526 0.0169269552027
-0.0159121162402 0.00176836893478 0.0170935154289
-0.0152584017657 -0.00897294444077 0.0172230833509
-0.0122090432936 0.0161790783635 0.0169224351138
-0.0128069372031 0.0126542595258 0.016964465725
-0.00567123039229 0.0124294364885 0.0169714538648
-1.55964884892e-05 0.0152722477377 0.0169276685941
-0.00796462031366 0.00413141253971 0.0170673586749
-0.00427280546752 0.00848781632478 0.0170109290237
-0.00443098260715 0.0111753349002 0.0169836580994
-0.0058863412698 0.00886357747985 0.0170120432999
-0.0129741868615 -0.00557396885281 0.0171831203728
-0.000899445764054 0.0145745704904 0.0169376117333
-0.00821600108341 0.00121775755896 0.017098233508
-0.00864223116071 0.002112594627 0.0170903099672
-0.00564712801883 0.0104764170967 0.01699464288
-0.00350211666358 0.0125610707965 0.0169664682981
-0.00287150998827 0.0136681879872 0.0169530799269
-0.00186385600744 0.0142667460114 0.0169437773237
-0.00399487297239 0.0140345108567 0.0169527740643
-0.00111472082186 0.0155987062685 0.0169276994636
-0.0141672013282 -0.00879639149469 0.0172201000201
-0.00226360581038 0.0161275379169 0.0169257939895
-0.0067378562956 0.00584565630752 0.0170458532327
-0.00315655878631 0.0148436686007 0.0169418203718
-0.0064359632345 0.0070407541599 0.0170325738024
-0.00333097001108 0.0111183875863 0.0169808405701
-0.00755626934104 0.00227250395507 0.0170852959251
-0.00256272874555 0.0118964126254 0.0169704254159
-0.011742743092 -0.00329382493418 0.0171557549895
-0.0054211854687 0.00714399617101 0.0170283654981
-0.0107222414482 -0.00064349914603 0.0171252189224
-0.00973245544346 -0.00113170459173 0.0171271973378
-0.0113791955997 -0.00222738893569 0.0171436136796
0.00134974995043 0.0165134844265 0.0168624178683
0.0111160047977 0.0167188415679 0.0166637793473
-0.0013947297005 0.0167064872507 0.0169023412139
0.00267867301474 0.0161112086696 0.0168626683218
0.00591455746953 0.0167983159865 0.0167575984411
-0.00352522851155 0.0170243482764 0.0166448449243
0.00717528447085 0.0169317060557 0.0165958281178
-0.00540951809141 0.0169734590091 0.0167654472749
4.30768414118e-05 0.0169017706888 0.0167812596425
-0.0110434770633 0.0167456753069 0.0168087451247
-0.00829221356477 0.0168140871939 0.0168338182295
-0.0132749252875 0.0171089542299 0.0166361269023
-0.0154191109947 0.0162492664678 0.016909820027
-0.00787532162514 -0.0171939991415 -0.00260420238921
-0.00988798099759 -0.0171939991415 -0.00441528391421
-0.00882793582574 -0.0171939991415 -0.00341784167179
-0.0047450408809 -0.0171939991415 -6.04386964942e-06
-0.0071634055999 -0.0171939991415 -0.00179297636726
-0.00361340821572 -0.0171939991415 0.00162835339912
-0.00583352428431 -0.0171939991415 -0.00131537815862
-0.0133755483491 -0.0171939991415 -0.00778588460338
-0.0124217396696 -0.0171939991415 -0.00667527874857
-0.0110503366668 -0.0171939991415 -0.00653465963818
-0.01187195995 -0.0171939991415 -0.00579817786622
-0.00217777838063 -0.0171939991415 0.00190070439723
-0.0102732045301 -0.0171939991415 -0.00553897723804
-0.00911062062719 -0.0170649599983 0.0061235569901
-0.0112606676445 -0.0170579012342 0.00473423239461
-0.00365369199122 -0.0170591678227 0.0113620600916
-0.00526825309995 -0.01709967564 0.00701015912932
-0.000545883800226 -0.0171088986517 0.0105153224507
0.000564073875485 -0.0171840877994 0.00606509610197
0.00231843951735 -0.0171795775573 0.00794050263297
-0.0043969856324 -0.0171589247051 0.00350039469888
0.000549130483897 -0.0171221446972 0.0105258405303
-0.0014795894987 -0.0171098312257 0.00962321520178
-0.00971483953874 -0.0170938325526 0.00350447658349
-0.0101623945194 -0.017070137008 0.00482059759323
-0.00899411717585 -0.0171554758928 -0.000311196197291
-0.00319245190996 -0.0171829072264 0.00283219236348
-0.0105243977049 -0.0169482029226 0.0133077300192
-0.00611976652469 -0.0170591077578 0.00918809283386
-0.00415731915659 -0.0170674635541 0.01031802868
-0.0131745751456 -0.0171572346312 -0.00413085967171
-0.00875282387657 -0.0171434412746 0.000771160727694
-0.00178006099476 -0.0171912963996 0.00347384775608
-0.0101063455801 -0.0171226620575 0.00107639665935
-0.000490006528385 -0.0171245987554 0.00943071312344
-0.0113867195863 -0.0169189316555 0.014660199615
0.000650154357842 -0.0170963093853 0.012481074386
-0.0109881578425 -0.017141709978 -0.00107828383154
-0.0114719967219 -0.0171795901231 -0.00424161978556
-0.0140928394268 -0.0169334870785 0.0112185701721
-0.00205032260624 -0.0170559729234 0.0130090874509
-0.011625330356 -0.0170669380817 0.00375942116816
0.00304498870859 -0.0171415161704 0.0113313172511
-0.00846000501009 -0.016964664562 0.0139422570139
0.00196652274544 -0.0171216042279 0.0118168720011
-0.00917471248166 -0.0171799550569 -0.00223876616327
-0.00308605376616 -0.0170839548841 0.0100731730494
-0.00837944298535 -0.0170877167867 0.00512576563222
-0.00415626064813 -0.0171233615027 0.0062816409364
-0.00664106292762 -0.0170927200417 0.00629992372746
-0.00497654423309 -0.0170062934079 0.0140125159044
-0.00682643532152 -0.0171766465526 7.44501613697e-05
-0.0128592589824 -0.0169655269574 0.00999406895116
0.00185203523074 -0.0171888907812 0.00685586042567
-0.0135119085235 -0.0168801379142 0.0155849441291
-0.0120519199903 -0.01698507306 0.00929544873758
-0.0127133140037 -0.0171768839333 -0.00514262728568
-0.00626170307246 -0.0171520175818 0.00235215174224
-0.0102117951972 -0.0170026246819 0.00965315209392
-0.00148225247318 -0.0170883596611 0.0111716826036
0.00260464724924 -0.017159625114 0.00963441101447
-0.0134096889969 -0.017109777702 -0.000910881825434
-0.00296062173787 -0.0171458578409 0.00571292378654
-0.0132316332862 -0.0170886483035 0.000772502476703
-0.0113589659767 -0.0171241143535 -0.000134948574245
-0.000147222271362 -0.017164567502 0.00684668799529
-0.00749226280732 -0.0169850884706 0.0133219213739
-0.00698029866665 -0.0170705160671 0.00760399295214
-0.0070850650444 -0.0170042019429 0.0123011002981
-0.00661874507739 -0.0170273973264 0.0110376795389
-0.0101816944389 -0.0171721184132 -0.00256222758456
-0.00844571293915 -0.0171019241817 0.00404107595232
-0.0100105704271 -0.0171048219186 0.00244952954063
-0.0091028418882 -0.0170389028265 0.0080124507921
-0.00836527903955 -0.0171801180092 -0.00153555591238
-0.00473862425343 -0.017075293233 0.00923904508082
-0.00406519613377 -0.0171091662361 0.00738735587751
-0.000254393923062 -0.0171862587888 0.005185332888
-0.00474441098689 -0.0171879578888 0.00109654060053
-0.00996210854867 -0.0171467606117 -0.00053675583337
-0.0037677707116 -0.0170281797717 0.0134994570994
-0.00518635898195 -0.0170383747283 0.0115100577048
-0.000381818996553 -0.0170883218081 0.0121464392609
0.000394648725354 -0.0171452995055 0.00871699069992
-0.00759750997748 -0.0171781072503 -0.000712148262628
-0.0125136502578 -0.017015342833 0.00670131335857
-0.0115778746036 -0.0169518253035 0.0121155520043
-0.0133563857689 -0.0170541664721 0.00315281538956
-0.0138237384404 -0.0171227272952 -0.00221192138012
-0.0100883964235 -0.0170420714199 0.00691304476496
-0.0110197445188 -0.0169766721123 0.0108139509833
-0.00778715778605 -0.0170523933524 0.0082002304719
-0.00248958653799 -0.017169339624 0.00443298234237
-0.0139351285716 -0.0169054191255 0.0133851323769
-0.00810993458276 -0.0171368276319 0.00181671194331
-0.00952139953622 -0.0169844751917 0.0115738619656
-0.0112819776538 -0.0170125743705 0.0079892175367
0.0010921871656 -0.0171668762012 0.00777471970072
0.0042398602624 -0.0171727195897 0.0101330388122
-0.0111922858062 -0.0170890903435 0.00254194914883
-0.00701389863642 -0.0171285461116 0.00338299687208
-0.00714480109972 -0.0171553276717 0.00133302663696
-0.0027499629566 -0.017125619667 0.00736073648872
-0.0132434126124 -0.0169262762387 0.0124896913767
-0.0124279797346 -0.0169256847718 0.0132526901653
-0.00882637771952 -0.0171161748803 0.00267555085027
-0.00957080741731 -0.0169440940688 0.0144468136203
-0.00124871384522 -0.017152152314 0.00677043840183
-0.00422659734689 -0.0171749923141 0.00249039027793
-0.0125925790851 -0.0169067458838 0.0144751909258
-0.00866314480917 -0.0170580477831 0.00701806264706
-0.00523444655185 -0.0171363979892 0.00438768772933
-0.0129776770078 -0.017040054837 0.00450656862789
-0.0036659285488 -0.0170891771387 0.00918377844211
-0.00693434212977 -0.0169762742848 0.0144513569598
-0.0137761872327 -0.0169863195417 0.00768235894321
-0.013589972541 -0.0171850966989 -0.0065101682763
-0.00941594298914 -0.0169636346461 0.0131722558965
-0.00735049641697 -0.0170981422941 0.00528164358285
-0.0105982225401 -0.0169641641943 0.0120896903678
-0.0110490331075 -0.0169102365417 0.0155865002037
-0.0132306177418 -0.0170171575988 0.00593693511843
-0.0130042396987 -0.0169865189294 0.0083498259434
-0.012234990758 -0.0170738160659 0.00272412881971
-0.0140215316023 -0.0169499242735 0.0100943531351
-0.00245226996717 -0.0171135604875 0.00849468573494
-0.00810455984405 -0.017032605916 0.00934904707168
0.00118891672256 -0.0171449332792 0.00944502598283
-0.00546563410947 -0.0171526777095 0.00300764770187
-0.012703255538 -0.0171451644531 -0.00284275009854
0.0044197699799 -0.0171896561286 0.00906868484338
-0.00711306985733 -0.0170364254919 0.00994896372884
0.00176416262793 -0.0171373400706 0.0105015779825
-0.0111574605338 -0.0170373951303 0.00630648377022
-0.00602802318376 -0.0171157862684 0.00517543041449
-0.00591514823765 -0.0171786702601 0.000733232486551
-0.00249807653853 -0.0170701934366 0.0115864820939
0.00563151095011 -0.0171865145582 0.0103659315798
-0.000664377285489 -0.017143799254 0.00788990178743
-0.0119908426937 -0.0171362388461 -0.00156880262172
-0.0122232120898 -0.0169627426289 0.0107569976007
-0.00631884229702 -0.0170000316468 0.0132791182626
-0.00555530989774 -0.0170508966391 0.0102797441522
-0.00363497384104 -0.017150941187 0.00475010942295
-0.012115880235 -0.017097375495 0.00112772107282
-0.00863558099562 -0.0170067023643 0.0107509186705
-0.0146559796149 -0.0171866250258 -0.00924884589491
-0.015176324269 -0.017141459483 -0.00682531040997
-0.0149689731064 -0.0170432197689 0.00213569627671
-0.0151227671912 -0.0170566215135 0.000567454888638
-0.0146703601079 -0.0171366136916 -0.00501747173943
-0.0145173406583 -0.0171225337487 -0.00339344608766
-0.0151168882448 -0.0170251181318 0.00327405779394
-0.0156172896486 -0.0169991603215 0.00411218928581
-0.0145864499199 -0.0170884188739 -0.000670423797707
-0.0150254544941 -0.0169544786597 0.00863866408276
-0.0155412162642 -0.0168744599351 0.0138614669906
-0.0153200883782 -0.016919186805 0.0108638183462
-0.0149331905122 -0.0168557862611 0.015929899874
-0.0143288615797 -0.0170182556623 0.0048089881662
-0.0141240722292 -0.0170687250335 0.00137429701515
-0.0142365965992 -0.0169941211893 0.00667330678713
-0.0155903361041 -0.0168972017995 0.0121488389203
-0.0151701821785 -0.0169694806864 0.00737788383404
-0.014956614021 -0.0169398984007 0.00978022823178
-0.0154141692397 -0.016861535614 0.0149503922083
-0.0111446886614 0.0171918360062 0.0049875171646
-0.00030977380054 0.0171939076276 0.0113987461338
-0.00158293168323 0.0171935848888 0.00404911701546
0.0029860402724 0.0171945359883 0.0131996944453
-0.00671132902948 0.017192661659 0.00578115015005
0.00312527652179 0.0171945350876 0.0109930950852
-0.00402512260047 0.0171931274587 0.00339525421398
-0.00922936606159 0.0171921203705 -0.000685849655078
-0.00990286681495 0.017192016382 0.000976860869953
-0.000568517267986 0.0171938342529 0.00925765674953
-0.015206813248 0.017191041812 0.00112667034806
0.00719839798862 0.0171952645043 0.009298170965
0.0141615794945 0.0171965992791 0.0137031626219
-0.0089055190013 0.0171922583311 0.00582999483956
-0.00529511082619 0.0171928899001 0.00308135919588
0.00589419494085 0.0171950366531 0.0103154488449
-0.0138256893875 0.0171914132715 0.0108753501942
-0.0151759189028 0.0171910980041 0.00532706053574
-0.00540471742826 0.0171929433863 0.00920776334777
-0.00962901580427 0.0171921694836 0.00951737869441
-0.00795602936788 0.0171924103343 0.00393520732646
-0.0126950238305 0.017191584167 0.00777801656607
0.00173010881276 0.0171942328286 0.00721468722649
-0.00661354367008 0.0171926512948 0.00342210449942
-0.000329062726943 0.0171938405557 0.00611582863193
-0.0104695997591 0.0171919866529 0.00718096837704
-0.00988280665793 0.017192106225 0.00814179624893
0.000415398836185 0.0171939877415 0.00695934512442
0.00586103168479 0.0171950137074 0.00891482326987
0.0124230831952 0.0171962700347 0.0129367546405
0.00403602418835 0.0171946768835 0.00884252285783
-0.00671602077526 0.0171926900496 0.00821417485331
-0.00406099784777 0.0171931460633 0.00549180635019
-0.00540517223628 0.017192923051 0.00752348102061
-0.0118873897289 0.017191761597 0.010169727462
0.00457220564446 0.0171947946976 0.0104320100059
-0.0036899375758 0.0171932307288 0.00685237068698
-0.0113856292247 0.0171918260892 0.00785151935968
-0.00493285009687 0.0171929793682 0.00497607135006
0.00113496860144 0.0171941398475 0.0085931651641
-0.00892571673802 0.017192308112 0.0102793940714
-0.0113885990591 0.0171918077372 0.00637068433377
0.01227032135 0.0171962543053 0.0139673359136
-0.0129001125407 0.0171914369004 -0.00132996001902
-0.00761097707476 0.0171924405216 0.00116311721812
-0.0120494925664 0.0171916297325 0.0016845988
-0.00685756527254 0.0171926208868 0.0046290725478
0.00190249792793 0.017194332187 0.0128388608016
-0.0142709930704 0.0171913141057 0.00944548375363
-0.0128635031442 0.0171915307151 0.0059119317956
-0.0106053998123 0.0171918566166 -0.00155480511095
-0.0141818761452 0.0171911736061 -0.00360395468329
-0.0153774694245 0.0171911148049 0.00981006136808
-0.00948629417796 0.0171921340727 0.004387277716
-0.000995971288564 0.0171937948265 0.0125229180634
0.00290824106555 0.0171944816015 0.00986754833779
0.00650927717908 0.0171951841294 0.0131639156282
-0.00573852906317 0.0171927952382 0.00199720752015
-0.0109537918466 0.0171919272892 0.00965673413935
-0.0139774923409 0.0171912284706 -0.00217007770914
-0.00181193522412 0.01719363394 0.0116346237538
-0.00474054372076 0.0171930337015 0.00655067016875
0.00186155673674 0.0171942998798 0.0107787462828
0.000835567507809 0.0171940976282 0.00966566611069
-0.0150433117068 0.0171910427658 -0.00129719880805
-0.0115452396388 0.0171918366309 0.0111718615928
0.00425167376986 0.0171947684964 0.0131602145817
0.00779614302764 0.0171954235352 0.0133730358738
-0.0131317300962 0.0171915187998 0.00902748817443
-0.0116191918411 0.0171916774672 -0.000933257285484
-0.00276214472551 0.0171933880541 0.00573239844111
-0.0128084318324 0.0171915067601 0.00307650769188
0.00706193895541 0.0171952552028 0.01061375884
0.00454664731628 0.0171948064783 0.0118030813244
-0.0134809703477 0.0171913505689 0.000382893799316
-0.0117886147954 0.0171917070349 0.00411967615169
-0.00152214853398 0.0171936154521 0.00566042718687
-0.00414373589268 0.0171931966696 0.0109673384674
-0.00529444633731 0.0171929965871 0.0119441318006
-0.0047665436136 0.0171930516175 0.00843876310238
0.00843102246883 0.0171955110479 0.0109313588266
-0.00755836116285 0.017192571365 0.0112395521251
-0.0078189400761 0.0171924636534 0.00627083151938
-0.00343290910906 0.0171932998794 0.00866840967858
-0.00862033023914 0.0171922472785 0.000544565300183
-0.0133909916649 0.0171914231781 0.00504408985507
-0.011241976212 0.0171917609808 0.000237268893083
-0.00393521587964 0.0171932222434 0.00990184305446
0.00617200871484 0.01719510118 0.0114287190416
-0.000382448607016 0.0171938172899 0.00499818802872
-0.0138419338676 0.0171912963493 0.00139986724431
-0.0150816073147 0.0171911433675 0.00765594346281
-0.00318504873981 0.0171933813738 0.0116514173343
-0.0102944907976 0.0171919274347 -0.000424993418933
-0.014898344054 0.0171911305843 0.00378704849237
0.00537690268116 0.0171949673305 0.0124697156929
-0.00788286384031 0.0171924360359 0.00495260542506
-0.00905514687256 0.0171922966066 0.0113040676961
-0.0064266927032 0.0171927755243 0.0108933475136
-0.00174347668943 0.0171935979981 0.00759731922775
-0.00791989360708 0.0171924005899 0.00257155524699
-0.0141950218479 0.0171912476251 0.00275331487002
-0.00125546886995 0.017193726025 0.0107737142329
-0.0125087334692 0.01719149749 -0.00228281480686
0.0109514953072 0.0171960016707 0.0131473060917
-0.00925157604574 0.0171921571426 0.00271243919058
-0.0108919688179 0.0171918544825 0.00265504419288
-0.010775685333 0.0171918632014 0.00159988821017
-0.0138411913254 0.0171913745247 0.00789018790399
-0.00260596440327 0.0171934301036 0.00683846094785
0.00993558482098 0.0171958125494 0.0129719482241
-0.00792373623543 0.0171924665642 0.00811733051307
-0.00881993129345 0.0171922968436 0.00772266232745
0.000866515376916 0.0171941260221 0.0115533196615
-0.00230449037665 0.0171935165099 0.00940916941614
-0.00998904111088 0.0171920563804 0.00562275865494
0.00324882832485 0.0171945214415 0.00796661072238
0.00231244054762 0.0171943957142 0.0118461153952
-0.0065949654218 0.0171926976319 0.00699143593617
-0.0146364121038 0.0171911372665 0.000332647463447
-0.00566614144702 0.0171928347236 0.00417288133744
-0.00693787415697 0.0171925760684 0.00213113575764
-0.0128274201226 0.0171915158088 0.00411977830069
-0.0148694967406 0.0171911668935 0.00636516365173
-0.00257964175974 0.0171934032559 0.00420259815592
-0.00696288130666 0.0171926662247 0.0100121112279
-0.0126205761022 0.0171916400323 0.011284438211
-0.00865544764484 0.0171923430668 0.00904872519132
-0.0118952687063 0.0171917448058 0.00889386483479
0.00768598822652 0.0171953893418 0.0122157033591
-0.0102858934404 0.0171920687189 0.0111937030702
-0.000545863914254 0.0171938159698 0.0073902649159
-0.000395105397381 0.0171938826704 0.0135326815035
-0.0088219264803 0.0171923263399 0.0124184069112
0.0111465085468 0.0171960314425 0.0146994272971
-0.0122954672275 0.0171915734318 0.0142895973447
-0.011080522863 0.0171918487869 0.0133838403402
-0.00174248920971 0.0171936362414 0.0133039642035
-0.0143602152678 0.0171912940736 0.01188300874
-0.00540656264774 0.0171928863532 0.0143505373385
0.00569184409909 0.0171949685297 0.0151394185619
0.0102424567858 0.0171958380768 0.0151322037961
-0.00354162818045 0.0171933171607 0.0127899262382
0.00264236505699 0.0171944228083 0.0143704638749
-0.0104196558649 0.0171920237662 0.0123639042459
0.00675910766755 0.0171952067143 0.0144211739636
-0.00818135618005 0.0171924108549 0.0132100868621
-0.00583928674881 0.0171928560114 0.0132560494108
-0.0148870274424 0.0171910978266 0.0138836445216
-0.00106014709516 0.0171936902206 0.0149014576423
0.00481994435123 0.0171948532737 0.0140664442449
-0.0139144941398 0.0171912106481 0.0154097188259
-0.0124454543351 0.0171916267171 0.0125753452827
-0.00371957032472 0.0171931839724 0.0148654252194
-0.00685477674005 0.0171926548591 0.0134063948766
-0.00671213979533 0.017192562192 0.0159152356471
-0.00821707455029 0.0171923052264 0.0152773426261
-0.00930309803661 0.0171921390579 0.0144138684122
0.00766616112134 0.017195357693 0.0148872305053
0.0013075543205 0.0171941282491 0.0151989910753
-0.00261239273964 0.0171934289214 0.0141651638628
-0.00657092366825 0.0171927625159 0.0122883327331
-0.0153181204086 0.0171910725308 0.0126901006919
0.00335656256871 0.0171945239055 0.0151094429886
-0.0112300036171 0.0171917451271 0.0149552751624
-0.0137026085036 0.0171913555441 0.01322491723
-0.00732311297332 0.0171925082833 0.0146014806895
-0.00969665809035 0.0171919984275 0.0157833921984
-0.0147576275025 0.0171910216746 0.0159940507225
0.0131620169589 0.0171964235143 0.0145510025761
0.000210134181478 0.0171939201703 0.0151668337917
-0.00594609707027 0.0171927383368 0.0152912328138
-0.00450913462708 0.0171930847042 0.013786988281
-0.0166448533636 0.0168673131725 0.0106935800117
-0.0163031485437 0.01698878158 0.00391930716642
-0.0165162013975 0.0167804179961 -0.00407588900926
-0.0166728124863 0.0166594845514 -0.00698361246698
-0.0167072474069 0.0168511618058 0.0124859230149
-0.0166525870929 0.0167356112726 -0.00103344596388
-0.0163398139561 0.0170055965788 0.00739614399393
-0.0165901376528 0.0169324051581 0.0138137976278
-0.0164477698418 0.0169242684673 0.00557919695414
-0.015379597561 0.0171322715584 0.0151901008491
-0.016634695505 0.0166036081524 -0.0136703077934
-0.0160882459025 0.0170759628688 0.00200860092529
-0.0165881270216 0.0166744557059 -0.00988334362227
-0.0156539988033 0.0170593279575 -0.0060289959468
-0.0156929908441 0.0171011007714 -0.00208565928911
-0.0158909672399 0.0169570406359 -0.0105951582797
-0.0157604608003 0.0171143485654 8.56383435026e-06
-0.0160233020322 0.0170020686991 -0.00496198044517
-0.0155676177764 0.0171089965217 -0.00337258692704
-0.0160794106629 0.0169470379685 -0.00851141347879
0.0169412343884 0.0116019608143 -0.0163269361752
0.0168979378827 0.00493860294109 -0.016832659639
0.0168477743754 0.00819715030478 -0.0168823842936
0.0169244365177 -0.00134201716419 -0.0168063928258
0.0169339377262 -0.00454386383816 -0.0167969747381
0.0168441503118 -0.00552307790745 -0.0168859766522
0.0169362107908 0.00366280928521 -0.0167947215593
0.0169439330559 -0.00215926233284 -0.000387536556076
0.0169430469617 -0.00435713982875 0.0153119590009
0.0169426726447 0.0080559998037 0.00352952722928
0.0169425090305 0.00118838972882 0.0153471105853
0.016941970059 0.00853964272814 0.0129048247604
0.0169430830229 0.00347103795521 0.00399182966668
0.0169418878119 0.0113712473646 0.0101722147986
0.0169437899045 0.00426077819592 -0.00720243233369
0.0169433939025 0.00719273158926 -0.00558870054834
0.0169434831024 -0.00347044424532 0.00785387568988
0.0169424642432 0.00785029952272 0.00679235323202
0.0169433372874 0.00604440204044 -0.00319448253581
0.0169436915808 -0.0105566312763 0.0146544141622
0.0169432124557 0.00894289329416 -0.00541070232811
0.0169425160518 0.00670247885174 0.00763604941385
0.0169426625268 0.00547371540901 0.00723829369534
0.0169435136624 0.00668444357355 -0.00659900771956
0.0169414690462 0.0146836543319 0.0115862199746
0.0169437862872 -0.00129416282184 0.000516357069902
0.0169417863889 0.013723177967 0.00837576570954
0.0169433720162 -0.00127721618796 0.00641459982001
0.0169438140088 0.00834930348288 -0.0131900763042
0.0169411637855 0.0150434890652 0.0154529942267
0.0169433536426 -0.00475040031534 0.011471018727
0.0169435703058 -0.00965552274396 0.0151441974074
0.0169421548263 0.00755286951532 0.0116257129944
0.0169420944706 0.00720833830053 0.0129639754816
0.0169428032067 0.00334660963119 0.00816329004088
0.0169420795926 0.00994718361279 0.00939641326259
0.0169438491852 -0.0115723725634 0.0138035542429
0.0169432559958 0.00297366512805 0.00220582359374
0.0169417127675 0.009864269237 0.0147542906205
0.0169431237366 -0.0030140013869 0.0123606928756
0.0169437457967 -0.0123021778695 0.0162886971181
0.016942783091 0.000646507480746 0.0121775824971
0.0169426556736 0.00430664061919 0.00894708344517
0.0169430863088 0.0052105523559 0.0015439340739
0.0169433539403 0.00323637391807 0.000443197633978
0.0169436104098 -0.00768946511213 0.0118573388959
0.0169438375644 -0.00945809414032 0.0110514771869
0.016943594952 -0.0084567223827 0.013137283742
0.0169439836051 -0.0149518922597 0.0165466483861
0.016943482918 0.00138899705757 0.00114937721483
0.0169434024469 0.00781288007492 -0.00656678105421
0.0169437021954 -0.0071180517047 0.009756665123
0.0169415229163 0.0148647423429 0.0105662516925
0.0169427037604 0.00657113237152 0.00513421106479
0.0169421167383 0.0126159978094 0.00518187766144
0.0169439566762 -0.00976145664634 0.00976759038583
0.0169420755253 0.0116836849601 0.00705778409262
0.0169428572353 0.00952145965881 -0.00113169786339
0.0169437831353 -0.0098050565615 0.0123083803873
0.0169431942792 0.00596776778382 -0.00104453558424
0.0169430318241 -0.00314999059269 0.0138621957362
0.0169437295293 0.00163274477022 -0.00271213816003
0.0169432544199 -0.00169801535366 0.0086763317446
0.0169436169449 -0.00598118201781 0.00940610645739
0.0169423943805 0.0116322420536 0.00257103682817
0.0169439167336 -0.0132131511357 0.0151026574701
0.0169421697637 0.0116233090608 0.00579406342638
0.0169432779059 0.00764478285675 -0.00455456709657
0.0169423264834 0.0101505874901 0.00558658574887
0.0169432485305 0.00237221436075 0.00314267196472
0.0169436378211 0.000143331913837 0.000654477037952
0.0169435108299 0.00602526903017 -0.00564870990156
0.0169418157596 0.011353654811 0.0112264186343
0.0169433648914 0.0104442659753 -0.00966187070432
0.0169427930461 -0.000517794537803 0.0136422847747
0.0169425808202 0.009532009833 0.00280484681601
0.0169431077675 -0.00534929773951 0.0158121971708
0.016943349218 0.0091511174592 -0.00765299397215
0.0169437582572 -0.00337738151275 0.00379233650425
0.0169437911482 -0.00563055991752 0.00643208803835
0.0169431091031 0.00588680796917 0.000284723769433
0.0169428948329 0.00680883249482 0.00207492099462
0.0169433837432 -0.00566536542133 0.0123036166419
0.0169431039754 0.000437014520799 0.0078799751545
0.0169426598913 0.00227292510779 0.0116937847404
0.0169439246205 -0.0105755716731 0.0113494621187
0.0169435013179 -0.00662576847504 0.0119485669766
0.016943460771 0.00923558722934 -0.00936413176978
0.0169436539916 0.00306618816206 -0.003610873161
0.0169421864597 0.00819341118867 0.0102894481612
0.016942588496 0.00220426836682 0.0128090784907
0.0169434092376 -2.29846107621e-05 0.00415142864232
0.0169427403478 0.0106706260191 -0.00104700665685
0.0169422933357 0.00348638074495 0.0152585238941
0.0169434340397 -0.00846513222648 0.0154489888116
0.01694290075 0.000127909217274 0.0112115351599
0.0169432740285 -0.00250513491918 0.00951005365284
0.0169432516537 -0.000716593508494 0.00736128632394
0.0169427199049 0.011636450889 -0.00208785135549
0.0169420407584 0.00649736438119 0.0147130477886
0.016942898569 0.00551709461172 0.00380440870882
0.0169435157408 -0.00255363543423 0.00612193432799
0.0169434426418 -0.00734795473392 0.0137840699379
0.0169421906283 0.010557398213 0.00696702236069
0.0169439693455 0.004149912691 -0.00961436172887
0.0169439133724 -0.00686494780005 0.00638873859495
0.0169427285273 0.00871537899453 0.00182064196206
0.016943733745 -0.00800202255139 0.0105257732036
0.0169433053324 0.00414114844203 -0.000110791545741
0.0169434873878 0.0055405757952 -0.00464463794445
0.0169435206072 -0.00608864425905 0.0109314904222
0.0169430498704 0.00160418730115 0.00704239326388
0.016943269541 -0.00695172916635 0.0157115106505
0.016941895969 0.0133276290229 0.00735536354794
0.0169438156019 0.00747390897482 -0.0120046051689
0.0169429272061 0.00446110210942 0.00485257674066
0.0169436738336 0.00871281491191 -0.0116881260371
0.0169431013295 -0.00419452691343 0.0143103767667
0.016943878943 0.00929599269437 -0.0154249004613
0.0169439262443 -0.0113200903483 0.0123538560603
0.0169423764478 0.00758323808103 0.00841591652275
0.0169432344041 -0.00600990323227 0.0149138264416
0.0169417825193 0.010757137564 0.0125248896449
0.0169412466496 0.0138355037182 0.0159358216421
0.016943827699 -0.0122347371769 0.0150248934855
0.0169431106778 0.0108302456427 -0.00656085434606
0.0169430114067 0.00739934716033 -0.000406442250269
0.0169423400881 0.00909589883695 0.0068478289745
0.0169434163333 -0.00226575537732 0.00714553487842
0.0169416597753 0.0119527144804 0.0126292366392
0.016943264823 -0.0050428630429 0.013144280518
0.0169423104865 0.00527693240536 0.0125420005707
0.0169414501732 0.0121703610593 0.0153249090008
0.0169412991681 0.0140552543709 0.0148818096848
0.0169434909433 0.00452804498879 -0.0032979387011
0.0169422597057 0.00506176408626 0.0135648475879
0.016942667189 -0.000176679223195 0.0149704830276
0.0169429209419 0.00859659227791 -0.000765799292926
0.0169425883736 0.00686318559053 0.0063804624911
0.0169439163768 0.0032401609413 -0.00760155604341
0.0169417589604 0.0131059287796 0.00961977569502
0.0169431565869 0.00410563910752 0.00206440409042
0.016943810902 0.0025586995339 -0.00515331745122
0.0169429585792 0.00104532198085 0.00911867989417
0.0169421560845 0.00538113678156 0.0146052128995
0.0169431594458 -0.00394495253263 0.0131351860711
0.0169419805147 0.0136798251544 0.00566074744108
0.016941240422 0.0151958264295 0.0141472844417
0.0169424729165 0.00566632896747 0.00968275328937
0.0169435772768 -0.00125689327043 0.00345253269977
0.0169418982126 0.00690504246237 0.0161879243269
0.01694368144 -0.0111948422419 0.0156802433312
0.0169433027066 0.00557500354616 -0.00205230410469
0.0169427879468 0.00450353900079 0.00678459176249
0.0169428621515 0.00127160875568 0.0101847008276
0.0169426837829 0.00985317253167 0.000889810012651
0.0169438865534 0.00402984063934 -0.00826519567641
0.0169422705344 0.0116016868312 0.00438347970526
0.0169422987203 0.00673605300822 0.0106962696237
0.0169429641852 0.000286634426999 0.0100857092255
0.0169439436274 -0.00289815121648 0.000481188449898
0.0169415231262 0.010847014197 0.0161086311353
0.0169436304024 0.0055976082626 -0.00676762198276
0.0169438032081 -0.00242229266716 0.00183156265566
0.0169433029082 0.0102849778104 -0.00855602244411
0.0169426261023 0.00766918844189 0.00472869692277
0.0169428274341 0.00858026128182 0.000593351920282
0.0169433565237 -0.00622367330242 0.0134632877491
0.0169435994794 0.00113921262973 -0.000172005459833
0.0169437742213 -0.00455962509349 0.00519590848394
0.0169419445472 0.0115270961135 0.00914612670441
0.0169430061346 0.00879938674385 -0.00226345511798
0.0169416150868 0.0134028981593 0.0112664351167
0.0169435701844 -0.00225957613322 0.00493784301773
0.0169421603037 0.00457785575043 0.0156536147572
0.0169425891846 -0.000251945639428 0.0161893703879
0.0169434147209 0.0037278923205 -0.00110401511968
0.016942853497 0.0112523331026 -0.00346726090511
0.0169438838763 0.00287583740303 -0.00663414148864
0.0169431357728 0.00790641519467 -0.00288401311173
0.0169439220209 0.000595911932286 -0.00403256887543
0.0169435846573 -0.00488691636558 0.00835729327943
0.0169418725239 0.0088707736655 0.0138419657632
0.0169423935802 0.00527193941068 0.0113611420856
0.0169430326616 0.00481638507909 0.00285481306844
0.0169426156578 0.0119072477679 -0.000971493635537
0.0169430926001 -0.00208906354222 0.0115291363232
0.0169426468407 0.000808304908083 0.0139018412989
0.0169432809027 -0.00345390486671 0.0107213118782
0.0169436689768 0.00140008520584 -0.00152547178655
0.0169436857007 0.00659315207761 -0.00893213839049
0.0169413944703 0.0139333285155 0.0136878355877
0.0169429763634 -0.00203604334866 0.0131174572496
0.0169433960729 -0.000655167216286 0.00521216188534
0.0169429025593 0.00735840367603 0.00120594484707
0.0169419494619 0.00933997757454 0.0120945978015
0.0169434461 0.000988546092505 0.00222836978045
0.0169436575949 -0.0010386827687 0.00200327645123
0.0169423129305 0.00750500549701 0.00943181786136
0.0169426008238 0.00532114990028 0.00833085868413
0.0169434779773 0.0078404069989 -0.0076844136488
0.0169433128834 0.0011534394891 0.00390499186543
0.0169436541889 0.00423885164501 -0.00523223518994
0.0169434989514 0.00963969286449 -0.0104676439705
0.0169438286285 -0.000934076830629 -0.00058587489821
0.0169435206994 0.00221006693101 -0.00052393835204
0.0169420583157 0.00916477382488 0.0107804509102
0.0169438827746 -0.00398176366206 0.00284665595389
0.0169431022553 0.0101920312102 -0.0055595815288
0.0169439851591 -0.00671848927605 0.00516046536383
0.0169436957581 0.00788639768738 -0.010860873971
0.0169413435053 0.0149746773732 0.0129790362782
0.0169418127046 0.00793136120688 0.0159936313266
0.0169424693449 0.00864065742269 0.00562855514671
0.0169427201259 -0.0012012221676 0.0156278998171
0.016942819611 -0.00144655350902 0.0145444619642
0.0169416840579 0.0110542706954 0.0135221952014
0.0169429791075 0.0114457190548 -0.00552966826481
0.0169438481801 -0.0133006971621 0.0162034024924
0.0169435876829 0.00670918220127 -0.00769121038398
0.0169437987127 0.00549460446462 -0.00903129920927
0.0169430486035 0.00937320446904 -0.00366250915383
0.0169424307029 0.00240679913123 0.0147850520986
0.016943691901 -0.00244039437408 0.00344758292816
0.0169418686285 0.0127289158504 0.00857253241204
0.0169438244793 0.00606750911635 -0.0101903481627
0.0169414678594 0.0127270115037 0.0143037967913
0.0169435708864 0.00760207173502 -0.00868350948506
0.0169433723216 0.00251505948624 0.00117603024606
0.0169439327661 0.00579859488722 -0.0113670476215
0.0169437705167 0.000295569727564 -0.00145241129118
0.0169435231143 0.0032362667198 -0.00197484546631
0.0169431579807 0.00166298982308 0.00541589287235
0.0169437569605 -0.0104098586837 0.013517290284
0.0169424776976 0.00636534249035 0.00864961373755
0.0169429133129 0.0022294289925 0.00813138484148
0.0169439864326 0.00801063929049 -0.0151872867148
0.016942868958 -0.000444023313748 0.0124553705547
0.0169425143904 0.0114516730269 0.0011048298133
0.016943108238 -0.000901698045817 0.00966677261431
0.0169436403184 -0.0046885403173 0.00728786372914
0.016943486929 -0.000122644480625 0.00317845156975
0.0169436465977 -0.00322808526675 0.00518234631794
0.0169429950307 -0.00102842030482 0.011459875732
0.0169438784122 -0.000124447925191 -0.00241496114581
0.0169439672745 -0.00168243269742 -0.00153479459811
0.0169418089082 0.00869291127272 0.014996785943
0.0169428303695 0.00652536310536 0.00338762000987
0.0169419042712 0.0103310617378 0.011372636487
0.0169426392753 0.0109567665128 2.79572340693e-06
0.0169422059876 0.0129577781239 0.0034344041113
0.0169424629837 0.00941454322416 0.00465134553547
0.0169425518803 0.00404006282105 0.0107986533432
