-0.0169571329703 -0.0086662884148 0.0160809216808
-0.0170419450919 -0.0047595593382 0.015258369357
-0.0169324134302 -0.0125153461407 0.0149652702785
-0.0171570387247 0.00510540154805 0.0164241463218
-0.0170060589365 -0.00571430847843 0.0159556064311
-0.0169109652566 -0.0112614951033 0.0162943621906
-0.0170183919437 -0.00418938595959 0.0163144758431
-0.0170633224664 -0.0034215636888 0.0152277074302
-0.0170080663438 -0.00815934580031 0.0146671997752
-0.017026442706 -0.00657252433508 0.0148592027066
-0.0170690144339 -0.00233411680029 0.0155851919183
-0.0169235820324 -0.0135276423625 0.0147481313101
-0.0169861279154 -0.00766364621577 0.0156332084179
-0.0171168628992 0.0028190606649 0.0165959064917
-0.0172520000488 0.006659696259 0.00301736607024
-0.0172520000488 0.00624907372562 -0.00995991158867
-0.0172520000488 0.0111451484086 -0.0130397752621
-0.0172520000488 0.00904806208996 0.00883812399778
-0.0172520000488 0.0126371198381 -0.00711914039214
-0.0172520000488 0.00343839357223 -0.010506841791
-0.0172520000488 0.0138288938164 -0.00719947586857
-0.0172520000488 0.0116085890485 0.00452860055473
-0.0172520000488 0.0137928481507 -0.0048139984518
-0.0172520000488 0.00741165019658 -0.0103498665292
-0.0172520000488 0.0127340415415 -0.0122119718165
-0.0172520000488 0.00375855487786 -0.00911699077336
-0.0172520000488 0.010669853215 0.00541429643258
-0.0172520000488 0.00265116724258 -0.00912940348269
-0.0172520000488 0.0138273583008 -0.0149259268487
-0.0172520000488 0.00752928057883 -0.00358992821626
-0.0172520000488 0.0132349759491 -0.0012481883381
-0.0172520000488 0.00455256962708 -0.00504109624961
-0.0172520000488 0.0102234906555 0.0104233870117
-0.0172520000488 0.00924670399333 -0.0143747681537
-0.0172520000488 0.0110624532884 -0.00955450797845
-0.0172520000488 0.00582457585362 -0.0139520138888
-0.0172520000488 0.0102810024821 0.0125760549511
-0.0172520000488 0.0131287655358 -0.0111589615287
-0.0172520000488 0.0092452503219 -0.00932330804064
-0.0172520000488 0.00682855182951 -0.0112809993752
-0.0172520000488 0.00809938939617 -0.0142052166647
-0.0172520000488 0.00387662042146 -0.00626679228055
-0.0172520000488 0.00671007184042 -0.0068870497084
-0.0172520000488 0.00556940519286 -0.00581715727256
-0.0172520000488 0.00258685956139 -0.00678232349458
-0.0172520000488 0.0127136638621 0.00468060214241
-0.0172520000488 0.0115602996242 0.000491356797998
-0.0172520000488 0.00675457420708 -0.00181417191539
-0.0172520000488 0.00977385692487 -0.00792177821725
-0.0172520000488 0.0136076218628 -0.00234619013887
-0.0172520000488 0.0111716009287 0.0114483283228
-0.0172520000488 0.010454350048 -0.0120991731257
-0.0172520000488 0.00286590469801 -0.0128180395562
-0.0172520000488 0.0112956743255 -0.000975939063
-0.0172520000488 0.00460452564627 -0.00251278319422
-0.0172520000488 0.00941629898631 0.00161408015124
-0.0172520000488 0.00807465779593 -0.0127800737963
-0.0172520000488 0.00851552140045 -0.00844690432142
-0.0172520000488 0.011804034097 -0.0076527868631
-0.0172520000488 0.00701655837255 -0.0140466070313
-0.0172520000488 0.00580697303291 -0.000746210609774
-0.0172520000488 0.00889916589244 0.000262718601443
-0.0172520000488 0.0080392219602 0.00510303539519
-0.0172520000488 0.00994979146607 -0.00152913381673
-0.0172520000488 0.0106812706284 0.0137386349317
-0.0172520000488 0.0135023712286 -0.0133783442531
-0.0172520000488 0.0117424936046 0.00331968838192
-0.0172520000488 0.0102569918028 -0.00311165904915
-0.0172520000488 -0.000240886524798 -0.0127994042347
-0.0172520000488 0.00903811743172 -0.0109563326376
-0.0172520000488 0.000880283937774 -0.0131251477451
-0.0172520000488 0.0117317604769 -0.0118036065578
-0.0172520000488 0.0081515987251 0.000923646107182
-0.0172520000488 0.0115484719441 0.00694267217385
-0.0172520000488 0.00215905120334 -0.00778808863771
-0.0172520000488 0.00434351763207 -0.0114489454919
-0.0172520000488 0.0116890478683 0.00828324238579
-0.0172520000488 0.00543104014394 0.000529418483726
-0.0172520000488 0.00905268542602 -0.00571848377335
-0.0172520000488 0.0137333247154 -0.0060160755466
-0.0172520000488 0.0101319347103 0.0028783759188
-0.0172520000488 0.0115409247162 0.00995529683977
-0.0172520000488 0.00856950803004 -0.00405753912481
-0.0172520000488 0.0111488841543 -0.0145842040138
-0.0172520000488 0.00977709360174 -0.00425410378234
-0.0172520000488 0.00564496369778 -0.0108190785729
-0.0172520000488 0.0116809776929 -0.0107173401678
-0.0172520000488 0.013186306942 -0.00380378412257
-0.0172520000488 0.00413690287766 -0.0130633705113
-0.0172520000488 0.0120101533633 -0.0137696657385
-0.0172520000488 0.0081870495081 -0.000833976284245
-0.0172520000488 0.00677146398034 -0.0049001782485
-0.0172520000488 0.00588143074394 -0.00364249365373
-0.0172520000488 0.0127953593257 -0.00897778083634
-0.0172520000488 0.011005134974 -0.00504803840526
-0.0172520000488 0.01174125998 0.00178703508028
-0.0172520000488 0.00716666540016 -0.000456218178941
-0.0172520000488 0.0117070581704 0.00579474387324
-0.0172520000488 0.0056803942796 -0.0119679179758
-0.0172520000488 0.00770272989463 -0.006105533234
-0.0172520000488 0.0111585437188 -0.00238859196052
-0.0172520000488 0.00710976215236 0.00430406074782
-0.0172520000488 0.00928025116056 -0.00693581954674
-0.0172520000488 0.00126029289776 -0.0121089363247
-0.0172520000488 0.00653615515068 -0.0130219901747
-0.0172520000488 0.00922166726774 0.00386530404592
-0.0172520000488 0.0107063841053 -0.00843544562449
-0.0172520000488 0.00962121009445 0.00588762985003
-0.0172520000488 0.0147637490607 -0.0115995036914
-0.0172520000488 0.0136594452527 -0.00819908537373
-0.0172520000488 0.0102049671417 -0.00613898705481
-0.0172520000488 0.0126999266476 -0.00563505822838
-0.0172520000488 0.0117859476595 -0.00425479190351
-0.0172520000488 0.0128950508788 0.000900363683609
-0.0172520000488 0.00804485092975 0.00218478289475
-0.0172520000488 0.0148667775497 -0.0126675917156
-0.0172520000488 0.0128468375609 -0.0154262138195
-0.0172520000488 0.00239453844711 -0.0102957316779
-0.0172520000488 0.012997835032 0.00199722764685
-0.0172520000488 0.0106358905573 -0.0072942288343
-0.0172520000488 0.0123092340247 0.00921458126871
-0.0172520000488 0.00839699201115 -0.00294599254485
-0.0172520000488 0.00866199375126 -0.00174947876583
-0.0172520000488 0.00903336933556 0.0070846090998
-0.0172520000488 0.00791294133364 -0.00717646647514
-0.0172520000488 0.0066623881749 0.000637110129796
-0.0172520000488 0.0047619497294 -0.00954698046321
-0.0172520000488 0.0102174097488 0.00878483179272
-0.0172520000488 0.00517780758384 -0.0081223926869
-0.0172520000488 0.0121413842137 -0.00208700114268
-0.0172520000488 0.0105457013034 0.00409193813333
-0.0172520000488 0.00452455787429 -0.0010419441735
-0.0172520000488 0.00908788505239 -0.0128671273266
-0.0172520000488 0.00691407623285 -0.00908005103391
-0.0172520000488 0.00189717177485 -0.0132686577236
-0.0172520000488 0.00846450346022 -0.0100576202692
-0.0172520000488 0.0038732516886 -0.00793230330185
-0.0172520000488 0.00484473255397 -0.00701349976771
-0.0172520000488 0.0137955883514 -0.0103940478962
-0.0172520000488 0.0102411625629 -0.0108844523992
-0.0172520000488 0.00236805622724 -0.0118634503023
-0.0172520000488 0.0078486093391 0.00331303665373
-0.0172520000488 0.0149157611135 -0.0145029738127
-0.0169735896193 -0.0138741075362 -0.0118604543911
-0.0171047421899 -0.00755626223626 -0.00812487007981
-0.0170488477839 -0.0101550987252 -0.00577984987139
-0.0169553302129 -0.0144590832588 -8.02096386406e-07
-0.0169337456464 -0.0156313072285 -0.00618155636203
-0.0172115050414 -0.00260398861313 -0.0130963190562
-0.0170866218922 -0.00838617717975 -0.00683532007292
-0.0169467770228 -0.0149872904649 -0.00512659036647
-0.0171090011713 -0.007313520876 -0.0064244771645
-0.0169387316784 -0.0151394785743 0.00453463203227
-0.0169455103605 -0.0147852825368 0.00588979583897
-0.0169756223345 -0.0138100006501 -0.0132233770284
-0.0171171531572 -0.00707685354838 -0.0127486632218
-0.0172009680336 -0.00303182056122 -0.0100451403249
-0.0170702714848 -0.00918824010132 -0.00790761725406
-0.0170745574908 -0.00912673865584 -0.0138769584223
-0.0171309233459 -0.00633091887702 -0.00888551315876
-0.0171553233454 -0.00523430334744 -0.0115006815058
-0.0169297688081 -0.0157710348706 -0.00411633470637
-0.0169627167989 -0.01403658965 0.00301105740125
-0.0170758540612 -0.00881204897226 -0.0032411163387
-0.0170485400057 -0.0103196916623 -0.0120818961385
-0.0170346609116 -0.0109249988732 -0.009818458742
-0.0170090990696 -0.0118398579184 0.00275292831794
-0.0171412151863 -0.00592720666737 -0.0124609310234
-0.0169293237533 -0.0155205223303 0.00729854396257
-0.0171073490502 -0.0075042175036 -0.0111404838441
-0.0170961768533 -0.0078361191193 -0.00279060081307
-0.0169513641522 -0.014937208764 -0.0121767531932
-0.0170063256152 -0.0119192929478 0.00495006162888
-0.0170452978004 -0.0102429250453 -0.00238558874106
-0.0169293360266 -0.0157650604792 -0.00300157708788
-0.0169134372098 -0.0167321738149 -0.0119106314166
-0.0171331054031 -0.00628104682423 -0.0111446361338
-0.0170579224703 -0.00957576405032 0.000453582474774
-0.0170030431344 -0.012297362057 -0.00438569856722
-0.0170373517138 -0.0106430627631 -0.00334143533507
-0.0169586161761 -0.0141351863078 0.00705166447893
-0.0171768742352 -0.004229007849 -0.0122671438492
-0.0171654385123 -0.00465194498762 -0.00721669959912
-0.0169594363285 -0.0143440990959 -0.00336375942456
-0.0171999200437 -0.00312759000051 -0.0119779309294
-0.0169459648855 -0.0149360001 -0.00135054300212
-0.0169601914513 -0.0141101299193 0.00496074019374
-0.016955607424 -0.0147783628601 -0.0139703414748
-0.0169141211405 -0.0163279799978 0.00370888046593
-0.0169276941876 -0.015491211864 0.0117823415709
-0.0169231916635 -0.0160310495522 -0.00191615877973
-0.016933080428 -0.0158269861151 -0.013076501029
-0.017021636553 -0.0113684495931 -0.00245953518026
-0.0169125049641 -0.0162471779863 0.0103296598435
-0.0171414993037 -0.00579675758615 -0.0075464077622
-0.0170769365946 -0.0089478362704 -0.0111074058458
-0.0170239542687 -0.0111688473067 0.00130235195838
-0.0172325901854 -0.00158687582992 -0.0124367146191
-0.0169836349186 -0.0131976233321 -0.00348181670275
-0.0169926216521 -0.0125383005236 0.00628828991454
-0.0171894448255 -0.00360352827304 -0.0110715210279
-0.0169213553397 -0.0159458095925 0.00533045808609
-0.0170509804448 -0.0101757435989 -0.0109035515089
-0.0170042672126 -0.0123014611325 -0.00700086058003
-0.0170400216916 -0.0104440749916 -0.00030838664241
-0.0170717208399 -0.0089718751306 -0.00170834892956
-0.017044549373 -0.010416755099 -0.00819637165979
-0.0169869968849 -0.0132091516842 -0.0106757858346
-0.0169650673119 -0.0141418738202 -0.00610400562377
-0.0170285026802 -0.0112631880728 -0.0117392518945
-0.0169285831576 -0.0159067584457 -0.00745328800005
-0.0170233698698 -0.0113538251866 -0.00530422356306
-0.0169814450403 -0.0131621260578 0.00238018091813
-0.0169194505885 -0.0163926859742 -0.00964618307688
-0.0171522069625 -0.00532598217096 -0.00913365004701
-0.0169912868789 -0.0126511904885 0.00420842474864
-0.0170098489548 -0.0121893864214 -0.0134310113568
-0.0170437759126 -0.0105960799907 -0.0141880919314
-0.0170656231568 -0.00934069436329 -0.00503707031817
-0.0169926088828 -0.0128779233058 -0.00795736139725
-0.0170126229287 -0.0117627235782 -0.00103847855027
-0.0171447655601 -0.00559908577062 -0.00575866127849
-0.0170202116172 -0.0115636598544 -0.00781860505904
-0.0169431210907 -0.0153035655866 -0.0111204294734
-0.0171709265252 -0.00446611232627 -0.0103604433392
-0.0169092659527 -0.0168446281854 -0.00831136665485
-0.0169158188797 -0.0162837286364 0.00218013571718
-0.0169280825996 -0.0157469767513 0.000259799660449
-0.0171093307675 -0.00723665592318 -0.00385235134791
-0.0171077761525 -0.00745880545157 -0.0100846208685
-0.0169584729714 -0.0142668724495 0.00180393700734
-0.0170031516301 -0.0124151814185 -0.00955305972074
-0.0169120672455 -0.01629836966 0.00905212126073
-0.0170343544274 -0.0107392124662 -0.00139995577215
-0.0170411807625 -0.0103156305527 0.00277573863691
-0.0169897674027 -0.0128339612058 -0.000439252681387
-0.0169618396829 -0.0143949868417 -0.0102985114918
-0.0170860984175 -0.00834956370156 -0.004252093069
-0.0171122383169 -0.00712251641912 -0.00485879976117
-0.0169473834229 -0.0150619016306 -0.0094719969622
-0.016965801032 -0.0140154016508 -0.00225387529471
-0.0170089614464 -0.0119043707433 0.000316721315672
-0.0169370249667 -0.0152943703213 0.00143211378966
-0.0169081943537 -0.0167245474601 -0.00112689783634
-0.0169935483881 -0.0126183701234 0.00107421644822
-0.0169907748655 -0.01281320898 -0.00157784602951
-0.0169321174963 -0.0153575066574 0.00857302448875
-0.0169527939188 -0.0143841464745 0.00820981405828
-0.0170848506844 -0.00860556110362 -0.0125191189247
-0.0169165705956 -0.0165556360221 -0.0107457756471
-0.0169792445162 -0.0131388126727 0.00775145088583
-0.0170789758547 -0.00880759352532 -0.0092841200713
-0.0169827546103 -0.013280432591 -0.00520465883358
-0.0169810935304 -0.0134480231719 -0.00893185732619
-0.0171303012538 -0.00638513904402 -0.0099223530559
-0.0171608943808 -0.0050092959769 -0.0131639722384
-0.0169492940617 -0.0149457792803 -0.00840557123389
-0.0169789823225 -0.0135012724196 -0.006956041211
-0.0170015274892 -0.0125425551762 -0.011664045192
-0.017036125882 -0.0107837538154 -0.00680693402112
-0.0169836188407 -0.0129897908986 0.00528350292295
-0.0169722450854 -0.0136367460369 0.000796918373203
-0.00439035676415 -0.0174540001899 -0.0157505491433
0.00265323348682 -0.0174540001899 -0.0136882925824
-0.00744426391929 -0.0174540001899 -0.0047728927791
0.000763257118966 -0.0174540001899 -0.0139752555216
0.000369322903632 -0.0174540001899 -0.0107534762604
-0.0090920993374 -0.0174540001899 -0.00284382062934
-0.0015323026383 -0.0174540001899 -0.015137799199
-0.00231393363277 -0.0174540001899 -0.0106187168251
0.00310495263081 -0.0174540001899 -0.0149761189257
-0.000490864567206 -0.0174540001899 -0.014655641377
-0.00263377142402 -0.0174540001899 -0.01176067523
-0.00624109542807 -0.0174540001899 -0.00711978921498
-0.00643111608858 -0.0174540001899 -0.0107141090224
-0.000636811851333 -0.0174540001899 -0.0135361421919
-0.00803086988197 -0.0174540001899 -0.00663179528434
-0.00185174784375 -0.0174540001899 -0.0084335507808
-0.00200218582436 -0.0174540001899 -0.0134819302307
-0.00327219458666 -0.0174540001899 -0.0138912835628
-0.00298245349334 -0.0174540001899 -0.0128865128587
-0.000397864748914 -0.0174540001899 -0.0121703948259
-0.00282046517726 -0.0174540001899 -0.00790891629021
-0.00600074402478 -0.0174540001899 -0.00946469486116
-0.00440714734441 -0.0174540001899 -0.0130606852125
-0.00330434374119 -0.0174540001899 -0.0156781504317
-0.000691411600566 -0.0174540001899 -0.00926629489102
0.000728602147571 -0.0174540001899 -0.0122514777688
-0.0113905326504 -0.0174540001899 0.00124710253233
-0.00570070221978 -0.0174540001899 -0.00440581315986
-0.0083008481982 -0.0174540001899 -0.0055967280551
-0.00668412904176 -0.0174540001899 -0.00392266773696
-0.00387114464882 -0.0174540001899 -0.0121352848671
-0.00144063439362 -0.0174540001899 -0.0121800681193
-0.00803864592256 -0.0174540001899 -0.00347283340886
-0.00678299183023 -0.0174540001899 -0.00867593308508
-0.00776954157091 -0.0174540001899 -0.00227656124574
-0.00375321598067 -0.0174540001899 -0.00943915582706
-0.00275152029893 -0.0174540001899 -0.00897205737262
-0.0109187875017 -0.0174540001899 -3.48847301562e-05
-0.012413543064 -0.0174540001899 0.00165746676462
-0.00508843442242 -0.0174540001899 -0.0110591709349
-0.0109117191816 -0.0174540001899 -0.00117549778848
-0.00739346899842 -0.0174540001899 -0.00757031611603
-0.00496796634077 -0.0174540001899 -0.00950953892824
-0.0055711555081 -0.0174540001899 -0.012437064849
0.00146868382349 -0.0174540001899 -0.0132537723006
0.000832882279601 -0.0174540001899 -0.015317072509
-0.00404431745744 -0.0174540001899 -0.00688800605391
-0.00426223502633 -0.0174540001899 -0.0142610509256
-0.00432531875546 -0.0174540001899 -0.00814586452422
-0.00107239623831 -0.0174540001899 -0.0112155316901
-0.00535777597517 -0.0174540001899 -0.0065354316149
-0.0131696389933 -0.0174540001899 0.00267095984262
-0.00166483855134 -0.0174540001899 -0.0095348783736
-0.0092623297445 -0.0174540001899 -0.0012506596777
0.0173129998147 -0.00780729299326 0.0138329318766
0.0173129998147 -0.0158144571592 0.00767798257787
0.0173129998147 -0.0126556279249 -0.00344595133366
0.0173129998147 -0.00793390095727 0.00867093652549
0.0173129998147 -0.0102940383292 -0.000883374209976
0.0173129998147 -0.00875249356203 0.0131792950876
0.0173129998147 -0.0149440517014 0.00352660811748
0.0173129998147 -0.00743864354841 0.00762210737035
0.0173129998147 -0.0154998577328 0.00476733685614
0.0173129998147 -0.011560987512 -0.00536249134154
0.0173129998147 -0.0113490388167 0.00487999747935
0.0173129998147 -0.0088470678396 0.00751424127116
0.0173129998147 -0.00570193156162 0.0145253430953
0.0173129998147 -0.00991372731293 0.000453975257798
0.0173129998147 -0.0138661130719 -0.000954450328128
0.0173129998147 -0.0144231077781 -0.0103265899793
0.0173129998147 -0.0128392704513 0.0104085257145
0.0173129998147 -0.00537831921508 0.0154857390124
0.0173129998147 -0.0146821834474 -0.00659822025923
0.0173129998147 -0.0146843189463 0.0151019219189
0.0173129998147 -0.0135681013836 -0.00741464358811
0.0173129998147 -0.0130160282305 5.72653713275e-06
0.0173129998147 -0.0158310318828 0.0136342536703
0.0173129998147 -0.00962270706236 0.0151593677341
0.0173129998147 -0.00508984065408 0.0136351523081
0.0173129998147 -0.0133172082512 0.00576582975991
0.0173129998147 -0.00994295038085 0.0136821679735
0.0173129998147 -0.0125403578747 0.00859507480986
0.0173129998147 -0.0108949397467 0.0118180355177
0.0173129998147 -0.0137547476944 -0.00583361500267
0.0173129998147 -0.0106748872429 0.00349167374676
0.0173129998147 -0.0137804456092 -0.00284605119966
0.0173129998147 -0.0124667795207 0.000912943499284
0.0173129998147 -0.0135195027191 -0.0110873637601
0.0173129998147 -0.00832007532593 0.0150638307476
0.0173129998147 -0.0149833117538 -0.00470491125
0.0173129998147 -0.0134838230535 0.0140814146524
0.0173129998147 -0.00998459032554 0.00550992990323
0.0173129998147 -0.0103090349972 0.002466508552
0.0173129998147 -0.0145072956802 -0.00927310391155
0.0173129998147 -0.00714660843746 0.0127318090414
0.0173129998147 -0.00561806374484 0.0119359044875
0.0173129998147 -0.0106458025778 0.00146065984776
0.0173129998147 -0.0121787713942 -0.00700562945066
0.0173129998147 -0.0150045572261 -0.000202362286707
0.0173129998147 -0.00780965572428 0.00985061457427
0.0173129998147 -0.0151310866912 0.0108271968193
0.0173129998147 -0.0148956663984 0.00697704880174
0.0173129998147 -0.0103366709922 0.00717505910964
0.0173129998147 -0.00668396742111 0.0110344508739
0.0173129998147 -0.0117588627292 0.00223953423854
0.0173129998147 -0.0145028705434 0.00250095726044
0.0173129998147 -0.0122468968804 -0.00172669299505
0.0173129998147 -0.0112868485829 -0.000397587668481
0.0173129998147 -0.0139484484416 0.0049339077553
0.0173129998147 -0.0135014033814 0.0151143086239
0.0173129998147 -0.00792663207973 0.00560413890365
0.0173129998147 -0.0143266333157 0.0132918130058
0.0173129998147 -0.0142922609338 -0.0126809539144
0.0173129998147 -0.0143871064887 0.0115135038004
0.0173129998147 -0.007725898281 0.0118438843559
0.0173129998147 -0.0127933255556 0.0130683633375
0.0173129998147 -0.0115102190548 0.0150850991972
0.0173129998147 -0.0107804178929 0.0130050534058
0.0173129998147 -0.00983099573073 0.0120521989111
0.0173129998147 -0.0079855312361 0.0067174451637
0.0173129998147 -0.0106225889904 0.0101805230402
0.0173129998147 -0.0134610878317 -0.00864236556263
0.0173129998147 -0.0131843927476 -0.0100047242205
0.0173129998147 -0.0092678335056 0.00360363644009
0.0173129998147 -0.0107514341192 0.0143649349818
0.0173129998147 -0.0142033053224 0.00106788795956
0.0173129998147 -0.0109124434435 -0.002173661747
0.0173129998147 -0.0143978509484 0.00948916669322
0.0173129998147 -0.0117914766912 0.0139144206228
0.0173129998147 -0.00689722717951 0.00935424193831
0.0173129998147 -0.0147950638542 -0.00822357497337
0.0173129998147 -0.0134469690632 0.00910478673981
0.0173129998147 -0.00994099979552 0.00442255343501
0.0173129998147 -0.0135412234769 0.00327546277897
0.0173129998147 -0.0116968757518 0.00997758101129
0.0173129998147 -0.0124602207178 0.0114346180915
0.0173129998147 -0.0115118957345 -0.00400842874994
0.0173129998147 -0.0128977022065 0.00204016122836
0.0173129998147 -0.00941863894229 0.00637455199115
0.0173129998147 -0.0138674269523 -0.00471545839826
0.0173129998147 -0.0141753373552 0.00817633862464
0.0173129998147 -0.011963870275 0.00746105520547
0.0173129998147 -0.00992001132328 0.00940110155478
0.0173129998147 -0.011891203054 0.0124854699649
0.0173129998147 -0.00882956495713 0.0117618009013
0.0173129998147 -0.0157118947291 0.00890384787174
0.0173129998147 -0.00689512930933 0.0145711667572
0.0173129998147 -0.014872845535 -0.00333802916189
0.0173129998147 -0.0126629982942 -0.00502725962806
0.0173129998147 -0.0150299793371 -0.0012967359288
0.0173129998147 -0.00941929462089 0.0104931701958
0.0173129998147 -0.0105705346737 0.00840007942309
0.0121161728922 0.0174540001899 0.0120757255921
0.00126134380014 0.0174540001899 0.0140089994047
0.0127152272865 0.0174540001899 0.0129522801059
0.011273621778 0.0174540001899 0.0108801188823
0.00461209817036 0.0174540001899 0.014907676776
0.0134987767628 0.0174540001899 0.0079533810107
0.00703772059173 0.0174540001899 0.011239235029
0.00984589107751 0.0174540001899 0.012161848411
0.0061085965017 0.0174540001899 0.014637805215
0.0109652207131 0.0174540001899 0.0121303242413
0.0109335914475 0.0174540001899 0.0157273584434
0.008622579762 0.0174540001899 0.0128692129034
0.00970100075423 0.0174540001899 0.0111287305667
0.0146609643508 0.0174540001899 0.00807247215117
0.00712576193182 0.0174540001899 0.013139667035
0.00513967605043 0.0174540001899 0.0132152006078
0.00850012638769 0.0174540001899 0.0139413587809
0.0105381242028 0.0174540001899 0.0131765178038
0.00979919046915 0.0174540001899 0.0157216365363
0.0127458605886 0.0174540001899 0.0163028783151
0.00678624916361 0.0174540001899 0.0153597464875
0.00607928698175 0.0174540001899 0.0125706816433
0.0094021015082 0.0174540001899 0.00901709177178
0.0135268185636 0.0174540001899 0.0091716039176
0.0142665677799 0.0174540001899 0.00708553410466
0.00480254741727 0.0174540001899 0.0119947337969
0.00170457181466 0.0174540001899 0.0130150643864
0.0100510838965 0.0174540001899 0.00996827797434
0.00783031379677 0.0174540001899 0.0101433246585
0.0129688021425 0.0174540001899 0.0149464327512
0.0117483514986 0.0174540001899 0.0140839905458
0.0137424205316 0.0174540001899 0.0101902467375
0.00844608039213 0.0174540001899 0.0109730969543
0.00972115564869 0.0174540001899 0.0146735130067
0.00543731819478 0.0174540001899 0.011163350548
0.00728909137962 0.0174540001899 0.0142063186956
0.0124144335401 0.0174540001899 0.0106802629445
0.0114911128677 0.0174540001899 0.00878372517818
0.00857838007774 0.0174540001899 0.0149780978267
0.00303867754486 0.0174540001899 0.013393812654
0.014547739836 0.0124582826461 -0.0172990001738
0.0158623133179 0.0027320741991 -0.0172990001738
0.0163968661771 0.000156800467135 -0.0172990001738
0.0138784377086 0.0140795351456 -0.0172990001738
0.0162192010698 -0.0131065040488 -0.0172990001738
0.0157085602874 0.00417101435665 -0.0172990001738
0.0143962271079 0.00241736629583 -0.0172990001738
0.0144438929687 0.0160396303264 -0.0172990001738
0.0141903528309 0.00708633168839 -0.0172990001738
0.015565706034 0.00111690093468 -0.0172990001738
0.0154886941896 -0.00433280566489 -0.0172990001738
0.0151068407018 0.0134837149966 -0.0172990001738
0.0148574980296 0.000249589839922 -0.0172990001738
0.0145527199587 0.00572941585098 -0.0172990001738
0.0158793067409 -0.00637647251546 -0.0172990001738
0.0145027874072 0.00904879758139 -0.0172990001738
0.014604084644 0.00382172411784 -0.0172990001738
0.014216726812 0.0113075556163 -0.0172990001738
0.0156268778833 -0.00775275506501 -0.0172990001738
0.0134861696109 0.0128477253894 -0.0172990001738
0.0126496740145 0.0162941195647 -0.0172990001738
0.0154518700601 0.00677445566084 -0.0172990001738
0.014864955723 -0.0034728794189 -0.0172990001738
0.0160755611921 0.0117400840181 -0.0172990001738
0.0134422358177 0.0153588589454 -0.0172990001738
0.0157049949614 0.0150954482842 -0.0172990001738
0.0155855072806 0.0107578960425 -0.0172990001738
0.0147319139137 0.0101673056631 -0.0172990001738
0.0155052443974 0.00525388239989 -0.0172990001738
0.0147272231076 -0.00122945342262 -0.0172990001738
0.0161169715134 0.00884472305719 -0.0172990001738
0.0137382348009 0.00975096134018 -0.0172990001738
0.0164570038934 0.0141382712332 -0.0172990001738
0.0164073770938 -0.00158000734832 -0.0172990001738
0.0166875159162 0.0160131192617 -0.0166304989682
-0.00877289764329 -0.0173653006892 -0.0165334081365
-0.0117296212182 -0.0174540001899 -0.00642722868422
-0.00932983181856 -0.0174540001899 -0.00653800894784
-0.00829465815083 -0.0174540001899 -0.0135294828726
-0.0113143129476 -0.0174540001899 -0.00447946338755
-0.0123136326237 -0.0174540001899 -0.00330983123158
-0.015534106373 -0.0174540001899 -0.0134872236755
-0.0120206426136 -0.0174540001899 -0.00139749185367
-0.0158013399698 -0.0174540001899 -0.0149249858344
-0.00530500875878 -0.0174540001899 -0.0150325299719
-0.0112336537166 -0.0174540001899 -0.00913640244733
-0.0116124919151 -0.0174540001899 -0.0154075446534
-0.0108412957425 -0.0174540001899 -0.0118846341331
-0.0119420944797 -0.0174540001899 -0.012041528422
-0.0146555376188 -0.0174540001899 -0.0151201629713
-0.0101608344484 -0.0174540001899 -0.00525276499527
-0.00770785246779 -0.0174540001899 -0.0111017230899
-0.00881349735588 -0.0174540001899 -0.00796297634838
-0.0127300631801 -0.0174540001899 -0.00683548493431
-0.0150230008621 -0.0174540001899 -0.0113159494833
-0.00779462652592 -0.0174540001899 -0.0145082861514
-0.0143818708736 -0.0174540001899 -0.00867403347495
-0.00922343380446 -0.0174540001899 -0.0142325241163
-0.0131174240769 -0.0174540001899 -0.0131888182629
-0.0149172618749 -0.0174540001899 -0.00522541687537
-0.0103402432267 -0.0174540001899 -0.0136779597313
-0.00605935206165 -0.0174540001899 -0.0133840897967
-0.0139141605744 -0.0174540001899 -0.0101703948926
-0.00750805101416 -0.0174540001899 -0.00982950895411
-0.00756908981426 -0.0174540001899 -0.0126493160442
-0.01384505846 -0.0174540001899 -7.34306363996e-05
-0.0140724544722 -0.0174540001899 -0.00594945395225
-0.01333082385 -0.0174540001899 0.00108799955021
-0.0149823373706 -0.0174540001899 -0.0126038109392
-0.00897909760574 -0.0174540001899 -0.0108073790414
-0.0145093378883 -0.0174540001899 -0.01406270274
-0.0128497500214 -0.0174540001899 -0.00231835057296
-0.00647725209003 -0.0174540001899 -0.0157524972296
-0.00981619012182 -0.0174540001899 -0.0128356281205
-0.0123683059023 -0.0174540001899 0.000311963072349
-0.0133167338733 -0.0174540001899 -0.0142979963286
-0.0129774596553 -0.0174540001899 -0.0120580387733
-0.00659264270377 -0.0174540001899 -0.0146320832677
-0.0142343212352 -0.0174540001899 -0.00242247990436
-0.0115484538835 -0.0174540001899 -0.00754630603883
-0.0140814510337 -0.0174540001899 0.00204902142336
-0.0115127492972 -0.0174540001899 -0.0142861614181
-0.00990084980045 -0.0174540001899 -0.0101900992059
-0.0100521564166 -0.0174540001899 -0.00751871578468
-0.0155622891216 -0.0174540001899 -0.0103617564347
-0.00765771643006 -0.0174540001899 -0.0162493872079
-0.0134008591773 -0.0174540001899 -0.00788616370888
-0.0118524088372 -0.0174540001899 -0.0132242632462
-0.0123560100378 -0.0174540001899 -0.0095342916395
-0.00929203588509 -0.0174540001899 -0.00913273300021
-0.0115593760654 -0.0174540001899 -0.0102388571398
-0.0137186354569 -0.0174540001899 -0.00127945737463
-0.0144980962189 -0.0174540001899 0.000827052426971
-0.0132948521692 -0.0174540001899 -0.0155660783143
-0.0140130728851 -0.0174540001899 -0.00361215276366
-0.0107104504654 -0.0174540001899 -0.00323204394825
-0.00862835790054 -0.0174540001899 -0.015251734581
-0.0132193542486 -0.0174540001899 -0.00496444137886
-0.0141464631149 -0.0174540001899 -0.0119393290517
-0.0103198114263 -0.0174540001899 -0.00849951108986
-0.0105637935278 -0.0174540001899 -0.0157090705387
-0.0123859523407 -0.0174540001899 -0.00832790222409
-0.0139899861777 -0.0174540001899 -0.00695556295349
-0.0103866497376 -0.0174540001899 -0.00643525472977
-0.0126741577816 -0.0174540001899 -0.0107733958719
-0.0091620539021 0.0172719074298 0.0135578980613
-0.0141552501975 0.0171584595358 0.0113392483164
-0.00681499342706 0.0173226502612 0.0135252007538
-0.0137389034841 0.017176156221 0.0149534937844
-0.0146266373833 0.0171347437259 0.00571529991566
-0.0160544505076 0.0171193972506 0.0121974800876
-0.0140608990423 0.0171502914006 0.00708816343752
-0.0106375495219 0.0172342458762 0.0111797413385
-0.0044057852017 0.0173749230135 0.0135691989606
-0.0123471177483 0.0172018070545 0.0130859804685
-0.010497860686 0.0172412585752 0.0128400142327
-0.0117974229029 0.0172164369954 0.0142214006675
-0.00988822887118 0.0172582338235 0.0144115196358
-0.0158523223711 0.0171292849398 0.0144917972505
-0.0122080456811 0.0172012375855 0.0115952175827
-0.0148786261032 0.0171477063191 0.013383449152
-0.00556365093965 0.017350028133 0.0136427283631
-0.0154021124655 0.0171260193964 0.00907381826108
-0.0057046315133 0.0173443458848 0.0125479911046
-0.0108062441186 0.0172394175709 0.0148535312671
-0.013577215013 0.017173276014 0.0122968498646
-0.00717957708104 0.0173119266382 0.0123473445097
-0.0107172034236 0.0172266303376 0.00872730287147
-0.00808650499923 0.0172937190742 0.0129428162608
-0.0094489036995 0.017261359913 0.0117526165218
-0.0148354584103 0.0171414807294 0.0104024813304
-0.0126991678038 0.0171779904128 0.00634427450883
-0.0136628538356 0.0171650208465 0.00963207394424
-0.00773395807832 0.0172975443164 0.0113572565767
-0.0131333018439 0.0171867572612 0.0139076298627
-0.00870763839024 0.0172747068969 0.0106269823016
-0.0166669037267 0.017109159667 0.0134564220586
-0.0146121288886 0.017151000194 0.0123523773369
-0.00959981712244 0.0172515560924 0.00903153392035
-0.012459129643 0.0171921119677 0.0100594830663
-0.0122157413535 0.017194566022 0.00888709683227
-0.00773396783121 0.0172947965656 0.0102134054247
-0.00405756479234 0.0173785432987 0.0119373138274
-0.0107332782761 0.01722301681 0.00736783378643
-0.0146253640779 0.0171556259216 0.0143974629113
-0.0151160498381 0.0171276589515 0.00717764793674
-0.0136110071625 0.0171557381971 0.00530015832132
-0.00204296330407 0.0174273282136 0.0140864929333
-0.0108146222313 0.0172277116811 0.0100556800012
-0.0086209447145 0.0172739735559 0.00954016805042
-0.00818342442297 0.0172947429495 0.014242766549
-0.0134033029492 0.0171681416076 0.00859155022609
-0.00651070155841 0.01732391263 0.0113076710368
-0.0124121350922 0.0171868228364 0.00743388241094
-0.00318081271378 0.0172327445304 -0.00313672562773
-0.00602388844327 0.0172575403866 0.00332340266187
-0.00709668530863 0.0172587360177 0.00499566767578
-0.00439221719709 0.0172805673788 0.00311017127053
-0.00287289166811 0.0173630278483 0.00863444981913
-0.00807945057258 0.0171392977016 -0.00477697846261
-0.0043555222081 0.0173062109396 0.00546185788896
-0.00605498226654 0.0171191863803 -0.00960728392139
-0.0139134146378 0.017139063059 0.00368513697055
-0.00148965804384 0.0174320510431 0.0130963906669
-0.00506143749896 0.0171184925306 -0.0111172345589
-0.00736914349077 0.0171399970415 -0.00574436276664
-0.0120251784519 0.0171743997673 0.00425329256794
-0.00401376396536 0.0171674901945 -0.0080454495072
-0.00499579375556 0.0172851671766 0.00441933522985
-0.0059407212379 0.017279511397 0.00526306633784
-0.00859916027658 0.0172473837247 0.00611595689711
-0.009215681998 0.0172294194501 0.00532771389887
-0.0101560322906 0.017224473146 0.00623132863943
-0.00967829955203 0.0171813685503 0.0014938980225
-0.0047307763551 0.0173118742759 0.00653872769534
-0.00238735391247 0.0173230353731 0.00417754729259
-0.00135429406627 0.0174016124149 0.010044766568
-0.00683425416611 0.0172068848576 -0.000248977886677
-0.00607009591703 0.017226566652 0.000485644928358
-0.00439459679098 0.0172639030531 0.00155072290653
-0.0110890819712 0.0171685227485 0.00234076933233
-0.00690623018871 0.017164531866 -0.00411649580014
-0.0131105352693 0.0171156691229 0.000323475008321
-0.00544277891429 0.0173427761905 0.0104723869113
-0.00277901900328 0.0173462917881 0.00692829747553
-0.00389963307526 0.0172126126112 -0.00397949784661
-0.0089461287797 0.0172139033581 0.00348049373541
-0.00780442124199 0.0172150073342 0.00192368931665
-0.00719107086034 0.0172347532875 0.00288364384971
-0.00839447323616 0.017234412253 0.00460172336485
-0.0040462502175 0.0172298367233 -0.00215086786722
-0.004197073188 0.0171208075527 -0.0121571275566
-0.00436928077373 0.0171955538561 -0.004896407817
-0.00950244920938 0.0171964946252 0.0026568051558
-0.00366307951735 0.0173592726921 0.00943140380647
-0.0118200740189 0.0171664803803 0.00321227548199
-0.0114188068905 0.0171410433738 0.000243048726003
-0.00957495667421 0.0171285152254 -0.00361338199668
-0.00360484382112 0.0172639537578 0.00040696933178
-0.00213927564691 0.017405075201 0.0115111035426
-0.00760359709982 0.0172696019271 0.00675193982847
-0.0103559069386 0.0171585957727 0.000343511206875
-0.0051657525928 0.0172099817505 -0.00238496862498
-0.00294600130762 0.0172475529557 -0.00208935504428
-0.00655425168628 0.0172341289026 0.00189898122954
-0.00715604632209 0.0172467914748 0.00396174293447
-0.00657031868757 0.0171411270423 -0.00680008447012
-0.0063637951333 0.0171630462288 -0.00504467389874
-0.00815434267108 0.0171801391165 -0.000837642887129
-0.00289338204183 0.0173815998259 0.0104060714377
-0.0131733771262 0.0171286833533 0.00163543847981
-0.00518542345446 0.017316260432 0.0076112719896
-0.00249441938179 0.0172994043506 0.00211694926395
-0.0104416614649 0.0171402280367 -0.00125444697392
-0.00893499330156 0.0171503628321 -0.00249502051828
-0.00663451438849 0.0172920302608 0.00744614005953
-0.0119285617616 0.0171115609249 -0.00178072460251
-0.0129235383113 0.017146860853 0.00297693301107
-0.0146877248377 0.0171096015575 0.00204806145291
-0.00571168205545 0.0171623360358 -0.0060596256318
-0.00264836476305 0.0172702853579 -0.000390177152066
-0.00302390794647 0.0173288282245 0.00564656295466
-0.00421798395255 0.0173603399139 0.0103384734559
-0.0120833055509 0.017141366401 0.00123970096851
-0.0110269561007 0.0171199038828 -0.00230943006334
-0.00937698977742 0.0171593276122 -0.00101145491134
-0.00619044914834 0.0173093996304 0.00842938548337
-0.00480276511785 0.0172474343928 0.000599749371309
-0.00563190888464 0.0171915201509 -0.0034385255792
-0.00781606632414 0.0171615246452 -0.00307539449692
-0.00504466955111 0.0173345985216 0.00912646609708
-0.00168906536901 0.0173776883363 0.00828782781037
-0.00620104123819 0.0173232736036 0.00974599732802
-0.00715256410333 0.0172146155432 0.000938971986441
-0.00899342163702 0.0172523190179 0.00715218671577
-0.00505838839596 0.0171370737657 -0.00937897729431
-0.0074371650284 0.017109925778 -0.00846575640084
-0.00290035723638 0.0174026337045 0.0123889344835
-0.00444692135769 0.0172344989254 -0.00113092912971
-0.00628750675315 0.017196332797 -0.00203374636505
-0.00464477726543 0.0171790311385 -0.00604539108973
-0.00561466863868 0.0172441447754 0.00147194548742
-0.00796304399544 0.0172850459517 0.00872313006351
-0.00546245883107 0.0172241183588 -0.000627639427423
-0.00723920213862 0.0171890488078 -0.00133287899142
-0.00377846113403 0.0173379145712 0.00759606988871
-0.00585701766269 0.0172958489004 0.00667359626968
-0.0052939783442 0.0171488529307 -0.00793162649891
-0.0130991468818 0.0171593520187 0.00440383198261
-0.00353544201109 0.01730960277 0.00458735704274
-0.00847209904697 0.0171203825693 -0.00597997095863
-0.0112079745767 0.0172003190013 0.00549576821914
-0.00839279708986 0.017192928341 0.000708604769586
-0.0101008363768 0.0171996423683 0.00382223749111
-0.0164442552673 0.0170354081642 0.00474054105263
-0.0164810003418 0.0169343260593 -0.00405141149811
-0.0166977169361 0.0170745663568 0.0105596372695
-0.0158872887427 0.0171019879384 0.00572887428613
-0.0167506547959 0.0168052786785 -0.0132677877441
-0.0167820683735 0.0169310983249 -0.00162871631301
-0.0165317516492 0.0169859142416 0.00106219931105
-0.0168499752183 0.0170396773378 0.0087832696932
-0.0159401398987 0.0170696567147 0.00328724335768
-0.0156957091996 0.0170787472724 0.00190426334416
-0.0122616235304 0.0170441042856 -0.00544969886809
-0.0114637864719 0.0169658808247 -0.0113267329479
-0.0109643708717 0.0170905061022 -0.00453827966292
-0.00779077555529 0.0170824176542 -0.00964124649893
-0.00979527800628 0.0170907476835 -0.00622388192429
-0.00943291381336 0.0170159790759 -0.0112593006649
-0.00978006046925 0.0170448208065 -0.00901534064556
-0.0128218493306 0.01707525586 -0.00275658514137
-0.0135059167164 0.0169651571973 -0.00840057086081
-0.0128449621365 0.0169985655467 -0.00734729492737
-0.0137089147848 0.0168582719216 -0.0145503953374
-0.0141558331457 0.0170240584046 -0.00390375807516
-0.0155930942668 0.017002311298 -0.0031249224754
-0.0101161248035 0.0170197437585 -0.0100387264862
-0.00902768948562 0.0170417497945 -0.0102946642943
-0.0116166349258 0.0170311462568 -0.00716903393151
-0.0090160307245 0.0170780072536 -0.00812534359086
-0.01041470978 0.0169844774192 -0.0117310176397
-0.0129206211564 0.017104873921 -0.000827015944408
-0.0130522347362 0.0169208291093 -0.0117332676843
-0.0131407897578 0.0170430382482 -0.00423543996807
-0.00724691433858 0.0170605980694 -0.0117478554903
-0.0153351609028 0.0169247166284 -0.00817887895958
-0.0154793037839 0.0168319978106 -0.0135600761934
-0.0150399050134 0.0169787632672 -0.00534931983768
-0.0160846246264 0.016924172211 -0.00712178871809
-0.0132047246718 0.0169003637364 -0.0127455413442
-0.0157255976947 0.016893826314 -0.00947372498558
-0.012850212392 0.0169656745195 -0.00932294401249
-0.0156620820599 0.0170262870362 -0.00157889152744
-0.012407847526 0.0169083961939 -0.013420064535
-0.0138246547908 0.0170035809108 -0.00562014383543
-0.0161738395382 0.0168485569847 -0.0115515423311
-0.00811154064919 0.0170267041003 -0.012534221228
-0.0141175614817 0.0169659134228 -0.00746547872636
-0.011922534267 0.0170050282034 -0.00829905883599
-0.0137560318891 0.0169190100461 -0.0108194480982
-0.00992105911395 0.0169771670934 -0.0128897186024
-0.0145540985546 0.0170327823444 -0.00279853341931
-0.0142403381348 0.0170784159494 -0.000503179293284
-0.0120998946472 0.0169339582874 -0.0123265496448
-0.0110375524505 0.0169533888879 -0.0126998364485
-0.0145024199998 0.0170906645069 0.000616528250758
-0.012340418405 0.0169554519317 -0.0106807270759
-0.0161641221609 0.0168663957316 -0.0104900217075
-0.0110287226796 0.0170718069944 -0.00557222601319
-0.0054234110414 0.01708469422 -0.012946744888
-0.0126135362142 0.0168854787983 -0.0145028268296
-0.0148613845317 0.0169628581688 -0.00656799155848
-0.00685690421679 0.0170898184542 -0.0105530834588
-0.0109303009864 0.0170117317093 -0.00933781533817
-0.0153969472453 0.0170530874607 -0.000348438203887
-0.0106188370318 0.0170413317533 -0.00800592353503
-0.00800556071386 0.0170570859584 -0.0108563591545
-0.0148219860814 0.0168337055151 -0.014413017185
-0.0113349995379 0.0171017123658 -0.0033235653577
-0.00659835773284 0.0170477170426 -0.0134677362512
-0.0149306243769 0.0168818414217 -0.0113524985621
-0.0139034754246 0.0169332840934 -0.00974432062369
-0.0135588357774 0.0170761802929 -0.00162907047554
-0.0108075479411 0.0169401232269 -0.0138342250215
-0.0172520000488 0.0121361216912 0.0129018074678
-0.0172520000488 0.0163606213636 0.0144684080664
-0.0172520000488 0.014465682849 -0.00166960874372
-0.0172520000488 0.0134576534473 0.00664887941026
-0.0172520000488 0.0140330227922 0.00233902647819
-0.0172520000488 0.0143589012945 0.00346879473699
-0.0172520000488 0.0158727229617 0.000654848625412
-0.0172520000488 0.0127863849181 0.00785643022235
-0.0172520000488 0.0159995688412 0.00843397311675
-0.0172520000488 0.0120559004019 0.0162866647775
-0.0172520000488 0.0152709313574 0.00920944693624
-0.0172520000488 0.0137339625899 0.00449658956542
-0.0172520000488 0.0145238871552 0.013208334475
-0.0172520000488 0.0148329391607 -0.00628303984419
-0.0172520000488 0.0149405085532 -0.00734800239183
-0.0172520000488 0.0152114370871 0.00526158559025
-0.0172520000488 0.0152315828976 0.0142286849052
-0.0172520000488 0.0156710797762 0.0016413359559
-0.0172520000488 0.0158115250392 0.00726440854416
-0.0172520000488 0.013789811577 0.0122855358498
-0.0172520000488 0.0137800561601 0.00986772576795
-0.0172520000488 0.0142443893967 0.00782653982798
-0.0172520000488 0.0154796744966 -0.0105830836064
-0.0172520000488 0.0137349496128 0.00552409102758
-0.0172520000488 0.0148450984147 -0.000500920674709
-0.0172520000488 0.0142221690935 -0.00375051908744
-0.0172520000488 0.0138420376485 -0.000250985910708
-0.0172520000488 0.0154794739689 0.00367819615748
-0.0172520000488 0.0127220744722 0.0119380601994
-0.0172520000488 0.0154473331822 -0.00487490499849
-0.0172520000488 0.0126604893756 0.0154901702398
-0.0172520000488 0.0136342730189 0.0141991896891
-0.0172520000488 0.0133049047173 0.00886366859521
-0.0172520000488 0.0128747523165 0.0105328237433
-0.0172520000488 0.013954065995 0.000881691463696
-0.0172520000488 0.0147035931352 0.00679779996507
-0.0172520000488 0.0146394119443 0.0105928807512
-0.0172520000488 0.0151050600674 -0.00965418786596
-0.0172520000488 0.0153650606369 -0.00370783685817
-0.0172520000488 0.0157707885472 0.0127206868685
-0.0172520000488 0.012277193092 0.0141730080731
-0.0172261416545 0.0155155046638 -0.0160382862121
-0.0170326986986 0.0163052261274 -0.0147425990398
-0.0170458447534 0.0166243458764 -0.00329127540163
-0.0172245729031 0.016005321078 -0.0010641115452
-0.0171868500369 0.0163398249596 0.00477586845985
-0.0170044091901 0.0166224899745 -0.00830736984031
-0.0170659642164 0.0164845383453 -0.0052111937269
-0.0171023704308 0.0163113845857 -0.00621426400555
-0.0170900473256 0.0161658779971 -0.0121930357407
-0.0171175858699 0.0166567250613 0.0122055695541
-0.0169301146234 0.0167874755527 -0.00935233507137
-0.0171285634111 0.0166082875063 0.00978717869191
-0.0169428793422 0.0169497942444 0.00756915439788
-0.0169684713695 0.0168389180728 0.00211586442472
-0.0171326819173 0.0165614943424 0.00629669897554
-0.0169681986139 0.0168111059888 -0.000442857948667
-0.0129956030442 -0.0171370825128 -0.0167324984461
-0.0131402795825 -0.0139840567836 -0.0169029766118
-0.0153508471684 -0.0133782219914 -0.0168219745121
-0.0133189521542 -0.0154724965808 -0.016832702939
-0.0122400088942 -0.0157320540994 -0.0168737368542
-0.0141075702536 -0.0170878659261 -0.0167278886057
-0.0154655496688 -0.0114177545202 -0.0168977310975
-0.0104760103397 -0.0168879105385 -0.016910503443
-0.0154402750376 -0.0170551010527 -0.0166652726161
-0.0141894197089 -0.0133160598913 -0.0168803034253
-0.0121206374621 -0.0143382869459 -0.0169372396378
-0.0147400517451 -0.0161700434064 -0.0167355718111
-0.0154438729372 -0.0144332615307 -0.0167737768889
-0.0111037490795 -0.0158432818503 -0.0169236705154
-0.0102030000404 -0.0135305614655 -0.0169834423986
-0.00652021476154 -0.0127739109662 -0.0170397847621
-0.00285899616727 -0.0137171336642 -0.0170767743659
-0.00597177280194 -0.0141985268889 -0.0170309268653
-0.00347045874594 -0.0124677895973 -0.0170828468504
0.00247108972224 -0.0158886837094 -0.0171216668225
0.00512110842791 -0.0145938820595 -0.0171706278356
-0.00880001328558 -0.0163870198314 -0.016969622912
-0.00918628662844 -0.01410943231 -0.0169901582863
-0.0110333915015 -0.0142260747163 -0.0169648489561
-0.0025973319789 -0.0147450517125 -0.0170686411227
0.00526658529995 -0.0158154896868 -0.0171588117052
0.00199411660067 -0.0135779475975 -0.0171413956032
-8.40499430557e-06 -0.015753182508 -0.0170909694941
0.00348371075778 -0.0136394195564 -0.0171600611316
0.00111072827069 -0.016442998521 -0.0170977713861
-0.0034074366526 -0.0157557545813 -0.0170467748605
-0.0114750476501 -0.0115130587176 -0.0169895502018
0.00691522936958 -0.0161314109728 -0.0171766889556
-0.00492460878878 -0.0124089625226 -0.0170646121944
-0.00558193463829 -0.0169132224845 -0.0170055334706
-0.00437380605382 -0.0150588690746 -0.0170420372457
-0.00498067295118 -0.0139385662135 -0.0170467216061
-0.0141572309778 -0.0111135947516 -0.0169591808666
0.0040245091443 -0.014639168016 -0.0171558709181
-0.0102314769668 -0.0125216702293 -0.0169943921116
-0.01315792042 -0.0101391348362 -0.016983098956
0.00290111791848 -0.0149474922092 -0.0171378145942
-0.00177466393923 -0.013785704795 -0.0170900944163
-0.0127510142654 -0.0113889637489 -0.0169743631001
-0.000623765866111 -0.0137134100977 -0.0171058599097
-0.00826311341257 -0.0120317251674 -0.0170254654782
-0.00139898423472 -0.0165569127804 -0.0170638829843
0.00636172405407 -0.0150379609215 -0.0171817653891
-0.00450400429789 -0.0161297338164 -0.0170283304246
0.00870861497387 -0.0156485318115 -0.0172054094434
-0.00754859720197 -0.0166910518803 -0.0169824721241
-0.00749566468157 -0.0131291368352 -0.017023124498
-0.00708974472817 -0.0116488826362 -0.0170450072846
0.00985282415664 -0.0160700247414 -0.0172155477404
0.00771855179791 -0.0152888745408 -0.017196580269
-0.00888027972321 -0.0130841372192 -0.0170056382106
0.0014669246405 -0.0146251915557 -0.0171227954154
-0.0135458582791 -0.0120770746978 -0.0169563146017
0.0109277403372 -0.0156613808809 -0.0172340997811
-0.0121340127147 -0.012303194324 -0.016972122551
-0.00775097627866 -0.0142503600651 -0.0170072269788
-0.00922876909238 -0.0153062182475 -0.0169761783796
-0.00250623433886 -0.016249804364 -0.0170529415291
0.00372445603116 -0.0161609295579 -0.0171348980153
-0.000934483849453 -0.0153000725683 -0.0170840202449
0.0131138267492 -0.0160351521043 -0.0172583112862
-0.00680814772888 -0.0152378634561 -0.0170083979877
-0.0150047479064 -0.0104527270396 -0.0169555834588
0.0151713253279 0.017099845192 0.0162631002276
0.00542250261389 0.0150015561615 0.0170344273399
0.00145493813282 0.014256456385 0.0170889086902
0.00118462881952 0.0155002522536 0.017082426515
-0.00266971688267 0.01561341166 0.0171287622674
0.00236072248632 0.0159134450574 0.0170647623069
0.0111837387031 0.0143176131357 0.0169692213168
0.00657192973787 0.0152419130447 0.0170184508661
0.00811117978913 0.0142462143648 0.017007431231
-0.00625319344339 0.0158648954551 0.0171706898612
0.0128467529905 0.0130115711375 0.0169591290051
0.00503004457781 0.014012880922 0.0170470213803
0.0127242298631 0.0143574524236 0.0169500321547
0.0099817471051 0.0151698841403 0.0169772379835
0.00292420808066 0.0149027945467 0.0170658163314
0.00963810498844 0.0139303058582 0.0169912096187
0.00795585197331 0.0156490966758 0.0169982874792
-0.00122914043255 0.0153620466885 0.0171130904291
0.015342153437 0.0124006173931 0.0169333641118
0.0150409706883 0.0133736555834 0.0169293923001
0.0128868465166 0.0163396223667 0.0169324310813
-0.000223345413137 0.014771149843 0.0171054195501
-0.0101381083989 0.0159257414296 0.0172178121158
0.0137287483653 0.0135170885458 0.0169443413391
0.00837133940753 0.0131952298324 0.0170125194807
-0.0121148180897 0.016106586009 0.0172406084399
-0.0087820913027 0.0158786758583 0.017201567622
-0.000543586410379 0.0162184139563 0.0170979469757
0.0142252978684 0.0146146464609 0.0169296144847
0.0113020657342 0.015476436129 0.0169586463453
0.0105461186007 0.0132752290152 0.0169852422272
-0.00461876768135 0.0159761361904 0.0171497874809
0.00376660652604 0.0159653897863 0.0170471271452
0.00707017111648 0.0137457816308 0.0170241272282
0.0131577733896 0.0152973634467 0.0169373186915
0.00416048851332 0.0149438714685 0.0170503448801
0.0140999608447 0.0162701725056 0.0168475533597
0.0165997005957 0.0138607308089 0.0165509918471
0.0156365536265 0.0152237196651 0.0165781776311
-0.0024073872304 -0.0164254941377 0.0172052611052
-0.0107406269354 -0.0162654493633 0.0171493795965
0.00158578719154 -0.016419107448 0.0172491342493
-0.006866584832 -0.0167229485751 0.017096526227
-0.0145306314526 -0.0166447670452 0.0170309313904
-0.00742016813725 -0.0156710718592 0.0172659996897
