0.00428921419276 0.00497430474591 0.0190570012606
0.00500429705972 0.00194282905708 0.0182139093491
0.00391690732005 -0.000553977901189 0.0245568616921
0.00608561746028 0.00277890011811 0.0130791126833
0.00562570472171 0.00562698739144 0.0129815953351
0.00559780054333 0.00466993187074 0.0137802949843
0.00468166867694 0.000981439685864 0.0202529513197
0.00546843641185 0.00312577314205 0.0154230245224
0.00479226397127 0.00162757686312 0.0193285306976
0.00598321321089 0.000827521977026 0.0148986615336
0.00534554151925 0.000644240961465 0.0177061372714
0.00752996796777 0.0025527814262 0.00717673878793
0.00468670577247 0.0048931553559 0.0174461162091
0.00385118719186 -0.00149449315175 0.025502534198
0.00443688822806 0.00302702236912 0.0198238014871
0.00557109325495 -0.000707376629881 0.017721809168
0.0072049920396 0.00260891314695 0.00850101828239
0.00533663774714 0.00601838611522 0.0139163715251
0.00335262584623 -0.0019713086675 0.0279350605763
0.00685782228597 0.00141970619792 0.0108053232614
0.00451250385219 0.00396470105013 0.0188386075963
0.00681708791953 0.000260693673516 0.0118017058724
0.00762692284203 0.00125060605293 0.00769705218546
0.00465814595633 -2.89768216212e-05 0.0210712580473
0.00358596396469 -0.00172534387344 0.0267803427681
0.00448570553664 0.00617805377688 0.0173748901913
0.00432665348597 0.00159365311873 0.0213073279792
0.00479727633007 -0.00176636790306 0.0217244526817
0.00634489265108 0.00141765439126 0.0129600696609
0.00789958558214 0.0014622862955 0.00640166450966
0.00524245356549 -0.000813252757433 0.0191768414537
0.00599106647875 0.0019476211598 0.014068025947
0.00496842583213 0.00516205445225 0.0160719579526
0.00379499750649 0.000511690171586 0.0243097357681
0.00326683784156 -0.00273667559677 0.0288402481557
0.00427772598989 -0.00129878822552 0.0235725495078
0.0064923992442 0.00335702010317 0.0109597351214
0.00663914533374 0.00413952456516 0.00978644039217
0.005816934203 -6.97540619323e-05 0.0162356891405
0.00410827541089 -0.000118374317005 0.0234432852275
0.00514610859224 -0.00145861532648 0.0200408874145
0.00397744491022 0.00210221422996 0.0224111433607
0.00556746066715 0.00182289881627 0.0159351483837
0.00493982491088 0.00624825138248 0.0154185006734
0.00688592962611 0.00271688686338 0.00976355400547
0.00420931940457 0.000730474416668 0.0224146020747
0.00530560234588 0.00452701133635 0.0151087262213
0.00652108910738 0.00236051292615 0.0115489473576
0.00592776285743 0.00413717449468 0.0127745067863
0.00658021867963 0.000143499605325 0.0128795445853
0.00500916631497 0.00312945519749 0.0173484241763
0.00405249497351 0.0037376383042 0.0209314312757
0.00630916331532 0.000175535224555 0.0139946246554
0.0029371642917 0.00670519993906 0.0231545250646
0.00248881710701 0.00621453250168 0.0254860956378
0.00408125180437 0.00739871288894 0.0181710542055
0.00134865242163 0.00510488887751 0.031176412945
0.00353911600479 0.00785138410163 0.0191810298395
-0.0069725960884 0.00441115487158 0.00936089276314
-0.00736912209722 0.00309044483368 0.00766337658338
-0.00761152255624 0.00264486754593 0.00613241329051
-0.00803958795658 0.00105784821875 0.00451973862028
-0.0078353142895 0.00168723668114 0.00546374209265
-0.00771909766603 0.00295021075085 0.00476708561857
-0.00616004169767 0.00654263876113 0.0136232141552
-0.00822607200501 0.000855993584688 0.00195826395511
-0.00786560346061 0.00257268551454 0.0030634071487
-0.00797451234058 0.00227550564144 0.00175130688426
-0.0083534111962 0.000770882734328 -0.000734597887848
-0.00808603440359 0.00191190764273 0.00066956867601
-0.0084917655768 0.000864870287413 -0.0044839081936
-0.00218759881617 -0.00858365625526 -0.0058702906146
-0.00184627302774 -0.00925987807274 0.00804623742652
-0.000850999167051 -0.0085581559958 -0.0114488911175
-0.00160875715342 -0.00919947889397 0.00579955492156
-0.0015466536633 -0.00891531055534 -0.000818328756991
-0.00217461260227 -0.00864498538199 -0.00454084990615
-0.00147337994061 -0.00861273033655 -0.0078917629401
-0.00152212794663 -0.00912795052316 0.00386787295288
-0.00162499075038 -0.00853233408324 -0.00913049149317
-0.00121407739573 -0.00886473607564 -0.00320025286857
-0.00189694323738 -0.00841863488471 -0.0106668589036
-0.00175229761446 -0.00900101670234 0.00187764372296
-0.00164306018182 -0.00895649383016 0.000468110781826
0.000884814179733 -0.00774756912696 -0.0125020003392
-0.000203786765628 -0.00816883001176 -0.0125014280661
0.00254040277315 -0.00720162779761 -0.0125027807276
-0.00227245906057 -0.00911618736188 0.00706728577858
-0.002233729225 -0.00944516756524 0.01453254811
-0.00236958235517 -0.00930975151511 0.0121906297011
-0.00263627173038 -0.00910936389517 0.00912530039254
-0.00221397740156 -0.0095033481952 0.0157741394946
-0.00244359217076 -0.00868644175737 -0.00194976075061
-0.00275062488832 -0.00915923265868 0.0109897977754
-0.00400505817955 -0.00762274850643 -0.01087810465
-0.0028027512002 -0.00889450372323 0.00560370179012
-0.00327867854936 -0.00818262643293 -0.00546233817464
-0.00270926597248 -0.00881618511426 0.00302442158799
-0.00398187986488 -0.00770438421054 -0.00931589664772
-0.00321721018504 -0.00866147544472 0.00439660819367
-0.00284627239318 -0.00822854087817 -0.00849956191595
-0.00295857524286 -0.00803897066432 -0.0115811908168
-0.00308286526134 -0.00820578719408 -0.00678612623497
-0.0035498351518 -0.00811433964932 -0.00441821516847
-0.00304853322291 -0.00861098220707 0.00172147109679
-0.00268863568745 -0.00867545389751 -0.000234389651042
0.000601748668116 0.0032449658051 0.0328909759195
-0.000352239215522 0.00431541588639 0.0329588254529
0.00167999932283 0.00808852656324 0.0221557447095
0.000412144756247 0.00654889746419 0.0286925256065
0.000849358886912 0.00722667751191 0.0258902561031
0.000552715196329 0.00559934453993 0.0321490355331
0.0019489864672 0.00835080400555 0.0210091584357
0.00258375487641 0.0091651481445 0.0175740407697
0.000241560218632 0.00595860136654 0.0310020802989
0.00158072480192 0.00578469687201 0.0291759803671
0.00313268756602 0.00798867412414 0.0202602954176
0.00173859634193 0.00631939082891 0.0276586355697
0.00156260613614 0.00684539340833 0.0266760253099
0.00251946892909 0.00870684879573 0.019166726293
0.00220177027976 0.00754846464037 0.0233937379168
0.00334785675589 0.00903130300227 0.0167954290229
0.00101470801044 0.00602478321546 0.0301888973644
0.00344068649538 0.00857062233544 0.0181245233311
-0.00450041702352 -0.00768466590792 0.0136909154226
-0.00395256796499 -0.00844445777519 0.0143926169986
-0.00441931667959 -0.00767450868897 -0.00115789687127
-0.00409168740547 -0.00802423588429 0.00147246609737
-0.00430111754411 -0.00762966746892 -0.00533427979305
-0.00379436988082 -0.00852504615108 0.00935724672932
-0.00429063199652 -0.0079689811194 0.00458386343568
-0.00600003261637 -0.00615461836255 -0.00883031602236
-0.00498552374646 -0.0069367326667 -0.00970112976088
-0.00501053074464 -0.00717015519824 -0.0021060744013
-0.00519566776714 -0.00685641159301 -0.00707260552251
-0.00430986881909 -0.00753318974896 -0.0080160579575
-0.0049916525893 -0.00727553644801 0.000599871679728
-0.00532624554186 -0.0068328394789 -0.00464997151202
-0.00616197350587 -0.00606920409823 -0.00750955413353
-0.00404551142817 -0.00820855725283 0.00589013840024
-0.00516376670072 -0.00692343153062 -0.00582844352313
-0.00522987509037 -0.00694637321068 -0.00355667927125
-0.0043495140046 -0.00788086869121 0.00335410638944
-0.00473268405559 -0.00754175361459 0.0023727468479
-0.00468205561111 -0.00764677933187 0.00915154762117
-0.00594163010627 -0.00610138113407 0.00760415732541
-0.00570951654333 -0.00646663973603 0.00298281001328
-0.00602750570901 -0.00620787352488 -0.00541819546467
-0.00600233495118 -0.00611726090191 0.0020203192471
-0.00627761697482 -0.00584820682314 -0.00250622876784
-0.00544930235911 -0.00676429486047 0.00461987337752
-0.00504055564512 -0.00725720524526 0.00564572244417
-0.00612958877778 -0.00605640532491 -0.00394494255221
-0.00512629301622 -0.00711238139034 0.00795669987476
-0.0056732571878 -0.00658252851185 -0.00132600909655
-0.00588835791328 -0.0062953391998 -0.000171010149853
-0.00463838591882 -0.00774072516137 0.00674403494563
-0.00612924817878 -0.00591680973047 0.00459213599927
-0.00522995864485 -0.0069528661119 0.00980025667863
-0.00433120704358 -0.00805420100501 0.0109874274592
-0.00575798442407 -0.00635063341837 0.00637053023548
-0.00335464848395 -0.00899399563579 0.0154588407697
-0.00369588445665 -0.00868426785825 0.0119896854671
-0.00303942901658 -0.00916144937242 0.013907324404
-0.00371948384853 -0.00853070073877 0.00822529143156
-0.00394197533226 -0.00797659765535 -0.00305413772128
-0.00376337151587 -0.00821298960052 0.000354441774155
-0.00314916515237 0.00534272104072 0.0255510020864
-0.00480847192705 0.0069056521433 0.0193289095405
-0.00446631273087 0.00696486370022 0.0206392081887
-0.00344259247649 0.00527707749523 0.0244262597484
-0.00285172836442 0.00494138342936 0.0266576745239
-0.00116397996293 0.00451753816631 0.0319888859334
-0.00162191277462 0.00437850089004 0.0306943398343
-0.002453859536 0.00475734553116 0.027982295468
-0.00175896037427 0.00521593937868 0.0298054890439
-0.00211132342663 0.00428569921263 0.0292789826169
-0.0040130725374 0.00654506229922 0.0222847140541
-0.00503579567261 0.00758945413523 0.0170802460087
-0.00466736669319 0.00754162951001 0.0183943973727
-0.00188776191513 0.0058336081578 0.0289205302766
-0.000901545821391 0.00568025846927 0.0312612524064
-0.00232125317393 0.00643202812377 0.0264856640223
-0.000693017036782 0.00533371112631 0.0325879043981
-0.003550228712 0.00731977521895 0.0214755546069
-0.00382392068678 0.00759759939025 0.0201025979947
-0.003152212293 0.00718013581373 0.0226425331085
-0.00163789062004 0.00644667679434 0.0277169332936
-0.0025814601896 0.00697655426113 0.024326450634
-0.00423543001369 0.00853246911465 0.0164154837996
0.0018616782123 0.0089807115689 0.00144578442197
0.00151194412255 0.00886975239443 -0.002152172703
0.0015763770697 0.00846050716222 -0.0103432248383
0.000250505039874 0.00872017849422 -0.00996492749541
0.00212179411442 0.00869686247986 -0.00342756049657
0.00104267487677 0.00946573665418 0.00836848765506
0.00156091969972 0.0091270922814 0.00333410830943
0.000889506009715 0.00882245490769 -0.00546105924449
0.000638440755874 0.00873880051085 -0.00812635554838
0.00176546774975 0.00856053683587 -0.00757292843174
0.00234604078369 0.00826091453951 -0.011569492944
0.00185197473686 0.00869268201868 -0.00452559138518
0.000553502758519 0.00911931133622 -0.000604288572551
0.00165154452388 0.00895373775763 0.000101922097533
0.00140679337372 0.00966010160972 0.0137390055557
0.00047238717624 0.00901378983083 -0.00308281300951
0.00119712063012 0.00871667642893 -0.00648704274236
0.00128044335303 0.00929167882802 0.00567363525533
0.000812472354773 0.00914558851726 0.000908366289111
0.00145644078482 0.00854012363815 -0.00915248085731
0.00212227397895 0.00923210068331 0.00784331791495
0.00202507307081 0.00939144126168 0.0107948289701
0.00251710166092 0.00889420819902 0.00246574286624
0.00249478432968 0.00902136795844 0.0050792022076
0.00217395142709 0.00954301143882 0.0147295171761
0.00245733222325 0.00941787573833 0.0133785440863
0.000299087004408 0.00923150312414 0.00194328290544
0.000225326638391 0.00935020171902 0.00497063255829
-0.00015475292088 0.009679815318 0.0133187028423
0.000834665080472 0.00941216147822 0.00676736971181
0.000948872803396 0.00974683752737 0.0154107785659
0.00112583976515 0.00961586719979 0.0121023838502
0.000488837505132 0.00927436744877 0.00310882479465
0.000140064990033 0.0095592336619 0.0103168046455
-0.000322858991425 0.00961688387873 0.016052940968
0.00061661551923 0.0085241551131 0.0208157274402
-0.000374917399516 0.00840473639394 0.0212936046673
0.000319082676026 0.00939811243745 0.0171822875674
6.88672506253e-05 0.00750058007858 0.0250550458561
-0.000195884232401 0.00805886239387 0.02273266527
-0.000226729039449 0.00776742306312 0.0239419678579
0.000827472163516 0.00879304984782 0.0197032586975
0.000217712378123 0.00905091405113 0.0186217930048
0.000326170539219 0.00697844383717 0.0271112674001
0.0014829495827 0.00941314975736 0.0170487890889
0.000889920589095 0.00764926531461 0.0242432491704
0.00230261634362 0.00955950676705 0.016151366332
0.00607594594739 0.00621717496918 -0.0105500000391
0.00609818184008 0.0062243708754 -0.0090759310589
0.0056960590432 0.00674665303452 -0.00301181604275
0.00569422703865 0.00671305501291 -0.00478863002645
0.00617553385015 0.00609052077862 -0.0119168028835
0.00252339120371 0.00239518856357 -0.0125039749247
0.00172943515745 -0.00112213652862 -0.0125036914081
0.00564641584275 0.00103907724221 -0.0125048059397
0.00593001279141 -0.000755729739266 -0.0125048501301
-0.00395149066258 -0.000363077910702 -0.0125021478053
0.00112799859634 0.000927030975641 -0.0125035648194
0.00299783046042 -0.000716910143966 -0.0125040468038
0.00234577523342 0.000486350440512 -0.0125038905097
0.00466350065313 0.00264100798021 -0.0125045663766
0.00499814100667 0.0039718150125 -0.0125046830367
0.00054932503066 -0.00295116307902 -0.0125033335858
0.00589642092409 -0.00437407431964 -0.0125047732279
0.00441853758511 0.000809689755454 -0.012504464944
-0.000402038876255 0.00160540392695 -0.0125031579488
0.00570895984984 -0.00216221278395 -0.0125047632017
-0.00129672704676 -0.00177823586471 -0.0125028493108
0.0010600021817 -0.00390919409668 -0.0125034556994
-0.000687231670612 -0.000886249807446 -0.0125030331313
0.00257475631064 0.005967811753 -0.012503914565
-0.00197550493987 0.0056582577071 -0.0125024475913
-0.00540389970171 0.00636355578636 -0.0125010177986
-0.0045981756231 0.0054901430832 -0.0125015984967
-0.000776415362886 0.00673062309512 -0.0125024915995
-0.000748371318834 0.00543024670753 -0.0125029253904
-0.00522597627404 0.00318617998811 -0.0125017776007
-0.00303901390577 0.00519482466423 -0.012502215075
0.00386299431672 0.00581220121621 -0.0125043677596
-0.00367229109247 0.0041332457825 -0.0125021531515
-0.00652460106972 0.00389078031049 -0.0125012618279
-0.00640314841029 -0.00102476129021 -0.0125014622634
-0.00285435938864 0.00167001957533 -0.0125024851518
-0.00751861362759 0.00164455212414 -0.0125012012894
0.00522154615787 0.0064556191129 -0.0125046104575
0.00497184260756 0.00755766412438 0.00203843561396
0.005293128294 0.00721677673701 0.000522048063086
0.00481187970706 0.00788586380768 0.010011122313
0.00474576366986 0.00800478267156 0.012544314148
0.00559554614338 0.00677727955058 -0.00630812157058
0.0044043273196 0.00825102299236 0.00887146344678
0.00417530338936 0.00859446363342 0.0145270207219
0.00511198616645 0.00748432061354 0.00480874748917
0.00367437153021 0.00834145893535 0.00212043408713
0.00388281604841 0.0081149397226 1.95913534536e-05
0.005100257064 0.00730928793637 -0.00188323870009
0.0038978767125 0.00802363607182 -0.0016338705466
0.00451819316752 0.00808399505746 0.00683217021133
0.00384298916587 0.00839563614956 0.0051785962361
0.00430543078124 0.00759130207382 -0.00552985907529
0.00304602412481 0.00816995392439 -0.00866681896767
0.00456861995603 0.0078744272989 0.00322251782597
0.00318281564824 0.00802045316912 -0.0100624828251
0.00374307092346 0.00859359937492 0.00797675010744
0.00527911690777 0.00681431263552 -0.00970978181279
0.00416884802963 0.00760774257486 -0.00679816002931
0.00348785711764 0.00796898384918 -0.00752548690021
0.00317205242421 0.00830838213846 -0.00441855581564
0.00422334131636 0.00736276722326 -0.0110697783707
0.0034487873243 0.00777883997734 -0.0117928388842
0.00423936500326 0.00769259094966 -0.00427296336945
0.00521374149131 0.00691872818032 -0.00838215459876
0.00405674526864 0.00755772723266 -0.00911180743392
0.00356738763469 0.00814172928008 -0.00313347180386
0.00336909622496 0.00846193890888 0.000963613759478
0.00144022298244 -0.00274476299915 0.0328434363787
0.000967546084416 -0.00375272619047 0.0326857005995
0.004252157853 -0.00549426055889 0.0256519553305
0.00266348970142 -0.0043014653937 0.0318555705855
0.00230995079477 -0.00221039637489 0.0320658846967
0.00128675189191 0.00414394963673 0.0321210316603
0.00176783811764 -0.00510582961115 0.0322655590031
0.00264782894842 -0.00516717488194 0.0309401501878
0.00327172979872 -0.00516491503256 0.0291357885338
0.00472554714729 -0.00592600730107 0.0237332630057
0.00327793666791 -0.00578570281646 0.0281473706384
0.00162213158848 -0.00141925407379 0.0327993534812
0.00132921339287 0.000726584062929 0.0327374530607
0.0018370594299 -0.000155944564749 0.0323344813197
-0.00715864776471 0.00446483574341 -0.0014789524637
-0.00656249470464 0.00572727080134 0.00268529056749
-0.00697248609661 0.00485723449538 -0.000444253399127
-0.00679834794488 0.00524706122319 0.00384068491784
-0.00712165518232 0.00448832858326 -0.00920949761441
-0.007472817049 0.00378183080598 -0.00625307112844
-0.00745444204665 0.00382854417429 -0.00498825433449
-0.00681372409144 0.00522300330926 0.00497190815964
-0.007127000393 0.00452265782816 -0.00259737163939
-0.00713687736916 0.004491397751 -0.00417317616661
-0.00697306798777 0.00481786916838 -0.00600304290031
-0.0067860299735 0.0052571246693 0.00159292349688
-0.00669797573332 0.00539442018624 -0.00495462476977
-0.00746760930402 0.00381268065828 -0.00332932427864
-0.0067225000696 0.00532960474844 -0.00700238596809
-0.00727454203507 0.00410804064212 -0.0104330898622
-0.00703058011225 0.00465139891291 -0.0115220687319
-0.00776265345819 0.00294696289529 -0.0101532167301
-0.00762832515222 0.00331370810348 -0.00901768291154
-0.00750545929274 0.00366973327123 -0.00745066715299
-0.00777505510115 0.00287136973615 -0.0113298130945
-0.00800909838472 0.00241031042188 -0.00821779930882
-0.0084336386483 0.00113839260668 -0.00633745509687
-0.00823465610832 0.00173446746271 -0.00737383535644
-0.0079946458254 0.00245481858647 -0.00576918464915
-0.00682882478331 0.00515212362196 0.00638179492759
-0.0074734002247 0.00371047165399 0.0016955115402
-0.00678414126203 0.00519445981679 0.00860604623103
-0.00641984641334 0.00601301636975 0.0111300255366
-0.00665485656242 0.00554329411728 0.00757819386691
-0.00673872667556 0.00525647344352 0.0102406848811
-0.0072877866105 0.00407635831782 0.00466912508429
-0.00731563801437 0.00395827500454 0.00630629067272
-0.00589656312277 0.00718717059238 0.0148097247479
-0.0075329363122 0.0035045414893 0.00366225504551
-0.00709540181316 0.00461050275625 0.00264320858265
-0.00763899294385 0.00336981308321 -0.000487886352893
-0.00730949825547 0.00414942582768 0.000500727834059
-0.00354139153289 -0.00810363826766 -0.0125311103332
-0.00558397319713 -0.00806039678503 -0.0126508930427
-0.00507522618857 -0.0108711831639 -0.0128878212832
-0.00446485009772 -0.00882879944379 -0.0126562144706
8.49999996717e-05 -0.00366187201716 -0.0203050987354
8.49999996717e-05 0.0015961626103 -0.0195342860904
8.49999996717e-05 0.00226578392109 -0.0155782120483
8.49999996717e-05 0.000436884156119 -0.0204063657342
8.49999996717e-05 0.00193263188445 -0.0168082533432
8.49999996717e-05 -0.00784046508232 -0.0183792105862
8.49999996717e-05 -0.00931940109604 -0.0203073879616
8.49999996717e-05 -0.000364487435118 -0.0178356744172
8.49999996717e-05 0.00111665336406 -0.0175608878612
8.49999996717e-05 -0.00239615505776 -0.0204928843118
8.49999996717e-05 -0.000960333485973 -0.0204849405637
8.49999996717e-05 -0.00549238953408 -0.0207289442967
8.49999996717e-05 0.00224671474316 -0.0143791467042
8.49999996717e-05 -0.00389731130203 -0.0191682910291
8.49999996717e-05 -0.0115053148813 -0.0207051330911
8.49999996717e-05 -0.00249637735924 -0.0189793878093
8.49999996717e-05 -0.000621502811006 -0.0151627455438
8.49999996717e-05 0.000691591382545 -0.0187243665376
8.49999996717e-05 -0.00577961217697 -0.0192338909859
8.49999996717e-05 -0.00567966031295 -0.0177698964313
8.49999996717e-05 -0.00250867323122 -0.0158385122669
8.49999996717e-05 -0.00448077433039 -0.0136222033232
8.49999996717e-05 -0.0109941600605 -0.0161645628029
8.49999996717e-05 -0.00297116051601 -0.0136674430172
8.49999996717e-05 -0.0113083472054 -0.0174213612527
8.49999996717e-05 -0.00542721902754 -0.0148665345058
8.49999996717e-05 -0.00930135981352 -0.0156967261304
8.49999996717e-05 -0.0116763736863 -0.0194958350111
8.49999996717e-05 -0.00712799057723 -0.015706214631
8.49999996717e-05 -0.00215993679238 -0.0146266891066
8.49999996717e-05 -0.00455804939635 -0.0156025853236
8.49999996717e-05 -0.00912592870318 -0.0138361281885
8.49999996717e-05 -0.0139955243957 -0.0173556969344
8.49999996717e-05 -0.0141340745408 -0.0185430334661
8.49999996717e-05 -0.0120527231259 -0.0151208588794
8.49999996717e-05 -0.0077232873578 -0.0172022629985
8.49999996717e-05 -0.00587052586769 -0.0138516399202
-0.0114558544952 -0.00506842222422 -0.0219160001725
-0.0106062183953 -0.002444415892 -0.0219160001725
-0.0115942138874 -0.00387526517422 -0.0219160001725
-0.00833508369232 -0.00631758003967 -0.0219160001725
-0.00632723830586 -0.00994957927381 -0.0219160001725
-0.0148726648058 -0.000643045332729 -0.0219160001725
-0.00782075440417 -0.00773394288646 -0.0219160001725
-0.00602970615727 -0.00862236826643 -0.0219160001725
-0.0104399720297 -0.00565210498205 -0.0219160001725
-0.00724142742136 -0.00905693247246 -0.0219160001725
-0.0133198644238 -0.004262581809 -0.0219160001725
-0.0108945480219 -0.00953459774 -0.0219160001725
-0.00923851866523 -0.0091451697656 -0.0219160001725
-0.00479161067771 -0.0120831941452 -0.0219160001725
-0.0116749426252 -0.00871775928143 -0.0219160001725
-0.00720832132479 -0.0123984066928 -0.0219160001725
-0.0077380476046 -0.0114167869783 -0.0219160001725
-0.00812750283352 -0.0103095320858 -0.0219160001725
-0.01524399966 -0.00199250871806 -0.0199239510329
-0.0128189505753 -0.00739997701668 -0.0219160001725
8.49999996717e-05 -0.00308872122301 -0.0216132243786
8.49999996717e-05 -0.0111144556008 -0.0218746792426
-0.000633100377308 -0.0135399034099 -0.0219160001725
-0.00398250301961 -0.00731020489045 -0.0219160001725
-0.00935011582964 -0.00238965187824 -0.0219160001725
-0.00660314587209 -0.00271141643155 -0.0219160001725
-0.00288370825399 -0.00493564314566 -0.0219160001725
-0.000912792796301 -0.0105105241906 -0.0219160001725
-0.00594516059622 -0.0074042804497 -0.0219160001725
-0.0113535394595 0.000298466175204 -0.0219160001725
-0.00189537949783 -0.00615775895954 -0.0219160001725
-0.00166334903105 -0.00866996531179 -0.0219160001725
-0.00841992436053 -0.00304492795131 -0.0219160001725
-0.00994877274399 -0.000958960974274 -0.0219160001725
-0.00762701777928 -0.0022376816954 -0.0219160001725
-0.00284642406229 -0.00890553533684 -0.0219160001725
-0.00150831743924 -0.00733906511422 -0.0219160001725
-0.0122317185443 0.000977939002032 -0.0219160001725
-0.00920411807653 -0.0061594963439 -0.0128063789038
-0.00943242428666 -0.00758862220499 -0.0129243030202
-0.00810917048734 -0.00662893636448 -0.0127356741733
-0.0108126880519 -0.00642347722706 -0.0129746877217
-0.00922966765592 -0.00911280282335 -0.0130083269371
-0.00836319243957 -0.00799701073464 -0.0128518785179
-0.0102500554023 -0.00550186888611 -0.0128597830165
-0.00694942978666 -0.00643607393552 -0.0126141559895
-0.01524399966 -0.000188241890529 -0.0165179317215
-0.01524399966 -0.00137646645348 -0.0179816582629
-0.01524399966 -0.000412375228617 -0.0186496204799
-0.01524399966 0.00136239506753 -0.015778345156
-0.00318356156533 -0.00125339811905 -0.0125059997663
-0.00372624024014 -0.00229329881575 -0.0125059997663
-0.00639934431514 0.00119060406748 -0.0125059997663
-0.00518639766986 0.000545953969389 -0.0125059997663
-0.00203426009087 0.00255707505981 -0.0125059997663
-0.00469240304276 0.00187943199218 -0.0125059997663
-0.00213404860604 8.12844051405e-05 -0.0125059997663
-0.00174952161653 0.00123579076251 -0.0125059997663
-0.00458427120993 -0.00153490081032 -0.0125059997663
-0.00446929939434 -0.00357172057649 -0.0125059997663
-0.00624936016808 -0.00308486778845 -0.0125059997663
-0.00582742438612 -0.00436987960342 -0.0125059997663
-0.00575968796269 0.00210724366148 -0.0125059997663
-0.0072111532218 0.000181853006248 -0.0125059997663
-0.000927657296605 -0.00470625007495 -0.0125059997663
-0.00337031284036 -0.00367213177037 -0.0125059997663
-0.00133977590676 -0.00647677900618 -0.0125059997663
-0.00365423849825 -0.00488332119399 -0.0125059997663
-0.00248699027641 -0.00248688125032 -0.0125059997663
-0.00507279584702 -0.00586063503494 -0.0125059997663
-0.00101374322555 -0.00308995286446 -0.0125059997663
-0.00246261207185 -0.00604155787042 -0.0125059997663
-0.000888789564322 0.000393192567375 -0.0125059997663
-0.00194892405968 -0.00377276160191 -0.0125059997663
-0.00338867071386 -0.00693823265869 -0.0125059997663
-0.00218096273441 -0.00736812734148 -0.0125059997663
-0.0105052291479 -0.00840276918499 -0.0131956146222
-0.0122333947488 -0.00587633604814 -0.0131571265396
-0.0120236474392 -0.00703143281534 -0.0134054844913
-0.0105679348156 -0.00940227715378 -0.0135076146366
-0.00819021912246 0.00189312658077 -0.0218683942154
-0.00127579329187 -0.00082655560098 -0.0216659873197
-0.00181480940229 -0.00193866916899 -0.0217566544699
-0.00177289887498 0.000409210887517 -0.021624126558
-0.000332123465851 -0.0061108487667 -0.0219084951404
-0.00627961934409 0.000497625435364 -0.0218613523151
8.08133143756e-05 -0.000265459913029 -0.0215619678446
-0.00263283289343 -0.00273747278548 -0.0218449272433
-0.00174037162539 -0.00337480261478 -0.0218323415208
-0.000214842738271 0.00131610831742 -0.0214900964388
-0.00333738972134 -0.00162132362935 -0.0218208493446
-0.00364683363801 -0.000519532278899 -0.0217763399681
-0.00675417543833 0.00184626601627 -0.0218120170274
-0.00479059716451 0.000736863823972 -0.0217680773874
-0.00527411086223 -0.000264898318623 -0.0218496395314
-0.00328396426786 0.00210293377037 -0.0216113320906
-0.000138800355473 -0.00190166592865 -0.021664554707
-0.00479471245104 0.00197590508223 -0.0216995481369
-0.000506234208683 -0.00487805807367 -0.0218494460223
-0.00148578997545 0.00229048544529 -0.0215043153413
-0.00738767832561 0.00087271078607 -0.0219000724986
-0.00285898253115 0.000860769437587 -0.0216574228299
-0.0117549848956 0.00224819568178 -0.0219160001725
-0.0037511167571 -0.0037647411112 -0.0219160001725
-0.0099032109251 0.000212802012148 -0.0219160001725
-0.00492243567514 -0.00203815077227 -0.0219160001725
-0.00606719905592 -0.0118092186756 -0.0130380333064
-0.00643474405198 -0.00919199716853 -0.0128120339679
-0.00762915469772 -0.00881621014072 -0.0128521062689
-0.00800080487622 -0.00985648117129 -0.0129748236162
-0.00673231894768 -0.0103022405288 -0.012936712118
-0.0144908198628 0.00303000002168 -0.015564596481
-0.0149793506076 0.00222780597313 -0.0149513673657
-0.0150939399624 0.000477075720702 -0.0148594670687
-0.0138181406601 0.0022699044047 -0.0135319173847
-0.0145420529798 -0.000750639102865 -0.0137604247316
-0.014536244287 0.000500898984035 -0.0138672656731
-0.0139824124419 -0.00635039390161 -0.0170819318137
-0.014161693919 -0.00588789899473 -0.0159018965193
-0.0136637961821 -0.00704217779364 -0.0159271349219
-0.0136964621388 -0.00705519236251 -0.0181427653854
-0.0123530899179 -0.00871340419154 -0.0147991777537
-0.0117467196583 -0.0101356518496 -0.0157137242174
-0.0131001036364 -0.00812043379843 -0.015689850506
-0.012649990767 -0.00883032708393 -0.0173913286509
-0.0126363042086 -0.0088761640146 -0.018592811532
-0.0127810010522 -0.00868406784193 -0.0197578905422
-0.0136992497159 -0.00701992180183 -0.0196112102362
-0.0132408329438 -0.00783926671533 -0.0205782979393
-0.0127175864303 -0.00878876038292 -0.0209917571767
-0.0137453181647 -0.00690500646766 -0.0210893699122
-0.00697750427128 -0.0131139861123 -0.0142081066987
-0.00816528586378 -0.0125212296645 -0.0142114138819
-0.0130551362771 -0.00669063588941 -0.0140178508752
-0.0117605628047 -0.00886606949836 -0.0138817706613
-0.0131795629508 -0.00564151484746 -0.0137207493969
-0.0141318091166 -0.0030319335734 -0.0138257894885
-0.0132313796773 -0.00420028754484 -0.0133846947445
-0.0143651199743 -0.00182875473911 -0.0138001131058
-0.0140796638868 -0.00459482882687 -0.0141872376958
-0.0137906132383 -0.00615550034755 -0.0147511512399
-0.0152102763341 -0.00154010267307 -0.0161574585321
-0.0150548269143 -0.00284051375831 -0.0160243877955
-0.0151494735796 -0.00229956160619 -0.0173598519886
-0.0151443147165 -0.00258350267344 -0.0185597175281
-0.0148029115323 -0.00397357496839 -0.0178855597213
-0.0150382492049 -0.00310948319625 -0.019928494157
-0.0145910492231 -0.00464002927352 -0.0216201156555
-0.0151572512059 -0.00266780120233 -0.0211986567357
-0.0145929041703 -0.00468637279167 -0.0189777532733
-0.0146613232261 -0.00441925755805 -0.0203669273079
-0.014186619563 -0.00595110368136 -0.0192496181493
-0.014418286406 -0.00518370885531 -0.0175398256778
-0.0147227206832 -0.00418882992092 -0.0156317173105
-0.0142611825899 -0.00576699930032 -0.0202705072281
-0.0148894691551 -0.00255000646826 -0.0148982320142
-0.0111279620677 -0.0101131221873 -0.014501246304
-0.0101237900326 -0.0109119693131 -0.0142812101945
-0.00560942659023 -0.0144180353795 -0.0213364730353
-0.00689838113503 -0.0137706428999 -0.0173259982608
-0.00657289267959 -0.0138877658288 -0.0158459882838
-0.00587533966041 -0.0142143187107 -0.0167365206712
-0.00600826387109 -0.0142194247462 -0.020187477159
-0.00599769512345 -0.0141972127246 -0.0187405350655
-0.00542444748428 -0.0138370173691 -0.0141019780993
-0.00161998426451 -0.0153400491033 -0.0183583826476
-0.00181069649314 -0.0153288632506 -0.0202586488257
-0.000727453086764 -0.0154429130881 -0.0215406675363
-0.0150416556611 0.0021160967627 -0.0219160001725
-0.01524399966 0.000801440947562 -0.0185393823171
-0.01524399966 0.0011896983738 -0.0203998538651
-0.01524399966 -0.00157769028373 -0.0210893290097
-0.01524399966 0.00217439180219 -0.0192098607549
-0.01524399966 -6.0208217076e-05 -0.0209159792061
-0.01524399966 0.00143761679665 -0.017494907093
-0.0151533141031 0.00263775140537 -0.0168146685291
-0.000963691982913 -0.013839015837 -0.0133957887214
-0.00337591456155 -0.0131576381856 -0.0132042520314
-0.00242000557698 -0.0125425158333 -0.0130537925358
-0.0105072027277 -0.0041785319722 -0.0128266949219
-0.00948559994063 -0.00249207870261 -0.0126652278588
-0.00823100335061 -0.00492285801796 -0.012656691508
-0.00797800255594 -0.00269634431696 -0.0125404594119
-0.00931559780912 -0.00390403142266 -0.0127097022999
-0.00703968838466 -0.00534606004906 -0.0125691331274
-0.0107640705381 0.00203951973789 -0.0127792240743
-0.00874556252719 0.000619395631263 -0.0125440322484
-0.00968162334352 0.00139826707594 -0.0126543021494
-0.00871037681143 0.00223961291719 -0.0125563718408
-0.0135547733199 -0.00026859831463 -0.0131765387893
-0.0136562546881 0.000862529803176 -0.0132544387842
-0.011485613093 -0.00110916744925 -0.0128372875485
-0.0127733961894 0.00213375796405 -0.0130025304755
-0.0117794060684 2.3486820447e-05 -0.0128774419742
-0.0133126069034 -0.00136852679402 -0.0130413311187
-0.00952517382649 -0.000228896712002 -0.0126221043084
-0.0107521617882 0.00044038893597 -0.0127644115066
-0.011708663916 0.00121197343147 -0.0128769096687
-0.0128774534111 -0.00301071018274 -0.0130246577582
-0.0108175393572 -0.00207906701708 -0.0127831477711
-0.0115699606887 -0.00290969921781 -0.0128842937356
-0.0121649319048 -0.00458797130236 -0.0129912098072
-0.00669426469885 -0.0138838166254 -0.0212527572983
-0.00733053913399 -0.0135655358018 -0.0194018121261
-0.0075757968557 -0.0134430117627 -0.0207520723795
-0.00103539753027 -0.0152650133656 -0.0152731481059
-0.00139738135255 -0.0153296909857 -0.0171322360802
-0.00215554205723 -0.0152690238475 -0.0157537204162
8.49999996717e-05 -0.0151957152918 -0.0151438893016
-0.00492405149256 -0.014611209352 -0.0182449816088
-0.00506468216394 -0.0145286628905 -0.0156915380956
-0.00259073080474 -0.0152158287619 -0.0167358051661
-0.00317317556606 -0.0151122459152 -0.0182927907968
-0.00346136242858 -0.0150304656559 -0.0198366795645
-0.00369063308065 -0.014978167198 -0.0171127901661
-0.00418943798088 -0.0148276246264 -0.0209548237556
-0.00306391433917 -0.015132550205 -0.0215231879991
-0.00864485305896 -0.0109114713925 -0.0133444880758
-0.00774788969767 -0.0118663177061 -0.0134380342343
-0.00899385527228 -0.0117649891267 -0.0140319897913
-0.000890644597096 0.00302824186367 -0.0177485770641
-0.000898601015873 0.00302824383603 -0.0155449399199
-0.00543000674008 0.00302936714793 -0.0138362549816
-0.00103377661407 0.00302827734535 -0.0131807164561
-0.00353970321659 0.00302889855152 -0.0143870117109
-0.00647945104945 0.00302962729971 -0.0134187837645
-0.00291105231797 0.00302874271223 -0.0179098288192
-0.0039425124196 0.00302899840583 -0.0159377362661
-0.00275544955297 0.00302870413912 -0.0154774574823
-0.00836542435814 0.00302927298354 -0.0201945313711
-0.00487644926569 0.00302884638429 -0.0197069100681
-0.00113250090603 0.00302825711 -0.0204811613558
-0.00626210895033 0.00302954651478 -0.0146640877899
-0.0123032470421 0.00302988357358 -0.0194709522403
-0.0081856583763 0.00302940801409 -0.0186201780558
-0.00516224066658 0.00302916878754 -0.0169104819248
-0.00736328626614 0.00302907740167 -0.0207752566038
-0.0118935317066 0.00302995604204 -0.0182043411717
-0.0104400002855 0.00302948537806 -0.0208916406026
-0.00481628549236 0.00302895220337 -0.0185817968634
-0.00949112416871 0.00302993815869 -0.015146654131
-0.00939422464175 0.0030295321157 -0.0190226462705
-0.00191784620847 0.00302845559837 -0.019579909159
-0.00991222781999 0.00303000002168 -0.0140810857428
-0.00878215850116 0.00303000002168 -0.0134820048887
-0.0133194973767 0.00303000002168 -0.0152823180049
-0.0120379398207 0.00303000002168 -0.0170384061966
-0.0031093703924 -0.0141538262968 -0.0137534046754
-0.00087044162043 -0.0148088532538 -0.0140577244991
-0.0021315060164 -0.0150201097658 -0.0144529302326
-0.00441948621115 -0.0143197099416 -0.0143856472292
-0.00357031496017 -0.0149879361166 -0.0153792086691
-0.00999790924453 -0.0118167402965 -0.0156066484506
-0.00932044322569 -0.0123789776844 -0.0169903641441
-0.00954518230747 -0.0122351954378 -0.0190869602217
-0.0100018305641 -0.0118493894372 -0.0177459033426
-0.0094606101693 -0.0122979692893 -0.0203513032801
-0.00826770651341 -0.0130424239022 -0.015739132386
-0.00841423073309 -0.0129872183971 -0.0195768419457
-0.00826622224861 -0.0130598142172 -0.0176573571891
-0.0120033490716 -0.00980500615931 -0.0189477998794
-0.0115110990413 -0.0103830774422 -0.0174204099647
-0.0115474573133 -0.0103466921567 -0.0198671941736
-0.0108567461091 -0.0110379165459 -0.0157054772328
-0.0117256603842 -0.0101683566844 -0.021074607051
-0.0104651096973 -0.0114288883596 -0.0193595031968
-0.0108010369772 -0.0110934940536 -0.0180247630266
-0.0103705491869 -0.0115241083927 -0.0166874213879
-0.0103861169881 -0.0115074141696 -0.0209593151335
-0.00243677151557 -0.00885702301539 -0.0125750710849
-0.000544604620237 -0.010144134035 -0.012714617906
-0.001271811879 -0.00882591469439 -0.012558042799
-0.00173271779635 -0.0115463223647 -0.0129095319905
-0.0036766291363 -0.0108265039041 -0.0128508631133
-0.0033809212594 -0.00963598022018 -0.0126919423893
-0.00348233061294 -0.011976589021 -0.0129959251582
-0.00256267027464 -0.0106293511447 -0.0128057722941
-0.000475395789789 -0.0123929568055 -0.0129966770024
-0.00458645090993 -0.0119383552876 -0.0130104518813
-0.00647716636433 0.0106492044157 -0.0331500906853
-0.00517309552669 0.0110043816347 -0.033181414837
-0.00383594554065 0.0123839777388 -0.0331256048272
8.39999993332e-05 0.00965145662386 -0.0260985683763
8.39999993332e-05 0.00807631573444 -0.0270909478087
8.39999993332e-05 0.00893661917759 -0.0316294016328
8.39999993332e-05 0.0119212640311 -0.0271703301865
8.39999993332e-05 0.0132651728361 -0.0251415265918
8.39999993332e-05 0.00971247264755 -0.0244400299145
8.39999993332e-05 0.00961413338651 -0.0271573707138
8.39999993332e-05 0.0109458299078 -0.0261928148132
8.39999993332e-05 0.00982662828182 -0.0285163764093
8.39999993332e-05 0.011940110689 -0.0250909909709
-0.00365670985028 0.00671195365893 -0.0229940004647
-0.0044794765906 0.00998942794059 -0.0229940004647
-0.0027853691306 0.00994489453054 -0.0229940004647
-0.00803194974477 0.0065160434189 -0.0229940004647
-0.00448632788207 0.0113998139663 -0.0229940004647
-0.00378082806339 0.00895501589742 -0.0229940004647
-0.00063130497234 0.0116703335219 -0.0229940004647
-0.00499267977964 0.00682135107606 -0.0229940004647
-0.00656172578759 0.00974671276719 -0.0229940004647
-0.00038236067741 0.00786104712362 -0.0229940004647
-0.000835223023861 0.0135080541785 -0.0229940004647
-0.00862735801144 0.0101286544571 -0.0229940004647
-0.00300007017361 0.0133910165952 -0.0229940004647
-0.00792771034004 0.00910218791443 -0.0229940004647
-0.006776899405 0.0120907802225 -0.0229940004647
-0.00558453398831 0.0124319046802 -0.0229940004647
-0.00410317532007 0.0126890097013 -0.0229940004647
-0.00777297013716 0.0109325183959 -0.0229940004647
-0.012615943059 0.0030310000293 -0.0286314540039
-0.0110759000706 0.0030310000293 -0.0319727631916
-0.0120992238464 0.0030310000293 -0.0322896677084
-0.013284335212 0.0030310000293 -0.0295763118422
-0.0123577848448 0.0030310000293 -0.0264476650211
8.39999993332e-05 0.0126943006784 -0.0290370496694
8.39999993332e-05 0.0109504405233 -0.0292677781519
8.39999993332e-05 0.0137843419006 -0.0321611501472
8.39999993332e-05 0.0143003499833 -0.0275453127785
8.39999993332e-05 0.0104162881969 -0.0322693951385
8.39999993332e-05 0.0144133988773 -0.0256035604165
8.39999993332e-05 0.0112644247898 -0.0303303873676
-0.0125297319662 0.00318421251204 -0.0229940004647
-0.0105872170056 0.00402709081014 -0.0229940004647
-0.00512563239415 0.00565333254379 -0.0229940004647
-0.0109179414003 0.0030310000293 -0.0263036463701
-0.0139544027255 0.0030310000293 -0.023196983881
-0.0116986412426 0.0030310000293 -0.0241650501031
-0.0147206266143 0.00409099217175 -0.0324699108907
-0.00227418386135 0.00910701527841 -0.033173297544
-0.00354544362106 0.00727083163243 -0.0331131993992
-0.00112506671854 0.00876771368964 -0.0330718078379
-0.00694159731581 0.00522066146071 -0.0331751892728
-4.86728136782e-05 0.00841860152695 -0.0329743026763
-0.00476840885572 0.00738307271065 -0.0332018139404
-0.00236812054712 0.00800133591534 -0.0330932518533
-0.000939060064601 0.0100035545076 -0.0331559860802
-0.00944430410457 0.00466234158877 -0.0332130007446
-0.00337376575072 0.00944550562092 -0.0332130007446
-0.00814345540861 0.00523194347162 -0.0332130007446
-0.00507007210826 0.00969982459674 -0.0332130007446
-0.00638441060518 0.00648123802745 -0.0332130007446
-0.00550941680788 0.00813593247364 -0.0332130007446
-0.00682551313346 0.00758960852216 -0.0332130007446
-0.00791366890499 0.00707627462398 -0.0332130007446
-0.0082794258116 0.00830274165105 -0.0332130007446
-0.00637253834195 0.0091884159448 -0.0332130007446
-0.00432657736216 0.00876614604607 -0.0332130007446
-0.00571138370468 0.00461772894951 -0.0277033321258
-0.00313862908821 0.00596209557814 -0.0245690634761
-0.00730346458294 0.00380274334028 -0.0287177628571
-0.00196855155338 0.00654720657027 -0.024579968574
-0.00805974574696 0.00340780051899 -0.0296257707297
-0.0024526109173 0.00632272956105 -0.0236152367937
-0.00340318051218 0.00580764801451 -0.0257765577755
-0.00124461410791 0.00708472677758 -0.0229940004647
-0.00498935589905 0.0051288828926 -0.0253236357603
-0.0095474664081 0.00360869246636 -0.0244670495358
-0.00739538045393 0.00451501752472 -0.0235895195337
-0.00860331275157 0.00382324304893 -0.025326585446
-0.00425516862512 0.00559552401575 -0.0239539202968
-0.00554312782741 0.00512290260171 -0.0240046743386
-0.00837551742002 0.00409404018341 -0.0240449531552
-0.00744818110203 0.00404602009517 -0.0266481882082
-0.00829681178904 0.00363096664876 -0.0273862235516
-0.00899361810643 0.00323834741708 -0.0283445061612
-0.00699879259728 0.00448472169993 -0.0247691736028
-0.00557672239773 0.00472330919846 -0.0266386801858
-0.0090562720388 0.00351383267225 -0.0263178948264
-0.0106381917014 0.00320058973789 -0.0245634443609
-0.0025022004251 0.00675576909085 -0.0329064720316
-0.00501397875883 0.00557948876467 -0.0330643904194
-0.00807750424636 0.00390272085457 -0.0329787012912
-0.00979118882121 0.00303155611153 -0.0330075448032
-0.00675063319402 0.00427847811441 -0.032612933265
-0.00414011394509 0.0054266817142 -0.0267303636328
-0.00456682514512 0.00520683457828 -0.0276882517593
-0.00686555240845 0.00402250052505 -0.0300109958648
-0.00604559885603 0.00444495121317 -0.0289213802736
-0.00922642625896 0.0030310000293 -0.0315936019992
-0.00133347907431 0.0073179303224 -0.0328389698871
-0.00404261042818 0.00571042312516 -0.032542767266
-0.0057650657967 0.00473490092038 -0.0324834392478
-0.000520517073531 0.00730582730049 -0.0245167065304
-0.00378747861116 0.00566837730906 -0.0308041866998
-0.0019821033606 0.00664539390842 -0.0317823198571
-0.00475660708451 0.00514492236568 -0.0303414185928
-0.000654158829157 0.00732704335838 -0.0302181704536
-0.00587855835222 0.00454914625206 -0.0304367055842
-0.00136538318062 0.00692118153021 -0.0285385559463
-0.00216525360443 0.00653004878445 -0.0306812934896
-0.00300433229367 0.0061019983625 -0.0318337205419
-0.00719389162498 0.0038622298287 -0.0312612981702
-0.00144613227518 0.00685358051641 -0.0270194157508
-0.00168883625305 0.00670819421961 -0.0260211559307
-0.00064363996019 0.0073582088628 -0.0317962363735
-0.00294946921399 0.00605374024335 -0.0270519373501
-0.000106589539546 0.00754387362525 -0.0256076604491
-0.00497769432539 0.00504917269655 -0.0316966793413
-0.00415733372522 0.00544398640984 -0.0291077882258
-0.00275484461169 0.00618241809491 -0.0285988690067
-0.0129336001428 0.00864029681867 -0.0274614066888
-0.0130885089316 0.00835020448988 -0.0251798151579
-0.0130754950576 0.00843729274976 -0.0289443895366
-0.012516054794 0.00935992695622 -0.0300625858701
-0.013496146004 0.00777573999797 -0.0299373333159
-0.0134368957421 0.00789162492838 -0.0310908036163
-0.00254219781274 0.0150170855775 -0.0328657128759
-0.00797214886787 0.013168069331 -0.0326198087715
-0.00407784029657 0.0140685548031 -0.0329583817798
-0.00513403922215 0.0134723314647 -0.0329383136688
-0.00568989605202 0.0121111857419 -0.0330542313729
-0.00824005096305 0.00975222827285 -0.0331168034849
-0.00681409956778 0.0125261194964 -0.0329061286699
-0.000733803918222 0.0153996078549 -0.023856768787
-0.00188743710724 0.015400465781 -0.0233732552811
-0.00195291459592 0.0154005144749 -0.0252588583179
-0.000150854614826 0.0153991743312 -0.0299432429773
-0.000574263352772 0.0153994892089 -0.0276427960768
-0.000825630273921 0.0153996761437 -0.0257119432125
-0.00158191768241 0.0153995943169 -0.0298765902141
-0.00144162177951 0.0153990961616 -0.0322200963801
-0.00109664904444 0.0153998384774 -0.028727969297
-0.0016865494219 0.0154002954465 -0.0265782178125
-0.0139092505599 0.00699703074285 -0.031433259778
-0.0146231305406 0.00537989317954 -0.0295685172117
-0.0143243074466 0.006004216315 -0.0308279658174
-0.0148364628751 0.00469962730838 -0.0308050731047
-0.0135383867058 0.00755108139001 -0.0236767889644
-0.0142088148154 0.00635172154849 -0.0265288449322
-0.0139108757009 0.00685952022006 -0.0247564536847
-0.0136380592819 0.0074558970175 -0.027140325969
-0.0137046821776 0.0072986893243 -0.025857601992
-0.0139916907957 0.00683261792391 -0.0287556414414
-0.0152073675046 0.00353038582128 -0.0304023446066
-0.0150297361737 0.00355232982046 -0.0247633690742
-0.0146143413795 0.0053995720045 -0.0283016400801
-0.0149192642617 0.00441812812337 -0.0285491249647
-0.014914345607 0.00427426101085 -0.0263259131957
-0.0150664950304 0.00384983564078 -0.0273567236323
-0.0146158789552 0.00530753234417 -0.027092649243
-0.0152302787025 0.00361206278821 -0.0315111269565
-0.0149242883389 0.00402220845707 -0.0233360113652
-0.0142924953775 0.00597457546659 -0.0239148399607
-0.0144238471648 0.00570679279725 -0.0251783630921
-0.00905505223226 0.0106040640698 -0.032938869911
-0.0093903892076 0.0116116131844 -0.0327892259539
-0.0105762680221 0.0112090043596 -0.0327020012121
-0.0122256909347 0.0097840926579 -0.0313093141669
-0.0127315480297 0.00893126712266 -0.0320426085132
-0.0134869531943 0.00735117398848 -0.0325126530909
-0.013645126782 0.00598469701575 -0.0327230024062
-0.0115397044764 0.0105634949518 -0.0320832850517
-0.0116681179892 0.010282824822 -0.0234677025014
-0.0118627723811 0.0101538139616 -0.0266755538518
-0.0123116552874 0.00938137156241 -0.0235651832567
-0.0122468878675 0.00965443138226 -0.0276675443039
-0.0124108070411 0.00932504503271 -0.0254620964802
-0.0117466219259 0.0102412817019 -0.0249391480634
-0.0111128072577 0.011014421753 -0.0262232845538
-0.0107335946927 0.011341496334 -0.024298171742
-0.0111006487258 0.0110954316956 -0.0284434959756
-0.0111900261425 0.0110243049141 -0.0296867962326
-0.0119857511586 0.010065391783 -0.0290129065339
-0.0110740722899 0.0111829833369 -0.0307316325563
-0.00906190971851 0.0127868615627 -0.0274126147786
-0.0085820948357 0.013075887689 -0.0252081088881
-0.0096619992392 0.0121687955498 -0.0234733590969
-0.00879548902081 0.0129537183374 -0.0263548642329
-0.00980150781964 0.0121742383059 -0.0264494980148
-0.00973835687165 0.0121696950449 -0.0250480278753
-0.00847875891331 0.0131077097495 -0.023939331357
-0.00906943461095 0.0127954641919 -0.0324300772273
-0.00916201040057 0.0127955076678 -0.0298364745916
-0.00881927348093 0.0129825167669 -0.0286227563585
-0.00845005124073 0.0132307326949 -0.0311583290392
-0.0103887299613 0.0118225417346 -0.0314168428997
-0.0101971008983 0.0119269409361 -0.0291422802325
-0.00980845621154 0.0122330001569 -0.0281851445962
-0.0101399327177 0.0120058473202 -0.0303148619732
-0.0105488590539 0.0115775323726 -0.0272025629632
-0.0105377505116 0.00578998542592 -0.0332130007446
-0.00934523939488 0.00687045696517 -0.0332130007446
-0.0106768966722 0.00422898359578 -0.03319033858
-0.0123380396892 0.00408216311295 -0.0330840347824
-0.0136045008893 0.00338974233275 -0.0329973603751
-0.0114718111728 0.00502433830314 -0.0331478609899
-0.00933646606408 0.00844405089729 -0.0331482140244
-0.0107138314608 0.00836542804456 -0.033003521243
-0.01074492853 0.0071719096171 -0.0331330264671
-0.0105812118651 0.00966552431047 -0.0328734528094
-0.0138919385637 0.00458966926022 -0.0328990577446
-0.0123469884419 0.00786013312902 -0.0328110727103
-0.0118212002893 0.00639081277073 -0.033044325718
-0.00597604663462 0.0143602677903 -0.0229940004647
-0.00360134418506 0.0147582284047 -0.0229940004647
-0.00486320766594 0.0148986523054 -0.0303746872445
-0.0029260614183 0.0153051507547 -0.0304148145279
-0.00235018918081 0.0153949359505 -0.0284010083578
-0.00362908031354 0.0151580253326 -0.0321466182762
-0.00453919770885 0.0149668543624 -0.0262974197227
-0.00326441113545 0.0152486679153 -0.0240090329919
-0.00357657124119 0.0151941785089 -0.025502948972
-0.00466073867878 0.0148974821848 -0.0237826759603
-0.00358327914033 0.0152235875348 -0.0275013059671
-0.00683882284507 0.014029685298 -0.0261463879108
-0.00694578569827 0.0139492206368 -0.0250136915814
-0.00650787130736 0.0141432538256 -0.0239674443978
-0.00725530636963 0.0138540577872 -0.0318506470057
-0.00592622224719 0.0144660058501 -0.0314650672102
-0.00656449319764 0.0142002158548 -0.0303072122698
-0.00764964141405 0.0136719006493 -0.0305350005766
-0.00649157239013 0.0142607786517 -0.0287593652064
-0.00740765473243 0.013761408331 -0.0277496716129
-0.00765387432364 0.0136520692834 -0.0292690105882
-0.00577133360032 0.0145076382177 -0.0257348602697
-0.00551742894834 0.0145869991647 -0.0245668357535
-0.00601787458038 0.0144431742446 -0.0276235767004
-0.00517810990194 0.0147625255423 -0.0282869965571
-0.00565030115954 0.0146021680564 -0.0296770665878
-0.00049775746041 0.0116365454074 -0.0331972175941
-0.0017287632265 0.0125322146095 -0.0331479755923
-0.0038906178254 0.0109080359038 -0.0332130007446
-0.00260475379166 0.0107480571655 -0.0332130007446
-0.00147976781469 0.0111188299488 -0.0332130007446
-0.000944680764665 0.0138644360073 -0.0330346878463
-0.00278863276123 0.0138460195653 -0.0330363106409
-0.0127008476674 0.00873516068527 -0.0162564096868
8.39999993332e-05 0.0132865168177 -0.0161269418267
8.39999993332e-05 0.0059897713899 -0.0182744237096
8.39999993332e-05 0.0103986554861 -0.0168131368252
8.39999993332e-05 0.00589467527691 -0.0144061618684
8.39999993332e-05 0.0111835373299 -0.015508867304
