0.004205814014681548 -0.0053995187154403865 -0.02904092743567782
0.0019697952289639904 -0.006456016441665635 -0.02807592378696299
0.008380106991787322 -0.0034317540902108158 -0.030168068435061507
0.00384384779644871 -0.005599533830868645 -0.024587459625268954
0.004897460746842943 -0.005089077363957299 -0.026915014853765143
0.0037674134009006203 -0.005628263875030628 -0.02564911037004012
0.002232739709882163 -0.006315022513012808 -0.030673099620239196
0.002933553768355441 -0.005993777674958407 -0.02951052082370226
0.006355472148241915 -0.004379802959745471 -0.030564952653266933
0.00388252576149033 -0.005541684564089579 -0.03047044000702224
0.0019070464086189214 -0.006497698778692676 -0.026264968670238836
0.009338720695357749 -0.005217561690547741 -0.03321100026369095
0.0007545975554848982 -0.00970103232430439 -0.03321100026369095
0.0013178079067271815 -0.008389712963357717 -0.03321100026369095
0.008241261744859759 -0.005615167669739563 -0.03321100026369095
0.003625525597852983 -0.008748365606565646 -0.03321100026369095
0.00260476154517175 -0.008009374906404368 -0.03321100026369095
0.005753765952340041 -0.0068223102146419325 -0.03321100026369095
0.006971973051588793 -0.006658950651000793 -0.03321100026369095
0.002248538386650799 -0.009567288990532344 -0.03321100026369095
0.0009236320339617586 -0.011001192382503947 -0.03321100026369095
0.004197861022850129 -0.007624697635692886 -0.03321100026369095
0.008339268820396014 -0.006805968588253214 -0.03321100026369095
0.011491337291632542 -0.00456410404254432 -0.03321100026369095
0.004009797895898641 -0.0097945572539599 -0.03321100026369095
0.010358995339437672 -0.004726073171169929 -0.03321100026369095
0.006090484644605292 -0.008205306514779093 -0.03321100026369095
0.007103575122653078 -0.0077574719775496065 -0.03321100026369095
0.009926027672134899 -0.007200541086675811 -0.03321100026369095
0.012005322821672722 -0.0034759738901850327 -0.03321100026369095
0.00565486369342523 -0.009614706967948625 -0.03321100026369095
0.015145000070333483 -0.0033451251285336672 -0.0234897874536753
0.015144065497076484 -0.003473689366366325 -0.026461187836376514
0.014773352204739241 -0.004786466079183886 -0.02488580513678505
0.014632926014735169 -0.005171356632800256 -0.02344041058122639
0.01509948967410353 -0.004037127299793051 -0.030766529609637067
0.015116788436830977 -0.0038171635190197397 -0.027932160504512436
0.014713777335794292 -0.0050648643384904055 -0.026282244537129573
0.014525208450758262 -0.005692865578809191 -0.027849466808214755
0.01471419768733508 -0.005236013368645064 -0.031794988603313826
0.014817939397300518 -0.004869157792475315 -0.0296055543908991
0.014085850926203056 -0.006615751486781072 -0.03217098927817382
0.014214286338107842 -0.006359698006321339 -0.029017669372944803
0.01372740285211877 -0.007333965391816456 -0.028540793665936155
0.014331516324556922 -0.006126160208904979 -0.025531056588637958
0.014321866137133779 -0.006146004424329781 -0.023677399247462885
0.013879762868762247 -0.007028405529305958 -0.031049965396105213
0.014316978033933572 -0.006153895526432593 -0.03020124962968309
0.014333017539263238 -0.006122774078334771 -0.026852528769067633
0.01383310310441273 -0.0071228573966054965 -0.024324873573744042
0.013354188359100929 -0.0080797960831783 -0.030165053981271842
0.013743709333950842 -0.00730147866089314 -0.02593245310685724
0.014470776038986218 -0.004776165406233945 -0.03277627310078835
0.013065327840335414 -0.004519751269984445 -0.0330732761359363
0.013460022682012518 -0.005805081045794194 -0.03298673340295896
0.014397517575780236 -0.003612891967042036 -0.03297380793879517
0.012901046929398537 -0.0072376982094483466 -0.032989829628304906
0.009761166482135321 -0.01145085330363062 -0.03290115589266367
0.011221935142553069 -0.006218520922082873 -0.03317788914864519
0.01239246016011409 -0.005747317329838972 -0.03309291709443668
0.010029396046530617 -0.010276745049239857 -0.033005984363819206
0.012053924044499332 -0.007989093257345651 -0.03303615086543702
0.010976876876932704 -0.007852712486487601 -0.033128554565483
0.009902951152757848 -0.009102240639207552 -0.033109665627090806
0.01094065776007596 -0.009405168607952576 -0.03300689205070993
0.012788549316357267 -0.008889157802689182 -0.032549171268006306
0.00090798895091444 -0.015526000410318375 -0.025166632175049983
0.0010026006001789566 -0.015526000410318375 -0.028308851942715527
0.0028344376110935056 -0.015251245280508823 -0.024119401072019507
0.0031480710556466094 -0.01513567440104404 -0.02302029492630685
0.002180112429381134 -0.015414949943355218 -0.02525626590608235
0.0010850990552450238 -0.015472917892090017 -0.023932732339529774
0.0017585431050417201 -0.015500682112299755 -0.02707405694389057
0.0013835496718910684 -0.015525721331752939 -0.029914340193422026
0.002940534631198638 -0.01524485000235782 -0.031152106961899503
0.002287588487342943 -0.015381096660717682 -0.029273383060171854
0.0018895496902307882 -0.015409592855846886 -0.03214692708378213
0.003910769972476647 -0.01505542622904284 -0.026740545631343225
0.00415503670317931 -0.015030494316421662 -0.03122781426721851
0.0034247973808651565 -0.015174422400005053 -0.029106493959311613
0.002803095903352611 -0.015301980865111307 -0.028117918112759703
0.0015494506568278074 -0.007055769253819269 -0.03295820889434823
0.004922305305375529 -0.0053896182927578185 -0.03284516537593362
0.006277450231616704 -0.004637030189526447 -0.03269322043663642
0.00019720727826373998 -0.007902392325378493 -0.03305752844591692
0.007227720316638784 -0.005208820130303426 -0.03321100026369095
0.003338180481009202 -0.006675836375486692 -0.03321100026369095
0.0043448277235432105 -0.006326692357520459 -0.03321100026369095
0.00900106566879524 -0.004017906596724491 -0.03321100026369095
0.007375339240541717 -0.01363971652641053 -0.032482697774250335
0.005893300425475822 -0.01428461337037296 -0.032342936613044146
0.004225176978095317 -0.014596891256131332 -0.032622343958876615
0.0017444842467917655 -0.01203068963305046 -0.03321100026369095
0.008174294828156752 -0.008768180634719448 -0.03321100026369095
0.005523970097731736 -0.011283119068343256 -0.03321100026369095
0.006870257656584764 -0.01030222135909874 -0.03321100026369095
0.004173512090675712 -0.01152342974753865 -0.03321100026369095
0.0028318256222095574 -0.011548830189881164 -0.03321100026369095
0.00767414689072266 -0.012151020256270323 -0.0330275393492698
0.008585255748492029 -0.011298795998082495 -0.03303178105004319
0.008538890753796448 -0.010228145824993679 -0.033117021658038745
0.001132327336280309 -0.0146460563290224 -0.03300356961205186
0.0024097806157733943 -0.012944697638754717 -0.03312988146131546
0.0036278517321215557 -0.012508623179708425 -0.03314413255507277
0.004995238210424857 -0.013842151276845146 -0.03295755398794138
0.0053496698731056135 -0.012463463644431662 -0.033097996924444525
0.0028884421465495344 -0.014134351644655905 -0.03300987211711344
0.006238975639281991 -0.013310337871699333 -0.03296700254260978
0.01219760466142682 -0.009631619229168952 -0.022725999355316162
0.010807793217957908 -0.011255545462698302 -0.029911805425431745
0.010298074943331629 -0.011764395562471034 -0.03106251872839877
0.01161548317579175 -0.010449200825545938 -0.02878427762262437
0.011315879563212472 -0.010748210520273027 -0.03137645511858845
0.011709356030678289 -0.0103555988838104 -0.02602866979306133
0.011039200799926562 -0.011024423152289697 -0.025505905478137275
0.010918226852550023 -0.0111453056565931 -0.026630799604396647
0.011550093282595117 -0.010514582130070477 -0.022846739626070756
0.006084334117490776 -0.014344345241739002 -0.026849535448584917
0.005064142074007821 -0.014729429784088172 -0.029880545304938968
0.0042041425129722134 -0.014982044238643164 -0.025288755449689632
0.004875371032543045 -0.014787869151411514 -0.02836641168260668
0.004952237991620876 -0.014748532801530725 -0.026922075428171304
0.004183582645483791 -0.014976279175550293 -0.023963780212898505
0.0053024809337359115 -0.014616186778958531 -0.025267864486066008
0.006191637777496698 -0.01426149644174158 -0.024001023416594575
0.007281672302052384 -0.013682908913830831 -0.02299763597451489
0.00723385483929253 -0.013772709180785669 -0.02497878658287631
0.006367821895166962 -0.014233326480555152 -0.02580392134306193
0.012137391695440938 -0.009846728736676627 -0.03252724580346466
0.012941067961415854 -0.008745749112580187 -0.03132236439291862
0.013085054455078291 -0.00852983623393591 -0.028436064052230925
0.013182112385523045 -0.008384294408278894 -0.026866108834434035
0.013130091210443732 -0.00846230201424342 -0.02421100966951308
0.01277944983382922 -0.008988101254650806 -0.02954999618535118
0.012374056495189474 -0.009596003013368033 -0.03101832716593457
0.013127666212867239 -0.008465938384531548 -0.0254154500502301
0.011793009754596257 -0.010271915616733471 -0.027208807981911047
0.01197751602191647 -0.010087054156895266 -0.029926999553640445
8.499999967170879e-05 -0.006788687444345276 -0.016222455618500033
8.499999967170878e-05 -0.005908397905143037 -0.021165474346419584
8.499999967170879e-05 -0.00472357138922405 -0.0149752603801088
8.499999967170879e-05 -0.01087239058011668 -0.019201251726014022
8.499999967170879e-05 -0.007532833621501192 -0.018230196847875666
8.499999967170879e-05 -0.010565730330644176 -0.021964072313090704
8.499999967170879e-05 -0.006451142947831547 -0.019155347841641104
8.49999996717088e-05 -0.007173919852289182 -0.021188076096744824
8.499999967170879e-05 -0.003856442706266539 -0.013348593367479122
8.499999967170879e-05 -0.00550793831289675 -0.01588766546350724
8.499999967170879e-05 -0.004825019700247098 -0.020707017423640447
8.499999967170879e-05 -0.003711363819378205 -0.01747054713867596
8.499999967170879e-05 -0.006833393076922 -0.017268056860318643
8.499999967170879e-05 -0.011763443254515355 -0.01821485939806452
8.499999967170879e-05 -0.01007485488933824 -0.015637020146695026
8.499999967170879e-05 -0.014049501411144853 -0.016868536578124527
8.499999967170879e-05 -0.011970308472351084 -0.014160271745208836
8.499999967170879e-05 -0.0055235970365336605 -0.014070889763596293
8.499999967170879e-05 -0.012655332427837333 -0.0163129477312923
8.499999967170879e-05 -0.012120319605180306 -0.01930454119342765
8.49999996717088e-05 -0.007703950736009543 -0.014768586354624436
8.499999967170879e-05 -0.012871790534902682 -0.015109230476092065
8.499999967170878e-05 -0.013410789523010423 -0.014024117326674218
8.499999967170879e-05 -0.014393910164415453 -0.021500621965627645
8.499999967170879e-05 -0.011616476196181233 -0.015242199259127068
8.499999967170879e-05 -0.009344189647026721 -0.01691856312797411
8.499999967170879e-05 -0.00977620035328532 -0.013650571882848874
0.0006401917331517546 -0.004182137027575121 -0.012505000457167627
0.0026359440655621077 -0.005201148705657481 -0.012505000457167625
0.002682126730437942 -0.006318416637271716 -0.012505000457167625
0.014242408433409402 -0.0031560000497847795 -0.018166655219634856
0.01198715957141065 -0.0031560000497847795 -0.022404606864202502
0.014479213910327124 -0.0031560000497847795 -0.016874375144659205
0.015065858616623703 -0.0031560000497847795 -0.022058636592191257
0.0035162779368023006 -0.003156703308804636 -0.018589918038458803
0.0009203147152548039 -0.0031569278165396075 -0.019756653246700923
0.0033020909341141477 -0.0031567218324256305 -0.020971654469527694
0.0008740825641494181 -0.0031569318148533896 -0.014680458492376812
0.004406171111678624 -0.0031566263478140484 -0.017138164898955654
0.006447040231795276 -0.003156449846506276 -0.01866951499507708
0.0011310938002687045 -0.003156909587646932 -0.020953682284098343
0.006293415935118193 -0.003156463132458325 -0.020887238641256176
0.009017461694258455 -0.003156227547709563 -0.02170262004375741
0.005182716240840326 -0.0031565591895482436 -0.020735214124178437
0.0006433024861587013 -0.0031569517735000135 -0.018510494991033605
0.003445755533746606 -0.0031567094078220805 -0.01614644588743438
0.0010544822514969403 -0.0031569162132744234 -0.016171933030548938
0.0049559418142282215 -0.0031565788017725023 -0.018554299969046402
0.01039282315536781 -0.003156108601769251 -0.021955644623346926
0.012129434448604193 -0.00793894663165039 -0.022724999114871025
0.013864041190922625 -0.003348543345871686 -0.022724999114871025
0.013906335106965588 -0.004558658406758045 -0.02272499911487102
0.01194811950921734 -0.00449431844872521 -0.022724999114871025
0.005477292951080308 -0.01418231172235131 -0.022724228688505415
0.0068507429825446844 -0.013889836876515002 -0.020587369073351895
0.007741510712247072 -0.013444618683258802 -0.021952988985811016
0.006420175408208615 -0.014105040583529238 -0.018452870711758045
0.006286010209418881 -0.01417209822988446 -0.02178820661488413
0.0020842491479841512 -0.011117093253958404 -0.012871841660273215
0.0013888568830584447 -0.009115336524388208 -0.012587989409917146
0.0026336882099818543 -0.009503613091246314 -0.01267365034959169
0.0050019380518249845 -0.011339892546120382 -0.01298174548954056
0.003447870011909532 -0.010455544418313433 -0.012821966146776683
0.0007591436298473325 -0.0116368227453275 -0.012904027235952499
0.012153369925088654 -0.006678612373642231 -0.013441263594079265
0.013169244351193675 -0.004094951238399378 -0.013408686457162516
0.01244971307660097 -0.00523600848738054 -0.013340911791762755
0.014128815328205901 -0.0036515149583002957 -0.014016157149859848
0.012382033559429115 -0.0031560000497847795 -0.019107635473004682
0.014756747135836298 -0.0031560000497847795 -0.014866434100500207
0.01348023670675353 -0.0031560000497847795 -0.017237487230364824
0.006342056377923512 -0.0031564932087117695 -0.015373301709378343
0.004286956844850285 -0.003156665524827375 -0.013977431571906153
0.012643538524703986 -0.0031560088046796086 -0.016239735674828077
0.01209269184425079 -0.003156079367342782 -0.013972881435200587
0.011620555237303811 -0.003156020003383763 -0.021335671729497817
0.008511462403468542 -0.003156323077596857 -0.01593293381001186
0.005594237870953618 -0.0031565759122662565 -0.013312358668550177
0.0022735900360127156 -0.003156810868746897 -0.014432555521779923
0.012010085096074414 -0.0031560050064563206 -0.020228630824168738
0.007897043194651777 -0.0031563362452695504 -0.018493450693896112
0.002302373699941213 -0.003156823857823203 -0.013256118710310604
0.010698508778197686 -0.003156164871076203 -0.01546376676561268
0.010316644204575356 -0.0031561630092296475 -0.017835170551705998
0.005895196485121838 -0.0031565000755322224 -0.01744595395570178
0.012618847554645636 -0.0031560260967153273 -0.015041015417293212
0.009485852533897596 -0.0031562427828965216 -0.016485585565310254
0.01017194282472207 -0.003156137276278289 -0.0206771246499447
0.011747983766392599 -0.010075376062502441 -0.015241287370835098
0.009354623236154855 -0.012313585225721724 -0.015261485803877624
0.0019221508937320322 -0.008042715540664465 -0.012505000457167625
0.004158186993684876 -0.006150347049632172 -0.012505000457167625
0.008561201812789222 -0.008588257815026645 -0.013000977553708975
0.008383874627208483 -0.009756950348379912 -0.013093839979447179
0.009746865012419583 -0.008599810060914736 -0.013142759778329877
0.0067986030528383624 -0.008868155684945603 -0.012819157176707924
0.007240045953116296 -0.0070683434174435116 -0.012696119123469088
0.00709224594098518 -0.009920644376152678 -0.012956566191371829
0.008373587143641916 -0.0072921575833039525 -0.012852404774091115
0.004656349410886097 -0.007657119681670848 -0.01259919638324115
0.004847448029531854 -0.010089129464550314 -0.01283127963973527
0.0034045181707282783 -0.00829161181898091 -0.012594732207467672
0.00603454022805104 -0.010892430078803644 -0.012964074325739587
0.006063047296379893 -0.007795391116304756 -0.012682106405527398
0.005091363788011358 -0.008876122128443903 -0.012732466905938666
0.005346412129924475 -0.006686649359272732 -0.012544859616564789
0.013295826166937514 -0.005974775432355513 -0.013979949032745496
0.011548514418123688 -0.007732135743659512 -0.013401072971994653
0.014300037166354614 -0.00473689021754791 -0.0145865804422354
0.011226544493376015 -0.009693271288090874 -0.01400146403193451
0.01299313665934828 -0.007151564034600788 -0.01422798471196263
0.012411824992616779 -0.008442251715526431 -0.014468005747921332
0.00971972451584388 -0.00999630649339776 -0.013341205615013523
0.007634872973025614 -0.011206690812898075 -0.013244342909705688
0.008484384424197838 -0.011780560218462768 -0.013775870398141793
0.01025456884574435 -0.010827707347372678 -0.014149159825236705
0.012745270812552797 -0.009040133513757476 -0.021918129657610246
0.012988162556147544 -0.008676247268408183 -0.015735545276630142
0.01283184544127497 -0.008910432453845032 -0.01899070853735178
0.013817213733517068 -0.007117889465731487 -0.020744221682642307
0.013351980555648978 -0.008034427053091823 -0.018304057893261404
0.013598875974223207 -0.007556805593838791 -0.019259751888418643
0.01322840613373809 -0.008209982268720677 -0.020280241965251744
0.01330144820515092 -0.008028048193963815 -0.022133603825083618
0.01399050985863385 -0.006076684203063375 -0.014840157823152776
0.01344971136608457 -0.007492594839240945 -0.015237908710210118
0.0004333724663016505 -0.005372219324001516 -0.022035358089942676
0.0004726591769631523 -0.0041936395193793805 -0.02158651175991845
0.0008070000014907952 -0.006599176435549572 -0.022582861719490376
0.001627500662102871 -0.005257700433419714 -0.022222134871248408
0.008348475578528398 -0.003606533374915507 -0.022458390058206105
0.006743542797868866 -0.004414174575058882 -0.02258258113168881
0.004477965291147964 -0.004130939103750921 -0.02214387846806968
0.003148359585973189 -0.004622134643454571 -0.022170022011388287
0.0034774035066589292 -0.005690244417959242 -0.022676767350001764
0.0018880680648750729 -0.00413811455429113 -0.021785147508480596
0.005967002812211246 -0.003292890996582554 -0.02199037868910792
0.00027230011551974064 -0.015409269199623581 -0.01604664438078087
0.0018774892122550289 -0.015343733286222412 -0.015958660636499804
0.0019025164422509888 -0.015365214342402986 -0.02147975766578108
0.00028002219552988346 -0.015514049083110427 -0.02115991714791137
0.00113818231133951 -0.015440559082166934 -0.020121006796435408
0.0023336040947389614 -0.015320397789462457 -0.01956629384908084
0.001960229602147965 -0.015352550961403841 -0.017500833548942843
0.0024846482589669415 -0.015299472800170497 -0.01843853003990879
0.0010746184628982153 -0.015452732086563262 -0.018532182136685005
0.015085503694238576 -0.0035056772914517165 -0.02097711247508933
0.014773902722164726 -0.004716712856952684 -0.020781761477921594
0.015003851504474825 -0.003974897699109884 -0.019832824634804957
0.0148149290304208 -0.004458998247014091 -0.02179867083018217
0.014940260225591376 -0.0043665860494457856 -0.01833014698851776
0.014912180203288335 -0.004219392258466964 -0.015687500454803858
0.014416664655065015 -0.005909156284726367 -0.021690717488292516
0.014168692326395319 -0.006325664922557744 -0.017255061473125485
0.014785744211588157 -0.0049634965868455795 -0.0168237835484933
0.013903676363263315 -0.006935564794991581 -0.018315807174906405
0.014348645551410397 -0.0059934773163484965 -0.019420265290740098
0.01378987167167269 -0.007123982769173672 -0.0161838055525241
0.013477062577509177 -0.007831227120279956 -0.016990613250136673
0.008349401334806104 -0.013022682726333758 -0.01532569633030523
0.007041245639482047 -0.013740990585813694 -0.015790506725727575
0.01030473921428793 -0.011592786454191036 -0.015469632956098343
0.010635115227982212 -0.011428349235189376 -0.021778282047440083
0.009896369190563348 -0.012027652408935198 -0.01905978996741243
0.009736897976065995 -0.01213439517227524 -0.016467382001262697
0.009045610892758255 -0.012653186151332454 -0.021128282786366782
0.008737707564573911 -0.012871229008853256 -0.022371627270758563
0.00950597452878641 -0.012317812239696338 -0.02018331149461309
0.009030066260455088 -0.012697450520875852 -0.0179454881955239
0.008734247838707833 -0.012879702205239516 -0.01919093348785151
0.007890761553045206 -0.013346959072459124 -0.019886747131105616
0.008933069284973009 -0.01273478691394475 -0.016827250116364448
0.006065690886329162 -0.014279853288094353 -0.016451043026573065
0.00730704094289396 -0.013627678974453099 -0.017671375520117813
0.0020178201408753084 -0.013950573738015164 -0.01348307434977393
0.0008213692023626236 -0.013148998431248254 -0.013165973333552699
0.003174445758121989 -0.013214882458126185 -0.01325213366757884
0.003818638635968366 -0.012349745540114428 -0.013103460978514433
0.0017968672559773237 -0.012616774267602326 -0.013072019604079681
0.00488834962117596 -0.013225995485962526 -0.013479239407323113
0.006776048455152737 -0.011912001470515523 -0.013293260605797549
0.010568868156710938 -0.003546122834140655 -0.01287346162538186
0.010751486664344383 -0.006220309044678097 -0.01309555194290752
0.008481134639367307 -0.006004053475535738 -0.01275782146513542
0.009798777638031244 -0.005530066109838941 -0.012907210785924036
0.011695371311838511 -0.004104355075532389 -0.01306442482338989
0.008098555904409815 -0.004933696290516593 -0.012620508871884827
0.010382397747636853 -0.007575622317111166 -0.01314877584543688
0.009310411781431983 -0.004570860096236125 -0.012763588768190316
8.499999967170878e-05 -0.011865600593172296 -0.022289830596646142
0.006880099066484247 -0.011782502627513706 -0.022724647578817855
0.0009506058238557536 -0.013072179327065522 -0.022724083136161602
0.0009130608251485175 -0.008565593113154598 -0.022724079562163293
0.005702318507313788 -0.010534801019196233 -0.022724535463066964
0.007368645636310109 -0.010603912457597679 -0.02272469408473536
0.0020191676541972212 -0.013843190289993255 -0.022724184855120236
0.0011247332260248101 -0.010518213134061032 -0.022724099711765852
0.002088047334802319 -0.008793186792036518 -0.022724191411941923
0.0045500806186855505 -0.010429353704410132 -0.022724425778784026
0.0034250478779107568 -0.01179642427596419 -0.02272431868422424
0.00650380161939846 -0.00960345903087258 -0.022724607971109298
0.01051185346744847 -0.00473679128340521 -0.022724914560927956
0.0033508775903732294 -0.006869644070868275 -0.02272429004249747
0.007833636177609448 -0.007729406509509724 -0.022724706661594433
0.010019102154803006 -0.009466839706703272 -0.02272492519309535
0.009106083585953871 -0.004778140004791256 -0.02272478754836297
0.007130970523302065 -0.005742805961348105 -0.022724619698300343
0.00976250497996285 -0.005938441015692155 -0.02272486065321577
0.011163915499846001 -0.0057798698765496506 -0.022724985899386395
0.009090769270540049 -0.008645111159306662 -0.02272483138716575
0.008348246920264457 -0.009590147763797699 -0.022724775097226313
0.00631688439394907 -0.006823058053058887 -0.022724558499357957
0.008927826524774692 -0.007153304059972842 -0.022724799161051322
0.011545811695444361 -0.010429621263202252 -0.02174934768472911
0.01214004559122277 -0.009833402223478765 -0.019550374692065144
0.012595262646491157 -0.0092436499054663 -0.020651584495522297
0.012430018728633056 -0.009463975002143415 -0.017472281249478958
0.012075805246400152 -0.009878053977592281 -0.016271683167264503
0.011460340370166664 -0.010603301773221451 -0.01698758790681619
0.01085800748531134 -0.011206294689950507 -0.020426921187143468
0.011025301544373655 -0.011038406648115909 -0.018756642888873295
0.0030534995440572614 -0.014468573696942585 -0.01407205312077332
0.0010373014619940934 -0.014620141794917335 -0.01393191971065381
0.0011446129737415105 -0.015241206694586944 -0.01493900726149903
0.0027030035003923923 -0.015067953213312633 -0.014982310536864867
0.004883502673220057 -0.014731481901758749 -0.017776623939057656
0.00504920761602461 -0.014676315440506843 -0.01912748844630453
0.005661668338658815 -0.014472415121351211 -0.020186256479469183
0.004354583085012743 -0.014862740855305378 -0.022716764102015525
0.004982359100941026 -0.014684959079857167 -0.02128541694792208
0.0039221236002977364 -0.015020858302937173 -0.018961233373884313
0.003799471901698541 -0.015064249848240677 -0.017536825183813595
0.003164312259804552 -0.015214065106341662 -0.020361303626184383
0.0036229619475087677 -0.015091262784989186 -0.01637961298019553
0.0030107582813845186 -0.015255663603523043 -0.02175875557570455
8.499999967170879e-05 -0.010706265485323557 -0.012845493353628838
0.0058303001266550945 -0.014299314550875138 -0.0153308578614386
0.006655244977800371 -0.01329211720171568 -0.014042805344311465
0.004940216671864361 -0.01421450195958383 -0.014312742111405534
0.004595917555526653 -0.014773997456701875 -0.015520091326354873
8.70000003487803e-05 0.012617333940926838 -0.01888760446985652
8.70000003487803e-05 0.009062116451841901 -0.018323322657177343
8.70000003487803e-05 0.01415560775009124 -0.01651455712297758
8.70000003487803e-05 0.007774458376325357 -0.021833862469474826
8.70000003487803e-05 0.010621899100625335 -0.02070408010215697
8.70000003487803e-05 0.012760691762823372 -0.01730327642181119
8.70000003487803e-05 0.01087229452226477 -0.017758803422517948
8.70000003487803e-05 0.0054310699663915945 -0.021322033269643107
8.70000003487803e-05 0.005492352817616636 -0.020116644756663637
8.70000003487803e-05 0.0064467783683596225 -0.01736794215490981
8.700000034878029e-05 0.01328792977551955 -0.01574691759883444
8.70000003487803e-05 0.004453157134045008 -0.018323936576687787
8.70000003487803e-05 0.014187547208813487 -0.014828982985850508
8.70000003487803e-05 0.009645541244306381 -0.019834576390555855
8.70000003487803e-05 0.010490990237014938 -0.015399480081543519
8.70000003487803e-05 0.011045494652191956 -0.019201031423068376
8.70000003487803e-05 0.010937142183482611 -0.01654000731967959
8.70000003487803e-05 0.011553991854587801 -0.021578216873432584
8.70000003487803e-05 0.012914886976136549 -0.02208817289150039
0.0029003520889506304 0.01163222490740262 -0.022993000224232674
0.010810273608016088 0.005362130582699545 -0.022993000224232674
0.0064835303627427815 0.004838880876968006 -0.022993000224232674
0.005518787976754694 0.006154316486844615 -0.022993000224232674
0.009665660090805921 0.0055534004735861165 -0.022993000224232674
0.004558875799441508 0.007699785732390391 -0.022993000224232674
0.0076545394085446705 0.0049317110326759245 -0.022993000224232674
0.013036952742396883 0.005929341138103516 -0.022993000224232674
0.007532406777605868 0.00870713958578842 -0.022993000224232674
0.006399309219823274 0.007082420647688689 -0.022993000224232674
0.011944015054899426 0.005118320886772203 -0.02299300022423267
0.010115570415138435 0.004409575203656457 -0.022993000224232674
0.008641091871383528 0.0018349830203463432 -0.022993000224232674
0.00407544582540463 0.008913895147531482 -0.022993000224232674
0.007452256797652124 0.0073994238322756135 -0.022993000224232674
0.011806814644969698 0.00395256173338051 -0.022993000224232674
0.013032726622346714 0.004477659824894476 -0.022993000224232674
0.00543075261265012 0.008532766829787137 -0.022993000224232674
0.004198516170752366 0.011715359315392197 -0.022993000224232674
0.00471427866745951 0.010352451437135068 -0.022993000224232674
0.0023852179943530147 0.012834353314877176 -0.022993000224232674
8.70000003487803e-05 0.00877742199790969 -0.01356012711536062
8.70000003487803e-05 0.007314325202544033 -0.01451696709966369
8.700000034878032e-05 0.005888513926127557 -0.016198742481584993
8.70000003487803e-05 -0.0021145521377672997 -0.01473860742151758
8.70000003487803e-05 0.0016818578560472497 -0.017047517955860642
8.70000003487803e-05 0.010943888111929527 -0.013581929111501766
8.70000003487803e-05 -0.0008700388380039911 -0.015481026472942635
8.70000003487803e-05 0.002571374233098615 -0.018551072677618283
8.700000034878032e-05 -0.002045028390369266 -0.020561361199306863
8.700000034878032e-05 0.005092744177314049 -0.015411888852616535
8.70000003487803e-05 0.009935183335137732 -0.014287963458172338
8.70000003487803e-05 0.003984866333547096 -0.016892312235219045
8.70000003487803e-05 0.002908305901507384 -0.01566256559851072
8.70000003487803e-05 -0.0006244591334961496 -0.019224152238566952
8.70000003487803e-05 -0.001055778271305831 -0.014283973268900548
8.70000003487803e-05 0.000281527660596207 -0.017463969372649706
8.70000003487803e-05 0.004006543228924033 -0.015464564223162454
8.70000003487803e-05 0.0018093865847831976 -0.01567843340580171
8.70000003487803e-05 0.0027536997271077413 -0.017450055596087467
8.700000034878029e-05 0.00695673825907761 -0.015562361976722693
8.70000003487803e-05 0.0011090863888648256 -0.014187917679546101
0.013830580302609865 -0.001314131808208236 -0.022993000224232674
0.011684107923602017 -0.0012067430094947155 -0.022993000224232674
0.012781291356991707 -0.001855141858692163 -0.022993000224232674
0.011817759913972105 0.001576104939536227 -0.022993000224232674
0.012794294683683823 0.0022560380910900827 -0.022993000224232674
0.014060693541624966 0.002815426078264749 -0.02299300022423267
0.011676256067110036 0.0085024934613769 -0.022993000224232674
0.0075841953546165325 0.011321088767472513 -0.022993000224232674
0.009229688117146917 0.010084434113538732 -0.022993000224232674
0.006593697760727001 0.012546809218308102 -0.022993000224232674
0.008754435241975389 0.011455267868214785 -0.022993000224232674
0.0038619506555599347 0.00190817336411611 -0.022702835377094686
0.002767778515179772 0.0028050299716021595 -0.022655080218367672
0.0024324128616763463 0.004472032460263739 -0.022884244476476173
0.0009515140769308747 0.004653082119528451 -0.022638737197651825
0.003524765566913951 0.00042965232169235937 -0.022380782825492496
0.006400358070916363 -0.0005847459937952545 -0.02274142309407405
0.0023624385570647846 -0.0021684151227177612 -0.021708202709014753
0.0023273880595600137 -0.0007447786115962103 -0.021950963258932452
0.005232497382822803 0.0020732810531853526 -0.02298830808617402
0.0036425529922519575 -0.001926205564074713 -0.021990249953068263
0.0016926673137923134 0.0021020482055209367 -0.02233071309850617
0.0007060627428256699 0.0010589523482593653 -0.021963349584586372
0.0039865948228714875 -0.0006796486584538325 -0.022272962111853426
0.005996677578832746 0.0006293731413510807 -0.022878485701535962
0.000867135072897524 -0.0018386770705410439 -0.02148603879562442
0.005286766002838144 -0.0005098111064624605 -0.02254608932171765
0.0014107587798827517 0.00018458973747249863 -0.021942136748343926
0.0012077460437001193 0.003303336392144175 -0.022450320878039283
0.004277140245636846 0.005851305278985222 -0.022993000224232674
0.0012178343155183392 0.006622246539420852 -0.022993000224232674
0.0019213249142420571 0.0057121824755281565 -0.022993000224232674
0.001440822485436889 0.008740485820220212 -0.022993000224232674
0.0023103790650583 0.010597202720944332 -0.02299300022423267
0.000563971538958833 0.009469850943146844 -0.022993000224232674
0.0031356741157540493 0.005369990392678464 -0.022993000224232674
0.002171142994100007 0.007736488403145749 -0.022993000224232674
0.0030758359480819813 0.006642546273154406 -0.022993000224232674
0.004286193731148393 0.0031435635861113195 -0.022993000224232674
0.0051213379628060815 0.004921583595753616 -0.022993000224232677
0.0045670177161494085 0.014035396199321494 -0.022993000224232674
0.0007194312618646892 0.004426446399977413 -0.012505999766290188
0.0025032859168067035 0.005260940119442226 -0.012505999766290188
0.003963602923352851 0.005362602621508291 -0.012505999766290186
0.00018646274723372819 -0.0027275077624455417 -0.012505999766290186
0.0005850989657290111 0.0030775789496488527 -0.012505999766290188
0.002362749894825751 0.007122376877060958 -0.012505999766290188
0.0013912390861952407 0.005367404584346882 -0.012505999766290188
0.0019450577457275962 0.0031141004778204237 -0.012505999766290188
0.007260892084545683 0.0005688805423912601 -0.012505999766290188
0.0042633469875454225 0.004095100359260346 -0.012505999766290188
0.004697597645439333 -0.0009535997666691542 -0.012505999766290188
0.0023713759854198852 -0.0023911760190694163 -0.012505999766290188
0.007339717567250452 -0.002162060028656436 -0.012505999766290188
0.004945320085247286 0.0025884383400921747 -0.012505999766290188
0.005532712376035407 0.0016095952154305945 -0.012505999766290186
0.006106048639393191 0.00034289073438187215 -0.012505999766290188
0.002381212090693998 -0.00013298163796750403 -0.012505999766290188
0.013539656134127737 0.006622553377409674 -0.014609822695360602
0.013765966458120086 -0.003154000034555793 -0.01564739580718986
0.006356156828348147 0.008686106130538085 -0.012777607957522861
0.007535534154227935 0.009334664778703629 -0.012941460118379548
0.006234474131045866 0.010189095071116552 -0.012925987827211025
0.00555321109420491 0.011560047825874324 -0.0130151214851629
0.003699940963236747 0.007687752548071531 -0.012535196595791208
0.003064806591597322 0.009050668080890955 -0.012655284550474571
0.004426731599177427 0.008906587295532523 -0.012690302508855496
0.005040182231509131 0.010642858703822687 -0.012895709474267256
0.0020211907036972376 0.008821790147314157 -0.012592729886727837
0.003972190255279005 0.009870395032433584 -0.012775025808815661
0.0009178101174429448 0.015401000156998634 -0.019803689866176817
0.0002236731581356389 0.015401000156998633 -0.022705640526800824
0.0010159135523773132 0.015401000156998634 -0.021754583657513586
0.015039376446828876 0.003658564108168997 -0.015534991283540751
0.014400172769662574 0.004964341413225806 -0.014640017582068551
0.015413999557495115 0.0019982470905983516 -0.02019835649641926
0.015413999557495117 0.0014886444345978145 -0.01692267920822818
0.015413999557495119 0.0008090257434947907 -0.015884822536032177
0.015413999557495117 0.0021032255725119214 -0.015513829561718243
0.015413999557495117 0.0010933044908315803 -0.018089244467671902
0.011579622683966569 0.010358051875258411 -0.01799645663020692
0.010555956604075836 0.01138133753152585 -0.019751229766523867
0.010366182268131297 0.011571041341893833 -0.017074486607210636
0.010843219579594112 0.011094181311153743 -0.018512409654949154
0.009943910251878315 0.011993156429775742 -0.018262976564304298
0.011478233695106851 0.01042996708777695 -0.016125309146633963
0.012452208993905799 0.009473578283205743 -0.01623180127453722
0.014059506475229404 0.0064620574228659335 -0.015833478247453854
0.013325278802009712 0.007674859698470361 -0.015560823711313428
0.007248447813520721 0.007629463602312268 -0.012749844939985521
0.008451071432653667 0.008685285527616047 -0.01295221036952636
0.008223850428972416 0.006693984131119191 -0.012775511693090517
0.006984249419675438 0.006326248040127358 -0.012622605169740913
0.007971930637708914 0.0042117191583405595 -0.012558392952443802
0.007787197812272351 0.001687558745710558 -0.012505999766290188
0.006556936987919987 0.00447749540975817 -0.012505999766290188
0.007686841056152291 0.0029181022147374874 -0.012505999766290188
0.006709513099496068 -0.002555628956485979 -0.022340097621153042
0.004678059977330699 -0.002856299932904022 -0.021932941605189618
0.008079550108765285 -0.0015149891842368723 -0.02282693364512485
0.0052180228574860935 -0.0019136553244231702 -0.0222597072378894
0.008877467619313944 -0.002544132481181149 -0.022696241449492206
0.012736047097799085 -0.003154000034555793 -0.02143817653382483
0.013481079843302156 -0.003154000034555793 -0.019269638331485987
0.014270465201542043 -0.003154000034555793 -0.020170773970243482
0.013822084020243347 -0.0031540000345557924 -0.021415031434099466
0.007067722420966565 0.01212676871829 -0.013556366937961115
0.0060938650382226026 0.012817691481382872 -0.013623885225670424
0.005567213138720486 0.014310878631971448 -0.015149668744707362
0.006385096284550924 0.013689625564996795 -0.014712007663464897
0.015413999557495117 -0.0011370099147237588 -0.021250521956736622
0.015413999557495117 -4.547553098054231e-05 -0.022291781757834334
0.015413999557495115 0.0009319964626226954 -0.020810896083553364
0.015413999557495117 0.00010900899354427245 -0.017195111061199322
0.015413999557495117 -0.001293528920184634 -0.019841637828507015
0.015413999557495117 -8.482333212568984e-05 -0.020353982026052472
0.015413999557495115 0.0011591862088475235 -0.022302273408536844
0.015413999557495117 -0.0006942660392814618 -0.01846139466473261
0.01281399712424123 0.006536031271238048 -0.013748309522766905
0.013508281933318421 0.005559442600809901 -0.01398136576092673
0.013452822309005668 0.0004553232619547409 -0.01339007157056452
0.013776905958829855 -0.0018088423441509187 -0.01351960874200327
0.014758247769844652 -0.0018619316734659658 -0.01432567073380495
0.00022090654191257787 0.015401000156998634 -0.016438846325296713
0.011414522015218977 0.010219451353378482 -0.014946955309377702
0.010017187747512559 0.011808250624012135 -0.01584698945829039
0.009099782649065151 0.012351405783343022 -0.01540325358618735
0.009635102847717701 0.011727651445102951 -0.014643915058096667
0.00893521680384911 0.011415899934203165 -0.01379435535956802
0.008234600986128344 0.012615175165660224 -0.014701705002036523
0.006662674763462142 0.013982057713567473 -0.016542982582054007
0.0058798584464909535 0.014341059566979352 -0.017667740824686317
0.005434773988025811 0.014567903861707972 -0.02012143949151439
0.005579093870759676 0.014457991566010953 -0.016423602135959225
0.004585001957260656 0.014815080176781206 -0.015639506071447817
0.004444645106204442 0.01488558183523856 -0.018857324801017976
0.004584145037015623 0.014825657569327834 -0.021518075793036925
0.0035219049355953943 0.01510146926022947 -0.020537275025983334
0.00329169288356521 0.01514391951904726 -0.022175315015877013
0.002741978945760032 0.011294242745814809 -0.012899846347907643
0.0023177627277594886 0.010122861705809717 -0.01274278579517783
0.0036115611008296616 0.012187395996370098 -0.013033252937194314
0.0001161745875357572 0.01201721370882606 -0.01292460280248774
0.0009617455363447234 0.010648239226629976 -0.012774577560922852
0.0015481207118168317 0.01200448788570019 -0.01295880533806651
0.012933267803613886 0.008728159866256142 -0.019443754383753745
0.013118945090822854 0.008451556051785727 -0.021989551391888774
0.00972890510296871 0.012195738047152493 -0.020340672264945372
0.009091236484527178 0.012620982104846142 -0.02229826582164086
0.009196563890987976 0.012550742089241791 -0.019326130895863543
0.008216465540071282 0.013187226452857328 -0.021568283534243768
0.008977032696369517 0.012655938780702654 -0.01678168244000356
0.008094128082579725 0.013179251638908984 -0.016048501988619658
0.007881834508928568 0.013329949942595816 -0.017546291886949415
0.007704865191869154 0.013466466018547703 -0.01952815446165448
0.005777271257514669 0.014434456968299442 -0.022778797474259517
0.006726630462826325 0.013960355174061762 -0.02026253999581647
0.00587439152674801 0.014386102009799631 -0.021604884644565163
0.006892874507356695 0.013877593994235682 -0.018192654998603074
0.006737482409552466 0.013954519183600082 -0.022847892897473392
0.007055509930647635 0.01379573727561189 -0.02176470538825854
0.001017292251498473 -0.0031522307483180553 -0.013589122086673223
0.002046679587606149 -0.00315248605464934 -0.01827029182654864
0.005265558831168649 -0.0031532843938378062 -0.014639843400547732
0.0011057800007305257 -0.003152252694850548 -0.017309734875748738
0.0030093613865671293 -0.00315272481682337 -0.017427916444764106
0.0033910691277583946 -0.003152819487118612 -0.014810296532133695
0.002299859776692727 -0.003152548847830257 -0.015841010758655964
0.01025881554994155 -0.00315396654633039 -0.019377940578185298
0.0074098648351262845 -0.0031533255553304338 -0.021342054804090627
0.0029602780332642145 -0.0031526019148486084 -0.01985989865080139
0.008199657464491028 -0.003153526894188803 -0.020409909371892694
0.007681819262198955 -0.003153872557427963 -0.01318879777694899
0.005334075340700242 -0.0031532692489985954 -0.016038518524619863
0.004250300803687411 -0.0031528166796842946 -0.020208158737474443
0.00638278210218737 -0.003153236226837634 -0.01972579459500439
0.00878174779868827 -0.003153805041699946 -0.01759530605747978
0.009196222576546422 -0.0031538217988215057 -0.01856385012239763
0.007209467025440586 -0.0031537068772379134 -0.014488488376000386
0.0077194553374414325 -0.003153640099403481 -0.017113245418786217
0.009525380117762638 -0.003154000034555793 -0.015351444720948728
0.00998616706222836 -0.003154000034555793 -0.014214888692008786
0.011709178407001492 -0.0031540000345557932 -0.017339551951280435
0.010574965211687156 -0.003154000034555793 -0.01673783381569752
0.008828636727474467 -0.003154000034555793 -0.013534876196399587
0.01530928681784571 -0.002373502982149214 -0.015418465142805012
0.015293107329424774 -0.0026772763461767827 -0.01978882323513137
0.015413999557495117 -0.0019269339022232922 -0.01783346447912195
0.015413999557495117 -0.0008675154480484095 -0.016692179952641176
0.01541399955749512 -0.0008475862365715722 -0.015335561275077627
0.012454898616886584 -0.0016829538484781181 -0.013111537196030493
0.012800276658365093 -0.0003466156604463819 -0.013197962120954258
0.01038195795600147 -0.00020821922846432249 -0.012799885318286484
0.009400705143921488 -0.0010473021100322814 -0.01265433866270247
0.009178789927868206 0.0006775392488037486 -0.012634509493935391
0.010816401436823048 -0.0023252214974829235 -0.012855638490347737
0.008795600954629206 -0.0023808705714748676 -0.012562348312840161
0.013406255193912224 0.0035586979009763478 -0.013421669725380957
0.014323226484214262 0.0023893330622626243 -0.013890154996796158
0.014745225455200456 -0.0005734689510738689 -0.014024331946371225
0.01444760736006184 0.0011169174248642057 -0.013864319612876371
0.0009632384785652362 0.015074641888037978 -0.014707823953690344
0.0015367767783022869 0.014576439036287747 -0.013995274088923652
0.003326004397349162 0.01403818415607986 -0.01378165942694294
0.004103948025842365 0.014487413211764126 -0.014503070929087012
0.0045990216023671015 0.012780849778089996 -0.013330073525071888
0.0025109703298929493 0.012817907418271286 -0.01315227405590315
0.0010394515908717186 0.013469320751203367 -0.013271457863560265
0.014915887419126885 0.004520458459922492 -0.018423604039444815
0.0149751508086652 0.0043428145179041314 -0.019815085492973096
0.014990719325417321 0.0042950478943967075 -0.01711234821051038
0.015182741221077038 0.0034132470947656323 -0.02043652431068578
0.014974572706301547 0.0042272108623379375 -0.02249269550076489
0.015344389425260669 0.002627329810303191 -0.021453056078387073
0.015356431862766612 0.0025666446340013253 -0.01801638889800046
0.015259705886979214 0.0031423606275940426 -0.01681835025034325
0.015280560711832963 0.003018232066324546 -0.019410040019466272
0.009952739531284152 0.011984293746432405 -0.022772732222895324
0.010736149265127065 0.01120117893238701 -0.020789231886851202
0.011342319591241688 0.010595129015335991 -0.01997867305828733
0.012242744079936255 0.009694698090261366 -0.020019587940267213
0.010790418044626568 0.011146671181410774 -0.022394666118010012
0.011494806318675693 0.01044245314420714 -0.021249075945625313
0.012392505956177167 0.009480659256087641 -0.022581555235157192
0.012428130645385036 0.009452516328166767 -0.0211539176379245
0.012542120314672705 0.00935109529003696 -0.01742260780789749
0.012364965214054916 0.009572035721248831 -0.01856215565067544
0.014571222607280367 0.005473919222331023 -0.01949013341866006
0.014438008435068251 0.005847775793847753 -0.017355987022507412
0.014666280417764587 0.005205255722084893 -0.02112216864798277
0.014217296079139408 0.006377898402490244 -0.018747724145073356
0.014158296083017293 0.0064456199597101365 -0.0222974805688934
0.013948195121368814 0.007010543656507183 -0.02043254037339237
0.013820777913373852 0.007206336405246686 -0.01679768425287537
0.01351488801309441 0.00778071316174852 -0.02101058514398586
0.013016499924262069 0.008575538708376719 -0.018403854188132326
0.013613069765155132 0.007584192862470645 -0.018841507144881857
0.010256500979959022 0.005146065102723691 -0.012902692221438979
0.011321057418559096 0.005257387493250562 -0.013042361151134997
0.009740087507495561 0.007277249143673827 -0.012996926309184892
0.009020367246878939 0.005090711518448771 -0.012745991483183177
0.012478595135144233 0.0028158268746268033 -0.013176267861859546
0.008768401439008049 0.00287103823991069 -0.012595175954711112
0.010268820494309033 0.0039972519126670394 -0.012849614176564324
0.009346891265232206 0.0018823867775473201 -0.01266855447802701
0.011461622754336664 0.003937656128513772 -0.013035296797034478
0.011663151111106551 0.00033901361672946436 -0.013004321141879566
0.01025002734011337 0.0028133218404685586 -0.01282610289664898
0.010962490678295671 0.0018277061229756942 -0.012920506012739596
0.008053574011102205 0.010288607866637938 -0.013126061412527205
0.009437058539242663 0.010046609670093729 -0.01332653998166271
0.011887672641584126 0.00763424799214702 -0.013492504933599832
0.009961129336188696 0.008639642292987887 -0.013153706184982177
0.010875662972984899 0.007864929925577678 -0.013231168002713033
0.011642589207069978 0.006526568343562089 -0.013262454078245896
0.012449922018833576 0.0046523473855057725 -0.013241798282783518
0.0021929155563856725 0.015224450443379337 -0.015177086308911064
0.0021370040110090193 0.015401000156998636 -0.021012815821401354
0.0022158020320134177 0.015401000156998636 -0.022471477785553688
0.0016818981320319718 0.015401000156998634 -0.01722589748946571
0.003437839990455359 0.015054364136402664 -0.015504107329415966
0.0028760443484733764 0.015227265720383635 -0.0172010045137235
0.0039647070700250305 0.015009363944381153 -0.017398400657108442
0.002060459176964376 0.015400630351981175 -0.018357886954559727
0.002818011577810842 0.015257323505693768 -0.019568031153281686
0.012255517608129875 0.009272520451027274 -0.014859357440250315
0.011988403558615069 0.008667850711408073 -0.014010571613679822
0.010709753038897133 0.010269252468345013 -0.014039724479565075
-0.01464285603400463 -0.005206545809644526 -0.026968387730130727
-0.014698736903879062 -0.004889955166950726 -0.024436217606509478
-0.00915513944293498 -0.004395646908509565 -0.02191900089383125
-0.010681751491972544 -0.006679274186733255 -0.02191900089383125
-0.010956220045118125 -0.005515982758860448 -0.021919000893831253
-0.008075536167683528 0.00029219323801782707 -0.021919000893831257
-0.01180727205467275 -0.004870842782625359 -0.021919000893831253
-0.011165705896432381 -0.0008618126231991687 -0.021919000893831253
-0.012096114403974264 -0.008030121442096451 -0.021919000893831253
-0.012640302894189603 0.0001441762727275855 -0.021919000893831253
-0.008344446480518235 -0.0029434457402877892 -0.021919000893831257
-0.01329284136737996 0.0012904366648075704 -0.021919000893831253
-0.012271738487026153 -0.0009438340237650118 -0.021919000893831253
-0.004521878519255505 -0.013579026233371094 -0.021919000893831253
-0.011129443963082608 -0.0089563348491113 -0.021919000893831253
-0.007042194949255285 -0.0048674586096620325 -0.021919000893831253
-0.007674736892200563 -0.00202286956166212 -0.021919000893831253
-0.007691622524951214 -0.011235333967082222 -0.021919000893831253
-0.007850800892260023 -0.008045695028818196 -0.021919000893831253
-0.007546636840626067 -0.006127501671196355 -0.021919000893831253
-0.005901430015151712 -0.013168479461270251 -0.021919000893831253
-0.006545923194834689 -0.0023942384426429496 -0.021919000893831253
-0.010003319978740636 -0.007658151978421718 -0.021919000893831253
-0.009121625822355857 -0.008787817546277542 -0.021919000893831253
-0.008927495335054597 -0.006394104029706463 -0.021919000893831253
-0.007273587851573757 -0.0033510813193874827 -0.021919000893831253
-0.00643774241544131 -0.010474282925806504 -0.021919000893831253
-0.011199310950326615 0.003028000006452203 -0.031005525974941828
-0.012077200228316678 0.003028000006452203 -0.028451178880171905
-0.013551160317478838 0.003028000006452203 -0.028270674335695255
-0.011910746660899502 0.003028000006452203 -0.03003071683320739
-0.01433010324974246 0.003028000006452203 -0.02457380828465075
-0.006726052139599893 -0.00033841692140603645 -0.021919000893831253
-0.005889360189869153 -0.0049634596452066025 -0.021919000893831257
-0.014304482427610926 -0.0023598598071647263 -0.021919000893831253
-0.013844523327211826 -0.0038982770175239956 -0.021919000893831253
