0.00503651831409 -0.0279837380302 -0.00408437040809
0.00497902521556 -0.0279054116247 -0.00933744615052
0.00557884337844 -0.0277069966222 -0.014631917636
0.00927377807812 -0.0268686441571 -0.00668289041795
0.00868573419091 -0.0275669056922 0.0245467548893
0.00820164535248 -0.0276314208274 0.0187172233139
0.00855715600286 -0.0276508788426 0.0271291132219
0.0101812560924 -0.0268261893394 0.00909585588777
0.0103161085896 -0.0269959297297 0.0223209238931
0.00915669791763 -0.027281528947 0.0164602732238
0.00881949780947 -0.0273538485167 0.0140918050412
0.0079996490532 -0.0277546170933 0.022234845875
0.00980366710447 -0.0269062727823 0.00638817807031
0.00952360572368 -0.0269605099504 0.00406087313995
0.0226193191781 -0.0178111482023 0.0107093652212
0.0230110044302 -0.01672370234 -0.0144777559274
0.0227095474401 -0.017903170399 0.0198243205756
0.0225651104529 -0.0181461085086 0.0222284631644
0.023274619101 -0.0173134540692 0.0261279520986
0.0228075423554 -0.0171922360125 -0.00559000046247
0.0230538249875 -0.0171002680996 0.00434561069655
0.0228634851738 -0.0171769230079 -0.00309024086513
0.0230217564555 -0.016538346739 -0.0219414081772
0.0229291350522 -0.0171517992417 -0.000468273530257
0.0229660938704 -0.0175142320417 0.0174077962846
0.0240073315655 -0.0146474958849 0.00995090574356
0.0245128078857 -0.0146477196641 0.0249161265046
0.0238242485327 -0.0146469070129 0.027219993684
0.0155855567479 -0.0223432417155 0.028757000342
0.0226315384055 -0.0146469740122 -0.0159873818934
0.0209099181559 -0.0146460121823 -0.0241210056825
0.0223206954139 -0.0146463291444 -0.000623124338824
0.020491507896 -0.0172903085562 -0.0247779991478
0.021439595365 -0.0146460002288 -0.00311757386663
0.0221369354604 -0.0146460002288 0.020318751673
0.0211393016913 -0.0146460002288 -0.00956659091075
0.0217334468879 -0.0146460002288 0.0243675731929
0.0186103483188 -0.0209838903579 -0.0235056906201
0.0167265089821 -0.0223168332243 -0.0242491995313
0.0129089998081 -0.0247847514149 0.00361093079874
0.0129089998081 -0.0248193092201 0.01310908929
0.0129089998081 -0.0228524118519 -0.0106761897902
0.0129089998081 -0.0237326333301 -0.00783304939969
0.0242265201793 -0.0147608850976 -0.00173819522176
0.0243147913863 -0.0154434958037 0.0223700538702
0.0238354217079 -0.01613282473 0.015190000081
0.0243501849172 -0.0152912769799 0.0183783870004
0.0240264645457 -0.0155821595908 0.00573664362578
0.024274866875 -0.0153054598172 0.013049764487
0.0148955094271 -0.0201095817207 -0.0210178422555
0.0163003919729 -0.0189088734621 -0.0233283090373
0.0130691466289 -0.0221490975247 -0.0220857486932
0.0149289092387 -0.0203733983287 -0.0247779991478
0.0129089998081 -0.0228034685884 0.00502748522448
0.0129089998081 -0.0239467242357 0.0222419156621
0.0129089998081 -0.0234644387663 0.0013178564099
0.0132480748692 -0.0227233478845 0.0285471136951
0.0190555591483 -0.0170636463144 0.0278638627681
0.0157197738395 -0.0200541578969 0.0236646964667
0.01377787851 -0.0218684530638 0.0229174039041
0.0147552442282 -0.0210427909355 0.0253164073671
0.0177693857847 -0.018162487199 0.0249913667009
0.0170123458528 -0.0189804539648 0.0272591469618
0.0212014066163 -0.0183202921356 0.028757000342
0.0193266244392 -0.0204031429305 0.028757000342
0.02132291878 -0.0146460002288 0.0126399019017
0.0197756089291 -0.0211615656252 0.0255218422213
0.0184398467772 -0.0224981240798 0.0283803327902
0.0232721797982 -0.0165421300227 0.028757000342
0.0132130631349 -0.0248839250064 -0.0182443976911
0.0131742486014 -0.0254395689612 0.00901037256187
0.0129896877294 -0.0249563531657 -0.0154567500578
0.013137670834 -0.025144357301 -0.00567042632901
0.0144964459805 -0.0204193371257 -0.0185890493067
0.0179524378579 -0.0177829117901 0.014969420333
0.0165272465911 -0.019037043959 0.0112287674305
0.0193866067974 -0.0166160004086 0.0234810700288
0.0131418823641 -0.0222458870419 0.0138129271078
0.0183519366264 -0.017472319503 0.018062088356
0.0146564782874 -0.0208557711628 0.0149279322959
0.0177635638881 -0.0180943104593 0.021720261486
0.0134452094794 -0.0216684215901 -0.000890087700652
0.0136796780957 -0.0215070693012 0.00196994981766
0.0140712111721 -0.020902705142 -0.00997013081842
0.0138639712266 -0.0215160552604 0.0109961233196
0.0135316061996 -0.0214898122556 -0.00578315789703
0.0150952018397 -0.0205351395099 0.0193452086047
0.0142175511797 -0.0210519914674 0.00429187848027
0.0143744392883 -0.0207627966012 -0.00283952402949
0.0155334326631 -0.0198637531686 0.00623357419969
0.0198172358126 -0.0162567326373 0.0255932885902
0.0157891035282 -0.01957525236 0.00373452935897
0.0163153170674 -0.0192922339341 0.014101171586
0.0213463512492 -0.0148641511043 0.027261026578
0.0163995839109 -0.0190981126656 0.00833477673163
0.0160177054548 -0.0196176874276 0.0164924262971
0.0135164813397 -0.0219761733683 0.0177868955294
0.0152965500708 -0.0199896152323 0.00148988325053
0.0132613439698 -0.0220170088747 0.00794992958949
0.013598636517 -0.0212693722549 -0.0136653586376
0.0182515110741 -0.0174545655075 0.0125018165495
0.0135535486079 -0.0219949511115 0.0204493313652
0.01814229354 -0.017110783636 -0.0208272179841
0.0163730959949 -0.0187117968724 -0.0192713946377
0.0188805152415 -0.0164427391212 -0.0186302843066
0.0200645479443 -0.0153712635053 -0.0115389582433
0.0197601366682 -0.0156467366901 -0.0140102396015
0.0182315221608 -0.0170300373093 -0.0140080586574
0.018044069812 -0.0171996699726 -0.0166760444559
0.0202441619184 -0.0152087240812 -0.0203598688588
0.020180188365 -0.0152666161499 -0.0166364317382
0.0141674774251 -0.0207077438679 -0.0160516182415
0.0164899360437 -0.0186060639285 -0.0141874461357
0.0205188224056 -0.0150230234995 -0.0060726774015
0.0167550956563 -0.0184050435595 -0.0109822159765
0.015106077391 -0.0198989385056 -0.0124629705094
0.0179515006988 -0.0174335276823 -0.00369257569265
0.0200262706325 -0.0155686201339 -0.00101687756765
0.0209398718825 -0.0151438080704 0.0220907261063
0.0200988042546 -0.0156653552275 0.00803544391178
0.0178225069643 -0.017752218399 0.00735778475316
0.0209587501495 -0.0147793097353 0.00288822506255
0.0190623717758 -0.0164923577568 0.00091216786695
0.0206566719677 -0.0151915374691 0.0102830479259
0.0198780866005 -0.0158220325907 0.00544295654613
0.0173697339457 -0.0180787925747 0.00232574077182
0.0208893579708 -0.015074174473 0.0156611773649
0.015497105781 -0.0196355017192 -0.00708797554036
0.0164232522364 -0.0188680315801 -0.0022976746305
0.0184692549378 -0.0172040475026 0.0100263378457
0.0170459421236 -0.0182320470018 -0.00571474986175
0.0174209549288 -0.0180731456726 0.00462651858693
0.0188912690915 -0.0166998066893 0.00365983775464
0.018714051731 -0.0166063078839 -0.0105541867402
0.0178376226792 -0.0174493617478 -0.00862638821106
0.0201895549682 -0.0157909799746 0.019615464983
0.0195086352875 -0.021196564183 0.0131543378577
0.0191012648233 -0.021530703434 0.0104716466424
0.0198021700842 -0.0207522648342 0.00455783634361
0.0191215840875 -0.0217177537869 0.0211445629063
0.0195531200132 -0.0212662925916 0.0189422894452
0.0203073618263 -0.0196106621792 -0.0219218144305
0.0203892127932 -0.0196363607618 -0.0191097961181
0.0186286879834 -0.0213008653274 -0.0206201253564
0.0181641448583 -0.02221471423 0.0022048313271
0.0190891455571 -0.0211400491596 -0.00885117082422
0.0191001155794 -0.0210802226778 -0.0112466672211
0.0190653752179 -0.0209803743693 -0.017574795231
0.0187669871566 -0.0215481843187 -0.00337250021658
0.0187861761794 -0.0217591519329 0.00761681397276
0.0187615568315 -0.0215079277137 -0.00554715736592
0.019284846976 -0.0208258191236 -0.0153680011992
0.0195539961309 -0.0208961553665 -0.000163051531992
0.0219905359765 -0.0188748145514 0.0243389141214
0.0212094215776 -0.0194473522706 0.0117435579517
0.0212240167751 -0.0196127784272 0.0214809254265
0.0204827757528 -0.0198490812911 -0.00703481793765
0.0211804194131 -0.0195883903134 0.0177381292978
0.020368239951 -0.0203831604644 0.0154030003994
0.0213719375128 -0.0195533710125 0.0265105132616
0.0204521405631 -0.0201734583431 0.00876011661954
0.0201357181766 -0.0203762450249 0.00208555609721
0.0204810245862 -0.0204175717891 0.0235381711029
0.0207232040101 -0.0194879744053 -0.0115991847821
0.0208861606579 -0.0194659136434 -0.00439154107391
0.0212094780036 -0.0192162209894 0.000400181126656
0.0209697896105 -0.0191474231265 -0.0148765279085
0.0214833484194 -0.0188659015126 -0.00195083756236
0.0215083305548 -0.0190168401665 0.00628009389692
0.0217260074737 -0.0187188531178 0.00350885071302
0.0148979092686 -0.0238749429568 -0.0239878523869
0.0170375919043 -0.0226414229413 -0.019199206347
0.0177530956383 -0.0223399907561 -0.00724225625907
0.0175671145869 -0.0225898171031 -0.00160976071725
0.0182197611473 -0.0224499909485 0.0161844019699
0.0177555600574 -0.0225770938821 0.00493752962345
0.017547280481 -0.0223221673444 -0.0160098418041
0.017201611092 -0.0233088315432 0.021269251147
0.0167204496827 -0.0230027489317 -0.0128619614621
0.0172402469473 -0.0233548942056 0.0251133769177
0.0173571809236 -0.0231476886529 0.0189454031457
0.0174793210393 -0.0229435405101 0.0131336617148
0.0160016049359 -0.0235852441226 -0.00653143739678
0.0157105950035 -0.0239492837587 0.0032519026906
0.0157158886152 -0.0240364079525 0.0081085029442
0.0150780036905 -0.0239078543607 -0.0202045547752
0.0157626042598 -0.0235493161408 -0.0164824479306
0.0146912912817 -0.0242636186354 -0.0140776777032
0.01646468261 -0.0232420670134 -0.00941930029286
0.0164094112036 -0.0236497950958 0.0106223327347
0.0157034226037 -0.0238438108376 -0.00265315795717
0.0149703090517 -0.0241439912014 -0.0111375554363
0.0139328513523 -0.02517864585 0.0163326912933
0.0129558158643 -0.0258264385057 0.0280875557106
0.013358041461 -0.025572967741 0.0241703244894
0.0135596567314 -0.0250836219121 -0.00307554833242
0.0146939296373 -0.0249555464427 0.0268209494025
0.0145947385149 -0.0248873227677 0.01866400911
0.0149447003559 -0.0243662508292 3.68689219602e-07
0.0151384280088 -0.0243492120939 0.0056834910356
0.0156905281696 -0.024148181409 0.0133826943194
0.0156068371132 -0.0243804418131 0.0234608015617
0.0153441334463 -0.0245001033437 0.0211351229305
0.0236209653422 -0.0158973357556 -0.0116988902144
0.0233969749172 -0.0167117859066 0.0079955228508
0.0230965056024 -0.0163709440488 -0.0244907015978
0.0233321526234 -0.0166590944329 0.00184350192994
0.0218835391723 -0.0179942526249 -0.0203302791409
0.0227120599883 -0.0172223287171 -0.0094057838726
0.0219444153434 -0.018220915891 -0.0075759909626
0.0224779964592 -0.0180922556597 0.0149998673341
0.0221561465343 -0.0183397768667 0.00854853807774
0.023898477339 -0.0146460002288 -0.0230253286374
0.0219202939188 -0.0146460002288 -0.0188922753307
0.0222757766253 -0.0146460002288 0.0175714433163
0.0266517707614 -0.0063280002214 0.0122805423702
0.0258360209699 -0.0063280002214 0.0279406664937
0.0277711386023 -0.0063280002214 0.0193320942055
0.0236136795426 -0.0146460002288 -0.00766430231172
0.0238338379526 -0.0146460002288 -0.00419947405794
0.021921078258 -0.0127390202284 -0.0225590603287
0.0228720873412 -0.0105139851064 -0.0224537560752
0.0219600248772 -0.0123146027893 -0.0200531887992
0.0234715178103 -0.0112950829832 -0.0247779991478
0.0253469725073 -0.0063280002214 0.00970193055313
0.0255222615244 -0.0063280002214 0.0226222104059
0.0257516178117 -0.0063280002214 -0.0224137636307
0.0263308167437 -0.0063280002214 0.00142731952617
0.0238107360067 -0.00841339687821 -0.0229638015276
0.0279547742518 -0.00737187549018 0.0284586419412
0.0279062653751 -0.00638521200678 0.0143822812195
0.028070306155 -0.00646126175992 0.0264895954496
0.0280293797401 -0.0064267686868 0.0234769459637
0.0227926283871 -0.0126609484731 0.0279587312032
0.024180936159 -0.0093116092065 0.0255474427639
0.0233389495214 -0.0112992709475 0.0263378238136
0.0224757529538 -0.0126557008615 0.0134350670304
0.0216531130307 -0.0132310824252 -0.0133490889264
0.0232410525656 -0.0104557736759 0.00516655686132
0.0229956662052 -0.0111550362847 0.00769569344525
0.0227975818862 -0.0121478343523 0.0182762768522
0.0243929862279 -0.00825652975739 0.0148910658915
0.021729117505 -0.0131725382656 -0.0109818109511
0.022512154727 -0.0130397467255 0.0227840000646
0.0222419531665 -0.0122311329715 -0.00590116934767
0.0236972528289 -0.00974937474569 0.0122984989514
0.023445545311 -0.0105040614037 0.0156385955133
0.0245746520503 -0.00813873268527 0.0209906072542
0.021925630608 -0.0136974983196 0.00862187914074
0.0226552747686 -0.0121220435902 0.0111445063126
0.0218238111081 -0.0138172025635 0.00627340116342
0.0223329564851 -0.012499099293 0.00367275549476
0.0226117388057 -0.0117062008941 0.000829929332479
0.0238710386517 -0.00987177170518 0.0228200011597
0.0221647801392 -0.0126284481278 -0.00156920259154
0.0242961441025 -0.00865052970618 0.0182422825915
0.0230187213946 -0.0117639118868 0.0209060826281
0.0253431776481 -0.0137742755789 0.0202860098406
0.0260619319949 -0.0124860422534 0.0251183684738
0.0253938727298 -0.0132487221196 0.00244486838505
0.025449077727 -0.0135243987026 0.0172291885439
0.025312876884 -0.0132655440055 -0.00318757007479
0.0258700870185 -0.0128074372648 0.0225097544235
0.0255411572342 -0.0132084258859 0.0123169962688
0.025134924896 -0.0141000662754 0.0148394720382
0.0249878345643 -0.0134936776126 -0.0160410623491
0.0243314474127 -0.0144268930045 -0.0207631333684
0.0243640610212 -0.0144671701143 -0.0177662955751
0.0247076999297 -0.0141478473001 -0.0098987176276
0.0257320586648 -0.0106079277376 -0.0247169922018
0.025480954005 -0.0128535304208 -0.0056639680223
0.0258592827715 -0.0119722303696 -0.00847529836045
0.0253427476091 -0.0129511577485 -0.0125283036725
0.0257512635948 -0.0126007235915 0.00558526975349
0.0256716830051 -0.0119875513176 -0.0211811147155
0.0254745255965 -0.0124685686813 -0.0187659525573
0.0264979413686 -0.0108069864901 0.000862858955031
0.0261897066617 -0.011812542413 0.010683724411
0.0262233871443 -0.0113613869595 -0.00185144889606
0.0265835239586 -0.0110842804617 0.0168260997249
0.0268323872398 -0.0102625282257 0.00856494375171
0.0264101395479 -0.0108118346248 -0.00579692798282
0.0266703769785 -0.0109618770502 0.0194640014578
0.0264450031689 -0.0113150099776 0.0138115614502
0.0265094311469 -0.0103768611231 -0.0110299121005
0.0272765366555 -0.00964371025582 0.0226605596059
0.026431572462 -0.0104750149034 -0.0137883492615
0.0262933607478 -0.0107128813328 -0.0169134254472
0.0267222965406 -0.0101063638683 -0.00354808111894
0.0268190596973 -0.0100960738049 0.00299008516875
0.022859353266 -0.0102985519328 -0.0184520606427
0.024016686413 -0.00772796324755 -0.0206728151536
0.0244193195201 -0.00683366231777 -0.0165383059914
0.02471616715 -0.00663969691275 -0.00562817773346
0.0235550425093 -0.00951477852436 0.000469115922652
0.0247270479123 -0.00715520693186 0.00723446329477
0.0239520400903 -0.00846051870501 -0.00309667852211
0.0224355427434 -0.0116250517086 -0.00929154257386
0.0245598551898 -0.00719995169377 -0.000434959130294
0.0218947583666 -0.0125634661424 -0.0158665167244
0.0228651173681 -0.0108913809203 -0.00379847016797
0.0226984770338 -0.0108496415987 -0.0134257783762
0.023280781198 -0.00940031237848 -0.016427165746
0.0238231871907 -0.00829792493828 -0.0135344502339
0.024751581832 -0.00729486259742 0.0117187229311
0.0239130466715 -0.00837419515342 -0.00710802270415
0.0239510519165 -0.00874061627378 0.00328602162867
0.0240514732695 -0.00788706333431 -0.0110970407861
0.0274728467318 -0.00647665456705 -0.0176773871493
0.0273763584902 -0.0076042050923 -0.0127277771939
0.0273536158348 -0.00779645814274 -0.0103745115055
0.0269788325725 -0.00922581058979 -0.00738635265046
0.0268891748936 -0.00897667045847 -0.018838129643
0.0269685941454 -0.0085622718304 -0.0217666128733
0.0271831043329 -0.00886547941231 -0.000396115453341
0.0273558614435 -0.00889990975626 0.0124970948162
0.0270920472995 -0.0084728302543 -0.0149005491725
0.0274803350523 -0.0076552785826 -0.00413724513263
0.0276969792775 -0.00789235052943 0.0164539334807
0.0275370053398 -0.0081436445819 0.0100249889114
0.0275334779619 -0.00802591122152 0.00734577898487
0.0276373966631 -0.00743313610005 0.0026805434855
0.0275757414251 -0.00877808288288 0.0258933325323
0.027460424166 -0.00891141528565 0.0202748531545
-0.0262291305786 0.0118887916532 0.0162455774612
-0.0265995277533 0.0107342026532 0.00887972708515
-0.0263295838359 0.0114793224464 0.0114531660325
-0.0262132290823 0.0107175553578 -0.0188529956251
-0.0263745564572 0.0116885140748 0.0206940930464
-0.0266432902515 0.0108168531849 0.0143644090093
-0.0263109799695 0.0117714684368 0.018615817288
-0.026356909457 0.010733542618 -0.00825389457942
-0.0261773363949 0.0115287222482 0.00214657763668
-0.0263603958381 0.0109307986363 -0.00228568265955
-0.021093999967 0.0164516888177 -0.0082489064158
-0.021093999967 0.0157001467404 -0.0198623006817
-0.021093999967 0.0153325766122 -0.0226798330613
-0.021093999967 0.0157105427213 -0.0176202865018
-0.021093999967 0.0148005255681 -0.0065233720565
-0.021093999967 0.0176306200696 -0.0212287394851
-0.021093999967 0.015384208478 0.0125956074066
-0.021093999967 0.0154490766281 -0.0106531416057
-0.021093999967 0.0159956648861 -0.00384148807619
-0.021093999967 0.0161543026788 0.00685151435505
-0.021093999967 0.0165855005742 0.00995560518901
-0.021093999967 0.0187764466012 0.00498573765593
-0.0212296364344 0.0188545435325 -0.00137811950096
-0.0211656915065 0.0187496634722 -0.00374469013155
-0.0257700850642 0.00991456261842 0.028757000342
-0.025786163878 0.00633500004187 0.0106611384497
-0.0265276235191 0.00633500004187 -0.0104351909115
-0.021093999967 0.013750796892 -0.0164105424648
-0.02232030518 0.0111143891122 -0.0195698285929
-0.0222707782267 0.0112134430251 -0.0219192516888
-0.0213192119209 0.0131165757593 -0.0210310275505
-0.0239313653371 0.00789226859057 -0.0213201654549
-0.0252363801959 0.0140622755854 0.024855923721
-0.0255427544307 0.013453773002 0.0226246145328
-0.0248463487419 0.0141309241177 -0.00132507721076
-0.0251056911045 0.0139568394401 0.0108037141942
-0.0248646985788 0.0145312288405 0.0164945604602
-0.0249108147874 0.0139233340689 -0.00506466036138
-0.0251038286068 0.014174337624 0.0196058125883
-0.0250678000873 0.013413834824 -0.0143349106025
-0.0260269923518 0.0126939968263 0.0274009924432
-0.0254713553135 0.0133683298768 0.0138030760961
-0.0279629774532 0.00676922331248 0.0286092723871
-0.0279324546842 0.00663588903243 0.0263797611921
-0.0268537464326 0.00633500004187 -0.00457736269422
-0.0264640465766 0.00633500004187 0.0146514296319
-0.0212360121779 0.0182968124631 -0.0235929037102
-0.0245750919198 0.00854203590048 0.0264420346978
-0.023509559117 0.0124665856718 -0.0240540001541
-0.0276832575353 0.00724599067849 0.00912294956746
-0.0273446622967 0.00746570424391 -0.0146193393102
-0.0275343590985 0.00766025585613 0.00494958595448
-0.0276071229766 0.00774212458997 0.012598735213
-0.0272758356707 0.00749665024235 -0.0197160763509
-0.0278484242809 0.00720881988144 0.0220856997768
-0.0272454578088 0.00853299931434 -0.000212872744909
-0.0271324317333 0.00851173883528 -0.0095501453688
-0.0274705355288 0.00845113242066 0.0157533447791
-0.02728442459 0.00805628403658 -0.00723482920065
-0.0274845220864 0.00851457195419 0.0181953416922
-0.0272122715484 0.00854627424463 -0.0025415114636
-0.0256417739227 0.00637363496594 0.0254327933609
-0.0235281630838 0.00946813834699 0.00254072175385
-0.0244776369769 0.00737261450338 -0.00505030816703
-0.0248657559648 0.00693957028913 0.00451723617071
-0.0241013678754 0.00828491880774 0.000406953207638
-0.0244163801975 0.00734147816681 -0.00953642777412
-0.0230862870149 0.0100257169595 -0.00642081869574
-0.022086820816 0.0116567652097 -0.0156256793868
-0.0225179742896 0.0109786093101 -0.0108934558513
-0.0244435157285 0.00717516367763 -0.0129371138799
-0.02433462764 0.0075724999899 -0.00736937906662
-0.023583737111 0.00878039093142 -0.0148084851373
-0.0246377332137 0.00658221739535 -0.0194049838233
-0.023547245228 0.00927101986254 -0.00224880244556
-0.0231667130037 0.00951351379448 -0.0170764471971
-0.0221306292116 0.0118283455505 -0.00795065936918
-0.023741637797 0.00859217809799 -0.0112760942808
-0.02173543508 0.0124360234204 -0.0127045638122
-0.024797414828 0.00688070803968 -0.00120940823371
-0.0233842030039 0.00938066609391 -0.00842988840135
-0.0239030363553 0.00882838396363 0.00515585128794
-0.0248864614427 0.00704607938318 0.00890499672175
-0.0246987224043 0.0066125791022 -0.0149575653398
-0.0248458444194 0.00770877988282 0.0222062308117
-0.0226267951479 0.0124678832543 0.0256319741448
-0.0238903188473 0.0097956207137 0.0243215188642
-0.0213417687526 0.0146369027447 0.0158506930484
-0.0226043884872 0.0122785209105 0.0210404564805
-0.0212028055343 0.0139924034888 -0.00296176584708
-0.0210956249173 0.0144483938819 0.0017588374492
-0.0212500254225 0.0149677415169 0.0186913549418
-0.0228684149866 0.0110804368748 0.00790244147745
-0.0211361692476 0.0156276678792 0.0272477562036
-0.0214000451976 0.0139343911939 0.00411193064127
-0.0225664259304 0.0115469982194 0.00469374295369
-0.0226516540131 0.0110642467179 -0.00148439087774
-0.0223315874398 0.0124761422306 0.0136253452526
-0.0237478648344 0.00987913054738 0.0204228408727
-0.0239966813465 0.00888113167599 0.0106862044251
-0.0244027010225 0.00829900394178 0.0159113822381
-0.0220929035085 0.0134608404351 0.023517134766
-0.0220654571935 0.0123962771534 0.000890207893427
-0.0250165960518 0.0072312547789 0.0200269233645
-0.0213883263711 0.0142620780202 0.0102338553443
-0.022512004108 0.011952893232 0.0106087792976
-0.0236604822973 0.00974200936707 0.0140037320457
-0.0221393239874 0.0130761512487 0.0176955293486
-0.0214506201539 0.0147010489859 0.0216947385865
-0.0219357288258 0.0130310693 0.00827605025338
-0.0231131290379 0.0110602118395 0.0177229045206
-0.0238344168244 0.0090751204827 0.00781799935632
-0.0216182469268 0.01453803672 0.0254120893679
-0.021435910787 0.0131517342608 -0.0101806553964
-0.0221898290851 0.0183652600942 0.011406046727
-0.0221309695229 0.0179480554166 -0.0127364325666
-0.0227061803564 0.0175954988928 0.00624241523316
-0.0221197044908 0.0180202539777 -0.00991019716489
-0.0226894948012 0.0175662749872 0.00375969296901
-0.0238797484751 0.0162268559279 0.0190637516538
-0.023023312038 0.0173253475795 0.0141916997627
-0.0231292629228 0.0174115792322 0.0266745347152
-0.0228789123086 0.0176424608658 0.0204247844174
-0.0231344972485 0.017211237952 0.0163484744162
-0.0233490202041 0.016468150548 -0.00745778472677
-0.0240121173064 0.0161423750165 0.024378856805
-0.0236486288272 0.0161071220543 -0.00304249766753
-0.0237310299733 0.0159106716271 -0.00526074274673
-0.0242062658131 0.0154453096903 0.00742919883185
-0.0237949946479 0.0159350844113 -0.000230133199322
-0.0249431766991 0.0135104868553 -0.0192016337945
-0.023962539091 0.0154058753323 -0.00969372918589
-0.0239364320461 0.0159617460757 0.00985068104059
-0.0240264644458 0.0156741170237 0.00464119366436
-0.024859372868 0.0138372866718 -0.0120978973004
-0.0247816474583 0.0140830433809 -0.00769803900172
-0.0237551637342 0.015668764944 -0.0129477406733
-0.0245167217788 0.0147968551139 0.00257167070009
-0.0242453011425 0.0157554776059 0.0217695004702
-0.0239378882261 0.015275588981 -0.0162462969769
-0.0229369908826 0.0167663312839 -0.0191353183768
-0.0242567455553 0.0145464199308 -0.0217000611093
-0.0229368168627 0.0166157563536 -0.0225538432873
-0.0213620495889 0.0193393654304 0.0220653099731
-0.0217243653951 0.0185789354085 -0.00717678173087
-0.0213572296442 0.0191087291801 0.00773053249911
-0.0257178781342 0.0119486587608 -0.0162242627839
-0.0257203878571 0.0117235289763 -0.0225887231679
-0.0257678615438 0.012674048261 0.00813328220866
-0.0258495588254 0.0121825325493 -0.000707907212442
-0.025968123551 0.0117543370876 -0.00526751418557
-0.0261500660441 0.0111330722575 -0.0112253358925
-0.025671659646 0.0127779929413 0.00476945732395
-0.0268020060605 0.00899625014439 -0.0225121056164
-0.0264978723777 0.010163088162 -0.0138341369928
-0.0268677018587 0.00954348266914 -0.00448023891697
-0.0267779921553 0.00934518306519 -0.0161640531621
-0.0266935697821 0.0103290909672 0.00445386450786
-0.0272131021847 0.00877280289018 0.0027411820599
-0.0271891606061 0.00971850983946 0.0263298904218
-0.0270946242973 0.00991979357955 0.0240556133707
-0.027225632499 0.00902060077089 0.0104556320038
-0.0272733285597 0.00876860366779 0.00753990744128
-0.0271707873427 0.00954832109737 0.0202349302797
0.0114915539834 0.0263501796422 0.0104410806356
0.011454969596 0.0264198855189 0.0127760388373
0.0121493791138 0.0259565146656 0.00749394946358
0.0129079995677 0.0249510334177 0.0142267507391
0.0129079995677 0.0258348618775 0.0282403949175
0.0129079995677 0.0256957746811 0.0252009310181
0.00467348036797 0.026264842739 0.0287539996207
0.0105612377136 0.0263945734304 0.0287539996207
0.00542370975861 0.0283647053124 0.0227556879581
0.00570049800687 0.0281514577536 0.0117137391544
0.00626552323209 0.0280664993873 0.0140242348319
0.00529863545088 0.0281837006389 0.00807147479935
0.00727298468762 0.0277382683579 0.00560712901761
0.0041148402635 0.0257123270462 0.0161023323823
0.00351410083262 0.0258583770273 0.0120908610028
0.00742674088715 0.0245565527354 0.0154522800283
0.00651333926087 0.024820690348 0.0120850219317
0.00624511657785 0.0248725010071 0.0094239123577
0.00431231561757 0.0254923089859 0.00625182526734
0.00352362877188 0.0257953194567 0.00821033022504
0.00959804355978 0.0237392496533 0.0111579797776
0.00855520333775 0.024018914338 0.00589123617271
0.00520266963423 0.025395271638 0.0199517938066
0.00687660923653 0.0247855290607 0.0179623869653
0.0114152025935 0.0230291118576 0.00586682166314
0.00942266032649 0.0237558299115 0.00829477826889
0.00643653772479 0.0247662001585 0.00682149265234
0.00358703524291 0.0283969994634 0.02875157903
0.00457785506642 0.0283969994634 0.0174601546295
0.00426934877219 0.028319159552 0.00613920553371
0.00334416472846 0.0283969994634 0.0154972113458
0.00314199994318 0.0283522180192 0.0229636805219
0.00663441939156 0.0280935374132 0.0250482826425
0.00847732779419 0.0274621500041 0.0122710678683
0.00644986699692 0.0281080750648 0.0206441440877
0.0085641420019 0.0275124073886 0.0210076132975
0.00855549680248 0.0275564823595 0.025866690228
0.00859150612232 0.0274491824991 0.0145319923237
0.00669578062389 0.0280031199275 0.0165223765067
0.00783222701439 0.0276119813213 0.008434503915
0.00840700301485 0.0275350694901 0.0184581035032
0.0100962077482 0.0239628714235 0.0259347777555
0.0117055726512 0.0233246698605 0.0241354961744
0.0109591243998 0.0239041875622 0.0284401928155
0.00696728281562 0.0248477169744 0.0228641849025
0.00794971736329 0.0244660168731 0.0201998130279
0.00893100141749 0.0242089272134 0.0240064238033
0.0121026618804 0.0230152876644 0.0174170896715
0.00984901354694 0.0238608172043 0.0219626898914
0.0102387116667 0.0235806647029 0.0141992944227
0.00485421356036 0.0255691624174 0.0234099620695
0.0117797245214 0.0229758773388 0.00970407684145
0.0054409033219 0.0254140208619 0.0256112162116
0.0121703450162 0.022898227263 0.0125055065879
0.00982266214174 0.0237778325802 0.017178038116
0.0129079995677 0.0234662455222 0.0269391537453
0.0129079995677 0.0248164965944 0.0055351369905
0.0101375709487 0.0268594035341 0.00866763229126
0.01070690801 0.0267717351297 0.0152036949709
0.0106101981612 0.0268854774423 0.0204136207341
0.0110533056249 0.0267835985505 0.024955426355
0.0108808868089 0.0267417364989 0.0177264893965
0.0127622767429 0.0258662954614 0.0189426866151
0.0259596980571 0.012574548308 0.0190030450265
0.0256935014903 0.0129235565825 0.0105269436122
0.025819691669 0.0130325503959 0.0272467598495
0.0254535748189 0.0136354170421 0.0212749858567
0.0254187665256 0.0135603305765 0.01457929192
0.0260554224814 0.0122494530235 0.0128135064959
0.0254494231598 0.0132876939619 0.00479746944585
0.0275748628283 0.00633300002664 0.014274452267
0.027693997571 0.00633300002664 0.0168947876178
0.025878549852 0.00633300002664 -0.0194866329664
0.0259448461865 0.00633300002664 -0.00252328556126
0.026067551109 0.00633300002664 0.00919049192042
0.0259124458728 0.00633300002664 0.025304309273
0.0234958145984 0.0102159786974 0.0248942571555
0.0221499685891 0.00821243410974 -0.00212054158486
0.0225384153898 0.0112983682709 0.0192559496211
0.0221305340206 0.0113547411759 0.0146620382014
0.0228058787719 0.0112067648834 0.021972483178
0.0220865996756 0.0118629006946 0.0168860822766
0.0226042784371 0.0089764281099 0.00747343212943
0.0231632971933 0.00902946700278 0.0144751769115
0.0222607433514 0.0133142165018 0.0268368407123
0.0236559729889 0.00843544183714 0.0171761190757
0.0238756560471 0.00865012324549 0.0209773228927
0.0226875978969 0.0093744273592 0.010629424951
0.0245339475346 0.00759054388373 0.0231464835166
0.0222829131647 0.00845368219021 0.000782683924048
0.0224594636846 0.0123389037347 0.0239422773869
0.0234821436672 0.0106646649708 0.0271597480419
0.0244168165736 0.00836243762448 0.0259194985327
0.0219509992748 0.0157877612529 0.0223398079616
0.0219509992748 0.0106938305823 0.00877731024053
0.0219509992748 0.0100407534602 0.00481476900315
0.0219509992748 0.0138012183061 0.0138548833486
0.0219509992748 0.0135672555145 0.0220582217466
0.0219509992748 0.0146406763393 0.0166431929928
0.0219509992748 0.0117836441268 0.0114019376001
0.0219509992748 0.0140529049529 0.0194461449558
0.0222955447259 0.0151935046885 0.028568046559
0.0236968332496 0.0110760161484 -0.0240540001541
0.0219509992748 0.0119136613735 0.0062713432811
0.0219509992748 0.0166687896789 0.0191978548584
0.0219509992748 0.012707512167 -0.0129273333968
0.0219509992748 0.0131801533524 0.00880033263348
0.0219509992748 0.0104746516944 -0.00438011800505
0.0219509992748 0.0144932231984 -0.00772778871601
0.0219509992748 0.0170366663563 0.0147590529767
0.0219509992748 0.0152760330549 0.00939228805005
0.0219509992748 0.0132850653291 0.00393111260636
0.0219509992748 0.013246323598 -0.00584687352328
0.0219509992748 0.0134272841941 -0.000626291770008
0.0219509992748 0.0123256504367 -0.00912903492664
0.0270144979894 0.00931604706499 -0.00737462970152
0.0264965914027 0.0102672740607 -0.0187744140181
0.0268783963467 0.0100772903134 0.00739433078708
0.0256773437064 0.0123151377361 -0.0179338921619
0.0263613614943 0.0110005998308 -0.00490066466589
0.026503895385 0.0101682517906 -0.0215881850281
0.0268969456529 0.0103198951234 0.0174160412086
0.0266249561112 0.0100533410095 -0.0151903800294
0.0264020563055 0.010743556966 -0.0103391731932
0.0251079408357 0.00633300002664 -0.0139364911979
0.0253598703602 0.00633300002664 0.0151630199444
0.024003430472 0.00836351038901 -0.0223872037756
0.0220718986404 0.0182359232348 0.0100590343806
0.0219509992748 0.0182064672851 0.0209604763005
0.0219509992748 0.0157614182821 -0.0204443315879
0.0219509992748 0.01597360566 -0.0133842359132
0.0219509992748 0.016618063409 0.00558888976447
0.0245078034415 0.0134379771671 -0.0238260012862
0.0241631437862 0.0157573097653 0.0156366547974
0.0241734282227 0.0150624555344 -0.0171549167799
0.0243301113168 0.0152692840517 0.00547820258408
0.0242177128189 0.015760575384 0.0201919244261
0.0248691517255 0.0147460821615 0.0236000149686
0.0245938926556 0.0152857820171 0.0275323918179
0.0242199080151 0.0150524782383 -0.013892245989
0.0248703888223 0.0142494146631 0.00103941886272
0.0252463886871 0.0131976574335 -0.0154045384941
0.0249528635402 0.014039592718 -0.00166536861665
0.0252554092134 0.0134127657748 -0.00541400552992
0.025159401328 0.0134926003435 -0.00936978056377
0.0254372050331 0.0129279546776 -0.0123400153326
0.0248364856932 0.0144851689795 0.00861121715067
0.0249405904375 0.0136087697485 -0.0212277314509
0.0229825298475 0.0075548357632 -0.0133030642898
0.021952936836 0.00814929228905 -0.00498687232019
0.0222791475788 0.0101968349902 -0.0164401420971
0.0239511787427 0.00741439491752 -0.019854428841
0.0231364262876 0.00856993099912 -0.0176697553885
0.0220279132623 0.0115498852322 -0.0183588346351
0.0227158975281 0.0109405119585 -0.0211564696313
0.0243748596336 0.0065708614069 0.00565176566882
0.0239967524941 0.0066922510357 -0.000133450348869
0.0241152368126 0.00689984876738 0.00988413543721
0.0230707071069 0.00751925012203 0.00339046612316
0.0240534096367 0.00705576436511 0.0134830173241
0.0238578858925 0.00678064749051 -0.00485777105422
0.0240054063314 0.00667517593191 -0.0163758225968
0.0229967309117 0.00739634087296 -0.0102527125518
0.0234441063227 0.00707648430107 -0.00773133723457
0.022210406558 0.0183164970628 0.0266796181524
0.0230628391853 0.0172628428795 0.0170697466172
0.0231898393254 0.0171583511993 0.0242899781521
0.0240750613087 0.015481589949 -0.0045777067675
0.0235263004372 0.0162903804927 -0.00704483678627
0.0240536903381 0.0152014259676 -0.019753435717
0.0231940775369 0.0168900388656 -0.00321555159496
0.0239761067791 0.0159576608447 0.0109553378123
0.0236150541776 0.0163251427514 0.00136532722404
0.0234462892798 0.0167306941512 0.00819415531169
0.0239260729438 0.0155866546585 -0.0107886246049
0.0234055136924 0.0167022235976 0.00372551931342
0.0227094460768 0.0170251491531 -0.0224781842232
0.0231076248242 0.0165891039877 -0.0182365301203
0.0275641259719 0.00640582103327 -0.0100194829821
0.0277294644824 0.00642334154746 0.00214560803629
0.0272992406006 0.00926063639427 0.0268651516297
0.0274942878156 0.00844422512527 0.0185711709467
0.0280116429797 0.00660588286209 0.0242973822223
0.0274999185409 0.00839385664156 0.0160605166397
0.0271606490625 0.00965680037319 0.0208301784684
0.0272650560898 0.00907288071672 0.0122411913137
0.0273221474632 0.00842583453724 -0.00384352253289
0.0270879810652 0.00995193534336 0.0229416964117
0.0272800923362 0.00864511615882 -0.000937080506554
0.027572709008 0.00786727562991 0.00482711894034
0.0271462907777 0.00917866656545 0.00260773407669
0.0276830124629 0.00757914864615 0.00717662501569
0.0271655978665 0.0093155449075 0.00952736098896
0.027546375343 0.00716005361626 -0.00622778377983
0.027314071098 0.00810998509441 -0.0116867261
0.0274006041742 0.00721367963931 -0.0145957615041
0.0271703874463 0.00804667252414 -0.0209933350072
0.0273433785983 0.00721451413021 -0.0180649973279
0.0257765504816 0.012359867435 -0.00768574937362
0.0266534319779 0.0111452304069 0.0254658221079
0.0262264872538 0.0121264203594 0.0232351808272
0.0260918714846 0.0117219826123 -0.0029415794122
0.0259594219604 0.0122058408861 0.00277101476006
0.0260381958634 0.0119372898833 5.94410453767e-05
0.0259951927558 0.0122444002973 0.00726767086069
0.0266335848302 0.0108906345761 0.0146486921895
0.0256945828032 -0.00320647171557 0.0264488478123
0.0251834312474 -0.000162446753727 0.00842236862918
0.0254993840257 -0.00414371116975 0.0240635729413
0.0259302912926 -0.00165873317133 0.028437856228
0.0254296235205 -0.000570533453593 0.0148377780025
0.024601982382 0.000193566960499 -0.00542711419306
0.0254247186546 -0.00377933123473 0.0216023744731
0.0251797151055 -0.00275211856286 0.013887215118
0.0249473878801 -0.00106341519464 0.00504008965561
0.024830215426 -0.000376662325758 0.000931483267911
0.0252693413549 -0.00089766914555 0.0119311994201
0.0256368789777 0.000613909043841 0.0169647699424
0.0256852054219 -0.000957959711083 0.0214202544494
0.0261984833541 0.00136184660987 0.0280023472984
0.0257346018356 -0.00161960377653 0.0239496243302
0.0255815432539 -0.000765860407029 0.0186755420107
0.0255004182486 -0.00409803490429 -0.0247779991478
0.0258237288168 0.000192082928859 -0.0247779991478
0.025588325504 -0.00632699998096 0.0158078657691
0.0255651132132 -0.00632699998096 -0.0106710322471
0.0265099743141 -0.00632699998096 -0.0153989656595
0.025110247416 -0.00181308770496 -0.0235947067681
0.0248151450237 -0.00388885901468 -0.0227682038403
0.0251393671614 0.00129750343179 -0.0189987477885
0.0246006085327 -0.00114504061902 -0.0184330993672
0.024690338534 -0.00129157058051 -0.0208796970082
0.0259682150557 -0.00632699998096 0.0180370122392
0.0284989100464 0.00152154156114 0.0105385360402
0.0282543296003 0.00186174098832 -0.00851717924566
0.0284717294345 0.00190765420715 0.0259043187472
0.0272192092223 0.00199253726536 0.00397923524449
0.0266138936289 0.00199222498486 -0.0127367003248
0.0265128081408 0.00199203315705 -0.023004972993
0.0252777769727 -0.00632699998096 -0.0130868970651
0.0252053543086 -0.00632699998096 -0.0028994836511
0.0248215871671 -0.00461721385575 -0.02039934531
0.0246201567497 -0.00385971257317 -0.0171991441585
0.0245716548408 -0.00353329620987 -0.0125659922677
0.0246865804688 -0.00459686434983 -0.0151363451756
0.0249804629547 -0.00320180859088 0.00803956668411
0.0247024968409 -0.00285988097108 -0.00237523102189
0.0245379099404 -0.0011934931611 -0.00772880765185
0.0248601548236 -0.0031993721019 0.00345102840541
0.0250723491923 -0.00394429815168 0.0111327127239
0.024634762217 -0.00234816687176 -0.00467515055711
0.024758883697 -0.00257365457852 -6.50231805168e-05
0.0244830008596 -0.00157495441905 -0.0162107165986
0.0244830008596 -0.00128874007706 -0.0124671269506
0.0244830008596 -0.000315122340533 -0.0100786882876
0.0251146209017 -0.00631511449336 0.00385529572054
0.0248263009923 -0.00552117011537 -0.00754237947444
0.0254688888569 -0.00601617341262 0.0249963331246
0.0245734034727 -0.00328931633501 -0.00894216381266
0.0250256874312 -0.00513434526025 0.00557995961704
0.0248744524166 -0.00472669907416 -0.000447887128765
0.0248015193447 -0.00468542133631 -0.00422445494655
0.0282443982879 0.0014997110013 -0.0152288804464
0.0284916923176 -0.000295750452618 -0.00202129362962
0.0284670549119 0.000844046336538 -0.000162755562304
0.0286325193216 0.000871738825321 0.0127345440327
0.0284284810774 5.69845401632e-05 -0.00574815694873
0.0286929088802 0.000509970476233 0.0162131868435
0.028548264065 0.000161950174313 0.00386898279528
0.0285416551283 0.000908275209695 0.0058229721678
0.0282489500933 -0.000618431559548 -0.0170732318305
0.0282067308559 -0.00124610311482 -0.0191503811637
0.0281106790542 -0.00087876046354 -0.0240161745892
0.028363949777 -0.000393730896622 -0.0112994422943
0.0281655992147 0.000415382877275 -0.0213514322055
0.0251249146397 0.0015541288964 -0.0146524487998
0.0248512473892 0.00114337283735 -0.0117245864625
0.0250844117249 0.00106936673388 0.00293221332392
0.02498222099 0.00112962691581 -0.00153753557808
0.0254622938744 0.0016989977356 0.00538381066465
0.0260657820988 0.00199214973678 0.0100186982607
0.0276698595756 0.00199270895013 0.0232962454074
0.0264287991068 0.00199235005632 0.00758047845392
0.0277879882214 -0.00588837436365 -0.0094420150701
0.0276656039786 -0.00582093107635 -0.0208251756881
0.0280288164239 -0.0057103351058 0.00503144764373
0.0282680816507 -0.00538603815867 0.0162732772875
0.0281226060944 -0.00554519814461 0.00835168999859
0.0278771580184 -0.00575494355168 -0.00669389457779
0.0285437005253 -0.000675385221734 0.00140086870695
0.0286710365134 -0.00124865353572 0.013702179967
0.0287729710306 -0.000156244595237 0.0231064326917
0.0286162026817 -0.00117116250303 0.00845333209251
0.0287498272816 -0.000803950296321 0.0210854130458
0.028724574371 -0.000397713942905 0.018562283703
0.0282452324583 -0.00241776208909 -0.0143091897071
0.0285986291536 -0.00188800470876 0.0114629271857
0.0283894379925 -0.0022208553376 -0.00366621085379
0.0280387698606 -0.00396639503596 -0.0191041744029
0.0279957493341 -0.00470446384166 -0.0163303730783
0.0279570813072 -0.00389101503277 -0.0235837299951
0.027918997839 -0.00532119206916 -0.0132892336523
0.0286179482091 -0.00348651172626 0.0267097572681
0.0284841849857 -0.0039006780626 0.0180055220437
0.0282025112724 -0.00450535898846 -0.00288720289272
0.0284095865443 -0.00381556215849 0.010121386632
0.0285110746482 -0.0040896456654 0.0223646685193
0.0283160001647 -0.00398052701917 0.00283524897403
0.0285035876327 -0.00341487862246 0.015187363269
0.0283644145878 -0.00454380928788 0.0128218364206
0.028246260673 -0.00339941445988 -0.00774793344114
0.028433704041 -0.00307029347118 0.00560405331239
0.0281331592867 -0.00267566757952 -0.0218913874592
0.0282298005483 -0.00298642316651 -0.0118367190729
0.0283539103317 -0.00327094209478 0.000319739001755
0.0252126096743 -0.00366154616354 0.0164129705223
0.025301890834 -0.00436963720651 0.019505342084
0.0282861924508 0.00373207564513 -0.000430351982709
0.0283728103319 0.00385877833831 0.010336517665
0.0284481998543 0.00426783492125 0.0214264961387
0.0283206723177 0.00362504625558 0.00294972449702
0.0284203850072 0.00376827243231 0.0153291816717
0.0283806285287 0.0032028586152 0.00746914319373
0.0273421381225 0.00628239710385 0.0212798442861
0.026285960773 0.00629593406225 -1.61601347271e-05
0.0258249832917 0.00620272113636 0.0035135020401
0.0279627671729 0.00600264823808 0.028757000342
0.0270304729442 0.00199300004169 0.0148788727412
0.0272265021678 0.00633300002664 -0.0241056114816
0.0253378770191 0.00605950243853 0.0118684847455
0.0255302452778 0.00593265984033 0.0275387029871
0.0257648546872 0.00403455053857 0.0245977955215
0.0254751776145 0.00526405081043 0.0228334441298
0.0252029860192 0.00561157294736 0.0172637426272
0.0259645333906 0.00379370584818 0.0287519724097
0.0260743645145 0.00268602698076 0.0263141929328
0.0245868425695 0.00581176677337 0.0018157790207
0.0283990049794 0.00402656801804 0.027795940354
0.0279554313819 0.00616159940306 0.0118881665153
0.0282531219724 0.00536917175468 0.018924402703
0.0280779629067 0.00562582910031 0.0087400467709
0.0255797943619 0.00199300004169 -0.0040082977848
0.0248624641427 0.00448407365463 -0.00352420048617
0.0252328032613 0.00297075263056 -0.0086885600507
0.0252412406466 0.00303040669789 -0.00592752265035
0.0252287992172 0.00322357375322 -0.00140143454622
0.025313430862 0.00393534197576 0.0106711748397
0.0258242802781 0.00274700148685 0.018088452433
0.0255415547142 0.0033290642906 0.0131056142527
0.0252627841196 0.00332908201774 0.00153010254764
0.0254759690166 0.00376688545594 0.0154648426666
0.0258430090982 0.00293462205953 0.0210442187166
0.025186405521 0.00408554870736 0.00714028723058
0.0252284534472 0.00301373172547 -0.0208323982219
0.0250325441527 0.00382431310103 -0.0172701596466
0.0249269391905 0.00419326779677 -0.0136438450285
0.0247515022284 0.00521797041668 -0.0108528765595
0.0247289714032 0.00497897295637 -0.0075844958702
0.0250059445768 0.00614585109546 -0.0227625828865
0.0280634301128 0.0027189288734 -0.0244327743241
0.0282728476232 0.00451136313245 0.00557254523441
0.0281513930335 0.00431074876488 -0.00736633984924
0.0278412288042 0.00518592792435 -0.0212583021822
0.0282308640286 0.00405837927151 -0.00419515530777
0.0279653918654 0.00474093705689 -0.0170034683763
0.0279509339824 0.0050912457714 -0.0133790228263
0.0284620001912 0.00224461547994 0.0190916538414
0.0284620001912 0.00427535921995 0.0238629011307
0.0282399955593 0.00219989893847 -0.0111961559096
0.0283309120959 0.00206994708445 -0.002574837192
0.0281275129113 0.00302987202522 -0.021358425368
0.0281664659757 0.00211637422456 -0.018310814046
-0.0174138778491 0.0224466185725 -0.0226954281283
-0.0180760901026 0.022123787172 -0.0110661566927
-0.0186605464871 0.0215615314142 -0.0148571454066
-0.0186784739801 0.021498801831 -0.0172784540476
-0.0210919994861 0.0176231358766 -0.0162305441747
-0.0210919994861 0.0157689170553 -0.0149388106937
-0.0192788080414 0.0168047585944 -0.0240540001541
-0.0145248292188 0.0224368409306 -0.0240540001541
-0.013859000057 0.0227949893049 -0.0193761852335
-0.013859000057 0.0215688238744 -0.0216299935335
-0.0210919994861 0.0169889158909 8.90478018036e-05
-0.013859000057 0.0227415024722 -0.00719571834261
-0.013859000057 0.0211822896329 -0.00186466979285
-0.013859000057 0.0187973001877 -0.00207702455319
-0.013859000057 0.0198942911839 -0.00661966015547
-0.013859000057 0.0207506692904 -0.00445527305384
-0.013859000057 0.022125745951 -0.00997128095101
-0.013859000057 0.023791684272 -0.0142848310103
-0.013859000057 0.0234629213109 -0.0117772264948
-0.013859000057 0.0226929445478 0.000523419886879
-0.013859000057 0.0222601472566 0.0036647128983
-0.0195292375613 0.0207949375499 0.00239330987152
-0.0170562971501 0.0229372424107 0.00241375959197
-0.0204882940344 0.0196964445932 -0.0176734050133
-0.0195966805542 0.0207739614832 -0.00568405943439
-0.0204559659067 0.0198182266778 -0.0108394452606
-0.0210162889375 0.019400517986 0.00169819214387
-0.0189733679567 0.0214568106627 -0.00275107380155
-0.0195673508099 0.0208715943446 -0.000478417171987
-0.0208346765645 0.0193757800372 -0.0147539056425
-0.0176940533588 0.0224898308082 -0.00492343558883
-0.0179760905593 0.0222550895706 -0.0077895546791
-0.0162955347199 0.0235364575577 -0.00186010569726
-0.01673014593 0.0230825494504 -0.015032644719
-0.0168868469804 0.0229214650949 -0.0195375360708
-0.0163821375718 0.0234224413965 -0.00672363871272
-0.0150099917601 0.0194792443792 -0.020444675271
-0.0153729646386 0.0181438632656 -0.0171422918862
-0.0153862195622 0.0172893405992 -0.0139980149696
-0.0170489600183 0.0168220085172 -0.0200719570782
-0.015457362016 0.0166745819438 -0.0114326228046
-0.0171921825534 0.0159979983257 -0.0175168029499
-0.0160077953186 0.0236136970616 -0.0127006460529
-0.0154684983213 0.0240150592296 -0.00950870472601
-0.0150933712568 0.0241614745649 -0.0177520434418
-0.0158883014418 0.0237984575901 -0.00444087335295
-0.0156321259962 0.0236662491096 -0.0218057917754
-0.014831630082 0.0244041984349 0.00230968328143
-0.0178235697301 0.0151357238303 -0.00998819627364
-0.0179419588253 0.0153298049748 -0.00480854396011
-0.0173334589103 0.0154351987869 -0.00696960097512
-0.0141097538256 0.0173912575468 -0.00549683459845
-0.0158053128165 0.016361440764 -0.00919961389494
-0.0185369164757 0.0147196999873 -0.0140244880123
-0.0187836555354 0.0145844752481 -0.0160303188141
-0.0192096765696 0.0147814919226 -0.00825464254431
-0.0145751150804 0.0189811751002 0.000194969277568
-0.0165322176277 0.0173538186298 0.000410875100898
-0.0201207665372 0.0159975103994 0.00365818728096
-0.0152454512929 0.0202139552135 0.0034051293375
-0.0183050048776 0.0166854390232 0.00201798367396
-0.0161081045139 0.0165973189784 -0.00241826099933
-0.0188855001866 0.0154294149812 -0.0018948548871
-0.0187200300375 0.0153073168961 -0.0204650688623
-0.0179178187933 0.0167050351397 -0.022137951018
-0.0195013143532 0.0205873794546 -0.0237109236237
-0.0195005711528 0.0207698382133 -0.0129487355615
-0.0197949612909 0.0203403499261 -0.0209170112916
-0.0188300037104 0.0217706665969 0.0103483079396
-0.017910823168 0.0228425169654 0.0249823799373
-0.0188819456947 0.0218915050303 0.0208737825521
-0.0181879175369 0.0224288848665 0.0149064728256
-0.0192171411652 0.0215287748147 0.0172981392193
-0.0210919994861 0.0187472190607 0.0165238217062
-0.0210919994861 0.01910625819 0.0188188447106
-0.013859000057 0.0231893522343 0.0126927236286
-0.013859000057 0.0230733612426 0.0197942042006
-0.0142640464127 0.0240019886872 0.0287539996207
-0.0165896981293 0.0234089112153 0.00659888046499
-0.0169540172984 0.0234421467433 0.0214722820362
-0.0171115238201 0.0230982296291 0.00924443759639
-0.0162350716288 0.023808077196 0.0145928589517
-0.0179746775655 0.022562030069 0.0124591674973
-0.0178922616122 0.0227381954131 0.018660032395
-0.016070174285 0.023575374208 0.0044554959922
-0.0139747098888 0.0250281760134 0.0212528235385
-0.0156075698934 0.0244205882246 0.0241352291072
-0.0148894540486 0.0246557333812 0.0102547826684
-0.0160741659542 0.0239584382689 0.0166287615051
-0.0166311261907 0.0237678709688 0.0269566361949
-0.015740866058 0.0242331134783 0.0190288958476
-0.0141188198058 0.0220018687939 0.0148273297839
-0.0153302667861 0.0208542470504 0.00818551345244
-0.0171971739136 0.01908569816 0.0102960986409
-0.0173186442343 0.0189706275184 0.00747164408249
-0.015466133065 0.0207255389034 0.0054124771375
-0.0191297013631 0.0172549861625 0.00545958894197
-0.0174519369133 0.018844357381 0.00503501546103
-0.0168836034153 0.0198720852256 0.0282270074283
-0.0196426489165 0.0173752671329 0.0277428336965
-0.0197906608617 0.0170910613081 0.0251636584344
-0.0161497171211 0.020108326444 0.0146306387514
-0.017613422254 0.0187596391584 0.0137169340259
-0.0142599189131 0.0218794930337 0.0173361038776
-0.0193388601203 0.0171714909825 0.0127269364676
-0.0169727195445 0.0194063642349 0.0169963681001
-0.0185060991071 0.0180628486863 0.0195828524876
-0.0202172508774 0.0164657770593 0.017473506656
