-0.020136106205506443 -0.020609737537246514 0.024230756748828575
-0.021902646478797853 -0.018819108849361974 0.022740167339083274
-0.019482603617260754 -0.021232021583281236 0.021857355813211354
-0.021296208741161615 -0.019400636550095888 0.02083361938222689
-0.019766040717254928 -0.020891100696365142 0.01771022381144887
-0.019921037608375092 -0.020881365362027973 0.028325145192926827
-0.021643098541409583 -0.01886677295769702 0.011693923353582934
-0.021167798162430168 -0.019068137440637095 -0.0028069365323396527
-0.02085575050772733 -0.019667756656332313 0.00917772350136676
-0.02246079375906032 -0.018283583802512732 0.025747740834051458
-0.021473565648036395 -0.018865751260970082 0.003170209476098456
-0.021724186652570976 -0.01828659596179455 -0.010944306248060403
-0.020830672660239268 -0.01948712900978586 -0.000386458295061491
-0.020907519790093202 -0.019305178404978963 -0.004915219626821083
-0.021318124527202872 -0.01911018451959767 0.006643931208859816
-0.01108551338971844 -0.02368633110409671 0.025066685139220175
-0.014899039737888408 -0.020687737290031386 0.025755884881888964
-0.01815034113718173 -0.018163982164213412 0.026961329443553877
-0.01290529010176631 -0.021505103260694186 -0.0017623242366871616
-0.012228764782050407 -0.022444963894907414 0.013691868968547696
-0.010278792543074776 -0.023456861845427793 -0.005671843126205953
-0.0163157783546907 -0.01926425883536142 0.014366555357004105
-0.011494630544920285 -0.023258699513357788 0.022698712990924484
-0.014801620585521596 -0.020482403651135853 0.015613714365293359
-0.01189786377330123 -0.022128588176795055 -0.007974171513874992
-0.016333723306370812 -0.019504348864388316 0.023936545808972164
-0.0123846488479166 -0.02251180740425543 0.020803176077589136
-0.013034765780175093 -0.021874043236305034 0.015946795446836685
-0.01187202921988584 -0.022434841342053407 0.002797082636458375
-0.012562695033183123 -0.022002709693633604 0.0068792944807828105
-0.015264712578772266 -0.019959533796725725 0.009571993250423641
-0.013866567442258084 -0.02101900984134497 0.008263215941361694
-0.012793117533327021 -0.022129223615025374 0.018434396745934126
-0.016722870039743834 -0.019035251144430512 0.017740442032961014
-0.010305588933230457 -0.02360598529732466 0.0007334659803323283
-0.01840560482107438 -0.017902972549638938 0.02469501507467689
-0.016383648759241594 -0.019143736264428304 0.011828266074781154
-0.01590103835150289 -0.01973471879577851 0.01985968045742273
-0.014289781947072875 -0.020572386502178915 0.00391746953845327
-0.010286291584210341 -0.023221876792557272 -0.014299716965167608
-0.011078183046716707 -0.023275110213697 0.0110432836006086
-0.0176089650520439 -0.01844288827122664 0.021548420162875823
-0.013732747738938123 -0.02120820221252278 0.011443781673444224
-0.013710154628885224 -0.021535770853535745 0.023113248137011284
-0.012979719212199313 -0.02387157408391485 0.009938957629541861
-0.01360235395655795 -0.023880012992032632 0.02492726154209801
-0.011742408857409795 -0.02376679721858213 0.015213108262306308
-0.014926137233480177 -0.02398846379631268 0.02073803329743829
-0.021062313405501867 -0.018803826278808503 -0.01853860208802021
-0.0200821568037135 -0.019640947262988095 -0.023072149935610953
-0.01859724447227814 -0.02114837734088429 -0.021599874744698794
-0.020517856160054283 -0.019462478432662276 -0.01430508814417656
-0.0206181728378524 -0.019555757315237707 -0.007601541903990128
-0.01961965289628017 -0.02020809952639357 -0.01920941440232194
-0.02011574262387796 -0.019949558969164755 -0.011156515983167668
-0.01843320379142087 -0.02151602377858232 -0.013989125964053075
-0.0183459858522985 -0.022390810956845877 0.024196740839898288
-0.01816469984299435 -0.02246621146789346 0.019994732954482813
-0.019026606787230952 -0.02127729971472271 0.00015294157656756298
-0.01875919126971037 -0.021371145325443926 -0.006878740553926548
-0.01937736397179113 -0.02116261699191366 0.009779379318785749
-0.018753933515180964 -0.021777101769974733 0.012360557008989637
-0.018532044573842443 -0.021772134804760344 0.0025539391424406407
-0.018472003903030387 -0.02173488001699147 -0.0018215808782630991
-0.01975073755635888 -0.020726585193229955 0.004972080613321364
-0.019020175691061302 -0.021598820648297497 0.015292872527487624
-0.015698641932272606 -0.02354587307932288 -0.012785639878086626
-0.01635211319262615 -0.023210676599841582 -0.007919765094240869
-0.01597327448933343 -0.023616049881820988 -0.0005479466424012126
-0.015291424012749966 -0.023711380017373357 -0.017912659793146827
-0.016716425326988457 -0.023645756592321848 0.02483054534971256
-0.016281107996971928 -0.0235481330086248 0.00609014562915379
-0.015886496989431856 -0.023987559326829958 0.018782635102789817
-0.015183358128658918 -0.02400745653355826 -0.005538593576476243
-0.015427593501212457 -0.023916952555592612 -0.003389096163211678
-0.016925085144917293 -0.022509155661648555 -0.023003133796626118
-0.017038874478418377 -0.022515715103310022 -0.018800353973601344
-0.0170082042675121 -0.022590782763917034 -0.016222328840756216
-0.017479112696649847 -0.022386604642515157 -0.010001363456745384
-0.017216624255270103 -0.022984847163899653 0.010088530251747099
-0.017998479232141276 -0.022543182817709072 0.01740551006026576
-0.018150573422744395 -0.022614860742092572 0.026796415555081794
-0.017959361389781492 -0.022326070128631734 0.0049456657808763065
-0.017841859461078968 -0.022469534428310223 0.007743383496749358
-0.0172419213416119 -0.02320085673611006 0.021968551271154532
-0.017297576992855897 -0.022995663827675882 0.01370494019601044
-0.017640780914047176 -0.022358656806759872 -0.005486723658450898
-0.02255442237566229 -0.017145469515724585 -0.017547228781065936
-0.02298854906295497 -0.017390988592172085 0.0201195477469138
-0.022553768338337006 -0.01778626504378565 0.00901247775431243
-0.02242502653244901 -0.01743995927182858 -0.01280512176128199
-0.022477835094937094 -0.017791802047883873 0.005153567003969367
-0.022120462058990677 -0.017622258837942266 -0.020538626051517662
-0.02232858287568185 -0.017875298695151264 0.0011106850619184948
-0.02193159243446445 -0.017792976658608177 -0.0228352133808086
-0.01909627667670371 -0.016899717967296925 -0.012443802892874844
-0.011221292224682539 -0.0224966802051982 -0.016526815342571635
-0.014850736169681258 -0.019997319917603333 -0.006114968527059111
-0.01862719497165629 -0.01726604368983169 -0.00918310296679697
-0.016463646183334183 -0.018818145740552433 -0.008771879344736862
-0.014026687605197707 -0.02049043485403091 -0.016388845613395483
-0.018055571638671778 -0.017601288204912358 -0.017035154967732502
-0.016111110788199396 -0.01899559912454853 -0.01673155866742732
-0.012640134780086172 -0.021463997550402538 -0.01837343425565661
-0.0162923431060917 -0.0189131897685467 -0.011701718587821586
-0.019579773139928085 -0.01660930426160858 -0.00653140936250436
-0.017930290686207787 -0.01784713012730852 -0.0004191391744461405
-0.017983035413666675 -0.0177815815652813 -0.0033770501144042356
-0.01599721165255427 -0.019099402280568167 -0.014359554138202316
-0.013739131587931299 -0.020769065729670706 -0.008638257379798184
-0.019212962900232198 -0.016795272204388197 -0.014671995482254238
-0.012216754286526896 -0.021804170474129005 -0.014415819567028509
-0.013803498525206109 -0.020680561556769516 -0.01315347972260503
-0.01791826995075886 -0.017878607295236028 0.0020143805219620323
-0.01687384001179909 -0.018547061113166494 -0.006383556649345995
-0.01485890779817261 -0.020094965825451925 0.0016335570637735254
-0.014916004822868983 -0.01997519014268874 -0.003830711370903921
-0.018511345292300592 -0.017564028314940743 0.010871992961329522
-0.01830447510345241 -0.01782969578549767 0.018901757157765688
-0.015457289848708897 -0.019613781728230258 -0.0015055671408173068
-0.01602821771779807 -0.019268325025817396 0.0034462812029954805
-0.012195350800272326 -0.021860370927454756 -0.010718054079305053
-0.017074387896352242 -0.018570753800493466 0.00800607361577707
-0.019497033756571823 -0.016882228731101536 0.013451056759575818
-0.01901436900903141 -0.01714917822027327 0.007509567081944314
-0.015752632909937545 -0.01950869189804919 0.006203619249302957
-0.01863929101232224 -0.017547278319538954 0.016223843799172296
-0.025176134043926286 -0.0051381563037226595 -0.015063019949826123
-0.02459831393050278 -0.011949210722288333 0.02875700034201145
-0.020548294409657275 -0.016455000266432762 0.010009442647217258
-0.020422801110182402 -0.016455000266432762 -0.01705157211261315
-0.02500114173571712 -0.0065268852208279155 -0.0244159996509552
-0.026290617116849473 -0.004881000146269798 0.004569736221541631
-0.025871421418152626 -0.004881000146269798 -0.012674443465253735
-0.025594761113963783 -0.004881000146269797 -0.008080893031363397
-0.02613692500674837 -0.004881000146269798 0.01632356130093083
-0.024803985840686715 -0.009975756164398344 -0.0244159996509552
-0.025660482914491464 -0.004893945420474035 0.009794442161994946
-0.0218386943077565 -0.013161210505300013 0.013402166174322445
-0.02222535933086799 -0.012375556167773215 0.015346606648394837
-0.025055651979384298 -0.0062363093101662215 0.01829365353544434
-0.025387305685291912 -0.005334468997507855 0.013338407124225921
-0.02395748828439775 -0.008671861109368515 0.018704598765705446
-0.024817106300319785 -0.006154065353816443 0.000622630687431633
-0.02301674456840086 -0.010366378579413377 0.007670590179902325
-0.021103938963260026 -0.01470506189184963 0.011186708784352632
-0.022746758444835195 -0.011032291449952795 0.009721875500700233
-0.022990550986623285 -0.01034239532409233 0.005295800538163396
-0.023857706186980035 -0.008375916087915556 0.003714240240178574
-0.024719810291616337 -0.0065581228641652615 0.0061289194357745155
-0.024016633154988025 -0.0078758877492788 -0.0006321539414499001
-0.02566067820738938 -0.005044094009865789 0.022414674704772278
-0.022728694950528115 -0.011178775966352686 0.012820562112109047
-0.024916962171721815 -0.005735740415244805 -0.005134185637155033
-0.02465683447332825 -0.007242745202807283 0.02198514150093421
-0.022761203216013652 -0.011301454165325462 0.018467293089923304
-0.022030948867676342 -0.012535399350135324 0.007536377210760481
-0.02439381091449095 -0.007403329043421589 0.00980098134118775
-0.024532639394142602 -0.007261110873379769 0.01456261726268426
-0.023910078876106137 -0.00855618141342185 0.012306609704482642
-0.02024276091147463 -0.016455000266432762 -0.00449734133856091
-0.02067720580779106 -0.01585071127363833 0.01650796930034949
-0.023299828495046512 -0.010416789192410122 0.0246583411853138
-0.022215497354007303 -0.012765059877173069 0.022998157184868438
-0.023655098491364678 -0.009486922102852794 0.022501886551303533
-0.02254708326499765 -0.01222357062207896 0.026477588797665083
-0.022955073408071763 -0.010967316562330494 0.02083093068238606
-0.02088167240010853 -0.016002247592328954 0.0268219200871784
-0.023705719493729564 -0.009627020816515551 0.026781516495238127
-0.021642324761320136 -0.014207155582747233 0.02549962147177804
-0.024816492858748013 -0.007001414614657429 0.024779053155064134
-0.021272920265126213 -0.014644236641465743 0.018827259697884055
-0.025774685803971884 -0.006059166561434769 0.02875700034201145
-0.025698099798285585 -0.005176401851989911 0.026514816825448564
-0.022898212883056684 -0.016455000266432762 0.022216111662998052
-0.022023242362827638 -0.016455000266432762 0.012723258893843835
-0.022625999487938524 -0.016455000266432762 -0.01512848289525489
-0.022795113449789996 -0.016455000266432762 -0.0057142954052373345
-0.02318847348905993 -0.01624874611430042 0.027174770396558124
-0.02716048827295157 -0.008170463983702067 -0.009136875118963593
-0.027296053756204704 -0.008039854654153904 -0.00196002635118796
-0.027150922564835256 -0.008334010888988476 -0.006904310982252988
-0.027422431153428774 -0.008338612104336271 0.01219344835214923
-0.027549130067011283 -0.006248243049434922 -0.016031360181834438
-0.02754650850611661 -0.0064272851734957495 -0.013037437265647657
-0.027458793756801006 -0.0063848992151238765 -0.019933102283671022
-0.027423879913294463 -0.008044307156487771 0.007071767703880846
-0.02702548443869382 -0.007978189625260384 -0.02200473514709837
-0.02257427017504056 -0.010772002068572335 -0.01344378031683581
-0.021021754461077968 -0.014210043301688912 -0.019469448003473337
-0.02140505678288792 -0.013361221498933436 -0.01564506501070326
-0.020656862701744733 -0.015018094970943929 -0.022499000976591722
-0.021295971793411264 -0.013909016170495711 -0.002592539890348384
-0.02127563218372797 -0.014090014750374767 0.002522394602577015
-0.02054316600631181 -0.015328914090742125 -0.012851870352661816
-0.02081681498454198 -0.014873250094950462 -0.006836315237579654
-0.02208028107023246 -0.011983339336757442 -0.00877785168046967
-0.02195648362583303 -0.012493955905477534 1.1048087393660498e-05
-0.020943608631892603 -0.014928435383148956 0.006018606407575447
-0.02236235529362464 -0.011513838176264559 -0.002569826301115439
-0.022952167734856376 -0.010107506687771831 -0.005640833246760485
-0.020450310109674956 -0.015618722115498978 -0.009782431465233103
-0.021902927640824143 -0.01272939790882537 0.004363038406018285
-0.024324705513070255 -0.006965353633499411 -0.00785446383919237
-0.02066695003340496 -0.015397534009220639 0.0002553185330166413
-0.021495134081771762 -0.013218540321867209 -0.011779953091137867
-0.0234341126250812 -0.00911154625623171 -0.0023596395854332446
-0.02326832466890997 -0.009255087490237198 -0.011013809933769301
-0.023098637598293205 -0.00970089192596179 -0.00857249708061934
-0.021746638096711568 -0.012823795706542627 -0.005342220873209393
-0.022587433435195994 -0.011142076485294998 0.002492365937052354
-0.023927716512288952 -0.007948357513971821 -0.004410068209479815
-0.020542605234604595 -0.015769274809187793 0.003747726005599919
-0.02831125471462237 -0.0055248160404556225 0.027347594313594435
-0.028104640645906526 -0.00525809817742956 0.012286796665545056
-0.028171313319442875 -0.005372136380176468 0.017132672455451792
-0.027869666194410975 -0.005385680492489617 -0.004700324006997568
-0.027782969587174643 -0.005405938729322012 -0.010925561899839856
-0.02790269545083015 -0.005329745890705343 -0.0023769461775197138
-0.027688513533708943 -0.005068344305038198 -0.018068128672332543
-0.027619675459583562 -0.008051047933983858 0.02093801135278847
-0.02795508660736118 -0.005829718867919177 0.005677813391253459
-0.027920845481542292 -0.006731298881628225 0.0192118299249213
-0.027702289448327682 -0.008016872467338999 0.026282902394730613
-0.027802881787871957 -0.006325634476174307 0.003514369217724819
-0.027833587616588037 -0.006565766094930027 0.0099880956015425
-0.027749904420767555 -0.007218619112203333 0.015546102751860094
-0.02770428982491419 -0.006579831430677354 0.000923254261290923
-0.027802101410746537 -0.005675064412716829 -0.008087780322162152
-0.026444137669843465 -0.010086253463471407 -0.015292846968526763
-0.026255854922710334 -0.010860444018133398 -0.006832743652945669
-0.026168363058167193 -0.012280142818941216 0.02408454846469103
-0.026083744329107553 -0.012008158951451785 0.012103576515518012
-0.02588228572006334 -0.011497399694724108 -0.01293822897028958
-0.026373615057831146 -0.010482191019774979 -0.009426356223555034
-0.025909557164945182 -0.01176465432869951 -0.004504393871826797
-0.02580510636394097 -0.012138076259747855 -0.001238493069721111
-0.026237310590881753 -0.010295398068671791 -0.022326813488486134
-0.026187521502755443 -0.011337079192710226 0.0012191074193263624
-0.02608637629096754 -0.010842977946458953 -0.01740445818762038
-0.026968850543873494 -0.009734956754362076 0.014118399596105159
-0.02711399389627731 -0.009710677113552339 0.024291028002798414
-0.026957231755656095 -0.009335381111473081 0.002334789495203937
-0.026773006973409584 -0.010343934197321282 0.01613428161460815
-0.02674545358173524 -0.010627043256276097 0.021811619393664917
-0.026600334944862095 -0.010400188699761396 0.004779986753871264
-0.026833338420933626 -0.009927068185976513 0.009249880808929918
-0.02668807205506266 -0.009806971239873863 -0.004876221063031698
-0.02677032594598381 -0.009756272702976713 -0.00012046703186817907
-0.026456030069670126 -0.011325439407987341 0.019283994930176466
-0.026475758963678948 -0.01153404064422793 0.026455762676580653
-0.02725429353249566 -0.009103215923288346 0.018169838042586768
-0.026837424189436115 -0.009134065010992044 -0.011511406553967284
-0.026999036106183573 -0.008525275674841284 -0.014012659935341678
-0.026820391770711584 -0.00885266588841198 -0.019092472974356397
-0.025403429352338823 -0.012174701123496385 -0.02391135164054104
-0.023932174699852794 -0.015064522894512414 -0.018698118901817006
-0.02480323313993019 -0.01338369563171463 -0.021196309846722057
-0.023443411409814933 -0.015782681664183583 -0.021694180089295058
-0.025648114336841537 -0.01264451659582717 0.0037059138431119855
-0.025332336935827347 -0.012600881153797469 -0.015886090109728336
-0.025343886618934688 -0.012807910270027013 -0.009245692187913062
-0.02514244606859813 -0.013431367464338626 -0.0029633064964183853
-0.02495404600263487 -0.013510209774018178 -0.011628165562764931
-0.025147867003015818 -0.014233199482956736 0.02682697063628801
-0.024321759556161462 -0.01540856600026513 0.018415150472315952
-0.023749982041513837 -0.01585424751689705 0.00035475917718171945
-0.023626460623309177 -0.015980066360576552 -0.0020946814897593114
-0.024093964423120114 -0.015613408643931523 0.012561262944237466
-0.02370290571826813 -0.015602605994078044 -0.013289837850578485
-0.024628180270351567 -0.014246203882225951 -0.006996338044353675
-0.024227314425031916 -0.014974466267333592 -0.004571453871120512
-0.023657517133021506 -0.015766627359261084 -0.010027190928746398
-0.02421787897761158 -0.01534108171551737 0.00828872868165452
-0.02437043558214562 -0.014950317484762079 0.0032037116266225452
-0.02467027908368652 -0.014793700652671937 0.01560869559381996
-0.025169316050866503 -0.013511856730662014 0.0012987636777398893
-0.025258063910897494 -0.0139277917372677 0.02238104327681634
-0.025316903923294526 -0.013508757994663093 0.010904395622677684
-0.025368195523942403 -0.013670216754009541 0.020197221787800094
-0.025324221466768805 -0.013575004861193087 0.013813259318044084
-0.0248788910347863 -0.014666248016963769 0.02446486510360614
-0.023259117771932975 -0.009264649811190096 -0.02150021629600509
-0.024903224210012974 -0.0057810887398629 -0.02176748755685915
-0.024001632390534308 -0.007611112869625148 -0.01973569772885443
-0.023225574160855255 -0.009329691412141806 -0.017070873462044053
-0.024308876909939454 -0.006930720834385867 -0.01212671177673216
-0.02167922405530916 -0.01275407892454398 -0.02211580361524951
-0.02353059277611747 -0.00865422863472294 -0.014279299039985949
-0.02252072610656149 -0.01089057524214105 -0.01910890772070794
-0.024366693852532283 -0.0068026853943454375 -0.016843939904800737
-0.02808413875497274 -0.0036818235590386165 -0.009495614476404747
-0.027977210059290603 -0.004059901496132357 -0.014456476776975969
-0.028119322435698427 -0.003055392753408362 -0.012255267934891657
-0.02802966163293886 -0.003361633481927962 -0.01650932280741732
-0.02826424360791491 -0.0037353394903715297 0.004899503179993847
-0.02810201812172043 -0.0038988584710756566 -0.00621434170674469
-0.028211762521404872 -0.0038052071904691245 0.001452541155883732
-0.028395624416828573 -0.003214972873427921 0.010506364996320352
-0.02531506431947178 0.0042704248948451165 -0.0244159996509552
-0.02675508716950748 -0.0048790001310408115 -0.0002900538286572836
-0.02697454605383102 -0.004879000131040811 -0.022328322130203512
-0.02569232110765302 -0.0048790001310408115 -0.019674922037323437
-0.027035225504844385 -0.004098783374464548 0.02875700034201145
-0.025301362986189666 0.006331999786198138 -0.015359818501217455
-0.026259272493408807 -0.0016514818788491788 0.02875700034201145
-0.02501791950114246 0.0030795116891531443 -0.022412615609610956
-0.025284938057088497 -0.0011485075018004734 -0.024055800920634515
-0.025227056670406676 0.001351872443700949 -0.024343585596166416
-0.0251285446295827 0.006308702603558559 -0.01823570305975766
-0.025941558712799545 0.001522043669611241 0.028511968249497047
-0.02587325691190665 -0.0016817761754829145 0.02370385182260406
-0.025805370162847327 0.0024836901137189078 0.02556870045190558
-0.026010900285593556 -0.0026198223876361987 0.026709179749358304
-0.025920033197006837 0.00023712218013683306 0.026747888074233395
-0.025834666516244484 -0.003426909789078744 0.02104604737681728
-0.025364668229817144 0.004551163871086624 0.008053346827764188
-0.025725002213014977 0.0045702018464859814 0.024058649912480277
-0.025312751273655877 0.0023742080502623195 0.0037819569798029657
-0.02547923748888457 0.004051103372154315 0.012684787233876508
-0.025464309993987917 0.0009955069762773612 0.009260394697932679
-0.025545355958784877 0.002843393091326541 0.014526787549033401
-0.025675618396356934 -0.0031719138814867306 0.014869120558119652
-0.02567389389309147 0.0020781807574892 0.019538341318072618
-0.025748191413177177 -0.0014196283677804086 0.019673150336928555
-0.025074974438548787 0.0034315649155937083 -0.005812470330957103
-0.025405126065672058 0.0016320196042480745 0.007209756647507972
-0.025705257600808964 0.002937997965363269 0.021707173300159845
-0.0257399804988659 -0.0030763509729909715 0.01781126300637071
-0.025616274374210116 0.0018065849453823867 0.01673624664311167
-0.025471546269215703 0.0025835626697191996 0.011016966755242661
-0.025593916386028752 0.004574010415361559 0.018245787111871314
-0.025524916549884504 0.004861821282922216 0.015444411920019184
-0.025008953650961376 0.005588647773192497 -0.006791966621315368
-0.02554293869125441 -0.0020573695536860452 0.009989568507026479
-0.025338935865221495 0.0032394446396003026 0.0057258892590070455
-0.025199741820632053 0.0026977476862279125 -0.0009398376586940435
-0.025405862479680758 0.005279762327491167 0.010539748968045631
-0.025781744623991652 0.0009646660265020699 0.023317157290504844
-0.02547890014769415 -0.0014313201183952574 0.007714072133110066
-0.025167901307335778 0.005569123212463116 0.0002429251483419217
-0.02486718355943339 0.005007181449245878 -0.013607942152377338
-0.025021956872164675 0.0032566932750965954 -0.008322943177730888
-0.025531307544038415 4.495954922159595e-05 0.011373858145694943
-0.02530585849287078 0.0007893015813045284 0.0020434725326389774
-0.02512360607355138 0.0039897295593013605 -0.0031501307225424513
-0.0249605107200932 0.0050330644807489 -0.009443600017584411
-0.02562314465286228 -0.00041898945145456366 0.015029310701717763
-0.025241449633510302 0.00441639036558125 0.0024642856904044867
-0.025681453909398348 -0.0005414626157936703 0.017505796963108444
-0.025061273929401124 0.0007067425300744338 -0.02189745524844155
-0.02506051121974403 0.0007181726269542771 -0.014008637669476456
-0.024880110062049137 0.0034216951148434136 -0.01859528409514837
-0.025275593459452135 -0.0025050864653174583 -0.020229735034311802
-0.02490314963457366 0.003076420155262741 -0.016000150752822438
-0.025036249473820715 0.0010817632853361275 -0.01830876110534078
-0.025355040384833005 -0.003695691626089773 -0.017902657222382826
-0.025250575519546032 -0.0021301633550612244 -0.008415456589725267
-0.025294058819279937 -0.002781811494021934 -0.014317640469973913
-0.025113033741315398 -6.893883066167849e-05 -0.01156923054735133
-0.025374506425826712 -0.00398741303325318 -0.01068886079696562
-0.025172664720270247 -0.0009625788418412961 -0.01696583465646469
-0.0255143150554617 -0.0048790001310408115 -0.002503716565682792
-0.025370324906092055 -0.0015929557661411853 0.0010474321125182253
-0.025453708142547507 -0.001953325337127208 0.005260714913062764
-0.02534824793867032 -0.0033841541546087654 -0.0051178424317984555
-0.024999307259494126 0.002127607326457243 -0.012033143211671649
-0.025180594873762868 0.0008729976869068598 -0.004133826132931629
-0.02541571569903278 -0.003215831055641302 -0.0004777543081765016
-0.025630708240172575 -0.003495138713559396 0.012125054155980093
-0.025475667802207544 -0.0033774847452371273 0.002812410624564958
-0.025592816588969967 -0.004249437488628648 0.007753121245940782
-0.02512426376627194 0.0004651640396116934 -0.008723439597663583
-0.02521608724872299 -0.0005895380323384528 -0.005844507146815279
-0.025301512545776797 -0.0013230916532565875 -0.002503290627847515
-0.028556030607515874 0.0007673142968493927 0.016182952680045222
-0.02867454303448879 0.001295688425543774 0.026662397838350678
-0.028676471282172603 -0.0019095266368528414 0.02747768070442901
-0.028572421565033326 -0.0009285586903842914 0.01798722024008637
-0.028630116382104005 -0.0019367943366196882 0.023342762429526365
-0.02865707921340193 -0.0009690395379193568 0.025556906772864853
-0.028529346884958312 0.00037112313199679566 0.013879066979235511
-0.02843620101444664 -0.0010551751864095796 0.0058454937547573705
-0.028410021096344766 -0.0016541280211451125 0.0036272870232168983
-0.028599669512045386 -0.0002983543900647278 0.020294552713693147
-0.028631826632140686 0.00017892529513461968 0.023071050094465546
-0.02846103496174643 -0.0020248496246830262 0.008258188437328628
-0.028486458273043684 -0.000800734480146982 0.010283391038260183
-0.028518525100109167 -0.0016266405221706222 0.013313277902978572
-0.02858908566461675 0.0025419361976377628 0.02016636782304806
-0.028375297675579073 -4.6154254677633656e-05 0.001556363315448369
-0.028130390776034384 0.002190294337343928 -0.013766531534592383
-0.02843215933811713 0.0021820603235195592 0.008281240372048259
-0.0280592843699964 0.002581262649632486 -0.0185132288808483
-0.02821049467683981 0.0004822585884781984 -0.009880483358595352
-0.028317549371340685 0.002533547753680953 0.00030921035883604885
-0.028249157854811018 0.0019359065415773392 -0.0053787086714591845
-0.028311184534182077 0.0010648559426949858 -0.0018491140390637744
-0.028369445466735005 0.0016426364514068987 0.003075431767741163
-0.028248880404497988 -0.0015091679843420107 -0.008189572668685051
-0.028179522918466253 -0.0005936493924149724 -0.012137595970813795
-0.02797157681564949 -0.0012115577027752246 -0.023786446082495815
-0.028138783550837487 -0.0009714633806224162 -0.014405402078914728
-0.02808274955987547 -0.0005103800448631406 -0.017579438859367774
-0.028028348308078103 0.00027610521849994493 -0.020679935112561183
-0.027985493551365915 0.0010389408978451159 -0.023130372082687756
-0.028038420886249495 -0.0029654935898634155 -0.019030542668316497
-0.028340779333752668 -0.0016843601336166527 -0.0024667660365081433
-0.02836034829804894 -0.0019252872732921273 0.00017938465925381635
-0.02830033720743614 -0.0018835578424340454 -0.0045469448566078634
-0.028247907948203328 0.003748288933590302 0.02866580020182196
-0.027911798204742017 0.005456923911668831 -0.005932016204297293
-0.027732640241795795 0.005555124124575728 -0.018902854095068068
-0.02766637895066428 0.005631433757034975 -0.02325096687689061
-0.027967242405952053 0.00543096367980096 -0.0018681655613013524
-0.027829709605656713 0.005291542494458382 -0.014237864146535332
-0.02796803520127631 0.003531180619913113 -0.023142285908325948
-0.027985215054521402 0.004493735652702036 -0.01098230318504051
-0.028012984175811422 0.00383777640431 -0.016167960695957335
-0.02828815134297711 0.005013203978897498 0.018888476792872057
-0.028402682494299746 0.003908754592227592 0.016663557228873787
-0.028344433459741095 0.004000166525231835 0.012823654336667129
-0.02864019415739357 0.002795743016388538 0.0244954258045201
-0.028134198951025757 0.003674202098656749 -0.007968841209872284
-0.02819411510927692 0.0036086429526189174 -0.0037180937384554543
-0.02835238694319706 0.0032747642774787872 0.005811736571811157
-0.028281595953606926 0.004122124956435565 0.008928054746259578
-0.028186813941768522 0.0043819945220418075 0.00385451612371558
-0.028413730185348395 0.0043605222061276795 0.022350718586169025
-0.027590029583488853 0.006331999786198138 0.007802107713711899
-0.026535300134979293 0.006331999786198138 -0.011626720943926232
-0.02712799655455612 0.006331999786198139 0.005187701248854743
-0.027290888364492664 0.006331999786198139 0.0017382899926243946
-0.026830364235263277 0.006211927920802139 -0.02127206090733006
-0.028131271190988388 0.005958425176501492 0.026015184599433073
-0.027917912354865765 0.00614164091873713 0.011159623111435547
-0.028103193447861663 -0.0047737804491998475 0.008366600024328937
-0.028552630715042777 -0.0030489283662258945 0.021194558955890952
-0.028351443634578852 -0.0038543486620026056 0.014833610786253195
-0.028498077046787435 -0.0032312313567351434 0.018897386816981835
-0.028350134999022343 -0.004391668598509129 0.023229496280666864
0.01118784847649548 -0.0265298571019632 0.015133495498883931
0.010616900787488566 -0.026671988304120552 0.010208065857231628
0.010842280393860069 -0.0266257951755604 0.012690850766790463
0.01124443553085605 -0.02662263981519819 0.02142715902551927
0.010094336011120303 -0.02653444367008812 -0.0088385979443603
0.011719993186879564 -0.026474282400996252 0.02390147544766973
0.011547911636044326 -0.026432294820753224 0.01780897320746613
0.0063210214909264675 -0.02609368247301779 0.02875700034201145
0.012907000258564949 -0.023785587980988804 0.005685908808583759
0.01290700025856495 -0.024362877686231802 0.017793027458777064
0.0013340000296011567 -0.02631875670529885 0.006513520730928321
0.0013340000296011567 -0.026284538158060665 -0.00449360583596263
0.0013340000296011567 -0.028162243539159 0.024771156321780657
0.0013340000296011565 -0.026255369149990656 0.010433148238444004
0.0013340000296011565 -0.0266593744552948 0.01812878211463304
0.012654975573871005 -0.022403276966430862 -0.009895678867060456
0.012541928374243814 -0.022562323915057376 0.003224345341403317
0.003902948372621476 -0.02474063415734261 -0.023007133863612434
0.01094146034680834 -0.022646496948689566 -0.018347406337833837
0.00735045544167482 -0.023741855589073012 -0.021873783222900303
0.009298591206471717 -0.023177437753487726 -0.021232375676203875
0.003634601217231936 -0.025306126006166142 0.012689514100780107
0.0034404061863046414 -0.025322215953673604 0.00955029831937915
0.004099639624016337 -0.024941642691697997 -0.002910929333087694
0.007823250578365139 -0.0237435919665912 -0.005807061945972404
0.004607850068005255 -0.024874746409989594 0.003546313040142841
0.004685568117688472 -0.024550167389074673 -0.017761137614992446
0.0017992289987266926 -0.025381381161634534 -0.022427734515412075
0.0037357833720952052 -0.025182674596148445 0.00616405278637841
0.001845933564633205 -0.02565576211795802 -0.001938056756776758
0.010177457830236753 -0.02288162671709824 -0.015050557989957285
0.004112030087184229 -0.02478370789504536 -0.013839211466341685
0.002616772295584464 -0.025281700618884018 -0.011477477046603561
0.007635405133456712 -0.023615679414506357 -0.01901957474545499
0.006109510835955179 -0.024299161705326717 -0.004177433112149244
0.0022318298975387745 -0.02529807125536198 -0.018801174323839872
0.003263060455165872 -0.025513465813410397 0.019205534052551758
0.00665683604813881 -0.024077689205086152 -0.007821220514447651
0.004429457627165056 -0.024800773851148886 -0.005632192571136122
0.006568213113721707 -0.024272440756450943 0.004037967616768244
0.0028122848506907322 -0.025400706119525128 0.0012723067070484258
0.007631206002516199 -0.023873409382679203 -0.0008328560006730414
0.004378797519316467 -0.024783085739709308 -0.008003339548669676
0.010252822579748756 -0.022915211179567015 -0.011007444718385237
0.005611278277393078 -0.024363391147738497 -0.010603889566114268
0.00882391394678982 -0.02338806715529413 -0.008966066595989326
0.007845545456708434 -0.02362139674333544 -0.013982236039817334
0.004780837440644187 -0.024480211771457396 -0.020622784873905564
0.005729451205243032 -0.024489398918898016 0.0009378301803454545
0.008175989494336032 -0.023560171504110793 -0.011041047054365516
0.0059843513821297555 -0.0241749470687624 -0.015745970990531623
0.008105334216733382 -0.023497379899019406 -0.017051847006343865
0.002638316709764906 -0.025220583793788103 -0.015337260176347558
0.0014095488568292669 -0.026000537813775246 0.012896216075015753
0.0025034475302420133 -0.02538246984733724 -0.006828373120888151
0.008921219903625538 -0.024104394972202223 0.02821320559344568
0.008955726870334552 -0.02396807035495003 0.022815163100280478
0.006327271504860534 -0.024789317785237512 0.026357894389325627
0.0038978522113310952 -0.025493950258834133 0.027005806055373727
0.00983338511935589 -0.0233147038859381 0.003335324094731631
0.012082922984884557 -0.02255153868850282 -0.0026070666686165258
0.00738786697553635 -0.024085011382216713 0.006931548068611341
0.0043210692451302445 -0.025278686836372966 0.02242843896699277
0.0029613494984824787 -0.025718991580734665 0.025007541497792152
0.010882933714782614 -0.0231628564841851 0.01041792655396466
0.007053850776563228 -0.02433374845403642 0.01434903176251414
0.009941847490224235 -0.023537873131840303 0.015594254570670768
0.011881262302221782 -0.02313839309749835 0.022944581199100852
0.009210401477788285 -0.0233519927212864 -0.003418852520014659
0.006376622682992731 -0.02441587964544024 0.009014077237472285
0.008242862544491655 -0.02393182566520021 0.01127832177360321
0.007049579571869143 -0.024467149235209623 0.020728056259758692
0.006038512475058457 -0.024816090417157828 0.02368518315255274
0.009335937801202471 -0.023569323647151242 0.008792759799764675
0.010028927569170485 -0.023304780932709077 0.005541290319562727
0.009090874740871946 -0.023735979244656938 0.013470487971818972
0.008344892954791253 -0.02403029387043718 0.01743110456538681
0.010561466571033618 -0.022923953877542133 -0.0055248557151896
0.005393979381988707 -0.02489445817233625 0.018617519919875494
0.011856049129781096 -0.023229683436595917 0.027003899017979765
0.009705583416653507 -0.023269121021558162 -0.0006191563681629689
0.009101075127295483 -0.02398780017673837 0.025762941734146474
0.007764261456365497 -0.023873419248104266 0.0018884692491409946
0.011174510723592239 -0.023026864980960206 0.007858633402590753
0.011471916667669203 -0.022615265609201293 -0.007920940820460555
0.01118567574379871 -0.023254987737335517 0.019020702704476415
0.00448945341011545 -0.025106109119049994 0.016412107011200053
0.007546574585077036 -0.02792393677124623 0.02384146126756509
0.00773073137277706 -0.027374896437836506 -0.003918749649843207
0.008380664456159858 -0.027025650898480892 -0.013360937400749659
0.008458267327240695 -0.026958263297884574 -0.015919992488575098
0.007596175568921493 -0.027832015107266433 0.019483215182513725
0.00774692646310632 -0.027529428131937626 0.00494362607358825
0.00835965728535729 -0.027154049468790225 -0.006528752734731906
0.008225771272711898 -0.027113341034591967 -0.010862234949489348
0.00151555919456208 -0.02866618302250477 0.02238167146730151
0.0017021767655494694 -0.028135075361803756 -0.016697012070940258
0.0024649135301573737 -0.02845687154903357 0.006627681689031894
0.011237329746794394 -0.02629588839634865 0.0035854991485986957
0.011214627148350725 -0.026258203541161516 0.0010735422565069687
0.010540288522065103 -0.02622482632928517 -0.015573580899733621
0.011963809222431428 -0.02608383469837066 0.008281805178940865
0.012169623690107281 -0.02595607679259427 0.005999644121034784
0.00937549542677155 -0.026564028027371914 -0.02314564473781066
0.010577183383676785 -0.026405797163102384 -0.005100655599969994
0.010844756452073674 -0.026040106080071478 -0.01872141098131604
0.011870151992166842 -0.025744267771017116 -0.011907732366444455
0.012665229061734815 -0.025488114837249373 -0.00805307895622597
0.011662108604192142 -0.025659759905269065 -0.02100471221050291
0.012118904929015826 -0.025841768520636507 -0.001219809713172081
0.012907000258564949 -0.02563939247754091 0.019827744466096038
0.01290700025856495 -0.02538890983724546 0.010789447897612705
0.012907000258564949 -0.0252323928304497 0.013234142297646127
0.012907000258564949 -0.024939273097824538 -0.0034196615452184694
0.012907000258564949 -0.023977965252304695 -0.01864017294856002
0.012907000258564949 -0.022547449035430506 -0.023106141252051068
0.012907000258564949 -0.02496439163454809 0.002836466389904092
0.00869554070246941 -0.024149363549459353 -0.024766529997176448
0.0013340000296011567 -0.027955192555083455 -0.0030033074203741766
0.0021693152192618077 -0.027862709660893333 -0.024460955351940747
0.0015081643706500347 -0.027893459036565135 -0.02206815942147837
0.001623444733000244 -0.02805179636495863 -0.01982487468380495
0.0063644946312871615 -0.027328536231952742 -0.02318935349687358
0.0071475981193186225 -0.02720692560041557 -0.020036326000997626
0.005947123011680429 -0.027594993396239685 -0.016141407089140858
0.0054423461226865725 -0.02812790452588863 0.009553302808217848
0.005185921438111883 -0.028260387349561676 0.014884688011065792
0.005560311717208936 -0.02804043212511598 0.0053910208785402265
0.006346330044395579 -0.027836429634201666 0.0020746038840355288
0.005491524104907488 -0.028159320405660743 0.012193334084080498
0.002351638003193801 -0.02834850316886591 -0.0011869937264095307
0.002282467508340844 -0.028137294470700534 -0.014664124163799202
0.0032524821170777404 -0.02835144820559795 0.0037351346305568786
0.0029651609491591624 -0.028480805477788237 0.010254909712544594
0.002319611947854741 -0.028200612434493316 -0.010537512913962706
0.003289072442617131 -0.028597375714322228 0.01919643571652034
0.003106570992874964 -0.028572212950982355 0.016674037395607594
0.005010203732730246 -0.028325762361123958 0.01750921898403931
0.006418595587871862 -0.028194266746463807 0.027389349961590394
0.005464150049586426 -0.02827861525495924 0.020247077246732845
0.003561163882228814 -0.0286537901630177 0.025414242106354748
0.003934841100523977 -0.028157033328188447 -0.003328279529928287
0.0038890733568898617 -0.02790273832115509 -0.017538512388048218
0.0035003692973755406 -0.02816515598166831 -0.0056253559677172695
0.004173158167942236 -0.02776227667624547 -0.023435374749654615
0.0029068579648322615 -0.02818731863634404 -0.008157436179245813
0.0038108491231106647 -0.028009641716637834 -0.012179709174031456
0.004545075484063546 -0.027772295725409006 -0.020539881074345807
0.004152499209594816 -0.02822168203899173 0.001584463095753278
0.005086101251869786 -0.028029912936692575 -0.0008189427876842369
0.005915727081237007 -0.02776882590652696 -0.0073520751880993334
0.005374796366851983 -0.02782356140396086 -0.009927163335410254
0.009312663387933951 -0.027374873388146127 0.025392008467627916
0.009445485654175915 -0.02705234555893002 0.00815238326586816
0.009235909639002341 -0.027344965089893716 0.021987119474500036
0.00990056868798227 -0.02685740505663775 0.005333067312973578
0.00982366719745463 -0.02675362184411309 -0.0026404894873865315
0.00902277111295665 -0.027047261566708232 -0.0007339673354740603
0.010655542561509954 -0.02696237305688449 0.027130345223815456
0.008094611261246262 -0.0276132116913496 0.015421325372017475
0.008532440042461568 -0.027396022820797592 0.0108771037682637
0.008563971129020924 -0.027665303850183204 0.028158820765058146
0.009200340481791407 -0.02729599515669881 0.018239343625750325
0.023062154509453786 -0.016894518123681243 -0.004143346183436395
0.02295424257616843 -0.016800411032360164 -0.014350083472582438
0.02273375421641374 -0.017903426490204963 0.021205698203715026
0.02313643396208958 -0.016667533766873553 -0.009823967811284634
0.023023471296668818 -0.01735386136037481 0.013671473192800867
0.02311175545026827 -0.016971674033679954 0.0020244697225403046
0.02273385396304356 -0.017957543784488144 0.02356816254945823
0.020560143340539527 -0.01822341555548595 0.02875700034201145
0.02356979098204124 -0.014647028092228934 0.009243365007668163
0.023897672737003654 -0.01464760587454663 -0.0003791254259941177
0.021755902753420927 -0.014646464242595109 -0.019389348203936743
0.022861084957944745 -0.014646872549935207 -0.006697229706193786
0.021540559984666065 -0.014646000228822231 0.007918862022524984
0.01896028030236364 -0.02063294417525647 -0.02371880640490731
0.012908999808132648 -0.023467122373777592 -0.012544752568769437
0.012908999808132648 -0.02437653433210412 -0.01586913887401077
0.013768119189690169 -0.024460490313704043 -0.024777999147772792
0.024095078797243832 -0.015850231891312107 0.023130964304407156
0.023820644212886728 -0.015539358239378642 -0.012464539364031281
0.023813208943451347 -0.01640782212945304 0.025704239505407813
0.02363786622502208 -0.016315795837624974 0.007718635848769369
0.02394509074217732 -0.01595627910987238 0.015991738176915998
0.015142252306683458 -0.01987091334795793 -0.020957033913431275
0.018331634509315922 -0.0170596275117376 -0.024767763904311693
0.016659695089455116 -0.018626348097809643 -0.024331651585938953
0.015079372429611992 -0.020058268302540205 -0.023097421589966357
0.012944239017120641 -0.02232895811550461 -0.020447731008591097
0.012908999808132648 -0.02279520372750081 -0.005128147038760038
0.012908999808132648 -0.023278288200067537 0.00034147999908284033
0.012908999808132648 -0.022882489757451517 0.014898337743014313
0.012908999808132648 -0.0227173408288046 0.012372886671545074
0.013029711535256477 -0.02316335448860862 0.024821230040341206
0.017200753514667932 -0.01874891224175102 0.026047968148904414
0.01562922857825152 -0.020285860550276723 0.027031485742675294
0.014119036761376914 -0.021684591723606705 0.026167585253983792
0.015534344238490982 -0.02024778422699503 0.024064622051012365
0.01939243984408751 -0.01666526766676906 0.02605958863843599
0.01611432016662579 -0.02340289537352317 0.02875700034201145
0.02079136215687739 -0.020145775051540422 0.027025876489259366
0.019181879568318065 -0.02175558163569074 0.02635681152645322
0.023166219902156258 -0.017383858535037065 0.028195058090662584
0.013729272155537162 -0.021116396167718404 -0.017987904523630027
0.01727426119966809 -0.01791156545236657 -0.02214131112276899
0.013107106392688413 -0.021720385712378252 -0.015535964078090774
0.014372656982988272 -0.02080328510528783 -0.0009017197626510765
0.014406503128700506 -0.02106242526006865 0.013607151327319347
0.014789628997095856 -0.020607157001321878 0.008717063862645289
0.01649694220774481 -0.019209663096857305 0.01843361654629137
0.0165578158160423 -0.018871274656967887 0.004378116646841058
0.015550907386574357 -0.02003254165760563 0.015471055385400263
0.016023461628853968 -0.019315178384871203 0.001662276958818808
0.020415522079952158 -0.015638192908132013 0.02256877693243742
0.018819697201042835 -0.017126141322068158 0.022555842470697605
0.01470049419667939 -0.020900922515603562 0.01923007641284244
0.014574084769408408 -0.02069681472487706 0.0031596008403470908
0.013156269491017355 -0.022362675359376957 0.020311399540086
0.013800777310701928 -0.021225933573346796 -0.006424973928444688
0.015339952411506524 -0.019830731713234045 -0.004419800790873408
0.013317069403626976 -0.021992985681053043 0.009344614320278888
0.017193877080836147 -0.01845436496967568 0.013175040769873247
0.016753612646650488 -0.01875216287881907 0.007546426239404845
0.014270902278882554 -0.02073808661430289 -0.008891784421235092
0.01659783927810612 -0.019176500260293813 0.021474602937300646
0.014949003972044465 -0.020410683773961186 0.0063290963596261
0.01370293911770125 -0.021789458537171118 0.017146498900296025
0.019253775192083235 -0.016649920884009083 0.018991544713645274
0.014587487719527878 -0.021060155626103277 0.02191757246444637
0.01591300244495717 -0.019604498255409407 0.010960893549860209
0.01874771233182055 -0.01703861753256624 0.014837133267143424
0.01705749584676464 -0.018644681843259618 0.01632596236960894
0.019562529607356743 -0.01582555873336063 -0.018788195855878927
0.019861293969130674 -0.015555195653168406 -0.01402791348626991
0.01786077945667929 -0.017365536292005573 -0.012339298943679427
0.017393007018004468 -0.017788841121933213 -0.017906907984355597
0.01562927248175439 -0.0193849106766507 -0.018420236937639067
0.017647878378212595 -0.017558198465662207 -0.015056974076663905
0.020362401131458898 -0.015101724981134374 -0.020962434041923574
0.015448719700389475 -0.019548299662596847 -0.01524877789449879
0.019518608894505386 -0.015865304234263838 -0.016249809006040193
0.019154865066379985 -0.016194469671496632 -0.02278445472450385
0.019881202553710193 -0.015537179628040016 -0.011234173867957246
0.02082925771863192 -0.014679248939592195 -0.02449428458727516
0.01808230890111202 -0.01730719388840355 -0.0040083451461416005
0.016996479122973026 -0.01822460520587675 -0.008649962666669854
0.0205624122287738 -0.015129536310376557 0.0020439369191803435
0.020806353478225032 -0.01517589681957716 0.017054181361898367
0.018706829887260645 -0.016779332261696096 -0.0013501701059106218
0.020827524091809026 -0.015102201383307015 0.014057110751203488
0.016991327451024277 -0.01827854008489603 -0.005928878544398178
0.021061990726534325 -0.014825666505436224 0.0107200043825671
0.020239846381105826 -0.015349422999051692 -0.0022476208573943765
0.01872618067473893 -0.016965506222427203 0.009937019444974281
0.01859309425431165 -0.016958961255898613 0.002785128642644518
0.0208299375055963 -0.01476044115075246 -0.0047274225544361136
0.0192334426211033 -0.016544639890363203 0.012532324493371688
0.021404474147389076 -0.014778502582188888 0.025583489391109306
0.02072545771397262 -0.014815248257853648 -0.007025598893625409
0.018934146411031985 -0.01643516653581217 -0.008793692702524475
0.017799157446645585 -0.01765466457876977 0.0007694393783532916
0.02098206515550977 -0.015059737609397569 0.019592196806739206
0.01881468491866812 -0.016804186543289246 0.005527418088012026
0.016597791305045767 -0.018719647749717128 -0.0016022892364401624
0.019361611641541546 -0.016345492850378937 0.008053564340334957
0.014068693110144111 -0.02083214577520682 -0.01375909793421794
0.01559779535592928 -0.019448069717526204 -0.012320553550635214
0.019276644637960735 -0.021453942512083993 0.015097513523904656
0.01929426705294619 -0.021609476835504092 0.02400777906939964
0.019690596715516907 -0.020243580376554663 -0.02112659503695847
0.019759559342753818 -0.020282746682622296 -0.018291527025964656
0.01867031808540133 -0.02191948721894491 0.010239148936798543
0.019059521507414093 -0.021215875869546354 -0.006505507750746927
0.018384319299863873 -0.022240459346246886 0.013114006849096823
0.01881636045266528 -0.02170416359136257 0.006297976187776737
0.019107991417852084 -0.020997611999357856 -0.014873875175107049
0.018348722580446737 -0.021960092417292437 -0.001933749774821759
0.018986644751081805 -0.021436062447765726 0.0008832828073175904
0.019870274764055607 -0.020346823591502052 -0.012690814131554127
0.01905247647761636 -0.021425579950913227 0.00327072939248742
0.02016736253174925 -0.020150002360344515 -0.008358777293046443
0.02009655452994243 -0.02034177624179847 -0.0019542771200529094
0.020201372495407956 -0.02059620469475061 0.017607477687232625
0.020590228265229927 -0.019887288810665947 0.00100832408721074
0.02104164138030515 -0.019642388229454737 0.012925664112311573
0.02028978939014868 -0.020281309161582557 0.005540751717373338
0.021300854408172948 -0.01959383325730965 0.024736325876532034
0.02063991071831682 -0.020002067625817407 0.009966517701451148
0.020236949588875747 -0.020599405733509928 0.01976073205876582
0.021250669134919117 -0.01947870598302371 0.015731340933898854
0.02027134216709051 -0.020610324774082037 0.022264436964445036
0.02199955083690557 -0.018737218236093055 0.01816581785068993
0.021851196251082127 -0.01846115687154419 -0.0020708701824489013
0.02183373469317633 -0.01866631874224971 0.0065212598781372155
0.0216893829032614 -0.018497422666613902 -0.008564862080783213
0.02137736690276765 -0.018549749380861468 -0.021899704976540306
0.022004707182997848 -0.018566588671168394 0.010547074423693176
0.02159812980026339 -0.01850587789461086 -0.012781042463040978
0.02109022444123191 -0.019105355262089424 -0.01073931202874274
0.020648132272612488 -0.019719838454791014 -0.004682306231489472
0.021523150421687138 -0.018528436298481193 -0.015524464900329583
0.01796330126390896 -0.022648023618201285 0.0164856109277131
0.01695550871629438 -0.02269347794860125 -0.019680205290293955
