-0.00356807243462 -0.00560987799062 -0.0319044558867
0.00736785488477 -0.0192157211381 -0.0315576165662
-0.00404674974722 -0.0112807920531 -0.0318010685801
0.000314144854609 -0.0145233076357 -0.0317040662722
0.00993250910004 -0.0277696812538 -0.0313747995405
0.0132770140864 0.000116377068095 -0.0318750959334
0.0129232593611 -0.00641798430164 -0.0317543499386
0.0114523495438 -0.00509954990092 -0.0317913208877
-0.0219649408949 -0.0183557589476 -0.031813681859
-0.00203115654158 -0.0244888557003 -0.0315346788993
0.0174292751992 -0.011420931762 -0.0316228518009
-0.00125355615208 -0.0178173643721 -0.0316545546447
0.00437299943721 -0.0197719438763 -0.031571574925
0.0190353435085 -0.00332098752357 -0.0317629829069
-0.0139523819322 -0.0181458503972 -0.0317521514081
0.00722869925555 -0.0251970265649 -0.0314455807158
-0.021585184855 -0.0121230414328 -0.0319285078329
0.0186904445371 0.00150511958387 -0.0318571181423
-0.0104239249184 -0.00747315946041 -0.0319252465447
0.0103737915479 -0.0102860228996 -0.0317020037716
0.00637381602795 -0.000106061082842 -0.0319273203529
0.0213500804873 -0.00835150741451 -0.0316488766344
-0.00853160207053 -0.0183132250065 -0.0317046699424
0.0198009043847 -0.00632808403434 -0.0316998266385
-0.0241448125258 -0.0159573027056 -0.0318768838294
0.00294177206262 -0.020955649371 -0.0315608779988
-0.00690478003935 -0.0197918100549 -0.0316633941792
0.0158669314074 -0.0091283668593 -0.0316790019291
0.00594080526558 -0.0222924389264 -0.0315110674346
0.00930058774211 -0.0193427176304 -0.03153941367
0.0114858749169 -0.023526060117 -0.0314423952494
-0.00705815122206 -0.0243525881046 -0.0315783526138
-0.00377456549675 -0.0258710709617 -0.0315227779963
0.0266800381145 0.00616951821816 -0.031880059702
-0.0176932653415 -0.0197700719762 -0.0317520006861
-0.0195525489025 -0.0121580445333 -0.0319112288599
-0.00124226717807 -0.021826950489 -0.0315785962021
0.00253526903793 -0.0120538372847 -0.0317326340472
0.00425477711113 -0.0101937564766 -0.031753772125
-0.0122611099787 -0.022331195195 -0.0316591336451
0.00710492670109 -0.015118335885 -0.0316372934081
0.0115109845859 -0.0264242768634 -0.0313873522588
-0.00996842478704 -0.0142169441992 -0.0317939224016
0.0148023481467 -0.00745926430912 -0.0317192862438
0.00635397416303 -0.0268595752193 -0.0314212741338
0.0122801887751 -0.0120335783198 -0.0316533532581
0.0211793747576 0.000682301891842 -0.0318212025995
-0.016732930619 -0.0125223031277 -0.0318812864483
-0.0131871573195 -0.0161266065702 -0.0317841022482
0.0133140959623 -0.0213543979672 -0.0314685400964
0.00557707513871 -0.0123378753434 -0.0317023931323
-0.0181469757188 -0.0110417855446 -0.0319208593391
0.000618774196436 -0.0124824884323 -0.0317401906819
0.0116129105328 -0.00844426614697 -0.0317267222873
0.00212960796617 -0.0229058737314 -0.0315306168167
0.0068395902107 -0.0025567240618 -0.0318771432088
0.0252502575409 0.00454225080475 -0.0318609582272
-0.00933328803315 -0.0105105264131 -0.0318588600473
-0.000440141663044 -0.0261188931233 -0.0314908301977
0.0175697375009 -2.22635219139e-05 -0.0318373799409
0.0151522401971 -0.00101204643614 -0.0318384149567
0.00453305448809 -0.000914275809583 -0.0319270760766
0.0133120230556 -0.014296973485 -0.0316020919385
0.00330377768926 -0.0179375088132 -0.0316150254476
-0.0030892617558 -0.0212706134351 -0.0316042218292
-0.0176847836989 -0.0162213880028 -0.0318190766863
-0.0202118207779 -0.016129538757 -0.0318414729547
9.37855134088e-05 -0.00638834654524 -0.0318597908713
0.0147059115734 -0.00418658692117 -0.0317819975698
0.00758483153023 -0.0117007222989 -0.0316980355448
0.0233089891171 0.00477081616446 -0.0318811527053
0.00724607641751 -0.00645151590015 -0.0318001260983
0.00148842944516 -0.0174824648885 -0.0316384757809
-0.00584730267946 -0.00987325150524 -0.0318424203358
-0.00261422423704 -0.0142618379294 -0.0317329528264
0.0184184535055 0.0035062174048 -0.0318972048117
0.0104085923192 -0.00714809130119 -0.0317610926893
-0.00589433715125 -0.0151400976495 -0.0317431498232
0.00887583705846 -0.00160222279169 -0.031878557321
0.00364648009376 -0.0155223344773 -0.0316579218584
0.0164840278649 0.00233181678176 -0.0318907975593
6.35422383433e-05 -0.00829818098682 -0.0318239017606
0.00808162789966 -0.0286528241252 -0.0313732202619
0.00450709272296 -0.0275896365548 -0.0314225586427
0.0174219149273 -0.00415600180228 -0.0317603731182
-0.0113781480504 -0.0184418432195 -0.0317255066686
0.0021510846052 -0.0140949094509 -0.0316971552091
-0.0032961120717 -0.0178095986689 -0.0316713993487
-0.000539662016478 -0.0290469134299 -0.0313992183115
-0.00118145368662 -0.0312176404958 -0.0313090295515
-0.00805677803354 -0.0272225347921 -0.0314655741419
-0.0140935429255 -0.0262220957774 -0.0314997177882
-0.0107400578487 -0.0261457520436 -0.0315067938227
-0.0105824568367 -0.029405495718 -0.0313726732494
-0.0128672041441 -0.0245788191482 -0.0315688601073
-0.0184582777592 -0.0218466045919 -0.0316748773444
-0.0268024275403 -0.0165489592084 -0.0318833665166
-0.0231372140319 -0.020193499934 -0.031737503083
-0.0214683121086 -0.0207272508932 -0.0317174680133
-0.014336184903 -0.022647356285 -0.0316467168863
-0.0250133238755 -0.0186689339361 -0.0317981180383
-0.0177574723069 -0.0238225755179 -0.0315942864109
-0.00910365147103 -0.0252832762121 -0.0315442468609
-0.012080363159 -0.0282696283348 -0.0314177166501
-0.00619992083985 -0.0261238387776 -0.0315130181191
-0.0165503153535 -0.0212267439379 -0.031702652638
0.00479408533341 -0.029901930359 -0.0313702422281
-0.00486288821011 -0.0287904883462 -0.0314047161232
-0.00610963104885 -0.0307922948728 -0.0313207780328
-0.00833442115854 -0.0295723696945 -0.0313684327417
0.00751146186972 -0.0314322647904 -0.0313103756458
-0.0139894454401 -0.0282757598855 -0.0314152264089
0.00291452722241 -0.0293981810697 -0.0313887942857
-0.0165002548172 -0.0265339452049 -0.0314840483428
0.0169694699021 -0.0308932243298 -0.0269381373923
0.0103228720105 -0.0331192806558 -0.0286439352403
0.015155530791 -0.0317039507817 -0.0270878436239
0.016581507121 -0.0300486425326 -0.0285523053835
0.0134103616171 -0.0316543622184 -0.0285212107272
0.00811038619828 -0.0332544865729 -0.0288848024243
0.00485162773143 -0.0346469437486 -0.0269887398809
-0.00245136006716 -0.0352010905914 -0.0271290984619
0.0022937865289 -0.0348873389565 -0.0269586966125
0.00785335716386 -0.0341386938393 -0.0274107748567
0.00917907037162 -0.0323792378028 -0.0302225696756
0.00577893403814 -0.033227677761 -0.0292780456869
0.0114642672101 0.0292827338846 0.0311199207998
0.0148002776724 0.0288269175919 0.0307102611695
0.00119748960031 0.0319775743933 0.031317001359
0.00662978888395 0.0305551944619 0.0312098427893
0.0101810142335 0.0306676509655 0.0302817149757
0.00502731341432 0.0317567386625 0.0305977070439
0.0149447422025 0.0308503961921 0.0290104389444
0.0167535967284 0.0299013259096 0.0293661673685
0.0123973713762 0.0310923995 0.0294105658751
0.00832358722471 0.0315053328798 0.030029115549
0.00552249533052 0.0232606379927 0.0316089499744
-0.0179974256631 0.0205298551595 0.0318104588115
-0.0110439439236 0.0204153077987 0.0317705364972
-0.00475747892321 0.0306897006039 0.0315132119246
0.00360447767893 0.027962829173 0.0315203966359
-0.0203013859294 0.0169986695219 0.0318997717122
0.00129646403887 0.0301562302547 0.0314877004458
-0.01042882631 0.0244330021259 0.0316811417506
0.0027385169029 0.0222873761534 0.031646658892
-0.0021144416166 0.0242904175043 0.0316335258015
-0.00778636409451 0.0206747752838 0.0317451584566
0.0185073862204 0.0265336580786 0.0314600668081
-0.0138402180184 0.0231048570571 0.0317302384093
0.0163215620105 0.0271761423227 0.0314596878223
-0.000430872334227 0.0235454362867 0.0316391497595
-0.0172888660607 0.0183486997737 0.0318526386483
0.00707994877564 0.0264897175281 0.031530625318
-0.000813505602297 0.0295198165321 0.031514122202
-0.000302536330117 0.0276291622246 0.0315513131083
-0.00488484735267 0.0241824405588 0.0316527063305
0.00271140329825 0.0251312516204 0.0315861998122
-0.00593461860059 0.0214183282524 0.0317180259951
-0.00917552523813 0.026342101322 0.0316328088063
0.0114029727592 0.0259250380726 0.0315163247847
-0.00466713934675 0.0285790013735 0.0315576563268
0.0132066522267 0.0283128963387 0.0314544327141
-0.0254520575759 0.0132300119997 0.0320114905413
-0.0121236059792 0.018888996176 0.0318096514756
-0.00918991149431 0.0222608447795 0.0317198985759
-0.00564321661949 0.0270492588651 0.0315962133514
0.000745825311117 0.0250969413987 0.0315989065287
-0.0149118748806 0.0181920835545 0.031841495463
-0.0020545609514 0.0264058824814 0.0315880645869
-0.0092364197583 0.0186168212352 0.0317978633418
-0.00394709670626 0.0264555178076 0.0315985367848
-0.00257823291901 0.0327536133526 0.0314559374136
-0.0225988439595 0.0161186416107 0.0319325289854
0.00507385034612 0.0294531200719 0.0314796752118
0.00097626674084 0.0220175393719 0.0316631476648
0.00848293742015 0.0289635958152 0.031469340731
-0.0149930671794 0.0207359451515 0.0317877613992
-0.002615853678 0.0287562710617 0.031541379899
0.0146392168001 0.0265378926077 0.0314835434099
-0.0201649126868 0.014682541422 0.031948314271
-0.0233337789604 0.0144147415061 0.0319733294495
-0.00721810840651 0.018288266342 0.0317925707179
-0.00679531910735 0.0239801697938 0.0316686578078
0.0080581633639 0.023835256198 0.0315812519702
0.00296113716508 0.0312861737992 0.0314534708501
-0.0172986881326 0.0165942135834 0.0318900997207
-0.0129135906413 0.0209980985149 0.0317695037118
-0.00432052591943 0.0198739225396 0.0317411149591
0.00512380881695 0.0263984445553 0.0315444888357
-0.00248666256355 0.030549084438 0.03150237453
-0.00268517831684 0.0223969672103 0.0316773666185
0.00959063899 0.0267440781807 0.0315099065768
0.0308863567576 0.00313956182596 0.0312523406267
0.0222483320781 0.0207857605955 0.0313876500496
0.029107700031 0.0124489737537 0.0310498558162
0.0312575818017 0.000962338755171 0.0313041079605
0.027293966951 0.00823833580523 0.0313995177063
0.0264888385813 0.0148164900475 0.0312119156746
0.0299499410559 0.00628983088801 0.031216794752
0.0242837187424 0.0179801835768 0.0313008813894
0.0285560769698 0.0146261290511 0.0310158730985
0.0211329405181 0.0234957032133 0.0313876157901
0.026841947491 0.010650050967 0.0313461978131
0.0241594658947 0.0157463029951 0.0314037874227
0.0245961557405 0.0138440013451 0.0314379446406
0.0315759715319 -0.00143635720354 0.0313700713975
0.0295163210535 0.0100378979503 0.0311074275541
0.0263553052606 0.013075240455 0.0312957438591
0.0303767031787 0.008176528956 0.031098160161
0.0213251334534 0.0251027045941 0.0305186861273
0.0283003639598 0.0185189797041 0.0287273211949
0.0270767794936 0.0206329320871 0.0282673503735
0.0259798541286 0.0197746721159 0.0300777226862
0.0304892402508 0.0137706406469 0.0303305373119
0.0281103403575 0.017137816809 0.0300358858413
0.0238099907836 0.0248750415325 0.028170952705
0.0261828263505 0.0182561958672 0.0310967607223
0.0260367696615 0.0224238219976 0.0278811566138
0.0230201715353 0.0241338953414 0.0295739093589
0.0243395418489 0.0228678685237 0.0292517899395
0.018730252441 0.0285128067161 0.0292358835474
0.0206310159254 0.0279032921512 0.0277742939781
0.0259405786087 0.0244509169199 0.0263185548085
0.0220611871268 0.0264738093217 0.0281322012168
-0.0353299213335 -0.000248073562278 0.0202295485407
-0.0353992923892 -0.00353186732647 -0.0127160415847
-0.0352528384307 -0.00133743571318 0.0169558841494
-0.0342517733343 -0.0094151670127 0.025529946617
-0.0344307771404 -0.00877580423313 0.0172206970815
-0.0346793143871 -0.00546522149562 0.0260770994671
-0.0352088313592 -0.00355537394578 0.00165318758615
-0.034615266762 -0.00750919054034 0.0137714780622
-0.0344295334371 -0.00847784205513 0.0198237828193
-0.0351031806076 -0.00251260763735 0.0185107228706
-0.0354409662603 -0.00366858057869 -0.0170541188193
-0.0351216430993 -0.00269595087048 0.0155554412435
-0.0348414820529 -0.00568188074452 0.0118503511204
-0.0348055173128 -0.00535134279448 0.0173832078607
-0.0353983695579 -0.00229438231027 -0.00222948435027
-0.0354083723124 -0.00313286653111 -0.0100520934058
-0.0348265653522 -0.00644172928754 0.00659554451874
-0.0352326084234 -0.00554869846962 -0.0169432771508
-0.0350766943651 -0.00366700513201 0.0108198537015
-0.0347550834206 -0.00498117997938 0.0243562374779
-0.0351624676247 -0.00326864745586 0.00761263025658
-0.0351777824619 -0.00418046242955 -0.00123349313583
-0.0352432657958 -0.00478068109161 -0.0112939456092
-0.0351703488932 -0.00500751277454 -0.00762627535379
-0.0354420826406 0.00125382087526 0.0242926070932
-0.0348821307713 -0.00570410890689 0.00855430792323
-0.0345737174128 -0.0081564599601 0.0115012083246
-0.0348929610905 -0.00422276711577 0.0201945007987
-0.0346461025648 -0.00691708514685 0.016396836561
-0.0354380327704 -0.000901249000247 0.0064630186813
-0.0350828042307 -0.00324880115467 0.0138725958367
-0.0346633047588 -0.00609782814831 0.0219768852007
-0.0354131697879 -0.00278825921408 -0.00751844230372
-0.034964732703 -0.00566523198762 0.0025638697341
-0.0354195205829 -0.00172561249436 0.000940181012238
-0.0344566176055 -0.00749494147535 0.0260254221549
-0.0353352772296 -0.00307070955137 -0.00393836266495
-0.0352617828762 -0.000241402702855 0.0254971507001
-0.0348587113528 -0.00531583564382 0.0136136183806
-0.0353536632922 -0.00125669072213 0.00992410214457
-0.0348829444311 -0.00484905626357 0.0156890993401
-0.0352821440346 -0.00140744449939 0.0141252276258
-0.0349377282314 -0.00653449189537 -0.00268734559352
-0.0353486966382 -0.0019718720668 0.00428424940493
-0.0352370035103 -0.00417686874502 -0.00573266534352
-0.0351155047805 -0.00175314799121 0.0239605411574
-0.0352986683173 -0.00523159296637 -0.0193266613817
-0.034880293156 -0.00670777811274 0.000246918609411
-0.0352462482035 -0.000786435034437 0.0220977279061
-0.0349415928777 -0.00341623843619 0.0232635759204
-0.0350191815779 -0.00495354568137 0.00438974165544
-0.035332164933 -0.00120207881112 0.0120280386312
-0.0346517064238 -0.00643186483019 0.0200523597688
-0.0352556464889 -0.00502816732773 -0.0143239662946
-0.0351472157076 0.00416514528329 -0.00275738107026
-0.0350873461887 0.0048781484337 -0.00692762216565
-0.0349429820532 0.00650132316576 -0.0177922469835
-0.0353856477765 0.00117286702773 0.0125652470031
-0.0352115449679 0.00022999091559 -0.0249504604359
-0.034968999022 0.00518922493067 -0.0244160526622
-0.0353213637814 0.00158638302015 0.00512420248314
-0.0352327839698 0.00333404885744 0.00478499108083
-0.0351733139593 0.00195474423926 -0.0169284387728
-0.0354419221846 0.000449893781325 0.0160407722851
-0.0354255232932 -0.00359850630603 -0.0208209382681
-0.0349549318556 0.00595789638579 -0.0203360681562
-0.0353664692413 0.00227679049542 0.0185986612064
-0.0354325478978 -0.00196388320271 -0.00586877393867
-0.0350010643993 0.00559133523037 -0.0155836716477
-0.0350728592396 0.00293048477507 -0.0257824919441
-0.0352010536985 0.00327363786679 -0.00111435563571
-0.0350501003819 0.00397965097839 -0.0208182570184
-0.034850611609 0.00730335458324 -0.0267349282078
-0.0353997340689 -9.07172648978e-05 0.00432280471082
-0.035156805423 0.00293989664297 -0.0114411031829
-0.0353381143357 -0.00131224785436 -0.0164278633867
-0.0354025145645 -0.00076709713437 -0.000897923332562
-0.0352518461 0.00322955379963 0.00714404124092
-0.0352872503078 -0.000718488602956 -0.0200717845864
-0.035387331201 0.000896421221369 0.0105243962567
-0.0354333187294 0.00131185570518 0.0218342533361
-0.0352552983613 0.000118865710849 -0.018452255661
-0.0352577917141 0.000625156009916 -0.0137671716645
-0.0350453531225 0.00383416624716 -0.0228493526811
-0.0351382362628 0.00306839579648 -0.0135143556969
-0.0353335958171 4.42657536677e-05 -0.00577769824666
-0.0353611646941 -0.0019719709564 -0.018064610411
-0.0351296881859 0.00203558474963 -0.0236598692145
-0.0354325105726 -0.00303065855498 -0.014854219258
-0.035270378521 0.00148118574422 -0.00442346931496
-0.0352862563063 0.00305008820158 0.0114796459193
-0.0353742135392 0.000165332056239 0.00214213478245
-0.035282724497 0.00215579083623 0.0033522559714
-0.0350047761278 0.00576587631475 -0.0134839402735
-0.03517539579 0.00313935627675 -0.00660380143787
-0.035260227636 0.00225871467628 0.000396431798523
-0.03514559958 0.00339272720612 -0.00953343893818
-0.0353185813978 0.000748247625551 -0.0024031443768
-0.0353430861167 -0.00116087155708 -0.0143090326467
-0.0350313404212 0.00569305752615 -0.0095836775012
-0.0352757571022 -0.00122436826072 -0.0262824563131
-0.0351817683968 0.003929692699 0.00113118557492
-0.0352713795958 0.000700819589449 -0.0108217728721
-0.0353542750551 0.00222422653158 0.0160844771608
-0.0353884844547 -0.0016995145452 -0.0111297969523
-0.0353028436897 -0.00139056379178 -0.0230794144974
-0.0353556625136 -0.00081490595733 -0.0092603354269
-0.0349518997293 0.00525941702374 -0.0267303533178
-0.0353837360903 0.000590587030537 0.00733937691127
-0.0351417511955 0.00202269902264 -0.0217188650934
-0.0352661489396 0.00116333436748 -0.00781743235099
-0.0353845348973 -0.00326538743849 -0.0249808472024
-0.0348109578663 0.00740822689372 -0.0144253238912
-0.0348772071877 0.00538199731452 0.0244924641259
-0.034775537302 0.0066581266649 0.00958473203625
-0.0347025135037 0.00786837945506 -0.00830157112241
-0.0346718986573 0.00717776630383 0.0134845024751
-0.0344101764962 0.00903120411946 0.0101039106059
-0.0343548385138 0.00883693944842 0.0237173936959
-0.0343825356849 0.00879446577425 0.0203187570525
-0.0347371299788 0.00742760440192 -0.00307229600684
-0.0347713837007 0.00599939186001 0.0263526469655
-0.0350447753931 0.00472139660948 0.0137973743103
-0.034785757455 0.00764568929754 -0.0161930804617
-0.0345876287033 0.00761779887621 0.0162275123203
-0.034836771681 0.00634653957982 0.00739205384763
-0.0346609915852 0.00764140822344 0.00389817667978
-0.0345583039513 0.00773494430683 0.0180615514082
-0.0348717912427 0.00554027017272 0.0214911365298
-0.0349202325725 0.0060912520216 0.000262624070144
-0.0344572062358 0.00805340095683 0.0264721294361
-0.0347124310657 0.0066625430178 0.0195859475309
-0.0351485107588 0.00356601637184 0.0254225621258
-0.0346785729847 0.00772940377718 -0.00106925881329
-0.0350835689716 0.00521629108965 -0.00451460106487
-0.0347388304871 0.00779499581553 -0.012325457491
-0.0347104988985 0.00701085810977 0.0113810287761
-0.0347011882378 0.00778573637211 -0.0060690922315
-0.0344248089521 0.00903165561582 0.00774885824002
-0.0348083503737 0.00764749586438 -0.0198564667565
-0.034874700129 0.00729569435604 -0.0218855647128
-0.0352217791961 0.00324513936176 0.0215292020123
-0.0345856082821 0.00825612565425 0.000947498979816
-0.0349670017539 0.00514232869213 0.0159666252381
-0.0351921154188 0.00361143429824 0.0173271797112
-0.0348427433038 0.00588193767359 0.0177924701669
-0.034982341978 0.00545177125484 0.00594501697783
-0.0350527688821 0.00506983041657 0.00399953384924
-0.0169733287935 0.0308562681783 0.0254281897428
-0.0189259460503 0.0298565818417 0.0258733226189
-0.00896939561885 0.0345806837203 0.025893043341
-0.018381093732 0.0298349295978 0.0275923502108
-0.0122078737141 0.0330554117648 0.0258173736692
-0.0204773330456 0.0289423884579 0.026962352555
-0.0165686364909 0.030769569188 0.0271380165645
-0.0143543339208 0.0317392199575 0.027638915961
-0.0238910050708 0.0261644282307 -0.0261670109478
-0.0230222744456 0.0271792434247 -0.00552742612543
-0.0222114936952 0.0277136191152 -0.00828228582047
-0.0196365617258 0.0294805712349 -0.0133054619274
-0.0184062508338 0.030444048997 -0.00934570354951
-0.0227661382481 0.027609264025 0.00753608407154
-0.0255757685488 0.0250447268284 -0.0209383479345
-0.0225975190665 0.0275469281624 -0.00229054944609
-0.024397177463 0.0261179324698 -0.00913108164349
-0.0208494073221 0.0289245011595 0.00379432364608
-0.0203007491832 0.0292221324856 -0.00148301431321
-0.0166519574331 0.0315807604104 -0.0163478050449
-0.020906299032 0.0284451918119 -0.0195806324091
-0.0200104287641 0.029360707493 -0.00528453555831
-0.0194356071936 0.0293955057301 -0.0255913329671
-0.0207315669174 0.0286085516327 -0.0176033441029
-0.0231768375114 0.0271600622601 -0.000591228828869
-0.0170418828365 0.0311504206436 -0.0242699015037
-0.020961273372 0.0283041917698 -0.024982587386
-0.0192146558125 0.0298264478501 -0.0111220624832
-0.0215404177604 0.0286881507707 0.0178292624395
-0.0246806274467 0.0257521272964 -0.017715931224
-0.0214668552139 0.0286957906751 0.0154004969129
-0.0206209021445 0.0291593432606 0.00751149628261
-0.0229955168217 0.0268697262448 -0.0230701332765
-0.0212455047137 0.0283681151877 -0.0106136697944
-0.0189698373747 0.0300753785111 -0.00728232491147
-0.0172382607234 0.0309732483497 -0.0261494241922
-0.0222902482984 0.0274069408067 -0.0216053758711
-0.0184306889267 0.0304958090273 -0.00564234595758
-0.0215019063215 0.0286335717542 0.0134329089928
-0.0211267787363 0.0287606853087 0.005750117745
-0.020835775666 0.0288009839733 -0.00332022281501
-0.0198484596591 0.0292778214198 -0.0159510055391
-0.0179788481333 0.0305584779779 -0.0197206904845
-0.0201472508079 0.0289341755471 -0.0227622779614
-0.0207855985114 0.0289060603093 0.000350363903693
-0.0214645919851 0.0283157480199 -0.0049599364032
-0.0228302636112 0.0270852797185 -0.0179431295263
-0.0225525817196 0.0273635575471 -0.0138049818449
-0.0180838093793 0.030425969326 -0.022742358171
-0.01886457847 0.0302290971267 -0.00314069977556
-0.0213888333831 0.0286349200975 0.00914514228246
-0.0181849264104 0.0304714775021 -0.0164160331929
-0.0232794255419 0.0268996484687 -0.0105274302542
-0.0238553876832 0.0266169590664 -0.00340027744876
-0.0183537245292 0.0303900718945 -0.0142503119686
-0.0211807743723 0.0290306144378 0.0222312231964
-0.0212021848094 0.0283547049278 -0.0129992954995
-0.0200358627605 0.0292694218504 -0.00917347398778
-0.0189907978562 0.0303051176466 0.00578114798639
-0.0237854555034 0.0263390954193 -0.0209191023753
-0.0200141882411 0.0296829241749 0.0120488923356
-0.0187785645827 0.0303472398897 -0.000154829445502
-0.017118958957 0.0311502117526 -0.0213092615488
-0.0216283009243 0.0284971607126 0.0110294650065
-0.0251103875491 0.0253208334313 -0.0241530381582
-0.0249204304832 0.0256540002704 -0.0137045060989
-0.0206351854727 0.0288710408777 -0.00731712467651
-0.0223523719977 0.0277859287425 0.00100680244364
-0.0142199939036 0.0322683348933 0.022771147341
-0.0173737407387 0.0308605367984 0.0212442630405
-0.0150661609537 0.0322934757951 -0.0120831515199
-0.0127968340106 0.0329748843781 0.0173668777789
-0.0124625256739 0.0330966853968 0.0198740494074
-0.0179004068756 0.0308494478473 0.00183647912405
-0.0154479384843 0.0320868587741 -0.00917325189026
-0.0108896886985 0.0338666627067 0.0148317824043
-0.01714306916 0.0312638436271 -0.0043229521578
-0.0103636381071 0.0340116153279 0.0227704165284
-0.0162021617774 0.0313629802852 0.0235673593092
-0.0182996041019 0.0304757728022 0.0183565790818
-0.012463338948 0.0331484156477 0.0154196737811
-0.0161108302631 0.0315793783732 0.00859530411279
-0.0182503448921 0.0305240892557 0.0161294082364
-0.0154388664321 0.0320044158358 -0.00177373247208
-0.0130000025224 0.032953122378 0.0113749739906
-0.014471634258 0.0324907440699 -0.00597087841389
-0.0153666440317 0.0318553192369 0.0137654725917
-0.0110190252491 0.0337382528536 0.020811921459
-0.0111397660751 0.0338400785619 0.00743912314984
-0.0156924677987 0.0316591545536 0.0179443351079
-0.0101652767996 0.0341694442905 0.0169427792138
-0.0154228179448 0.0318042042372 0.015964662959
-0.01588688848 0.0317462792451 0.00298071478645
-0.0185035022001 0.0305048752863 0.00798755738478
-0.011844014456 0.0335515554441 0.00488835523013
-0.0103451344197 0.0340629121032 0.0190997126377
-0.0170520228462 0.0313773562317 -0.0105093102177
-0.0125190056645 0.0331464470276 0.0134364466102
-0.0187093159688 0.0304625267749 0.00365356219667
-0.0141465888735 0.0324582485062 0.00937065078
-0.0154555903491 0.0322428614504 -0.0228072461903
-0.0147523563641 0.0322119023762 0.00702007780483
-0.0169867575803 0.0310561509086 0.0194763134293
-0.0169354517278 0.0311588447213 0.0126789760218
-0.0124205349684 0.0332353859712 0.00963809512062
-0.0181478534995 0.0305919735102 0.0142866367945
-0.0134868012949 0.0328070612559 0.00504821782992
-0.0129039278534 0.0330992852227 0.00259136503115
-0.0137067809833 0.0328156103826 -0.00418505045371
-0.0200322081432 0.0296880806036 0.0187383998345
-0.0172372386272 0.0311122085494 0.0050021702633
-0.0156320996626 0.0318832097356 0.00112084859329
-0.0135885421067 0.0329534180114 -0.011397630616
-0.0130082968363 0.0330861870808 -0.000322651973801
-0.0169868734795 0.0312845945041 -6.01189453033e-05
-0.0160361840778 0.0319433649824 -0.0196404817733
-0.0140740184073 0.0323098341184 0.0248649796192
-0.0184628972475 0.0303505354486 0.0227530309187
-0.0154171335966 0.0322817974557 -0.0246499076498
-0.0120636150307 0.0332371623223 0.023281338037
-0.0102425995238 0.0341795358094 0.0130913940755
-0.0167892668273 0.0312487640335 0.0106409790375
-0.0169615954267 0.031379231576 -0.00717459065282
-0.0104715490032 0.0340996478045 0.0110728238051
-0.0106391712564 0.0338619893575 0.024913969621
-0.0182730230563 0.0305860115493 0.00995852367951
-0.0143741408344 0.0326476013723 -0.0156140291708
-0.0154537275012 0.0319136118093 0.00541563467772
-0.0145959442909 0.0321366354947 0.0195008037231
-0.0130489891137 0.0329744048525 0.00766196557514
-0.0196576847843 0.029825114327 0.0214975027771
-0.0125382915881 0.0333283894133 -0.00286505749867
-0.0166624925563 0.0315944917563 -0.0140188953348
-0.0243199241488 0.0253561618797 0.026149137494
-0.02227794287 0.0268162624683 0.0288403682892
-0.0275216392888 0.0219227106213 0.0270828872675
-0.0218298158664 0.0279295385799 0.0258596788506
-0.0236647357445 0.0256023928128 0.0280137720239
-0.0211384366748 0.0289853966305 0.024241691776
-0.0251738571792 0.0241519559581 0.0276975462516
-0.0250366233308 0.02560030006 -0.0115844105828
-0.0272696068644 0.02274650443 0.0123473087295
-0.0261944569089 0.0245065954435 -0.0186361178652
-0.025387477584 0.0249026055477 0.00474344091379
-0.0263922456673 0.0239084284041 0.000895560831617
-0.0258865105141 0.0245071840586 -0.00212579122674
-0.0260032943857 0.0242081929879 0.0066745313317
-0.0278904874084 0.0222758149547 0.00272800283612
-0.0287861931489 0.0211621081347 0.0107637105888
-0.0235788775167 0.0267156709932 0.0104835257799
-0.0270932308715 0.0228984549706 0.0141603847875
-0.0273835034214 0.0229949032398 -0.00629253122781
-0.0280688358695 0.0216369084507 0.0253576069976
-0.0292620806921 0.0204696119917 0.0201138808488
-0.0242260365991 0.0257596626879 0.0239188735045
-0.0232113346516 0.0270274403431 0.0145074472178
-0.0268407543892 0.0237135620211 -0.0133704492451
-0.024858452218 0.0252555365411 0.0153656344022
-0.0227402214463 0.0274842011787 0.016784828692
-0.025672156792 0.0248873974012 -0.00978018429184
-0.0264316707476 0.0235124293545 0.0187412799492
-0.0227483019241 0.0273849752985 0.0213530365684
-0.0275286307235 0.0222941382977 0.0212398357066
-0.0259568316142 0.0241632264367 0.0114369489911
-0.0272041191691 0.0233829996942 -0.0162225637924
-0.0258666485921 0.0242167430968 0.013582833757
-0.0263228888997 0.0242977562068 -0.0150061943771
-0.0268808921002 0.0234806792797 -0.00378609187617
-0.0248604981958 0.0256959060721 -0.00694434490898
-0.0257823859626 0.0245239317352 0.0026225151092
-0.0277384380116 0.0223199457244 0.00866993596192
-0.0246997276998 0.0253639251044 0.0184267024986
-0.0238709125825 0.0265801090142 0.00163213921904
-0.0262449456171 0.0237716030716 0.015704836353
-0.0234013172933 0.0270162204287 0.00486897948496
-0.0221214667549 0.0280889207804 0.0195331722395
-0.0236116530465 0.026638928147 0.0125919225424
-0.0272047091865 0.0230790606049 -0.000931952601729
-0.0270916313559 0.0233473663106 -0.00838440587488
-0.0252808041293 0.02492605242 0.00929092790157
-0.0289882231167 0.0206943776344 0.0234919711384
-0.0284586510181 0.0213998798155 0.0163695673866
-0.0238138644635 0.0262780675395 0.0199228686932
-0.0246910378479 0.0253056259742 0.0218324396136
-0.0260164716456 0.0238349295519 0.0247838808439
-0.0256573401172 0.0248123252918 -0.00519980527894
-0.0268592735406 0.0233513147875 0.0038966305266
-0.0228569096178 0.0272285896238 0.0234034255103
-0.0261216186316 0.0237608596491 0.0228704103505
-0.0271641821437 0.0233080152214 -0.0102973724701
-0.0245711774078 0.025883144321 -0.00084386916566
-0.0280397894771 0.0220739804775 0.00488385413822
-0.0303510842605 0.0172109750311 -0.0279224625977
-0.0266198099904 0.0223775319361 -0.0281485223953
-0.0285335232732 0.0198133861594 -0.0279458452327
-0.0269449229264 0.023437753603 -0.0266002330206
-0.0269269838044 0.0200385409417 -0.0300666289177
-0.0343577127194 0.00923915428587 -0.0220493482472
-0.0343087092062 0.0093899002478 -0.00280100519999
-0.0338496549831 0.0107671035634 -0.0157340082605
-0.0338820814409 0.0106707679033 -0.0095868460723
-0.0332552279956 0.0125535557531 -0.0152383740535
-0.0336879256109 0.0112561567632 0.00100019424789
-0.034403026408 0.00910449244941 -0.0136777564206
-0.0343955776927 0.00912495956705 -0.0242802864585
-0.0335065396483 0.0117990421765 -0.011234248664
-0.0335159165038 0.011772528976 -0.0020231684744
-0.0341423660287 0.00989012214577 -0.000976336302797
-0.0337232986879 0.0111487496891 -0.00510632208631
-0.0328821601502 0.0136727623341 -0.0259146725882
-0.0331415759446 0.0128947299205 -0.017290560633
-0.0337365996226 0.0111054821814 -0.0233283172532
-0.0336599739104 0.0113374934852 -0.0137249391514
-0.0341370704177 0.00990875711837 0.0140661702785
-0.0343470421374 0.0092757738957 0.0031213939724
-0.0336332939093 0.0114188302469 -0.00731996398849
-0.0343428561552 0.00928684236774 -0.00523379880372
-0.0342586743765 0.00954365949674 0.0159717997306
-0.0341274732657 0.00993034588209 -0.0260321456067
-0.03388019858 0.0106798003483 0.00906834881091
-0.0331155724431 0.0129748658286 -0.00628466784066
-0.0340118525873 0.0102789181214 -0.0198905349092
-0.034218882361 0.00965717991514 -0.0175441474098
-0.0329886372807 0.0133534958787 -0.0219508280471
-0.0342110207902 0.00968500551466 0.00567811803449
-0.0330436413665 0.0131885204798 -0.0201704750068
-0.0341963848159 0.0097301349148 0.0120120828955
-0.0338432987453 0.0107897938855 0.00410745203773
-0.0343737181524 0.00919308458853 -0.0108279508983
-0.027811729672 0.0225016595864 -0.0125537995227
-0.0301894030678 0.0186866580682 -0.0258433021478
-0.0311955352511 0.017311074478 -0.00549825006189
-0.0274796089267 0.0229639273858 -0.018378607474
-0.029606200368 0.0198091927438 -0.00226908782503
-0.0298687670695 0.0196487590627 0.024634668985
-0.028364241237 0.0215351929787 -0.0243381174377
-0.0305602691219 0.0184295982066 0.00884516183017
-0.0278530335596 0.0223517536536 -0.0218807825806
-0.0292301589673 0.0205424936889 0.0139650798173
-0.0271872898551 0.0233651597839 -0.0241184310398
-0.0310898941157 0.0174918643162 -0.00368013715148
-0.0289350916895 0.0209018520903 0.00320673618595
-0.0315259934104 0.0166852722472 -0.0177405906272
-0.0297035500065 0.0195839311485 -0.0103246317018
-0.0312818157045 0.0170318689661 -0.0212906419318
-0.0314763433326 0.0167460900935 -0.0195128309936
-0.0294587754389 0.0199827312743 -0.00829776689671
-0.0290161086406 0.0205600469873 -0.0202832136441
-0.0306706406176 0.0181990785414 0.00241739526713
-0.0286192790684 0.0212623634272 -0.0109305194516
-0.0289230687578 0.0209637532996 0.007908309108
-0.0287792865852 0.0209570429681 -0.0171092310689
-0.0303205842168 0.0188375697949 0.0127292784478
-0.0291501579012 0.0203340288392 -0.0222217343677
-0.0308896685801 0.0177397611163 -0.0105405632959
-0.0278602058816 0.0224065792893 -0.0147062960533
-0.0316595838283 0.0164073868006 -0.0253978014711
-0.0299083762411 0.0195273184654 0.0181173561704
-0.0303989251701 0.0184559767414 -0.0155401117967
-0.0301863720932 0.0187105950344 -0.0237518666863
-0.0287060550255 0.0209886264171 -0.0260444464707
-0.0301078820237 0.0188682706764 -0.0198613328143
-0.030144024663 0.0188771701375 -0.0127881895497
-0.0284504630919 0.0215766778928 -0.00526152992016
-0.0288860554626 0.0208095767843 -0.0151125039214
-0.0295551791973 0.0199138572852 0.000495913366324
-0.030716418571 0.0181024486114 -0.000359432134262
-0.0295340376882 0.0198824683074 -0.00648923711935
-0.0288940877481 0.020815184745 -0.0131457566345
-0.030237002527 0.0186872215014 -0.0177415123212
-0.0299801536315 0.0192047190288 -0.00484449860387
-0.0287516302301 0.0211285695987 -0.00312539750515
-0.0299158503478 0.0193987846624 0.00540031197455
-0.0287961894369 0.021080578288 -0.000818070549022
-0.032870803635 0.0133582857396 0.00300329751923
-0.0315326709053 0.0158731740675 0.024399070174
-0.0312748630571 0.0168375121244 0.00939641956768
-0.0329290707186 0.0128758763148 0.0169350942822
-0.0314970186017 0.0164199046234 0.00584782464589
-0.030729140368 0.0181398012838 0.00709489543059
-0.0313687538367 0.0164560557762 0.016066150464
-0.0325522453955 0.0137873301784 0.0148590354463
-0.0334675998171 0.0118920838734 0.0071956093269
-0.0324021535584 0.0145593611156 -0.00226986490052
-0.032256396619 0.0142349911537 0.0239084495813
-0.0319055560894 0.0158175957261 -0.00728090927419
-0.0323714118429 0.015058218068 -0.0193592971105
-0.030645098006 0.0179165488559 0.0236329275891
-0.0330724578791 0.0130849692147 -0.00443299845785
-0.0323152844834 0.0149626441337 -0.0104478543554
-0.0329079018146 0.0135553033504 -0.00822181884974
-0.0319930060965 0.0149613964287 0.0188969864322
-0.033898472983 0.010490723808 0.0238858067095
-0.0308443863791 0.0175998073223 0.018142559352
-0.0311783613182 0.0170074537912 0.0113947526262
-0.0332945135315 0.0121228666896 0.0137304214395
-0.0317409507447 0.0159758774351 0.0013727945384
-0.0325105961547 0.0145838562393 -0.0131036450086
-0.0304567241811 0.0184457855838 0.0196613534498
-0.0334738311186 0.0117719671846 0.011416894636
-0.0327103316861 0.0132366373459 0.0224389619884
-0.0331870542817 0.0125844752184 0.00509929247735
-0.0324735011348 0.0142276807617 0.00446503051148
-0.0306790645365 0.0177953018917 0.0253781317473
-0.0336234870024 0.0113330928948 0.0153061889663
-0.0336985489112 0.0108751634038 0.0267355944205
-0.0322874365107 0.015337685631 -0.0228651886319
-0.0336364596186 0.0112151544831 0.0188278651213
-0.030560255395 0.0183045561543 0.0158796048521
-0.0322382443641 0.0146443298632 0.00924272769805
-0.0327573251517 0.0135230391599 0.00675161426038
-0.0327432323932 0.0132135214712 0.0203696590919
-0.0315474361326 0.0158958964962 0.0221512214409
-0.033941834782 0.0104666733757 0.020902840822
-0.032471198945 0.0147490703229 -0.0161076783076
-0.0319014320493 0.0153077209242 0.0134169790712
-0.032825232658 0.0135408807883 -0.000132325202319
-0.0317962533806 0.0162198418605 -0.013378352206
-0.0308192950427 0.0175751450754 0.0214063703916
-0.0310076495493 0.0173199617767 0.0144562515096
-0.0326782280685 0.0135808121054 0.0116387779265
-0.0317919981559 0.0157006434758 0.00770308793056
-0.0319159019386 0.0157188275256 -0.00428456216161
-0.0309547933127 0.0176984505563 0.00417476403682
-0.00759460229265 0.0271070336684 -0.0319297858614
0.0149635797542 0.016328325252 -0.0319329827495
-0.018497870927 0.025024419923 -0.0319290739883
0.0219534353063 0.0147931183519 -0.031933767112
-0.0123547533977 0.0192661859863 -0.0319302671561
-0.00545580686174 0.0252077489278 -0.0319301892195
0.0096745419324 0.0159277454242 -0.0319325677612
-0.0160747212104 0.0251236222217 -0.0319292737489
-0.000105780348908 0.0210414707349 -0.0319311313812
0.00216731522265 0.0204252072966 -0.0319313998268
-0.00326639416533 0.0204643340154 -0.0319309219894
-0.0100098757128 0.021406767855 -0.0319302268271
0.0183946134614 0.0156755423734 -0.0319333562438
-0.00621933284252 0.0208065019926 -0.0319306256394
0.0138664355981 0.0146384731082 -0.0319330802715
-0.0085655081825 0.0196883497617 -0.0319305490212
0.00479870447499 0.022114362044 -0.0319314360428
-0.0166363456472 0.0192310065685 -0.0319298981783
0.00274424507309 0.0227303658462 -0.0319311866737
-0.00225244517465 0.0236148219265 -0.0319306503112
0.0228168890372 0.0132938989182 -0.0319340136507
-0.0145676900878 0.0226028029286 -0.0319296930934
-0.0138923799049 0.0291461257354 -0.0319290042109
-0.013539736002 0.0208635198457 -0.0319299813952
0.0110676429555 0.019125856326 -0.0319323236715
-0.0112822848878 0.0267706632395 -0.0319295030404
-0.0195071440254 0.0207510748617 -0.0319294743841
-0.00266334986388 0.0186242729863 -0.0319311847905
0.0197179895875 0.0140373039919 -0.0319336587353
0.000795776779366 0.0235893914022 -0.0319309187679
-0.000740383662804 0.017059375512 -0.0319315311355
-0.0173579912891 0.0221980803601 -0.0319294962599
0.0125835120945 0.0172194543591 -0.0319326735757
0.0164538266834 0.0135277617474 -0.0319334325985
-0.00470272120208 0.0192627351813 -0.0319309341696
-0.0159023359023 0.0212106054919 -0.0319297359116
-0.014179210808 0.0246668600596 -0.0319294910741
0.00569722260142 0.020074252006 -0.0319317474444
-0.0117485225344 0.0212507876392 -0.0319300931861
-0.00462252798389 0.0226470789157 -0.0319305544227
-0.011907178199 0.0294432086401 -0.0319291432069
-0.0197591512985 0.0227454582636 -0.0319292245295
-0.0226954581903 0.0213041127242 -0.0319291334327
0.00112930028337 0.0187088849215 -0.0319315055246
-0.01200474575 0.0234991417743 -0.0319298139427
-0.00903959483445 0.0231114717484 -0.0319301165561
-0.00945019919948 0.0284749143309 -0.0319294678987
-0.0141915015233 0.0267507960769 -0.0319292518696
0.00347039294659 0.0184930774886 -0.0319317341332
-0.0145555186056 0.0193177387299 -0.0319300695419
0.00874329642066 0.0186424001824 -0.0319321764274
-0.00722875179217 0.0243287159419 -0.0319301352147
-0.0211277103128 0.0197779756744 -0.031929444403
0.00454919995481 0.0169316382648 -0.0319320065428
0.00700370015124 0.016304349338 -0.0319322920516
-0.000991057396097 0.019421041746 -0.0319312394272
-0.0254770666096 0.0207392443057 -0.0314522745523
-0.0199762832512 0.0253697093265 -0.0309298843208
-0.0160043633875 0.027830316691 -0.0316084557793
-0.0225407768297 0.0240909558869 -0.0301211144279
-0.021461899001 0.0235515218138 -0.0317497397419
-0.0239363964973 0.0228079860862 -0.0303829924733
-0.0238157432744 0.0248435734728 -0.0280587961069
-0.019657343279 0.0267541436587 -0.0295651163351
-0.00434011535091 0.0328028674869 -0.0298008026145
-0.000248565087649 0.0340151095998 -0.0287107967364
-0.00246753021029 0.0342583292604 -0.0282911219639
-0.00182819912221 0.032991092279 -0.0297556293803
-0.0107634345837 0.0310006447382 -0.0313987884562
-0.000212308107124 0.0322320906319 -0.0307143017529
-0.00528920837711 0.0340747558654 -0.0283105951027
0.00591215003965 0.0323092429161 -0.0310326283127
0.0037096399913 0.0333192706097 -0.029753441745
-0.00324447618878 0.0319056649469 -0.0308801836349
0.00136345602676 0.0330260675966 -0.0299273908618
-0.00460650173453 0.0309970581637 -0.0318098764513
-0.00836381668311 0.0312762931313 -0.0312480739023
-0.00622127775959 0.0324940019771 -0.0300230746594
0.012429489778 0.0217729177385 -0.0319317586225
0.0176655826212 0.0216684457298 -0.0319318711154
0.0153031432199 0.0185708159833 -0.031932677086
0.00759550385255 0.0310925689676 -0.0319291421005
0.00705616461235 0.0228371817226 -0.031931382452
0.000585783647363 0.0289119404615 -0.0319296236712
0.0155340711771 0.0251622748027 -0.0319308850873
0.0192353555602 0.0182873300571 -0.0319328174221
0.0226688822695 0.0182118576244 -0.0319328930861
0.00606812822225 0.0279856487439 -0.0319299640036
0.00990088650967 0.0208143958596 -0.0319319791713
0.00406948316456 0.027992823364 -0.0319299299737
0.00467698318166 0.0262800067474 -0.0319304063441
0.00875452443117 0.0287698718152 -0.0319297934712
0.00389429460002 0.0243319004943 -0.0319309245038
0.0171425286129 0.0197492339891 -0.0319323855702
0.000181071013922 0.0258858469794 -0.0319304415718
0.0170172233561 0.0236773641392 -0.0319313134225
0.0207959662946 0.0169260821783 -0.031933213311
0.0100827188438 0.024435753078 -0.0319309955266
0.00178662241083 0.0312652413971 -0.0319290018354
0.00638742626803 0.0248541811932 -0.0319308222306
-0.0016577233039 0.0292412417955 -0.0319294979549
-0.00753427214833 0.029819390826 -0.0319292461402
-0.000524653735941 0.0305908667821 -0.031929148462
-0.00206081293353 0.0265489630934 -0.0319302249408
0.0283257609719 0.0135343626887 -0.0319342581562
-0.00432248261121 0.0289214474945 -0.0319295423106
0.0107566823223 0.0279944011797 -0.0319300368637
0.0169460309905 0.0177183281383 -0.0319329356944
0.0149820998715 0.0203916449891 -0.031932175887
0.00242796737135 0.0261715461922 -0.0319303997985
0.00555524768011 0.0307484711449 -0.0319292030996
0.0135579292734 0.0259766711588 -0.0319306315079
0.0240947572999 0.0148955574326 -0.0319338194257
0.0208854423695 0.0202236252243 -0.0319323164005
0.0083826970369 0.0257174790838 -0.0319306190643
0.00384553538541 0.0297634776579 -0.031929444002
0.0121376389146 0.0239070571074 -0.0319311725372
0.0108106954578 0.0298767514936 -0.0319295249236
0.0189259732156 0.0203383553694 -0.0319322536981
0.0238685878996 0.0166758465381 -0.0319333307936
0.0140768397481 0.0230942480506 -0.0319314250914
-0.0131816352693 0.0308918966199 -0.0303782298627
-0.0146692222696 0.0300150979994 -0.0301083101652
-0.0175185983121 0.0295211548983 -0.0279784666001
-0.0149242154194 0.0316959434421 -0.0275708569043
-0.0219103014529 0.0266576009999 -0.0275557807562
-0.018037627846 0.0280671976011 -0.0294461414446
-0.0122667035759 0.0322152627705 -0.0282576327015
-0.00802626506259 0.0329925927181 -0.0290549925755
-0.00987578488316 0.0321566998675 -0.0297296069508
0.0295137424427 -0.0201194287392 0.0012822217783
0.0295448543757 -0.0202060152849 -0.0113376982906
0.0308365986788 -0.0173996656524 0.0237743518068
0.0309150829523 -0.0174266240188 0.00866128221924
0.0303846044836 -0.0183439840259 0.0147766851886
0.0314424751405 -0.0164625688577 0.00712585247948
0.0292119509309 -0.0204966390145 0.0173973454479
0.0331466330945 -0.0130787162113 0.025632958385
0.030232239735 -0.0186829832583 0.0099379330669
0.0303179212502 -0.0187098320397 -0.00633556539635
0.0307304705104 -0.0178510620146 0.00160273857945
0.0295711664927 -0.0201110544626 -0.00732136872237
0.0317613277534 -0.0157149611156 0.0205870050275
0.0299273428971 -0.0193286365832 0.00311259135431
0.0297228751661 -0.0196095341153 0.0118183026551
0.0305301970901 -0.0182505124039 -0.000727553996823
0.0300444908924 -0.0188802694853 0.0232282268729
0.0317854958285 -0.0156991778524 0.0180366666522
0.0308592326077 -0.0174393912635 0.0166253746457
0.0295121828585 -0.0198311984828 0.0267092002016
0.0310364868779 -0.0170855261621 0.018716385075
0.0304480981076 -0.0182480008971 0.0128379914379
0.0308510022309 -0.0176772972855 -0.00281490861546
0.0302552118481 -0.0186746305865 0.00693304012232
0.0307855687834 -0.0174579931263 0.0269756826761
0.031305147937 -0.0166332923058 0.0145394305633
0.0297191353347 -0.0199426089975 -0.0166638299523
0.0301279135815 -0.0191427525948 -0.0132578984228
0.0320437511451 -0.0152441269373 0.0157973292987
0.0299880748113 -0.0190310409475 0.0192312768395
0.0315130183556 -0.0161560005328 0.0224332473492
0.0319136612749 -0.0155313496684 0.0118595779225
0.0299347890792 -0.0193816616626 -0.00272898020405
0.0292503103259 -0.020464580975 0.0139614402731
0.0315970868967 -0.0159669802152 0.0252755290441
0.0299888321436 -0.0193564671833 -0.00931390749804
0.0300471416992 -0.0189010246225 0.0209845939443
0.0297381769953 -0.0196518115182 0.0056383797779
0.0318087279164 -0.0157594921129 0.00899228032734
0.0296586495573 -0.0200759828326 -0.0184797273427
0.0326633544868 -0.0140046435287 0.0233271940524
0.0229275836503 -0.0268739500448 0.0281761218622
0.0225524648605 -0.0258470018786 0.0298124258968
0.0261076701296 -0.0237236848868 0.0277817106492
0.0214695075184 -0.0272424576642 0.0295799680626
0.0282647018596 -0.0213804658504 0.0277488231602
0.0282849596464 -0.0218689871278 -0.0126301384813
0.0267509562346 -0.0233642421176 0.00411545306909
0.0278608454063 -0.0222573117566 -0.00581025218041
0.0268786668544 -0.0230296368077 0.021072840547
0.0265928405015 -0.0233206307212 0.0231111034326
0.0283600205402 -0.0214058696584 0.0206081488989
0.0263517135732 -0.0235538240857 0.025904253883
0.026923982126 -0.023152739387 0.00596886302692
0.0235688557778 -0.0266362196093 0.0239823107441
0.0287648318995 -0.0211636386792 0.00288274348781
0.0258281385553 -0.024289034144 0.0119808876097
0.0287670937441 -0.02110951497 0.00739255309884
0.0277363562904 -0.0224403915831 -0.00984312912726
0.0264323367247 -0.0235405046947 0.019323840426
0.0257034881023 -0.0243200227342 0.021246848437
0.0288421273771 -0.0213392310181 -0.0198772223913
0.0262083029357 -0.02400261013 0.000482508680602
0.0248466404573 -0.0252423811277 0.0229885337554
0.0290540121405 -0.0209308317889 -0.00455959121404
0.027475269991 -0.0224696137989 0.012681509906
0.0288083664406 -0.0211607037313 -0.00104233494005
0.0270941750394 -0.0229212288541 0.0098418162774
0.0291680318519 -0.0204946104529 0.0225877209291
0.0277432524259 -0.0223559862185 -0.00313369577703
0.027395818389 -0.0226923631507 0.00085820809692
0.0276943109436 -0.0220751660877 0.0260933051278
0.0268804142754 -0.0230727740034 0.0171374884324
0.0280314606275 -0.0217908690088 0.0185406447385
0.0288012684909 -0.0213213004922 -0.0143867872018
0.028212673135 -0.0218929308909 -0.00777835486102
0.0265107224921 -0.0235849726731 0.00791129129882
0.02812999632 -0.0216215842741 0.0238614637506
0.0254696119603 -0.0246465237336 0.0151942739591
0.0281772717854 -0.0217770171918 0.00574554678539
0.0247971892879 -0.0253402480341 0.0191907275339
0.0291934781853 -0.0204421112175 0.0247288257013
0.0264824051387 -0.0237308429158 -0.00210889275551
0.0288285658892 -0.0210172791065 0.0095439632628
0.0240386272548 -0.0260912667714 0.0264567243305
0.0282900276604 -0.0215344449939 0.0161013231297
0.0317774542009 -0.015421691566 0.0270506829249
0.0316953695605 -0.00875866983779 0.0305124907089
0.031451317768 -0.0125529732271 0.0288970142313
0.0270290131942 -0.0194884285383 0.0294816824365
0.02902549421 -0.0139547618245 0.0303047454365
0.031676771783 -0.00677163488961 0.0313336820085
0.029360050473 -0.0166772706521 0.0290292426461
0.030101486781 -0.0122780642762 0.0302427065336
0.0259593554769 -0.0213533896214 0.0294666261261
0.0302549106973 -0.0148446609131 0.0291473323792
0.0245855207841 -0.0208301127415 0.0305775382311
0.0239329195647 -0.0236159656375 0.0299301327163
0.0285066355828 -0.0187094121321 0.0288064817788
0.0308941335051 -0.0104341069596 0.0304327659655
0.0262626806797 -0.0179392253511 0.0305882649294
0.032531183484 0.00652734557005 -0.0302476470449
0.0348850732086 0.00413115578588 -0.0271461202284
0.033971518836 0.00497396354548 -0.028356057366
0.0339729645184 0.00181007420015 -0.0285798851552
0.0332852768081 0.0115844359677 -0.0270324001236
0.0332226849377 0.00972532334494 -0.0281918096036
0.0329970980222 0.00830891058407 -0.029445053779
0.0322241134127 0.0120475141576 -0.0289825719152
0.0350194117007 0.00641384966485 -0.0262890872848
0.0336814717866 0.0114517966115 0.0111975654871
0.0345588035519 0.00815664205604 -0.021359584772
0.03504430508 0.00633315562225 -0.0231007682144
0.0351087119285 0.00609125110122 -0.0210396322501
0.0338978072185 0.0106392662644 -0.015660138992
0.0331505673188 0.013445811128 0.0072852965165
0.033631364458 0.0116399938237 0.00121676409117
0.0338738393474 0.0107292867594 -0.024798300035
0.0332157819827 0.013200872548 -0.0201671920921
0.0344386767789 0.00860782403653 -0.00974914289026
0.0341674420135 0.00962654980054 -0.0116028786038
0.0336912819928 0.011414950635 -0.0201042131556
0.0345624116718 0.00814309038363 -0.0192410419393
0.0336733335059 0.0114823630335 -0.00741701605405
0.03370308151 0.0113706330413 -0.00480814744785
0.0332117155623 0.0132161455431 -0.00185986824852
0.0342152887583 0.00944684307429 -0.0180980527821
0.0345333511811 0.00825223815639 -0.0165204708896
0.0341988370181 0.00950863386894 -0.01371851148
0.0333997957628 0.0125097385097 -0.0108888813831
0.0333830008303 0.012572818294 -0.0181007231345
0.0331889351963 0.0133017059088 0.0157624368373
0.0332889531637 0.0129260502288 -0.00891137629133
0.0332609076293 0.0130313859458 -0.0160707410383
0.034205310041 0.00948432195878 -0.0231128736657
0.0330167317805 0.0139484816128 -0.0144578499114
0.0334115172242 0.0124657140842 0.00323010907647
