-0.05183525658800921 0.005284553817711236 0.0077457112136176285
-0.04643416843014309 0.005086744466247104 0.007974853156904126
-0.04520303191816168 0.005057941783986469 0.00801826763673863
-0.055966496046203046 0.0036204354195931814 0.00855322093186368
-0.059613909304927847 0.0045944192206013226 0.00794352777772547
-0.054493140221236934 0.0031417795048752665 0.008845637332341578
-0.05742698005856553 0.0033360814991935978 0.008674150825571577
-0.05631061992038995 0.004536039430179012 0.008049781891569184
-0.057495451169152605 0.004541332026782976 0.008020141038702017
-0.055216657783128405 0.0049076866166235635 0.007873312848192223
-0.04407350975833063 0.004569175419380431 0.008308387118579449
-0.05870895490483435 0.0038309096616875576 0.008377304548997346
0.018424195589393313 0.009052485466963328 -0.0003452073326782704
0.024661938127980593 0.008950546713810712 0.0004167797077623271
0.027094024908275526 0.008910161345016095 0.000290179700627685
0.012541953838124306 0.009150473943746063 0.00016798759623539887
0.023274923897820758 0.008971993415499462 -0.0005609917278820323
0.02070067904749512 0.009016551224872929 0.0007732743811589289
0.019812086196525875 0.00902944466169223 -0.000413847467807632
0.01523118967417525 0.009105084557294883 -0.00045823116426523436
0.01645563108635229 0.009085739117111536 0.0001316631928689832
0.022056987250058207 0.008992024191571187 -0.0006256744933277208
0.025866410037343465 0.008931814544656778 0.0011943063141609518
0.025645981640615892 0.008933629783291664 -1.644820664045742e-05
0.02924824892237604 0.008585690031014786 0.00037173024357032094
0.02825440687639343 0.008770077506703807 -0.0006700254102016264
0.02765816019693367 0.008873253658522092 -0.0016923042700381342
0.0299964717402898 0.00832759714345933 -0.0014263806479770861
0.027873851153928354 0.008082909093970324 -0.0034420557828934236
0.02988906228796483 0.007558135149806374 -0.0031670751574987706
0.028720980860196095 0.007335419849254106 -0.004466916487417715
0.031131120075794366 0.007985174215692897 -0.0013731850242296485
0.028656396941542234 0.008365311721920895 -0.002282935415368179
0.0043207703369321825 0.008568538966668418 -0.0040619812350016545
0.011116174714178195 0.008565061079338616 -0.0036552131347137628
0.022373810183204758 0.00849086653458275 -0.0031294617162887835
0.020413529924997134 0.008355232189747683 -0.003542554213887958
0.01245802617466281 0.008500831717509065 -0.003712428533318064
0.026435598275829513 0.007293148582566343 -0.005474281490365445
0.024264901446814424 0.007839594510599953 -0.004423842778403127
0.024047347539321688 0.008415467985720576 -0.003190630849169646
0.027329929651426638 0.007509579011216029 -0.0049512940237477
0.011486634227494916 0.00814858576128076 -0.004534086258838522
0.02597156642919507 0.008739070659241174 -0.0023728803029222758
0.018163425864253534 0.00835389069353952 -0.003682640153852511
0.026669710984408943 0.008383814007835496 -0.003099267896817026
0.0141711884645623 0.007969051400505078 -0.00475901814142371
0.0177831952820272 0.007834942050987614 -0.0048290837137551015
0.015824856228742534 0.00839390229676185 -0.0037386109833290196
0.02285515385079138 0.007503474480172101 -0.005237321274326408
0.013816999335341158 0.008451289329240956 -0.003736810183381415
0.020876890533386656 0.007824655102339489 -0.004662736197778862
0.025137173198251102 0.00728759799014071 -0.005565456910193788
0.02220463178244432 0.007868739598682103 -0.004486366994205675
0.026253641217858163 0.007935056524737964 -0.004095968017122666
-0.06008311161475144 -0.004359825003720901 -0.006355396768540182
-0.06025338280420435 -0.008339450504350145 -0.0027242526282814615
-0.059641596820870064 -0.0037922263157277067 -0.008399781173054878
-0.06002563692385812 -0.006666949915736874 -0.0048217275600756435
-0.060257561023040696 -0.007443240510117188 -0.0033864081126605407
-0.059681208755327425 -0.0054639134298396265 -0.006991233322524952
-0.06020613144205529 -0.005111202170026746 -0.005337349546349282
-0.059759517119472076 -0.004462297675666601 -0.007461850008633772
-0.060074836041585075 -0.009038045893577432 0.001487070019860038
-0.06000967752796861 -0.006517581213295024 0.004838070022175481
-0.06038929195905558 -0.008445568449360154 8.943795294815088e-05
-0.06008691836410225 -0.008080015738518007 0.0025165949794912013
-0.060313120399891444 -0.008033661431474555 0.0010712840679640448
-0.06023780130026474 -0.00651102238705399 0.00333393292502902
-0.05992442678171324 -0.007976356958812084 0.0037134540679189497
-0.060067269193624206 -0.0025836370208704466 -0.00758977259134722
-0.06035666555433695 -0.0008677021953302439 -0.005519891932737064
-0.06042606850692635 -0.0053885686549776865 -0.0033792548967967757
-0.06051573482066387 0.004649185557952608 -0.005906836986900041
-0.06010904211124576 0.0008439819224104188 -0.008351045121791672
-0.06051190762067406 -0.004289360004421449 -0.0029620578729259474
-0.06035518964201 -0.004092856475035202 -0.004458241067775303
-0.06023093005303208 -0.002807414073213387 -0.0060211160842979635
-0.06044945503145038 0.002446104671213609 -0.0057774946349085764
-0.06032465497874136 0.0019989534379312736 -0.006767733095414608
-0.06046207426696497 -0.006496276778858793 -0.0026812973852302947
-0.0604041058824312 -0.0018192505640482796 -0.004769605100016532
-0.06051650760294483 -0.008273427150226933 -0.0015919520584480708
-0.060338186456998136 0.000813682438730334 -0.006249087130902756
-0.06003388374955346 -0.0009361804124126177 -0.00844373763698379
-0.060470278919905786 0.0008443784750218368 -0.00505344846798314
-0.06043050508903208 0.00352180447267347 -0.0063090795152315445
-0.060207599139349754 -0.0008422921432761053 -0.006889189011164773
-0.06019889076738456 0.00027080204789299437 -0.0073397442943056775
-0.05962375508519755 -0.00783141460842645 -0.005004804454743645
-0.05965721888894237 -0.009329028108288293 -0.0025075525630330526
0.029200899023862095 0.004860501920413032 -0.006888002475861257
0.027242134593743833 0.004959541831018814 -0.007370007628286268
0.030369104086372074 0.004120137569635083 -0.007048026059791579
0.02795643079708117 0.005925266573901348 -0.006536204890343612
-0.030382867400512614 0.007025194104998896 0.0063241144204019065
-0.03304393515722574 0.005789764373869321 0.0074063807103515135
-0.041879297999321025 0.005799904334715753 0.007414388713892731
-0.021689764354149068 0.0065733475162294865 0.00670150901194508
-0.009745616745056584 0.007245235917765526 0.00609290070568021
-0.04561515550648919 0.006096753691888951 0.00716268520778642
-0.03197603662411518 0.006413404576625315 0.006860582016567095
-0.034832499848769766 0.006334096106755865 0.006935179710109662
-0.053297803398394156 0.007064747021398801 0.006333326792678938
-0.03816297697848984 0.005190341415704956 0.007938789594988652
-0.02012128410587732 0.006521180908275942 0.006744002817583884
-0.03923185609139932 0.006127141896147688 0.007124016158830265
-0.04108726701639143 0.006359105754828803 0.006925301343399156
-0.027068488178066275 0.006221553382786311 0.0070185014535590305
-0.02888311126714526 0.006444675456068831 0.006827418153656268
-0.04423312069798317 0.00704387929929586 0.006334235184053589
-0.019528130761027142 0.007343939533563715 0.006025494831052287
-0.05087723851369858 0.006864013746315577 0.006503733387333109
-0.015602299112164056 0.007399994017156129 0.00596913336648262
-0.007815663235036277 0.007717787473311184 0.005677194743363524
-0.0031063934423444808 0.007596177929667277 0.00577424744673417
-0.005118495668652497 0.007659161272777707 0.005723168346532931
-0.022812102223981386 0.0073411567978542355 0.006034183739515658
-0.050009121149251545 0.006225936434222546 0.0070584280164840175
-0.04065142300419441 0.007111942113234794 0.0062680597278703485
-0.0363902338034948 0.0054581947066428835 0.007701863232917228
-0.03390715941339613 0.006930949792396231 0.006413008483905261
-0.014063471130035029 0.007665112276734589 0.005735037804083512
-0.027257510457063122 0.007254403108990877 0.006118303190413222
-0.048819826926004235 0.006737581799450824 0.006610047967099573
-0.046306415036322573 0.006856218577550836 0.006501813477502619
-0.025901253159267584 0.006792287137070986 0.006518643329320765
-0.01110861987481082 0.007440147543571892 0.005925553313040602
-0.03509155086910282 0.007366580389478362 0.0060354336292953135
-0.024188387828529206 0.006827645443443201 0.006484547371757886
-0.03607507924802669 0.006977966485303827 0.006376148116785205
-0.04694856635172549 0.006223191880523457 0.0070549845027068
-0.01846520806051776 0.00747706294643828 0.005907395315492005
-0.021428256943516875 0.007394258363845541 0.00598524458830277
-0.042486729469592616 0.0068758690107872215 0.006477395728166349
-0.01692094549277194 0.007547587849572784 0.005842958550125566
-0.03748661176948266 0.006393893978972627 0.006888102399126482
-0.05443351163398921 0.007025872184460358 0.006369388221894335
-0.044011362890075165 0.006074493986072717 0.007179035350236687
-0.023023579091209202 0.006291801433167374 0.006949537300811435
-0.030148991886487446 0.006133291489135372 0.007101333034558055
-0.05046712256868448 0.005434971475005299 0.007679253143603738
-0.04926449715676169 0.005401545896306832 0.0077185921114059815
-0.05331340994898302 0.005618508519541947 0.007505496499230257
-0.05792270878258391 0.005795792221657984 0.0073167442530430084
-0.055859192629894944 0.0065887061133432165 0.006727562860876374
-0.04800684702944309 0.0057555023100189255 0.0074593657363007165
-0.05246916755618891 0.006152639155670573 0.007102468589350246
-0.04278536803293986 0.0050210249696818945 0.008085335570797604
-0.06005391904705537 0.007102269157066691 0.004020551741321224
-0.05972168136704578 0.007872548638845886 0.0010015669002506034
-0.0597309350260255 0.007791575278260145 0.002307632572402925
-0.05950567619849079 0.008375300775306436 -0.0010013301435874476
-0.059168143879931794 0.008900230684150837 0.0012208375355048685
-0.05993441567312669 -0.0029443920180037366 0.008621203479258727
-0.06010866940206623 0.004118676621800995 0.00706076893798651
-0.06012382197708057 0.0029825335679778274 0.007207715582313646
-0.060396191164697535 0.005831440929470664 0.006091334973027996
-0.06013693923748015 0.0013862136550207836 0.007433874822302816
-0.06021775303873755 0.006662017363241565 -0.0028127814563248307
-0.06048674426689874 0.005981547454441722 -0.0038494514239312493
-0.05963099364621129 0.008104122002244111 -0.0021963761567665788
-0.05991996627475889 0.0074248769814768975 -0.001293302522710466
-0.06010228053346789 0.0068804307702752835 -0.0052386462617988955
-0.06049252990448215 0.0059126608591797665 -0.005985050065868665
-0.06010842702381382 0.0069988144998011925 -4.506795874676967e-05
-0.06017365757494632 0.006916048538127183 0.0029074797310833177
-0.0596704298285103 0.00797750650261936 -0.0033944179023812663
-0.06037680791864407 0.00639137794492416 0.0017054422850565193
-0.06049628097431117 0.0014206884563228396 0.0038660321329532085
-0.060280997383413214 -0.00015126293199863722 0.005810324245146086
-0.060282951735064004 -0.002779122724018232 0.004552752385574015
-0.06030493669912372 -0.0011882575108648286 0.005025439844065539
-0.0603109625625244 0.0010129944987894548 0.005983392457944591
-0.06050280384722101 -0.004338972411931956 0.0010818273322169662
-0.060520860199079506 -0.005994545949669066 7.994051057859971e-05
-0.06046325797533499 0.0023411039883007704 0.00470937133601153
-0.0604128262185883 -0.00015704329241546982 0.00416529530089817
-0.06013562803508184 -0.005057600120932345 0.0053188393566066285
-0.06006842738626443 -0.0013545985722806136 0.007893797727657999
-0.0601966234532211 -0.005597076033644167 0.004305791935876472
-0.060315483888289466 -0.006801192260178347 0.002259957231183749
-0.060295195272414615 -0.004987692831255504 0.00336376629476622
-0.06013567271329598 -0.004065566479904511 0.005783832841268127
-0.06044190838370624 0.004697059298650211 0.0060809663402384955
-0.06022231892694674 -0.002357875280997024 0.005505799157249129
-0.06002658961197135 -0.0032935873828616154 0.007505065036083851
-0.06045229822480193 -0.003363155222564826 0.002168963451010355
-0.060216842149461075 -0.0012900841223268426 0.006075130769286672
-0.060264277396493086 -0.003992541950568517 0.004215952439574294
-0.060403682035593015 -0.004826613895466546 0.002087836749839986
-0.060516755421713975 0.0034040089857551017 0.004541712331678487
-0.06039411305970749 0.0007063305935832921 0.0048035943185133255
-0.06010408062207261 -0.0020932925860288835 0.007102971018387902
-0.06040776958663972 -0.0022288121861144504 0.0032560330064048716
-0.06041992777514229 -0.0064029384771787405 0.0011456970675247462
-0.06019329649540632 0.00028588524192919894 0.007108045680469457
-0.0603706269642878 0.002643925424532378 0.006005473962281072
-0.060524001717567444 -0.0015291704197346856 0.0009520699740837323
-0.06052400171756745 -0.0020725954200299015 -0.00020164012767493475
-0.060524001717567444 0.003765316779765559 0.001797832927480673
-0.060524001717567444 0.0007656416495514682 0.0022980520723270064
-0.060524001717567444 -0.0004516797354801915 0.0023785453077844305
-0.060524001717567444 0.006064407757058435 0.0038294683015384205
-0.060524001717567444 0.0025736642618872183 -0.0001974955368131341
-0.060524001717567444 -0.0010669577882103179 -0.001370753850340092
-0.060524001717567444 0.0047697162857073695 0.0014390074271205394
-0.060524001717567444 0.00461263555527936 -0.0015543203860525936
-0.060524001717567444 -0.0006184288475644104 0.00012308176980607927
-0.060524001717567444 0.003406401900242476 -0.0008451959711319283
-0.060524001717567444 0.004534013802268347 -0.003990781805747888
-0.06052400171756744 -0.0011056104729151473 -0.0037450934740123963
-0.060524001717567444 -0.004512266238841742 -0.0007575436752330875
-0.060524001717567444 0.001670588765327762 -0.0029026583115599595
-0.060524001717567444 -0.003314800546933911 -0.0004220019514946736
-0.060524001717567444 0.0058136057711001225 -0.0014753235206084255
-0.06052400171756745 0.0054964671469668915 -0.004802171507371506
-0.060524001717567444 -0.003003136413055681 -0.0014870843217205205
-0.060524001717567444 -0.007168887416378369 -0.0008576200878420787
-0.06052400171756745 0.0034192315809738576 -0.003201277889771177
-0.060524001717567444 7.269231163015057e-05 -0.001311783094969954
-0.060524001717567444 0.00532476192583587 0.00020482889789309212
-0.060524001717567444 0.0032942513827961617 -0.004797107711029302
-0.060524001717567444 0.004599937245545308 0.0025701717102428814
-0.06052400171756744 0.0029212438053284563 -0.0022381821054954024
-0.06052400171756744 0.0014752022135839141 -0.0041023894978461095
-0.06052400171756744 -0.002673121818786766 0.0009131507808902823
-0.060524001717567444 0.003499816902648426 0.0006603676436577471
-0.060524001717567444 0.00047268858237117697 -0.0032915242144282526
-0.060524001717567444 0.0024961081029969854 0.0018447450726587216
-0.060524001717567444 0.001517742315307644 -0.0008172183708185386
-0.060524001717567444 0.0011785854776943205 0.0006903428650452453
-0.060524001717567444 -0.0022225370840345364 -0.003425600552287055
-0.060524001717567444 0.004241771052880851 0.0035971648306099037
-0.060524001717567444 0.005665841190207753 -0.002698190426516397
-0.060524001717567444 0.002606412008202613 0.003438995945045509
-0.060524001717567444 -0.0013000565915163563 -0.002624730903551681
-0.060524001717567444 -0.00574959185233523 -0.0011285162999296991
0.031811328276034306 -0.005762551683753854 -0.005242749979545903
0.028530360515433097 -0.006887512129560234 -0.004579647236624429
0.029898361697623506 -0.006361775230134309 -0.004978474407571919
0.028763506116130863 -0.006366630219715018 -0.00557849117639521
0.029753625844684134 -0.006933109547208 -0.0038231746213349812
0.029329649537517398 -0.007537149373961729 -0.0027475011344755837
0.029655683759902223 -0.007880032832706007 -0.0017140388956112058
0.024353772632712045 -0.007797409448764378 -0.0031885369980436604
0.026357519627101478 -0.008071762677800909 -0.0019209047103136967
0.018897240579033924 -0.007957055461718654 -0.003991126557320677
0.01717193631419275 -0.00822364778919623 -0.0036134507637310756
0.021028750132070794 -0.007656155485112667 -0.004374570578295447
0.022050181073086914 -0.007951533817282724 -0.0032739677720322723
0.027206655309021017 -0.007626600054622058 -0.0030241061399540227
0.028121172950815555 -0.0078460191829851 -0.0021703082713637745
0.025805465010769246 -0.006982892060831503 -0.0052307902500383805
0.020557574126497957 -0.008139334888955626 -0.0030723870732143194
0.023186398878124542 -0.007958914220143245 -0.0029881487550346784
0.026125274889723413 -0.0074596953723807275 -0.003763273811086022
0.024946243974155274 -0.007323186879201147 -0.0044363400344763805
0.028652020883214453 -0.007324840512873832 -0.0035696409322275367
0.027438810670065192 -0.007236254725083685 -0.004110634500271118
0.017720552443852036 -0.0076222481755349805 -0.004867829083821655
0.02194328756733418 -0.007270968093367796 -0.005109626874694203
0.015330354749686585 -0.007800200049726736 -0.0047765236683781865
0.015249787939462876 -0.008394327634599888 -0.0034903758927014666
0.01655092572770864 -0.007709185447979181 -0.004823459737527365
0.025810856754943785 0.008653281471201047 0.0022066238580449996
0.020556967897550384 0.008148086378495132 0.003853239577104539
0.006507990185052607 0.008029552813047118 0.005117028172697247
0.02714824682931842 0.00811228506794367 0.0034931775211211524
0.013612005877434432 0.00819533120494313 0.004208365141451892
0.025748713877444856 0.008095834677078778 0.003630899416363475
0.01627631214090241 0.00829845013519176 0.003763276119772443
0.020167162354236788 0.007793621461858863 0.00478287887517889
0.021766040044395987 0.008263383284395107 0.0034767590100890718
0.0100445752552792 0.008033401026798906 0.004865098868171802
0.01640189150211724 0.007899361454208633 0.004771303498930341
0.022416539267050506 0.007757442066008478 0.004721041140094366
0.023732562894120984 0.007772558343730373 0.004592435048336888
0.012119420328934 0.007887471387177129 0.005094784216107141
0.022550384445524183 0.008589226793461155 0.0025930174587863682
0.024747130049941102 0.008009168792670414 0.003920240943316251
0.01783309401978376 0.007875940890909497 0.00473297931455951
0.017563285965696833 0.008312760784075128 0.0036387111066410595
0.02310379241097312 0.008169786222492382 0.0036235979683410923
0.0247694090088173 0.008448985761621869 0.002798340828036615
0.019452524465788424 0.008473944414437504 0.0030987737811264326
0.019156589066088935 0.008069989946074796 0.0041480544185998145
0.026258902236592562 0.007687513101113826 0.00461434076619377
0.027734551695046128 0.00742175616778769 0.00480587291717425
0.016774155866020296 0.0072123822046268864 0.005554111293205989
0.021231864031843267 0.007139716560428505 0.0054067158382110625
0.019536306733405506 0.00684886870462691 0.005779452508887325
0.02745249243839308 0.006653901587771861 0.005583250221826467
0.01577466860603012 0.006810429585348171 0.006003021806725534
0.02593376101189135 0.006655408980598538 0.005656584685050218
0.015044508266485915 0.007467619092758978 0.0053855546292776385
0.021868038862481527 0.006465802075864866 0.006045443690086822
0.027188412361722324 0.0051058529079359 0.00713549008426203
0.0181741962315076 0.006355652201153022 0.006336974602645844
0.013597399804392323 0.006768400732431351 0.006152092905358254
0.018429230149568984 0.007295122358724699 0.005390291241598346
0.02466792571042287 0.007321213070683888 0.005056946611114811
0.02677492284454346 0.006045277677546324 0.006221792365714428
0.02343467587237324 0.006172268218408947 0.006260111210445356
0.02287081157616027 0.0068728741049001035 0.005591281051933836
0.0278973701122442 0.008796278203811429 0.0016924606017846336
0.029848254594039884 0.008189000521319986 0.0013641819933136441
0.028552878197296835 0.007964032520993071 0.0037266768024148034
0.030531830929578452 0.008264247254528716 0.0002658785709340279
0.029561977147498072 0.007988011519349044 0.0024026969994552986
0.0310950586694284 0.004511127112639725 0.006570176150990248
0.028960275825969432 0.007359443651864573 0.00471340841131792
0.02905510380623816 0.006012556131482575 0.005962230635336465
0.03016398399303518 0.006071793119786966 0.005456062741963703
0.029640501333746704 0.005275996521863548 0.006428858875086849
0.031080161487847226 0.0075968038825450085 0.001418425652042585
0.030923398892341872 0.005339381278785494 0.005799210828017915
0.03008645489596049 0.006689510761938027 0.004457265936517869
0.030069941958042468 0.007288746940755382 0.003374204350156764
0.031058025158895497 0.0061730163306732136 0.0040760654665296485
-0.05860196309930077 -0.004220425907906935 0.008484498946251638
-0.05315157818405456 -0.004757346071904124 0.008229416733787126
-0.04717206098794033 -0.005508759964049332 0.007849057832004604
-0.0417995307122982 -0.0049104214792578035 0.008295643506003359
-0.056200505805890914 -0.004577966993329729 0.008297222036856337
-0.05447719206427075 -0.004835116687634825 0.00816247458685028
-0.055360761038469104 -0.005697295024851181 0.007616220451039849
-0.049735239022756596 -0.004863998389748124 0.008211842670254807
-0.03722480854127223 -0.005241781240098229 0.008155393634155421
-0.05343105675669038 -0.006986835257663047 0.006845307527071734
-0.04625921055436724 -0.006018269989627019 0.007546595497979776
-0.058100618213137036 -0.006844999592285497 0.006866889216232177
-0.053147170885113226 -0.0059391538925209365 0.007497891409818
-0.05630152723678547 -0.006396390725172341 0.007170110068527878
-0.05202122503840317 -0.004898249584645596 0.008158221517813206
-0.04854850634236183 -0.00448394185463785 0.00846394276376317
-0.05635451608248805 -0.007330650579632044 0.006591013202390707
-0.0572971291630001 -0.005615663517705341 0.00763929351022601
-0.04071732146001868 -0.005376898021000038 0.008022222402744413
-0.04437483612837971 -0.0049890928917424625 0.008210421480601212
-0.045776217856909884 -0.004780933826592967 0.008319407122676432
-0.05026801333767814 -0.005860574356383616 0.007587365577594162
-0.05916091943020873 -0.005519895122655643 0.007672147134809422
-0.0574365975937526 -0.004297077655306562 0.00845357474600343
-0.048483214229370006 -0.006102563423016209 0.007462875124246074
-0.05228220678394931 -0.006675749403362473 0.007054174696129215
-0.05493957906908957 -0.006767528530849819 0.006959674639335954
-0.05434792014926698 -0.0038108583494556297 0.008735782031454602
-0.047688424068442106 -0.0038726612051819486 0.00868938683493495
-0.04593191553839242 -0.0036514123662648606 0.008758413131732697
-0.05331786829306987 -0.0028361326965580277 0.009065320048407672
-0.05649900899406277 -0.0034380618007907623 0.008871469052602422
-0.04934136585105665 -0.00328545961904691 0.0088965307083448
-0.0503886854526979 -0.0039662895251187345 0.00866759700120671
-0.05781982566150862 -0.003211633527137601 0.008953936511498811
-0.05501888560340469 -0.0024716052758372575 0.009196471595054682
-0.039107485832708 -0.004764207672179488 0.008351858372535135
-0.051821834143058076 -0.0038193481622507764 0.00872329874073485
-0.04060782897612117 -0.0041335362546091 0.008559359323005607
-0.035325693281867646 -0.003608749593565295 0.008658800691743334
-0.04245040951690358 -0.00367469813821009 0.008717355916773497
-0.050312411411321104 -0.0027718563388272896 0.009074829469975777
-0.045524181386094584 -0.0022958675745564272 0.009165054301475071
-0.009806852810868225 -0.004418150516102889 0.008135201192037585
-0.03641702179832367 -0.004012652729979137 0.008549559052099958
-0.03598400685063371 -0.002591363003447211 0.008971438112960507
-0.03065235609932351 -0.002973841653146619 0.008797993178794284
-0.052167069839356775 -0.002433111172954726 0.009196909532798345
-0.04033134010039695 -0.0030651961380811533 0.008877011747450812
-0.0011214865552395424 -0.0037290395245489967 0.00824654339590213
-0.009222944963780379 -0.0034932028764501043 0.008406429507471317
-0.023682334641384424 -0.003898977125820266 0.00844363678153869
-0.01668731719265309 -0.003358095013795078 0.008529072844188355
-0.0027947134238206703 -0.004297282927215608 0.008094369522307032
-0.02098089921708643 -0.0041748819247401795 0.008331107928142496
-0.020936040053965533 -0.0030717761027367887 0.008661743545877067
-0.035091830795785504 -0.004594752185373411 0.008360251832792466
-0.02896302789507845 -0.003991003400326034 0.008474085027414733
-0.022662271561971658 -0.0030037875860289124 0.008701135882594097
-0.00734513426872633 -0.004244421917745932 0.008160278938135979
-0.04364706361543984 -0.0037561587752743897 0.008706062948897112
-0.02765629573289715 -0.0040472707253196944 0.008442824441014032
-0.02250039297860037 -0.004056531183001986 0.008383344409115883
0.007900522587672378 -0.004439736003037252 0.00793399101294106
-0.018693430284637283 -0.003814436048859723 0.008414150484774304
-0.03870430759006972 -0.0036351356377668474 0.008688035292077222
-0.017544586370907174 -0.0041986830072282336 0.008286173698705879
-0.04857606569690603 -0.0025193087614799395 0.00913154403390188
-0.04727561050361767 -0.002898396202826873 0.009003448733191853
-0.02739341370160551 -0.0029304260929499566 0.008775186527524681
-0.005061171720732184 -0.0040479393517140905 0.008194141751537331
-0.03206561644363898 -0.003469128793503003 0.00866486033472275
0.0010696132364097465 -0.0041811820939304176 0.008086723944457513
-0.024874148273111067 -0.003483574072642864 0.008581438510056386
0.002744659633599855 -0.004058353744582277 0.00810517366885683
-0.03741971608432847 -0.0031337442874890655 0.00882441548092771
-0.044614267291607175 -0.0030753857992910786 0.008921053022972133
-0.043716118614875156 -0.0022703782938059544 0.009152822103606283
-1.573818077177727e-05 -0.004090633306685898 0.00812584054038104
-0.03332454339458753 -0.0039357447282582884 0.008538636750099396
-0.032966180554660746 -0.004937933018726367 0.00823386013900891
-0.013052029715052685 -0.004569321330144109 0.00812551062333461
-0.03458806332966227 -0.007622168831085024 0.005847831997796074
0.0037123028063546777 -0.008127759218044858 0.004480055489606106
-0.0490414201605727 -0.007680649169436099 0.00610910821435285
-0.01315657785086205 -0.0070420289972660454 0.005964931423277398
0.006339987942419342 -0.006808471899731098 0.005770637429132121
-0.020930741536621413 -0.007334446425717641 0.005838636209292129
-0.0066725177834904064 -0.007461438530585061 0.005392051571541471
-0.018647382900832878 -0.007130171336549905 0.00599678156559024
-0.01651370986505364 -0.0076797209171166276 0.005387476124051755
-0.028185256294115016 -0.007062095903345945 0.006278265259716579
-0.05480494628379806 -0.007666818747332463 0.006251282499937583
-0.028965877017744338 -0.007894519120508724 0.005444464264584146
-0.01819232130412761 -0.007888416486584207 0.005211376831480384
-0.029624249990805523 -0.007313688320494073 0.0060529815488487276
-0.01043985706300404 -0.007817935797387222 0.005111226642222564
-0.0037829252070594455 -0.007215659713784123 0.005579166872444674
-0.04153796019512926 -0.007365472446591093 0.006264688013279964
0.010189702311513497 -0.006697906420393504 0.0057981703833382935
-0.005792376162701908 -0.007003988778667021 0.005840236264526184
0.01937885139941297 -0.006023462527147055 0.006283649760918351
-0.03128176512288672 -0.0077346010529772535 0.005659424315019169
0.0017251397347512933 -0.006552732304966643 0.00613464360339651
-0.023659355924594564 -0.007537713546344067 0.005691412544969746
-0.0025574084591490007 -0.006898428476485762 0.005876307673795978
-0.003194909889395763 -0.007975392095114948 0.004789287986065587
0.011647653482227637 -0.00739233115738685 0.005055742677433881
-0.01744572745884484 -0.007227211035761529 0.005870865762018805
-0.051631418061624836 -0.007718738141361552 0.0061276977959609305
-0.007294740469810232 -0.006579551295337075 0.0063075921078487454
0.00957483783846857 -0.007853721047173273 0.0046300236961050855
0.008720291745113672 -0.007013308805444131 0.005508317496937984
-0.013478806756467865 -0.007864406765911828 0.005131218903098707
-0.00919611566363414 -0.007148989832177941 0.005767586349793496
-0.0018271987154824115 -0.00748491006567739 0.00526041672521128
0.016555978305752884 -0.0065996822456089125 0.0057571807888059535
0.003474984611933867 -0.006827549825949915 0.005814774619515526
0.0067809622140078685 -0.007614293482915344 0.004936899348695784
-0.02632873548925071 -0.007269051420993272 0.006025414561420151
-0.000531362388520893 -0.006814179965633322 0.00591744343375258
-0.011524706048333907 -0.007155458178866106 0.0058127006189860365
0.004951882339673811 -0.006604365207724467 0.006010169711297208
0.007567749175882292 -0.00673925762737701 0.005814134235898408
0.0023849649116696246 -0.007963747994813985 0.0046772407604011735
0.0001964293631898286 -0.007721234153204428 0.004973824868790763
-0.022445158602577384 -0.007020627834335195 0.006193153412042754
0.002358987493239541 -0.007145296681126516 0.005514673700626471
0.0012102629670356878 -0.007280283487691756 0.005402169582064071
0.013957084435143052 -0.006690792195126196 0.005721754725428654
-0.037857017926262095 -0.00755854085065122 0.005985508412499931
-0.007839103530527547 -0.00768912450079607 0.005185160533614069
0.015498507709541181 -0.006409289086214834 0.005975346327075591
0.013070228925580407 -0.006279245829451838 0.006162256453748481
-0.019794256754510558 -0.0073778903216302864 0.00576896914292657
0.027066720429302922 -0.004740869465020767 0.006878684156069966
0.029901368975913396 -0.004548914357031388 0.006553747691563064
0.028248766205672154 -0.00414541030756084 0.007103462044846016
0.028934840219272284 -0.005061083202974251 0.006352283796271431
0.023016881271211657 -0.004656513225459241 0.0072412386059168225
0.02284041286594118 -0.003657804940808866 0.007866077465842067
0.02698313918775684 -0.0035358948422084995 0.007666022744795974
0.02399422909438323 -0.005369494422651751 0.006738670104078542
0.02561680012733737 -0.0055078887719940215 0.006546038166941593
0.020777525585204994 -0.004517942811473133 0.007474906481447779
0.02465057421826095 -0.004441179830386862 0.00726502989712015
0.01925214649720952 -0.004351837039094791 0.0076781017254400905
0.02420551207917333 -0.007529847052877122 0.003725359800155716
0.015191873291633264 -0.007658711989067814 0.004547904371672231
0.02371169566046969 -0.0062439125254476575 0.00588417207929257
0.021241503798311127 -0.008108557931101894 0.0031190567899965576
0.016515833149391375 -0.007505559325501084 0.004646511829586442
0.014173873934811388 -0.0075773858199747225 0.004797544492071782
0.024067456385264765 -0.006791921458110771 0.004947523518203346
0.017743346028334196 -0.007290517022535423 0.004857350082465014
0.026656322914276193 -0.007134942099468116 0.004090008803865772
0.025773708773361638 -0.006843423208630845 0.0046677468777138525
0.023174866206566624 -0.0074359491712114485 0.003997001417554111
0.02752751781563416 -0.00807664279055527 0.0024506818606089952
0.01906052706857121 -0.006977445517632611 0.005218165132834145
0.02583462127553851 -0.007725423821492645 0.003218896330965383
0.021850220221411323 -0.007485091593668747 0.004068505450345861
0.01256680663647931 -0.008218284172617059 0.003934036763759116
0.022267484117003446 -0.006349919542283286 0.005876421046038288
0.02080482122820712 -0.006931904374374146 0.005092670696613743
0.024890474751824685 -0.006411424239317129 0.005475208651593178
0.0178691381224657 -0.00784308808045089 0.003939604179510515
0.02050536561329514 -0.007711941099113259 0.003851815701060788
0.03093353301401141 -0.00566172347306099 0.005331740959093938
0.02746107867327382 -0.005953773226365474 0.005721369768850804
0.029417525042221674 -0.005749655759539937 0.005561601295510667
0.027602523064492596 -0.007363188740583099 0.003559197342373757
0.029871607596876022 -0.0063344383536101554 0.004569908324240906
0.028023982015399455 -0.006561399769311346 0.004669149376008923
0.0285652218503833 -0.007525424816689912 0.0030839190521021152
0.02961862386641562 -0.007079387661943137 0.0035054879169802047
0.026195887137314286 -0.006153475031202675 0.005722450603269397
-0.003541646979575727 -0.005877143673476668 0.006893899690111056
-0.041551016736640765 -0.005965435186011183 0.007586210789293788
-0.030911531632156243 -0.005431322089681966 0.007870663332257938
-0.03198607122222951 -0.005534166742451451 0.007796024224052355
-0.039932794036385666 -0.006440635124636045 0.007107071719985501
-0.02028394414030877 -0.006659173853675171 0.0065011604463830934
-0.009022850639096032 -0.0055059744128998014 0.007354156527790085
-0.033596015986607775 -0.0068318336214963785 0.0066105612208429716
-0.02543883578862521 -0.00614330630005355 0.0070906102730920115
-0.02965936077166407 -0.006181830575398834 0.00714052000949103
-0.004876075834000447 -0.006243745561030651 0.006576935940147054
0.010566472841622057 -0.005757871758566504 0.00671814098873936
-0.010895295714076636 -0.006300773273304248 0.006646158408993913
-0.04943599132551121 -0.006749255129122628 0.0070111458398806744
-0.02388693171198957 -0.005907358063839114 0.00728047610550242
-0.0058889500149687905 -0.0060007625318408905 0.006825715041637487
-0.015910159940899598 -0.006149079009286928 0.006890852955399141
-0.03396028560704902 -0.005468439154501596 0.007897995898683209
0.0063582447511888705 -0.005696948291855242 0.006861165165046876
0.008651873640805195 -0.006174062408777726 0.0063664540607055765
-0.04277281494566906 -0.007158033459674684 0.006491473834062737
-0.007939575334003047 -0.005825638438486699 0.0070319506241707415
-0.03907290160229854 -0.005725939827220967 0.00776051668462426
-0.036230825074972994 -0.0061638775123315235 0.007291400261034039
-0.03570251323877978 -0.007017951100933591 0.006478789302076413
-0.026823463424034175 -0.00646834774396076 0.006813688817834192
-0.030629387886016178 -0.006962997534513813 0.006426915179659974
-0.018479393276705357 -0.006117564201768106 0.006972839833227462
-0.03191641453705768 -0.0065301384009538955 0.006859548372658805
-0.013528578316957581 -0.0061634614186747375 0.0068287777728894975
-0.000716793075066946 -0.005880568960056743 0.006833070907660605
-0.021834337316095513 -0.005950264273086495 0.007198331426061365
-0.024648808591168365 -0.006716514056667726 0.006536348899348329
-0.03850621594728825 -0.006593294587939776 0.006934654232384917
-0.036747042144814 -0.0070603989706509215 0.0064602408690220825
-0.044490996873035704 -0.006197171634092754 0.007428609000828073
-0.04582325881620138 -0.007276940516930199 0.006442053381959715
-0.02082135541468956 -0.005709728643496195 0.007403495410814152
-0.002393547465612168 -0.005717962904825994 0.0070199289799435655
0.0027335015976365194 -0.006130572006921353 0.006527989874868503
-0.047403399263653945 -0.006630085716442307 0.007081571724945715
-0.026384125027349742 -0.005608810748189286 0.00761169376543713
-0.012281009204417295 -0.0061582310013462305 0.006808244066480515
0.011998086286126275 -0.005901428699562173 0.00655416659105541
0.017985759205868684 -0.005796483862957841 0.006530573900391769
-0.036155908151626774 -0.005269396014985263 0.008129644794111794
-0.008835233988836403 -0.006347642350359905 0.006560140945555855
-0.01506053119693745 -0.006688964473765085 0.006366660212018959
-0.034677469035631736 -0.006043807259851025 0.007372445923748135
-0.04337559932658178 -0.006300096241198298 0.007309230982514886
0.0037058181005843096 -0.005556021968374622 0.0070445514109561845
-0.001809036797406521 -0.004725787080708503 0.007888423869439106
0.014235857134795676 -0.005499856938824979 0.00687258521577273
0.009787635239402397 -0.0049715564675070975 0.007429289687506878
0.01588458361205684 -0.0048398445467034866 0.007416699827167663
0.00880183150195979 -0.005328658392826939 0.0071368642554397715
-0.01749260008362728 -0.005296049590475702 0.0077178543782865875
-0.011514186129396586 -0.004867273184994349 0.007968244409148449
-0.01973484000736068 -0.004955542743356077 0.008063543004264382
-0.015818104842151206 -0.005088073219062219 0.007865046591424452
-0.0006695993787152743 -0.004996728296713063 0.00762690369690597
0.017847793154516078 -0.004513856127172518 0.007661309026730696
-0.023497885178426412 -0.00500065325602542 0.008103040969995938
0.0027626565861087063 -0.0050904448433997385 0.0074726204054897825
0.02136110978821889 -0.005598964276087112 0.00663599199516479
-0.018628213269515623 -0.00491904271062772 0.008072300999756222
-0.008353870873606896 -0.004827254527475471 0.007936943713246573
0.007562758881913011 -0.005480860124016666 0.007029432268291828
0.006907840574737981 -0.0048453352303531455 0.007600469506170859
0.0015052580556290628 -0.005298975813573305 0.007316179465322297
0.0049167888907162395 -0.005196961844705009 0.007333963613962813
0.01904986141123611 -0.005215874363023202 0.0070204705684272384
-0.025393105157545382 -0.0050813673130659905 0.008072079458614788
-0.02755041788572076 -0.005170375656691558 0.008039350930301526
0.013058677969248596 -0.004762535140385944 0.007543857765973025
0.020254477135952784 -0.00551889889290379 0.006729447928353389
-0.0064591034244105274 -0.005185886612595402 0.007582661178295931
0.022820171088141956 -0.005689082623591575 0.006526316967828559
0.015344460257754159 -0.005553309079791987 0.006802424488878259
-0.004244436322868061 -0.005130175602673657 0.007584987056155153
-0.014399946623497858 -0.005052329971389511 0.00786659629217472
-0.029040624529305482 -0.00509092297489384 0.008140327760382192
0.012711111955471411 0.007771768777410514 -0.005121622747980221
0.002017116649068824 0.00753577845938834 -0.0056545923443917295
0.019033674865502077 0.007126275468734931 -0.00596392748939664
0.016288657596311554 0.0077214506267338865 -0.005133910717712244
0.005113344953909145 0.007985337798972645 -0.004938200837406285
0.002966840639008754 0.008169022340300452 -0.004704520295926529
0.0032474193121816153 0.00736015901920722 -0.005892234325154639
0.02187404337353865 0.00720958952779032 -0.005791946219866143
0.01023522111813274 0.007497669099842017 -0.00556858744527419
0.011523936576941394 0.007499688498354685 -0.005543312301371742
0.00908982748403825 0.007880248051598896 -0.005024340195612727
-0.0028066048246551253 0.007634426593511979 -0.005592609561402619
-0.0040145567779613445 0.007705812140164588 -0.0055082608157718035
0.013575728676423399 0.007383014665181513 -0.005679832603456601
0.008637034131358141 0.007027915259347962 -0.006288833622436346
-0.00643167493036487 0.00745908392609238 -0.005913852778346347
-0.0037430892950721557 0.006854583034440653 -0.006758595587472708
-0.009182907142887293 0.00683842065383761 -0.00687654658401963
0.007306765505660841 0.008229503817522042 -0.004540257006121747
-0.005267726371649263 0.00723959037324753 -0.00621732978056535
0.020367451870744718 0.007199217217224665 -0.005833306462193437
-0.007794501588163635 0.007255529788119755 -0.006237548209432632
0.003955363732298465 0.0068953849083120385 -0.006565237042050732
0.006801536875997964 0.007131536418341518 -0.006167815463743816
0.004667873210270845 0.007357243292498624 -0.005871956028536298
0.006120789764229771 0.008121888665528229 -0.004719442361011196
-0.0017193181073199403 0.007093139532171604 -0.006371857629978474
-0.00013941478939766445 0.0077153196349653095 -0.005427194174766657
-0.01301158864392328 0.006719115177219459 -0.007082354113371289
0.004190069315519636 0.005956516961169483 -0.007350058685430878
0.00975313928485862 0.006898260827329153 -0.006437626564178603
0.007789831592838306 0.006222039045348153 -0.007048710502077489
0.01236975390585093 0.0060654824776269455 -0.007080909276441732
0.02455605733037384 0.00674917259102782 -0.006241648133469516
0.015269235679175059 0.006944201161658658 -0.0062792750110953754
0.000690818733624584 0.006762512449149045 -0.006748449470519259
0.005443309946052929 0.006073222362216496 -0.007224747137916933
0.021761508342415824 0.005471602929458308 -0.007376300476201868
0.014912905998998516 0.005543663159992813 -0.007464377551953316
0.01425433428921158 0.006358318611362268 -0.006793828922926258
0.017866130542310035 0.005412578157934156 -0.007510472423832982
-0.007279851983815435 0.0066914531811981155 -0.0069811960079740314
-0.0030160746386433297 0.006164313187271083 -0.007331789480131601
0.010375346987761859 0.0061252534461901315 -0.007073952881744604
0.01229599411342611 0.006912603130670438 -0.00637037479453878
0.001844252158540713 0.00623025813911544 -0.007170855005618521
-0.006118853025806578 0.006629565186705376 -0.007008021926405728
0.019498401870085596 0.005640612639025454 -0.007283344434450538
0.016488112148566287 0.006080185623448999 -0.006979156505446976
-0.0005708003648941824 0.006497630112662632 -0.0069985084372040035
0.013275776960144866 0.005499871804491488 -0.007536726232009436
0.02069855154567957 0.005763529832924906 -0.007153963302300897
0.003086872386329216 0.00617947310003087 -0.007186575518478074
0.02258559001652475 0.006330971412897363 -0.006635981382922968
0.02574968667724885 0.006081177435843522 -0.006777292287753105
0.02393867779627818 0.005814466707387152 -0.007040813277836671
0.017610402909257795 0.006629388841859395 -0.006493106247861
-0.0490870091260718 0.009207000024616718 0.001018518930806357
-0.01783168473802367 0.009207000024616717 0.0006812745614818709
-0.02933145682863258 0.009207000024616718 -0.0008635792450749125
-0.047179314944759076 0.009207000024616718 0.0012712737330858837
-0.02490971680249997 0.009207000024616718 0.0007663643326697643
-0.051214149463317635 0.009207000024616718 0.0016023737859773774
-0.02771873207996931 0.009207000024616718 -0.0003701514832572688
-0.02352544810224567 0.009207000024616718 -0.0018348479603990647
-0.0014966278336824767 0.009207000024616718 -0.0007364796411966658
-0.042135431762749816 0.009207000024616718 0.0006673044089664795
-0.02502157166194821 0.009207000024616718 -0.0017017995803152088
-0.016269764129029585 0.009207000024616718 -0.0006304577354923231
-0.04031807445045014 0.009207000024616718 0.0002992297529158985
-0.03182508126958391 0.009207000024616718 0.0006267825638950034
-0.00657755795778567 0.009207000024616718 -0.0007596582124019175
-0.0361560220785666 0.009207000024616718 -0.0012106101427640543
-0.025888023926908803 0.009207000024616718 -7.2233664057713e-05
-0.022432837701589197 0.009207000024616718 -0.0006214604639121516
-0.008358521937122564 0.009207000024616718 0.0001562933371950769
-0.014119928118147294 0.009207000024616718 0.0003197666528893696
-0.030634885674767832 0.009207000024616718 -0.0015762718346269832
-0.043023076565947435 0.009207000024616718 -3.892182643588601e-05
-0.008475115501276099 0.009207000024616718 -0.0009095056429795582
-0.015085075953365307 0.009207000024616718 -0.0005856071983788758
-0.05236887922846355 0.009207000024616718 0.0009819171658976872
-0.018508860017739846 0.009207000024616718 -0.0008955347395973675
-0.010981956353672991 0.009207000024616718 0.0002707647408954708
-0.02741223920022596 0.009207000024616718 -0.001720849159408225
-0.013663171296082691 0.009207000024616718 -0.0006922377184338802
-0.04609892202549354 0.009207000024616718 0.0005909979282598398
-0.04092787830505582 0.009207000024616718 0.001353486675469375
-0.029334245534624038 0.009207000024616718 -0.002177391529673284
-0.030614541730778794 0.009207000024616718 -0.0004501259144803867
-0.03486533441889117 0.009207000024616718 -0.0012673151507435938
-0.026276369353339425 0.009207000024616718 -0.0013265962392482978
-0.05674612662855649 0.009207000024616718 0.0018694883057412803
-0.03736548848081772 0.009207000024616718 -0.0011362574227081086
-0.02414937144032898 0.009207000024616718 -1.570981968302093e-05
-0.034735914995657674 0.00920700002461672 0.0007600458325783349
-0.011897265112575259 0.009207000024616718 -0.0007460179247118081
-0.044817486806101745 0.009207000024616718 0.0009047632078837428
-0.003147883510463711 0.009207000024616718 -0.0007748570346811968
-0.032910318803772695 0.009207000024616718 0.00020297267686907256
-0.012359466051705643 0.00920700002461672 0.0002300175813893975
-0.010214552004778464 0.009207000024616718 -0.0006384854075724684
-0.03825984979322432 0.009207000024616718 -0.00022849041091714463
-0.00582475220666367 0.009207000024616718 9.430677262462579e-05
-0.03074858956854897 0.009207000024616718 0.0008046047184245931
-0.027542015269146937 0.009207000024616718 0.0007083494782406301
-0.04443530721113482 0.009207000024616718 -0.00026771957139610104
-0.0501688120319663 0.009207000024616718 0.0012586866666998316
-0.01561232585131338 0.009207000024616718 0.0004221314078013792
-0.020339775741297295 0.009207000024616718 0.00011965526170793894
-0.021812537729722345 0.009207000024616718 0.0006645521510523242
-0.037499895094159706 0.009207000024616718 0.000690548024414528
-0.033722500852737855 0.009207000024616718 -0.0016595919720346353
-0.032074774373871656 0.009207000024616718 -0.000648235149921464
0.004881984595943538 0.009207000024616718 -8.048464135964243e-05
-0.035891707191785555 0.009207000024616718 0.0004555906009027355
-0.054707786251137695 0.009101427037096115 -0.0005460313927212069
-0.04722744069359708 0.00909808790740115 -0.001825049055803251
-0.05450129384787145 0.009035317500167422 -0.0017709730729889071
-0.0512744124853335 0.009184294260481236 0.0003878050217038059
-0.056201991637759775 0.009170315469955843 0.0009388058466897786
-0.03545803854742842 0.009183396784062008 -0.00220548526000925
-0.049670492553677156 0.009071728572272012 -0.0019019745409155242
-0.04013058548083546 0.009183784490601157 -0.0014371546408867607
-0.04667411762452607 0.009042136762689681 -0.0029234487433556916
-0.03761877365529776 0.00914202684675688 -0.0025989028979555226
-0.03660874784812729 0.009170580110126097 -0.0022489456980517063
-0.043445657592184606 0.009101487617993988 -0.002379989372019377
-0.049460111026803366 0.009144401526593461 -0.0006266852616136672
-0.04723721387618331 0.009206572422319566 0.00013143759621704674
-0.05844296827886475 0.009033958448105684 -0.0011532073582662897
-0.0511934389987404 0.009123801545870766 -0.0007154693174972081
-0.05694238282289571 0.009074822766370899 -0.0006613362997781123
-0.04859490552289622 0.009074649522568496 -0.0020245949274920027
-0.05362340989311884 0.008993112770905545 -0.002674545846795608
-0.04366476405598391 0.009172238336512185 -0.0010693581271361162
-0.03844738461400293 0.009187845842727195 -0.0016382294647110144
-0.05717896910846424 0.008937558812188088 -0.003096287533252507
-0.05228924537908792 0.009121821026259722 -0.0005726078038212305
-0.05629084724900874 0.008999896966965935 -0.002117662565366346
-0.05114687351646331 0.009038506378935576 -0.00226007815577933
-0.053608041170507964 0.009114835980287977 -0.0004835941421300027
-0.05740663285043856 0.009016071748551976 -0.0016443865683960937
-0.05828716552771626 0.00909641002845939 -5.321448629675805e-05
-0.04499189873481834 0.009140494476319443 -0.0014251403028050819
-0.04208608618742307 0.009159108609423525 -0.0015631857512349182
-0.0523871538896989 0.009002241365521534 -0.0027114836762886178
-0.059130950178361216 0.008905122985090825 -0.003362726590807956
-0.04634153651305152 0.009160733049058959 -0.0008405308268496236
-0.05489531459850964 0.008972464398327815 -0.002839386167067873
-0.054291023286718254 0.00916956149436324 0.0006138462713956676
-0.057817954081165815 0.009165734143117357 0.0011195548914159008
-0.04423693842163256 0.008926626066620294 -0.0033385348383298203
-0.009748899241354633 0.008722435838779359 -0.00376926338641849
-0.021475379742588063 0.008979555677580426 -0.0031215556383160977
-0.04835702172555908 0.008868206394151291 -0.003508240233645248
-0.03432754041937893 0.009088132589889745 -0.0028742891653731973
-0.026635665959857814 0.008757832931225135 -0.0037308370118301465
-0.02903877374833643 0.008912462008238715 -0.003325866236193241
-0.023023140930724915 0.008821610846286618 -0.0035485081483492198
-0.01546287395132903 0.008753045313044017 -0.003706501691619458
-0.04183105221673787 0.00887126079726495 -0.0034784007858632425
-0.04047719088364231 0.008843895829599584 -0.0035469839721680397
-0.01770207201507527 0.00880882973514067 -0.0035649625321459034
-0.02709695369211793 0.00911227230173146 -0.0027857978706307754
-0.03712594270432304 0.008820895745609753 -0.0035972739780716443
