-0.0227680001408 -0.0177701242886 -0.0280539787227
-0.0227680001408 -0.00984629847075 -0.0379034370865
-0.0176218309751 -0.0156420903425 -0.0282445563147
-0.01945041539 -0.0117619476862 -0.0328451871256
-0.0197661908554 -0.0141252369292 -0.0271421761205
-0.017961145536 -0.0142294877386 -0.0305818148185
-0.0203666054969 -0.00953719055218 -0.0357514539322
-0.0205455536328 -0.0121253666301 -0.0298443920043
-0.0220153660235 -0.00596309819513 -0.0404681331567
-0.013762430768 -0.0244985279344 -0.0337452675502
-0.0144362715514 -0.0240372265479 -0.0363566544969
-0.0155801532763 -0.0249753515935 -0.0287115124424
-0.0170801732321 -0.02265539669 -0.0368824773489
-0.0156970065357 -0.0229962179809 -0.0395870736009
-0.0166055966445 -0.0236058283466 -0.0341137827942
-0.0196904219095 -0.00944284089891 -0.0383337845345
-0.0165294687194 -0.0136624334707 -0.037759480859
-0.0183193888368 -0.0119212832482 -0.035493945232
-0.0158860785285 -0.0162258004002 -0.03083037247
-0.0136386001174 -0.0187378906598 -0.0323727577799
-0.0143153053037 -0.0165174043293 -0.0377598197338
-0.0147692944985 -0.0181538166865 -0.0288801158164
-0.0148536761139 -0.016521429403 -0.0349692752851
-0.0177035757869 -0.0116365060167 -0.0407412414226
-0.0193749848019 -0.0225135100119 -0.0282949377771
-0.0174540923193 -0.0236889209221 -0.0310981743323
-0.017259987203 -0.0249846250301 -0.0259508914177
-0.021674321516 -0.0185368960574 -0.0330438808901
-0.0215632475133 -0.0172034647486 -0.0386706436358
-0.0210455438113 -0.018546149572 -0.0362763896292
-0.0219558473991 -0.0198496811986 -0.0263194659725
-0.0189570841309 -0.0202698031252 -0.0392214377501
-0.0199029805855 -0.0213924294716 -0.0306299867958
-0.0189349306696 -0.021635328404 -0.0339511065054
-0.0227680001408 -0.0111434791752 -0.0287322748902
-0.0227680001408 -0.014381938229 -0.0278018476676
-0.0162303351585 -0.0211470358514 -0.0254720002413
-0.0114858299499 -0.0268065418261 -0.0267265013703
-0.00118470107393 -0.0207293876661 -0.0412149988115
-0.00995801155096 -0.0208606704687 -0.0412149988115
-0.00503328305278 -0.0242259012657 -0.0412149988115
-0.0066027166035 -0.019911071788 -0.0412149988115
0.00131299998611 -0.0250293308994 -0.031695425945
-0.0135070001706 -0.0207277052611 -0.0349492347255
0.00131299998611 -0.0286378299951 -0.0328463504762
-0.00456136984658 -0.0259232653365 -0.0254720002413
-0.00329711817583 -0.0234807504678 -0.0258945457884
-0.00688125587114 -0.0216046339765 -0.0295721705291
-0.0104965093139 -0.019293894092 -0.0349520462913
-0.00719908402513 -0.0222662940627 -0.0265921571109
-0.00977709334648 -0.0203646891961 -0.0314420090504
-0.00973444438467 -0.0213622794669 -0.0275042249296
-0.0106876024968 -0.0251973254727 -0.0377571858288
-0.00876110729168 -0.0268437274316 -0.0321072742341
-0.00916369337468 -0.0261362507902 -0.0353324092674
-0.00718678745355 -0.0281137754886 -0.0265242887005
-0.00456559958893 -0.0286704638746 -0.027446279153
-0.00420049791195 -0.0282891211879 -0.0306423124527
-0.00707133223231 -0.0277282667126 -0.0299928866201
-0.00295922737911 -0.0271924108992 -0.0386719315683
-0.0024754775957 -0.027925503421 -0.0351424955296
0.000109149746749 -0.0277888705763 -0.037845506659
-0.000962222588503 -0.0292721190923 -0.0284098915261
-0.00156831286605 -0.0286731301418 -0.0315143667977
-0.00588099842237 -0.0273490695999 -0.0342775685762
-0.00654561566481 -0.0265509315123 -0.0377951251384
-0.00127839877348 -0.0233948130182 -0.0284248600968
-0.00483202688927 -0.0207274776182 -0.0354032857881
0.000155758536296 -0.0223170772623 -0.0345421667855
-0.0112590421852 -0.0180973215357 -0.038925957107
-0.00706219846574 -0.019621751446 -0.0374262958599
0.000281383839887 -0.0243654156652 -0.0261919275365
-0.00433594353525 -0.0214888757188 -0.0328157292255
-0.00126978350591 -0.0225672190957 -0.0318668418631
-0.00406023638852 -0.0200526268072 -0.0394899675116
-0.00147250692087 -0.0210960011311 -0.0379677350478
-0.0135070001706 -0.0221419545979 -0.0275866392435
-0.0132781196314 -0.024106240332 -0.038990921213
-0.0128945196726 -0.0257715082375 -0.0301108659247
-0.0179476925796 -0.0173596488628 -0.0254720002413
-0.0128397931579 -0.0270070445275 0.000851917059379
-0.0123858215773 -0.0293167143578 0.00874956645126
-0.0154088901369 -0.0244834961066 -0.000680777401192
-0.0144687475656 -0.0208732770578 -0.01867265488
-0.0125682559562 -0.021670315851 -0.0219165017837
-0.0174777638995 -0.0197262922311 -0.0130663156327
-0.0145059870831 -0.0237146558714 -0.00691770689183
-0.013553372133 -0.0274286438047 0.0050198024846
-0.0175573645675 -0.0177654628053 -0.0208179339198
-0.0147984435262 -0.0213738864734 -0.0154954967513
-0.0136100308286 -0.0252379380695 -0.00375104600394
-0.0178385355999 -0.0202117673142 -0.00984471621256
-0.0190055702165 -0.0173169356372 -0.017696108731
-0.015221945711 -0.0193477185241 -0.0223372996453
-0.0122185902521 -0.0236439798873 -0.0150368088843
-0.0171816317143 -0.0214333517237 -0.00709437230708
-0.0196572577249 -0.0154246514439 -0.023208942629
-0.0143528460809 -0.0231645191155 -0.00969318343893
-0.0194354390219 -0.023677776194 0.0049704559841
-0.020835552459 -0.016384680488 -0.0159147954548
-0.0198852018686 -0.022515399805 0.00206674098428
-0.0193773070053 -0.0245825595823 0.00777821695731
-0.0147357790321 -0.0273288187847 0.00792678963923
-0.0154608170847 -0.0252909594943 0.00271699694858
-0.0199512509906 -0.0200255761935 -0.00583591994553
-0.0219718620403 -0.0230963669971 0.00785290832847
-0.0150651015332 -0.029786859962 0.0164684650849
-0.0175132423976 -0.0230711108478 -0.000590123474018
-0.0189362741078 -0.0214253000047 -0.00322705200276
-0.0222138249027 -0.0245166505296 0.0128852968562
-0.0173379715865 -0.0279804563002 0.0149075991673
-0.0198856336034 -0.0183322461446 -0.0114178226859
-0.0189994254482 -0.0262765589897 0.0125305478247
-0.0220488138705 -0.019644950784 -0.00312922431909
-0.0166501240307 -0.027170728152 0.0110072746985
-0.0130476135792 -0.0298398336033 0.0128556784521
-0.0124196868096 -0.0311646901167 0.015949060779
-0.0224379414757 -0.0153052538783 -0.0224707192386
-0.0225214282708 -0.0171771729238 -0.0199290297839
-0.0226197536968 -0.0224609292331 -0.00577308680549
-0.0225762678655 -0.0205687336182 -0.0104219078075
-0.0224991890759 -0.0271460478655 0.0146290062297
-0.0225695280601 -0.0250552447501 0.00538813423671
-0.0223054869181 -0.0174412460793 -0.00977022404019
-0.011653999798 -0.0245531663822 -0.0215233609019
-0.011653999798 -0.0268769130022 -0.0128782355418
-0.0227669999003 -0.0242053997508 -0.00819657492014
-0.0227669999003 -0.022198532983 -0.0148796689537
-0.0138710614171 -0.0245550700517 -0.0254720002413
-0.0148868084531 -0.0341035584023 0.0112752484686
-0.0151759177827 -0.0345634811856 0.0149916063567
-0.0132919420005 -0.0358141901199 0.0171711087683
-0.0190410745172 -0.0245268942389 -0.0220115214666
-0.0194024135806 -0.0234263095853 -0.0249581549502
-0.0195864207785 -0.0248417272937 -0.0190709479091
-0.0202918004424 -0.0249893911175 -0.0162379338984
-0.021012197382 -0.0268129423039 -0.0070902674476
-0.0217700035618 -0.0217561353825 -0.0208977661118
-0.021671232453 -0.0250194879666 -0.0109635096135
-0.0213236962965 -0.0164473343445 -0.0254720002413
-0.0121243587456 -0.0349780242059 0.00995410643779
-0.0138040708669 -0.0282731337738 -0.017037434339
-0.016017639035 -0.0259094774448 -0.023517962876
-0.0142338574899 -0.0274474583659 -0.0198701184511
-0.0127505279075 -0.0311023307188 -0.00663693491806
-0.0126209355166 -0.0304073500339 -0.00953207214178
-0.0130368565396 -0.0268510230054 -0.0237596359335
-0.0147216483182 -0.0334437763879 0.00711634994768
-0.0155193635227 -0.0312207508368 -0.00147574131852
-0.0164842238729 -0.0278260380845 -0.0144966739623
-0.016191550407 -0.0286120818447 -0.0115993672383
-0.0157541089348 -0.0300141632402 -0.00628762930532
-0.0169249683273 -0.0266143953481 -0.0189803742672
-0.0149174910508 -0.0323074608456 0.0021946493298
-0.011653999798 -0.0330236959023 0.00756107599158
-0.011653999798 -0.0331809143377 0.01235012376
-0.0118770130113 -0.0320774152788 -0.00204932364898
-0.0118453914597 -0.0333269904865 0.00371463499379
-0.0205590362695 -0.0267201201857 0.0168509363332
-0.0178770017095 -0.0315877014837 0.0175989996642
-0.018356551008 -0.0304569384801 0.000918714684051
-0.0179227297462 -0.0287980316651 -0.0073650396887
-0.0166750122335 -0.032091564348 0.00441432747472
-0.0179297280355 -0.0297502106406 -0.00314585257141
-0.0203244235747 -0.0280426694142 -0.00417991767985
-0.0199588156823 -0.0269385420854 -0.00980034987549
-0.0220403694338 -0.0274940845168 -0.00119118786234
-0.0195758561118 -0.0263649258352 -0.0133083300718
-0.0220124925841 -0.0285850461772 0.00349256318568
-0.0207566617038 -0.0303474330666 0.00796199540242
-0.0221227347292 -0.0306763907364 0.0144591980199
-0.0212596848971 -0.0307572371268 0.0119212615773
-0.0194159681925 -0.0307556590442 0.00559397501568
-0.0180558616937 -0.0321564667487 0.00900589541491
-0.0130410238139 -0.0206475433031 -0.024765841202
-0.0191763577214 -0.0399208864515 0.043304100076
-0.0116550000384 -0.0362948087014 0.032233290658
-0.0116550000384 -0.0377460321624 0.0378565862235
-0.0186889657182 -0.028856844127 0.0176010001451
-0.0143581950515 -0.0330948674999 0.0176010001451
-0.0227690003812 -0.0360936527496 0.0368546962856
-0.0116550000384 -0.0347112819232 0.0230488182263
-0.0116550000384 -0.0412177341022 0.0373800853006
-0.0116550000384 -0.0376472034628 0.0297223411058
-0.016655771079 -0.0394584707546 0.0453860014677
-0.0147846653878 -0.038271489403 0.0288972290536
-0.0154547949694 -0.0408116546958 0.039813571479
-0.013887100504 -0.0401305575522 0.0350589574288
-0.0137472778027 -0.0370871968515 0.022853186956
-0.0215686972846 -0.036107127163 0.0328294664202
-0.0224599048653 -0.0341890704623 0.0282231165106
-0.022701859571 -0.0320934652214 0.0215124247556
-0.0208222780013 -0.0324932753619 0.018588577843
-0.0209209429075 -0.0338699020189 0.023587617156
-0.0150486398595 -0.0326688811744 0.0291975438124
-0.0173473284252 -0.0309710094562 0.0273865179999
-0.0149262092173 -0.0317135922133 0.0245392745572
-0.019976351593 -0.0279642522245 0.0204733377186
-0.0131625173399 -0.0348260898152 0.0341576338283
-0.0153717966602 -0.0331852547901 0.0323761125142
-0.0129389745357 -0.032257506557 0.0219040462763
-0.0168963634943 -0.0295985209784 0.0199867863052
-0.012580138852 -0.0341687874614 0.029671936496
-0.0132173978359 -0.033008232414 0.0260331882459
-0.0226139329649 -0.0323959956736 0.0433320875587
-0.0153161004426 -0.034206711131 0.0366080697412
-0.0178504404727 -0.0328259525762 0.0361511977624
-0.0202093372288 -0.0324162752682 0.0392261948423
-0.0193114851239 -0.0295950539415 0.0261530904545
-0.0206382821273 -0.0296502967279 0.0290247877412
-0.0186814649099 -0.0316527054093 0.0331208673215
-0.0136281390253 -0.0360017528504 0.04041224724
-0.0167242741435 -0.0343687693185 0.0400694001415
-0.019916539693 -0.0332851109835 0.0421148208172
-0.0128325256578 -0.037795207801 0.0439410864961
-0.0195505693679 -0.0359356860028 0.0453860014677
-0.0161259080457 -0.0365346023685 0.0446674703968
-0.0222183054061 -0.0343151114237 0.0453616136706
-0.0155271609558 -0.0373225684512 0.0264065297849
-0.0187006927545 -0.0397146428819 0.0407322642791
-0.0154653105874 -0.0389059506127 0.0323483484064
-0.0160184407559 -0.039955256628 0.037258772073
-0.0183653964801 -0.0384949143918 0.0355662818275
-0.016830453003 -0.0346385717882 0.0185479219873
-0.0186548676108 -0.0376631955389 0.0329485025715
-0.0181056755366 -0.0357997229515 0.0250514513684
-0.0159935035336 -0.0357263766702 0.0211941596088
-0.0197359187867 -0.0357179048747 0.0276546169226
-0.0202278809786 -0.038377491878 0.0385160298881
-0.0193755399948 -0.0341205179556 0.0210025770088
-0.0196837742436 -0.0364769809499 0.0303732780671
-0.0218244772605 -0.0383355028341 0.0415215857762
-0.013691442247 -0.0419131589856 0.0432736961467
-0.0216328467702 -0.0380716999774 0.0450093357208
0.00131299998611 -0.0368052956219 0.0253706809629
0.00131299998611 -0.0360817899363 0.0166540348674
-0.0087341684134 -0.0252179595158 -0.0254720002413
-0.011653999798 -0.0293999959489 -0.00437676007633
-0.011653999798 -0.0307443986699 0.00142821560056
-0.011653999798 -0.0260172233904 -0.0184032246634
-0.011653999798 -0.0279755512306 -0.0207487100742
-0.011653999798 -0.0358712466486 0.0140022957003
-0.011653999798 -0.0297815249167 -0.0133276032849
-0.00901958095836 -0.0351427882892 0.00626056601845
-0.00880645564359 -0.0364006456221 0.0124324163731
-0.00678025198541 -0.0352168642132 0.00394696316531
-0.00912110128858 -0.0357547055225 0.00950971762857
-0.011195044467 -0.0370954677251 0.0188547885307
-0.0107109061845 -0.0295205804969 -0.0160671651058
-0.00957633885072 -0.0293256680372 -0.0186262192109
-0.0101976712104 -0.0318802664703 -0.00712361319415
-0.0104109453167 -0.0381436733074 0.0233711459455
-0.00565859945597 -0.0393474277167 0.0247247362143
-0.00860424053153 -0.037097030578 0.015872698985
-0.00795704416288 -0.0382205492809 0.0211686029552
-0.0041288509009 -0.0378285546353 0.015537367775
-0.00597939364974 -0.0364656408811 0.00974665733246
-0.00361574139419 -0.0361167605942 0.00633173203026
-0.00442366605439 -0.0384842924265 0.0191307018491
-0.00269516726827 -0.0356564396829 0.0033231830406
-0.000767797168597 -0.0370954343002 0.0101524516859
-0.00086171305066 -0.0392113284971 0.0219038040002
0.000353495401404 -0.0325832727204 -0.0129928512961
0.000339811541419 -0.0360506693598 0.00505807372236
-0.000639765875334 -0.0353108541808 0.000595640018282
-0.000184619113608 -0.0335743046222 -0.00816586563443
-0.00317841657264 -0.0344469993903 -0.00219444229095
-0.00263631155661 -0.0338949408019 -0.00518743965554
-8.66318991711e-05 -0.0309565313087 -0.0209002853506
-0.00060980085863 -0.0314934657749 -0.0179919334589
-0.0026498881892 -0.0328021211518 -0.01040723915
-0.00345158955652 -0.0350019005805 0.000637697388043
-0.00114577177403 -0.03972509811 0.0247933902578
-0.00230035068756 -0.0375718332948 0.013127139498
-0.00171350053745 -0.0382536668024 0.0167651888936
-0.00346313508727 -0.0392727358594 0.0228684239415
-0.0099126174152 -0.0349964284394 0.0267899130584
-0.0115892637587 -0.0266989274776 -0.00661104527578
-0.011653999798 -0.0265945036375 -0.00953825128681
-0.011653999798 -0.0301039168238 0.00545931681526
0.00131299998611 -0.035353398615 0.0103654849037
0.00116981842141 -0.0312181543961 -0.00963128575664
0.00119912912101 -0.0319646250298 -0.00595694163173
0.00112339122434 -0.0286217190918 -0.0203121778938
0.00118968500943 -0.0269177963554 -0.023662714712
0.00130090152008 -0.0347742913458 0.00754970396932
0.000872949811879 -0.0300859053128 -0.0247489043285
-0.00165234178808 -0.0269940599931 -0.0254720002413
-0.0104871153408 -0.0224598733847 -0.0246273586112
-0.0101730425896 -0.0387127900807 0.0264077024926
-0.004194967953 -0.0375067653907 0.0268347151412
-0.00702125989251 -0.0377679195092 0.0267096421123
-0.00659401941626 -0.0295947216724 0.00340275400094
-0.00942140364643 -0.0288617509658 0.00249271310754
-0.00939248667409 -0.0246207937331 -0.0151464608047
-0.00749086131967 -0.0324857876885 0.0160896695484
-0.00652505688392 -0.0281433223603 -0.00267856653005
-0.00979135239924 -0.0302119619898 0.00838094459831
-0.00302550949784 -0.0334984118025 0.0169246856705
-0.0027601152406 -0.0327403687044 0.0135753190329
-0.00512991052624 -0.0352184720466 0.0256588875652
-0.00775883922562 -0.0313575321583 0.0116051227133
-0.00515474330987 -0.0343194825474 0.0219431492826
-0.00669220318447 -0.0334454446809 0.0194731569914
-0.00940452577099 -0.0280790528706 -0.000771432834296
-0.00177254420855 -0.0355316024317 0.0244247138837
-0.0069225365874 -0.030490442962 0.00737170931305
-0.00910760167584 -0.0272029343974 -0.00463510213116
-0.00858391035407 -0.0263537732407 -0.00855800657999
-0.00504153687999 -0.0313303209712 0.00944041185672
-0.00892573754486 -0.0256115275377 -0.0113832726208
-0.00149129383977 -0.0347922975587 0.0211412156136
-0.00953549246362 -0.0327379742124 0.0186810554713
-0.00802326389281 -0.0343339946713 0.0241692828959
-0.00445832347169 -0.0305427475452 0.00572840713055
-0.000542097767131 -0.0277151156138 -0.0104804688201
-0.00398570608853 -0.0291764051954 -0.000611216574906
-0.00329984800845 -0.0246923574865 -0.0209199644167
-0.0016507410625 -0.0309374647502 0.00473556754792
-0.00106532050168 -0.0293214233654 -0.00292513796184
0.000897321206288 -0.0310445081435 0.00263140435131
-0.00736582483634 -0.0233228035595 -0.0228064559775
-0.00100547219583 -0.0320330621664 0.00887702502758
-0.00100808792125 -0.0249140046044 -0.0222640168656
-0.00565019671662 -0.0260649090132 -0.0125426349863
-0.00351478705703 -0.0285464361488 -0.00384256231397
-0.00336958578821 -0.026874166855 -0.0113048157802
-0.00149760531907 -0.0262309988642 -0.0160083712318
-0.00488641582465 -0.0255721373857 -0.0154694486011
-0.00177643002229 -0.0301543752004 0.00143668382143
-0.0012043892619 -0.0285505189926 -0.00615720746085
-0.000134373600029 -0.0256803835413 -0.0197934202458
-0.00861319432318 -0.0235439921813 -0.020579518182
-0.00372612895745 -0.0276276148048 -0.00764875823919
-0.00957736658647 -0.0239658001106 -0.0177608399292
-0.00504188134768 -0.0248926205397 -0.0182851721714
0.00119540344889 -0.0357198939042 0.0226749298762
-0.00467885976876 -0.0329093921118 -0.00831999529947
-0.00282362033921 -0.0294922796508 -0.0253304958255
-0.00569901171259 -0.0332787150279 -0.00580719826172
-0.00182479313846 -0.0319552193912 -0.0149916865893
-0.00316345435712 -0.0304697540243 -0.0206216133146
-0.00352935329777 -0.0311569092735 -0.0172068345736
-0.0106508664792 -0.0336374341401 0.00109666466739
-0.00621480217474 -0.0319514414943 -0.0111633245778
-0.00745754846101 -0.0341440356002 -0.00010308017879
-0.00811168608415 -0.03304735319 -0.00425870215396
-0.00535131186044 -0.0313192696133 -0.0148972924565
-0.00811621202205 -0.0286238649741 -0.0237602141927
-0.00619249959335 -0.0304339076318 -0.0179109747309
-0.0089283372943 -0.0315119073687 -0.0101552839722
-0.00577174722721 -0.029535601142 -0.0223277628181
-0.00818546749683 -0.0308483609542 -0.0138933544272
-0.00551301952262 -0.0437574836646 0.0426706944742
-0.00346707904535 -0.0406879877552 0.0453840009868
-0.011653999798 -0.0396670781407 0.0420878418109
-0.000818919893606 -0.0407104234413 0.0292322435765
-0.00463412855602 -0.0401253361641 0.0279127589025
-0.00228143113127 -0.0416983692445 0.0331610148391
-0.00367944161536 -0.0408842701219 0.0304836770563
-0.00959982939495 -0.0410973674201 0.0346535014576
-0.0106265472828 -0.0401388301246 0.0320696010478
-0.0113663370003 -0.0422687277911 0.0405523410754
-0.0103428646512 -0.0363384551834 0.0348547387222
-0.00907064804039 -0.0374602361468 0.0392841117177
-0.00544237050401 -0.0382661877627 0.0403745174294
-0.00777877599221 -0.0383781915931 0.0427153690784
-0.00658656241256 -0.0369257264052 0.0347918679835
-0.0100667526429 -0.039091476351 0.0447140365386
-0.00511259333853 -0.0391376116779 0.043776040458
-6.88338794679e-05 -0.0398579341415 0.0436480911814
-0.00617728972902 -0.0420685204194 0.045206377018
-0.00995029430138 -0.0425450853746 0.0442136569411
-3.37323323301e-05 -0.0438366083002 0.0409676453383
0.00131299998611 -0.0387944761509 0.0309655177371
-0.00986246709307 -0.0353558726932 0.0297095089501
-0.00598667238422 -0.0364165182895 0.0317073550192
-0.00359697119461 -0.0372926270971 0.0340604240112
-0.000238385272942 -0.0385632994306 0.0375661522272
-0.00713123256518 -0.0356740377079 0.0289507232758
-0.00151967350196 -0.0366093664666 0.0288132323438
-0.000303703192893 -0.0376963324269 0.0332467879196
-0.00220447572138 -0.0387042356293 0.0399797411488
-0.00882709576555 -0.0422415455043 0.0382633587043
-0.00723818509743 -0.0403412176711 0.0297492924386
-0.00393688698329 -0.0426727249306 0.0371146403152
-0.00624573667457 -0.0420649213162 0.0356730507685
-0.00303551652579 -0.043652781514 0.0405190467122
-0.00585647608347 -0.0413376430457 0.0327417255395
-0.00821233019371 -0.0433016026246 0.0423663994559
-0.00299119770667 -0.043810107773 0.0446513108224
0.0179368804009 -0.0221737910018 -0.0356622284581
0.0155575392005 -0.0199307292328 -0.0338089987636
0.0123295604784 -0.0218472389948 -0.0338089987636
0.00624465145105 -0.0239687480773 -0.0338089987636
0.00344246323767 -0.0246675830392 -0.0338089987636
0.00731257106423 -0.0255604605043 -0.0416800007224
0.00956834809928 -0.0221907001998 -0.0416800007224
0.0109153108521 -0.0185427214275 -0.0416800007224
0.00473938510052 -0.0267663023892 -0.041463451581
0.00131299998611 -0.0229464047322 -0.040833147882
0.00131299998611 -0.0254052390966 -0.03801335396
0.00131299998611 -0.0260988832998 -0.0410365815364
0.00896488318754 -0.0257652224775 -0.0394072778568
0.00667441036847 -0.0270329996391 -0.0367445314248
0.0108736449741 -0.025377592435 -0.0370067409956
0.0138425065929 -0.0244676511542 -0.0353934520364
0.0155890724812 -0.0180879998952 -0.0415076363069
0.0032567904746 -0.0280471355319 -0.035737346398
0.00815888097708 -0.0203925986228 -0.0347137847128
0.0121696029529 -0.0188696953224 -0.0348838678404
0.0057946389864 -0.0204242060233 -0.0374299162162
0.00449249064033 -0.0217792881778 -0.0345760851438
0.00236235307465 -0.0219201739908 -0.0366577447016
0.0115192607525 -0.0186091714154 -0.0383033157286
0.00770006018072 -0.019575722728 -0.0393153443452
0.0117859894581 -0.0238838960699 -0.0416800007224
0.0131656057469 -0.0242153183647 -0.0386161761359
0.0148447943425 -0.0229699594598 -0.0408047288023
0.0165021551683 -0.0225382410298 -0.0382954961983
0.0203372233536 -0.0202177174681 -0.0372665858112
0.00789226673983 -0.0267959703656 -0.0338353887942
0.0117209541675 -0.0254202893566 -0.034086874726
0.0191111976354 -0.0104821968343 -0.0392304367212
0.0179475830973 -0.0128288303921 -0.0375323024501
0.0166738974575 -0.0149478356703 -0.0365558502531
0.014953771035 -0.0175520814505 -0.0357424522396
0.0142325090738 -0.0168392345053 -0.038943215483
0.0202527869947 -0.0120617027436 -0.0416800007224
0.022130981015 -0.0169992818115 -0.0411730989092
0.0221202252999 -0.0179616397684 -0.0361335312437
0.0205485151126 -0.0178763177966 -0.0387153739529
0.0174332624257 -0.0180078136894 -0.0366638922406
0.0235430002213 -0.0110809902344 -0.0372387935819
0.0235430002213 -0.0150478222346 -0.0381958007658
0.0212212612046 -0.0108548471492 -0.0349953057867
0.0216754721822 -0.00860346695592 -0.0374056835065
0.0162351317404 -0.034492246996 0.0133097794512
0.0183649242588 -0.0371507039125 0.028802445416
0.0181022989934 -0.0357871460383 0.0225660124402
0.0171788622299 -0.0348374424274 0.0166963695046
0.016234833509 -0.0331874312432 0.00785928912489
0.013356000185 -0.0395888796667 0.0387520174143
0.013356000185 -0.0356677537044 0.0252498110199
0.013356000185 -0.0363237449247 0.0179978691225
0.013356000185 -0.038686954855 0.035849447754
0.013356000185 -0.0334605022188 0.00951190457195
0.013356000185 -0.0327254883585 0.0174072462991
0.013356000185 -0.0309482900299 0.00424139929649
0.0235430002213 -0.0300661946501 0.0169064454509
0.0235430002213 -0.0285528556668 0.00835490785891
0.0235430002213 -0.0353007408988 0.0353049866756
0.0235430002213 -0.0357451821509 0.0383406942557
0.0235430002213 -0.0334730018323 0.0286804903815
0.017261251702 -0.0314020363385 0.0253614770455
0.0183533358668 -0.0294852104968 0.0189212072491
0.0149520612945 -0.0303869108123 0.0161691375626
0.0145753135406 -0.0261556923745 -0.00362836236165
0.020367578743 -0.0282031981241 0.0171844135922
0.0162612289847 -0.0264010477218 0.000851558429425
0.0159714311494 -0.0339773556863 0.0343694595017
0.0154974385252 -0.0275769590258 0.00461458074943
0.0150212730654 -0.0351763176736 0.0378630650762
0.016559723125 -0.0309671402334 0.0219995172397
0.02044410628 -0.029458391407 0.0229868029003
0.015382061462 -0.0327099511166 0.0274852604249
0.0141586913577 -0.0276225280518 0.00213912936212
0.0155991622387 -0.0295082471025 0.0135102720137
0.0214188137647 -0.0269639017382 0.0137116617073
0.0181689652275 -0.0287246005841 0.0151288229121
0.0148386582954 -0.0292374937838 0.0107689731649
0.0191685680537 -0.027368269211 0.0110259580132
0.0170079327004 -0.0275467147211 0.00750288786364
0.0156719752581 -0.030753670862 0.0192612548274
0.0178967807279 -0.0319965330399 0.0293095907389
0.01399251092 -0.0362728813122 0.0407384266184
0.0142436059989 -0.0338395233739 0.0302895452891
0.0186176605133 -0.0262095385736 -0.00384579637286
0.0181939899175 -0.0263513069893 0.00392895284234
0.0223713835526 -0.0266319323677 0.0105221723452
0.0202493610941 -0.0263244700976 -0.00100666691146
0.023270747183 -0.0300133159262 0.0279619776556
0.013356000185 -0.0310075540694 0.0012422622298
0.013356000185 -0.0280429165181 -0.00618726684095
0.0200022663513 -0.0264048965507 -0.00900943737314
0.0216939501668 -0.0319736376759 0.0363729490445
0.0220437493989 -0.0304605851142 0.0303949270492
0.0217204919802 -0.0294582755658 0.0253917544744
0.0221518389279 -0.0329762519086 0.0416304965766
0.0195586167096 -0.0323982883609 0.0342219018071
0.0176692130428 -0.0347906555563 0.0411624669252
0.0194196079207 -0.0335940866872 0.0392047898222
0.0229147764995 -0.0307910207354 0.0334811371169
0.0202259432974 -0.0306523068286 0.0278191642759
0.022019166697 -0.0280716510174 0.0198720922736
0.0154597924471 -0.0411794828139 0.042590198957
0.0228471371055 -0.0309925760676 0.0142996156288
0.021927266387 -0.0289519256797 0.00366336664927
0.0232777232211 -0.0329080494192 0.0230789667031
0.0215354511736 -0.0308588341675 0.0101204413711
0.0155310879527 -0.0265664943497 -0.0192021771546
0.017756501587 -0.0279957379206 -0.00926623058778
0.0216487653255 -0.0270464032459 -0.0038993335182
0.0161725079029 -0.0269341802293 -0.0164925125799
0.0178432337567 -0.0286821987283 -0.0065626834539
0.0197125396689 -0.0298311207802 0.00173804546488
0.0169394919605 -0.031018828173 0.000670585626395
0.0179501277894 -0.0295661121699 -0.00290625844051
0.022596082889 -0.037289576229 0.0449894779051
0.0194727687233 -0.0376516453774 0.0451392135643
0.013356000185 -0.0395515589479 0.0445816541316
0.0157564948802 -0.0377829289264 0.0453425930887
0.0233908136455 -0.0343659178522 0.0453847584058
0.0193412238976 -0.0348265188283 0.0435970183116
0.0161914243418 -0.0321934898955 0.0037853178872
0.0153338591958 -0.0298107693406 -0.00729389496417
0.0150111864963 -0.0314377387593 -0.00152778165626
0.0143662194878 -0.0296372575186 -0.00989365855693
0.01603183126 -0.0406344669012 0.0396313169785
0.0160742943641 -0.0377263857966 0.0267485540606
0.0158419305608 -0.0385284450175 0.0300008873876
0.0159057087877 -0.039897495549 0.0361799522971
0.0184869705696 -0.0391301619281 0.0374637473905
0.0183136644812 -0.0379492943076 0.032091680778
0.0157569142862 -0.0360901032857 0.019133277704
0.0191273207693 -0.0398021349983 0.0415882176563
0.0227340812533 -0.0357130056661 0.0327397017492
0.0218421283908 -0.037174868819 0.0366559608073
0.0214716679538 -0.0344632283401 0.0246374418863
0.0210316714874 -0.0383361261432 0.0395276303879
0.0206744331332 -0.0371782836645 0.0339285080473
0.0210413630919 -0.0339581082163 0.0215504070343
0.021396287319 -0.0352816989837 0.0278255611782
0.0207288591562 -0.0332730794821 0.0180002587138
0.0192554278371 -0.0334082925563 0.0152439664571
0.0181461134534 -0.0331177600699 0.011569259198
0.0192049052509 -0.0360620973788 0.0260279632832
0.0187090414842 -0.0321255829934 0.00875455872413
0.0186631288569 -0.0348399539179 0.0197975646856
0.0203285821953 -0.030617849849 0.00618671073824
0.017585529516 -0.0400388341088 0.0443033723895
0.016426430155 -0.0260477308505 -0.011327314402
0.0146347732964 -0.0260685537165 -0.0134869450464
0.0133058563414 -0.0249947483596 -0.0210486494905
0.0234762493739 -0.0215740659116 -0.0015731780551
0.0234369180647 -0.0176784094583 -0.0200011503087
0.0234479458274 -0.0198327925532 -0.00896181041407
0.0235430002213 -0.0192063723829 -0.0255020175396
0.0190681696703 -0.0183982303051 -0.0338080003858
0.0207005373766 -0.0256547006555 -0.011867471371
0.0141764979135 -0.025470082769 -0.0284311286988
0.0175561491253 -0.0252806470533 -0.0216278520482
0.0153074883715 -0.025595323796 -0.024978444163
0.0190680097863 -0.0252964592171 -0.0179575814859
0.0140281727077 -0.0247802499011 -0.0322059346375
0.0205094778542 -0.0238054345001 -0.0213119701154
0.0169467629386 -0.024180940082 -0.0287474915429
0.0197872409583 -0.0225167295113 -0.0292906500253
0.0183638224892 -0.0242827916877 -0.0245989299426
0.022149583166 -0.0166865952056 -0.0150771195301
0.0174213881686 -0.0197975711725 -0.0177012913682
0.0185482942956 -0.020991731257 -0.0110269517644
0.016536283763 -0.0231210603125 -0.00962640263419
0.0220791626143 -0.0227356879269 0.00364266993724
0.0168833209582 -0.021685969101 -0.0132049512733
0.0193366918616 -0.0241674608094 0.00095597370007
0.0196988433085 -0.0170611310244 -0.0203059682362
0.0222247686717 -0.0151701840332 -0.0196196463908
0.0207666418153 -0.0206942144945 -0.00616423026744
0.0208723946125 -0.0243252053617 0.00545890706243
0.0209650491594 -0.0152923716991 -0.0225271417114
0.0139682711687 -0.025768677183 -0.00805799602746
0.0208866442393 -0.0192418249768 -0.0103896623447
0.020140489394 -0.0189855225858 -0.0131389523546
0.0205989235825 -0.0220798050567 -0.0022721416395
0.0219884443663 -0.0133287661368 -0.0259912368021
0.0165961794867 -0.0243316622222 -0.0056868230543
0.0197888319864 -0.0182443318306 -0.0163734405548
0.0230359041689 -0.0259647286413 0.00629316945331
0.020826221893 -0.0260064877215 0.00240585386657
0.0206613433959 -0.0255255825912 0.00830358913436
0.0174642375847 -0.0173579417403 -0.0261379827903
0.0188093653285 -0.0168310669175 -0.0234862775968
0.0151121636839 -0.0194159145518 -0.0266811884211
0.0204205711151 -0.0130560758847 -0.031632116337
0.0146236980171 -0.0213840674186 -0.0212452615291
0.016059263899 -0.0192234274891 -0.0241713593876
0.0196193091587 -0.0151012670423 -0.0269766087663
0.0159667344775 -0.0175175182335 -0.0306277585131
0.0179892855688 -0.0153075130017 -0.0317464898195
0.0159324075437 -0.0216040203274 -0.0160271785071
0.0168163426822 -0.0195661370836 -0.0203767729306
0.0202881546437 -0.0144027167339 -0.0338080003858
0.0230318485675 -0.0122405790136 -0.0338080003858
0.0226005104874 -0.0163154333209 -0.0338080003858
0.0231075219363 -0.0219492156583 -0.0198048846383
0.0227074104212 -0.021717711742 -0.0225432461865
0.0225856457298 -0.0203026484007 -0.0282328441132
0.0210248847875 -0.0224254928134 -0.0258420967252
0.0224882715361 -0.0240900384022 -0.0142986773503
0.022513662446 -0.0232929162115 -0.0174625681118
0.0205536517834 -0.021337684175 -0.0318066447573
0.0231093652743 -0.024828553182 -0.00926888138415
0.0223976879384 -0.0192120573844 -0.0326997229452
-0.0244769539962 -0.00372799998149 -0.0407187496471
-0.0214229247787 0.00179201231647 -0.0402711665276
-0.0210574770491 -0.00215617677008 -0.0407021262552
-0.0228509921236 0.00761131975955 -0.0388581374211
-0.024860777696 0.00746190444365 -0.0421440005302
-0.023605366583 0.00472172041076 -0.0384389981627
-0.0236203626876 0.00190610721797 -0.0384389981627
-0.0246150140527 0.00334376381883 -0.0421440005302
-0.0222825371691 0.00482066475539 -0.0421440005302
-0.0258414893414 -5.30218604402e-05 -0.0384389981627
-0.027724930586 -0.00171291737758 -0.0405193463972
-0.0268245336719 0.00858120736365 -0.040048516217
-0.0275472838146 0.00272712180945 -0.0411041440974
-0.0234344400684 0.0167957590203 -0.0405325042194
-0.0117797531697 0.023130999878 -0.041186930674
-0.0162255573429 0.023130999878 -0.040385574578
-0.0147652892469 0.0206488591197 -0.0421440005302
-0.0082626125007 0.0219092107706 -0.0421440005302
-0.0196796304502 0.0138237376436 -0.0384389981627
-0.0161193326766 0.0172998505533 -0.0384389981627
-0.0159821730448 0.0199087123145 -0.0384389981627
-0.02150162677 0.0117941181967 -0.0384389981627
-0.0220637421279 0.0138522870639 -0.0421440005302
-0.0252019903788 0.0144430045808 -0.0401721331828
-0.0259295174903 0.0113546706533 -0.0406464021689
-0.0174060556899 0.0145552240821 -0.0400835758169
-0.00901706531928 0.0222378788061 -0.0389344731697
-0.0190518100545 0.0213720743312 -0.0407334481329
-0.0210306897807 0.0195749547085 -0.0400128339508
-0.0218477156174 0.031446556246 0.0128422834315
-0.0217418689996 0.0319747779147 0.0154921909601
-0.0282275761838 0.023130999878 0.0166924149287
-0.0253989474606 0.023130999878 -0.00361616233514
-0.0271197113083 0.023130999878 0.00947981678385
-0.020917000249 0.0295403770967 0.00465050139424
-0.0214055404648 0.0262789394805 -0.00853315446881
-0.020917000249 0.0297328056969 0.0184453402602
-0.0233483804855 0.0293033191457 0.0261069416962
-0.0276347293011 0.0237441112898 0.0196578688649
-0.0258273618005 0.025792516436 0.0212323146229
-0.024373686999 0.0277137836446 0.0235785048208
-0.0251388075669 0.0249096051243 0.0152703657273
-0.0220506446846 0.0251067203681 0.0049304728612
-0.0263359457809 0.0263697575406 0.025340480463
-0.0216271808515 0.023953983821 -0.00114161134546
-0.0225553003007 0.0255021331194 0.00830717563761
-0.02273331631 0.0277077395674 0.0176492546316
-0.0282678225289 0.0240156678785 0.0230083346852
-0.0243309488326 0.0249325332833 0.012452491628
-0.0225542684197 0.0286197378542 0.0206025474176
-0.0209640178142 0.0310266933498 0.0243731202298
-0.0229349841112 0.026723640791 0.0144929549374
-0.0243896513332 0.0299570827804 0.0149168639538
-0.024768361254 0.0312056294767 0.0222395250191
-0.0236854642195 0.0288581422933 0.00702621756835
-0.0226492750505 0.0285580197784 0.00263648347448
-0.0238102476129 0.0268959137286 0.00024346899623
-0.0269027925013 0.0274421868951 0.013968395109
-0.0260964564782 0.0269618997658 0.00838686366534
-0.0248160419922 0.0290132256892 0.0121824919235
-0.0272727463998 0.0290808303719 0.0231371210287
-0.0266403524878 0.0287523230637 0.0188753772035
-0.0261108288203 0.0305867994393 0.0250838228686
-0.0292965214155 0.0266034440858 0.0208315109324
-0.0294012675415 0.0257613007549 0.0180470533591
-0.029677604206 0.0239601884779 0.0123897872358
-0.0290703374 0.025351954955 0.0149115012691
-0.0315004941149 0.0249098307056 0.024621229883
-0.0272411939888 0.025369778812 0.00668303077617
-0.0263095099345 0.0251109032814 0.00277575434981
-0.0238181805542 0.0256836464845 -0.00357395307018
-0.0255867402632 0.0249643517744 -4.34062678641e-05
-0.0232637004655 0.0252906345139 -0.00661334033684
-0.0246151088183 0.0272610540335 0.00395797078158
-0.0233145806007 0.0328805087534 0.0251188304807
-0.0237028211548 0.0312763062094 0.0184667225702
-0.0211883605503 0.0327459868335 0.0190146067359
-0.0311921439774 0.0240904786638 0.0360751485986
-0.031942202818 0.0238973798727 0.0386817506934
-0.0290361396591 0.026341659527 0.0376913696174
-0.0330346540713 0.023459985979 0.041639668795
-0.0292190409239 0.0254254805072 0.0336596817143
-0.0275095412823 0.0265688686104 0.0314957088359
-0.0264963984868 0.0269355107898 0.0285430924874
-0.0250378125734 0.0287406137838 0.031151621426
-0.022903853858 0.0345236209503 0.045460230506
-0.020917000249 0.0354957630521 0.0395938035847
-0.0265450308851 0.0304493927071 0.0450387996803
-0.0283802332479 0.0285936846656 0.0447232752411
-0.0214716898539 0.0345463193234 0.0423976404267
-0.026732981552 0.0292764431466 0.0411364051709
-0.0218519296024 0.0316500928275 0.0309897234027
-0.0239396155667 0.0325036593573 0.0437374396046
-0.0242320699043 0.030790950507 0.0372796792826
-0.0233401571528 0.030899350167 0.0339618741958
-0.0261228133755 0.0285149596337 0.0351070619555
-0.0313095819517 0.0255688937603 0.0439828061874
-0.0214616735091 0.032909627609 0.0349913414409
-0.0228676209872 0.0326897348177 0.0400007516071
-0.0300987015828 0.0260087125838 0.0407951426118
-0.0293186467836 0.0287920156636 0.0292644458087
-0.0339201892628 0.0265797534937 0.0374746307105
-0.033603999252 0.0278546917483 0.0400240491141
-0.0302334402415 0.0270459649065 0.0272747597161
-0.0315512509561 0.0267941935623 0.0306846219471
-0.0316853538486 0.0303221037011 0.0412271509945
-0.0281001119996 0.0306969695139 0.0309288208237
-0.029940360552 0.0297530689251 0.033968323095
-0.0307298204927 0.0299596473659 0.0371002786516
-0.0316430524333 0.0312210234399 0.0440583803898
-0.0345222921845 0.0275264587073 0.0455712205557
-0.0235864510023 0.0361226148256 0.0379514299721
-0.0223729194641 0.0377639581995 0.0412386487525
-0.0271776315891 0.0322809442846 0.033744573468
-0.0293769810242 0.032465229486 0.0404545352266
-0.0273547384159 0.0333790586897 0.0379782707496
-0.0246239481298 0.0348866423878 0.0359923828096
-0.023065445335 0.0342210054767 0.029850011027
-0.0241857643982 0.0341392322143 0.0323882374124
-0.0253178689137 0.0325704078082 0.0299736339016
-0.025826658133 0.0357034395399 0.0417481154821
-0.0347836278462 0.0231330003589 0.0442563239367
-0.0364475788649 0.0252370717818 0.0442666033729
-0.03668536743 0.0237720846478 0.0411949584967
-0.0337637121395 0.0256230923908 0.03462941961
-0.0356607997414 0.02421322384 0.0384065976092
-0.0352763972103 0.0262761689771 0.0417940309403
-0.0218354359511 0.031391764963 0.0279429242336
-0.0210053936972 0.0356515961277 0.0327017128635
-0.0212633189735 0.0367161312827 0.0355099914017
-0.034326265727 0.0237847052743 0.0326301961939
-0.0291900744303 0.0333690201922 0.0450104351538
-0.0264767842893 0.0357351918759 0.0446277289385
-0.0240032620569 0.0373025899145 0.0443266588662
-0.0262039340207 0.0332852294297 0.0462908156136
-0.0316637983179 0.0290777412876 0.0462497283967
-0.0286047142004 0.0249740308889 0.0279940565906
-0.00656000012532 0.0284982002447 -0.0255636095935
-0.00656000012532 0.0322591140622 -0.00486577665016
-0.00656000012532 0.0277860532361 -0.031364655472
-0.00656000012532 0.0286489426179 -0.0188087362911
-0.00656000012532 0.0261958966071 -0.0387654538446
-0.0144330002367 0.0254287744537 -0.0242172875345
-0.0144330002367 0.028878801337 -0.00290190068748
-0.0144330002367 0.0281602833422 -0.0106191836509
-0.0130992709414 0.0315629993106 0.00926675475014
-0.0134761023613 0.0307769435556 0.00627903515933
-0.00856279010738 0.0345635969962 0.0168473737036
-0.0101190780299 0.0325110607964 0.00975238158845
-0.0126312662132 0.0303707227097 0.0034517191898
-0.0141542158274 0.0320031140121 0.0125023259092
-0.0124630134147 0.0281676484406 -0.00643340929062
-0.00997401336717 0.0333835427812 0.0134058507992
-0.0126098699976 0.0329984987117 0.0149683185144
-0.0125362075892 0.0297462874701 0.000591421531563
-0.008979658607 0.0352634529031 0.0204362311598
-0.0118229971272 0.0348855809283 0.0222863308576
-0.0116879277799 0.0342697074923 0.0194142511097
-0.0144330002367 0.0322671152373 -0.000198693432119
-0.0144330002367 0.0312492147545 -0.0106384423068
-0.0144330002367 0.0279650682519 -0.0256347525657
-0.0144330002367 0.0339652014871 0.017189687477
-0.00691213163654 0.0231330003589 -0.0448651468138
-0.0104564464734 0.026710872445 -0.0162102941181
-0.00971084610824 0.0312370390125 0.00361647251352
-0.00731713880812 0.0238621231876 -0.034702302679
-0.00718472698894 0.0294550453804 -0.008888035289
-0.00874510364492 0.0246150238596 -0.0288180945899
-0.0111725987122 0.0249515259716 -0.0232066542091
-0.00778270925243 0.0258410985235 -0.0247144242986
-0.00693343946958 0.0339558325567 0.0116442840844
-0.0101337868208 0.0233503265127 -0.0323912105267
-0.0125809425292 0.0262767221161 -0.0146911205453
-0.00913863160835 0.0321294741691 0.00681723166807
-0.00899800760386 0.0260543765186 -0.0216965206633
-0.00900341442212 0.029269122354 -0.0067229510152
-0.0111658074724 0.0272711713222 -0.0124200806477
-0.00829512788394 0.0284520705537 -0.0117065523915
-0.0107053154228 0.0260135272421 -0.0190417180584
-0.00675070933366 0.0256661466284 -0.0272484834426
-0.0112393298795 0.0278973009562 -0.00938294982384
-0.0104568063904 0.0296094086037 -0.00271708232037
-0.0122715313633 0.0240403904256 -0.0256167717883
-0.00656000012532 0.0233961052028 -0.0405073950514
-0.0137427328811 0.0305629268582 -0.017337077681
-0.0142196715796 0.0324713775909 -0.00572437371207
-0.013919464467 0.0267005177851 -0.0369058478371
-0.0129544047845 0.0284242221985 -0.0312252239151
-0.0138045659334 0.0261690226032 -0.0400781863634
-0.0133693719789 0.0276047523619 -0.0340768460921
-0.0144330002367 0.0363852529146 0.0209188405962
-0.00656000012532 0.0370612447297 0.0123960939927
-0.00656000012532 0.0319490379409 -0.0185451399769
-0.00744885894785 0.0369814145199 0.00954492302896
-0.00809701042024 0.038377977117 0.0206463043731
-0.00883363677272 0.0379163203437 0.017759646761
-0.0144330002367 0.023958915722 -0.0428671459646
-0.0132667558832 0.0231330003589 -0.0454863122711
-0.0125479652512 0.0263120129039 -0.0433724836011
-0.00837032632451 0.0361134262077 0.00527780666421
-0.00963321393132 0.0362373859156 0.00801231886056
-0.01241515702 0.0304353426512 -0.0215474478062
-0.0133137376413 0.0314242214711 -0.0140485449832
-0.0120755788205 0.0327538985003 -0.00868305900723
-0.0124274317303 0.0337306233673 -0.00230935614827
-0.0126481805699 0.0367945012615 0.0173594072511
-0.0115543037956 0.0366214858447 0.0138789490169
-0.0119724636975 0.0360054381439 0.0107932502145
-0.0131028831002 0.0345703769549 0.00402054313886
-0.012863322812 0.0352454192886 0.00783614759725
-0.00779776812872 0.0312459894732 -0.0234939939321
-0.0079478413775 0.0294784542519 -0.033378588396
-0.0087781741499 0.0285563241588 -0.0380328889619
-0.00760725384201 0.0301821608848 -0.0296309106218
-0.00759229015094 0.0332803650721 -0.0121390303314
-0.00758792637424 0.0282173146647 -0.0407433206272
-0.00907288409674 0.0274552007757 -0.0434469617743
-0.00898691245024 0.0354259369723 0.00212134040761
-0.0108285196235 0.0346416448514 0.000107744726023
-0.0097223772945 0.0314107339238 -0.0203025862467
-0.00975801304919 0.0342310767069 -0.00378199038497
-0.00858559871914 0.0323102774009 -0.0166335757038
-0.00935702441113 0.0335488291222 -0.00832521753315
-0.0112599827573 0.0315525889358 -0.0172070300074
-0.011194252425 0.0303564090563 -0.0242546779721
-0.0110740581387 0.0326228302562 -0.0112736578499
-0.0113004414803 0.0274905958414 -0.0407383965179
-0.0102813948514 0.0300610138091 -0.0273589645133
-0.0105901260794 0.0285477605497 -0.0356786390881
-0.0100985979075 0.0294497172309 -0.0311875601414
-0.0095415399675 0.0249473558369 -0.045617368883
0.00477040366496 0.0281883315201 -0.032691705042
0.00458315997775 0.029769619956 -0.0348948434038
0.00467525483595 0.0296384618193 -0.0299669291769
0.00470783510479 0.0326289410227 -0.0101677890651
0.00457990204074 0.0360315937262 0.00213387974574
0.00490860008024 0.0257489764388 -0.0386299899848
0.00480440754245 0.0263318222917 -0.0416221613578
0.0050412718901 0.0236240583565 -0.0430411817311
0.00431220296785 0.0356016025305 0.0161951892577
0.00231318466409 0.0337123977956 0.00792129332523
0.00322861108425 0.0362014141635 0.0191958394797
0.00115489703319 0.0342263404566 0.0105423588571
-0.000787941905238 0.0334438410259 0.00735784040856
-0.00176461730816 0.0351216721436 0.0153045989503
-0.00392190349736 0.0332300011897 0.0070537588584
0.00348045540597 0.0299389066097 -0.0097273183637
0.00238831484053 0.0304529732478 -0.00712006879736
-0.00465958384946 0.0346811103782 0.0139034105936
0.00335941562556 0.0317636495594 -0.00128944496921
-0.00178519175645 0.0342213865524 0.0111590133467
0.00191020171564 0.0330818479838 0.00510228961506
0.00244447231563 0.0325003772199 0.00230566694004
-0.00573850521465 0.0354401213169 0.0176369084953
-0.00177935516583 0.0312084543087 -0.00273101745596
0.00191099750332 0.0310127977139 -0.00443561714916
-0.00107329702921 0.0357791824604 0.0181851674702
0.00247476070593 0.0289943414068 -0.0138627496106
-0.0030505397601 0.0321748224603 0.0020001569048
0.00060555946957 0.0319325352983 8.805392077e-05
-0.000789756919468 0.0327696020206 0.00425018500641
0.00382694584057 0.0280514786191 -0.0185031891279
-0.000974598456932 0.029582719317 -0.010400234104
0.00301613072633 0.0238441809134 -0.0377873670512
-0.0063053319953 0.0282033597561 -0.0161292106466
-0.0027824527345 0.0289515196569 -0.013104095163
-0.00175149478272 0.0272737326112 -0.0210946179134
-0.00408774789353 0.0240341081117 -0.0359389106847
-0.00111115467681 0.0251831575733 -0.0309640226658
-0.00236857595351 0.030421273201 -0.00628225812688
-0.00580736297375 0.0287696056948 -0.0135467207208
-0.0037090291052 0.024625347927 -0.0332233513569
0.000367841324559 0.0278493219828 -0.0186874411703
-0.00412638624048 0.0255492023931 -0.0288437687029
0.00249288624307 0.0230712256326 -0.0413337440489
-0.00444846642039 0.0271449495045 -0.0213329186281
-0.00375851112538 0.0278716993497 -0.0180252826738
-0.00346696870423 0.0233584438112 -0.0391845621309
-0.00346434763074 0.0263942254218 -0.0249788990199
0.000899162061695 0.0257172887693 -0.0287361227108
-0.00162180711417 0.0282950540966 -0.0163328380155
-0.00130721242489 0.0260002526318 -0.0271139194625
0.00213390027276 0.0250736461094 -0.0319148698959
-0.0054636963044 0.0302757831587 -0.00654495210254
0.000165583638187 0.0235479209254 -0.0387886330567
-0.000470638114156 0.0245045697602 -0.0342260211525
-0.000335027882257 0.0266619436092 -0.0241488554462
-0.00656000012532 0.0249233150512 -0.0317015691745
-0.00656000012532 0.0342489067669 0.00810733730608
-0.00656000012532 0.0323018160372 -0.00185809404992
-0.00656000012532 0.0301259031443 -0.0212160012409
-0.00656000012532 0.0324984750369 0.00197111357739
0.00478951032934 0.0321707291069 -0.00640889602631
0.00471103758763 0.0338571329499 0.00445944563388
0.00464337838603 0.0350920211037 0.012336726934
0.00485644473892 0.0303443992713 -0.0126424363652
0.000107175512216 0.0235687358346 -0.0455084200432
0.00457259841403 0.0265865003728 -0.0447711556238
0.00453509272259 0.0328782497112 -0.018165508343
0.00378246048668 0.0337842674433 -0.0130737579
0.00380600831017 0.0368907982688 0.00540538703759
0.00378503943075 0.0382332138146 0.014701991142
0.00373325154811 0.0378109801816 0.0116296035721
-0.00656000012532 0.0377817230745 0.0151020960551
-0.00656000012532 0.0350479459002 -0.000628889945938
-0.00656000012532 0.0340392995171 -0.00706138798841
-0.00475503425934 0.0373267889559 0.0090891204751
-0.00394720336986 0.0370268967478 0.00653869326811
0.00320334897004 0.0293218666077 -0.0393674315026
0.00307107935213 0.0287154838742 -0.0429101090574
0.00223493824645 0.0304451406157 -0.0328049134824
0.000447598815235 0.0294042219869 -0.0388862856232
0.00199616634141 0.0298848110206 -0.036078534201
-7.10391099546e-06 0.028740340556 -0.0427648885488
0.00323187293101 0.0323976846292 -0.021397540764
0.00293448311013 0.0312596327705 -0.0280463956094
-0.00166635401548 0.0360483345988 0.000190871624181
-0.00230975535626 0.0366083331158 0.00352089919339
-0.00041556708822 0.031698163254 -0.0254009572981
0.00103214862075 0.0355856315348 -0.00272044078697
0.00145930665923 0.0351205746541 -0.0054779931979
0.000305565545947 0.0309382629508 -0.0299084907146
0.00143536824979 0.0360225082874 -0.000189329955205
0.000721112089336 0.0365283227465 0.00282831191528
-0.00204527169513 0.0344783548838 -0.0089839829643
-0.00104390764261 0.0328977547722 -0.0183229151227
0.000739125263313 0.0345307653531 -0.00888217201138
0.000334017815677 0.0335623218959 -0.0145290475356
-0.0050127701025 0.0313731294495 -0.0254615091847
-0.00477351008646 0.0360380600134 0.00132736332882
-0.00401873097578 0.0339082314469 -0.011491939442
-0.00439550581022 0.0353485819466 -0.00291360716493
-0.00559242014396 0.0331995293471 -0.0145145694457
-0.000776441635343 0.0300727098889 -0.0348450821032
-0.00373507312203 0.0287180253057 -0.041334424136
-0.00361206948813 0.0305135698427 -0.0311090527067
-0.00160538587053 0.0322598364726 -0.0219711946556
-0.00447669917979 0.0297792405619 -0.0349427582726
-0.00378987404325 0.0324218896905 -0.0201095164592
-0.00463336036791 0.0291378548596 -0.0385471597956
-0.00306943206023 0.0349175544422 -0.00613200943801
-0.00279466993766 0.033598638179 -0.0137991690421
-0.00279776972134 0.0380192629197 0.012521525049
-0.00344348497893 0.0388415432113 0.0183592687262
-0.00491309556262 0.0393389984965 0.0224390723488
0.000786852207988 0.0380937950244 0.0124630658674
0.00110783899795 0.0375851307252 0.00911751568797
-0.0012710318577 0.0372517517276 0.00725323666253
-0.001378444475 0.0385208294939 0.0155121756239
0.00194038957855 0.0392225420091 0.0212740795583
0.00246703352181 0.0387812195519 0.0181579445576
-0.000636657351593 0.0391956604811 0.0200802284714
