0.0209590465797679 -0.005142275875365698 -0.026314999908208847
0.01534096390483914 -0.013734167581253141 -0.026314999908208847
0.01266540598893367 -0.020944069962073597 -0.026314999908208847
0.02409957998012082 -0.021762000965360764 -0.02731571771738711
0.02852027335113877 -0.01480387245493843 -0.02771588744513917
0.025333101705408364 -0.018465843054101757 -0.028870705314336755
0.022440917293840394 -0.01973034135256959 -0.02954416278284324
0.025819653909061484 -0.015021833881120033 -0.02952300309107088
0.023203804989573487 -0.016628692528589423 -0.030022373171459497
0.024605776788691525 -0.011528349119050062 -0.03011400066316128
0.02826882553085277 -0.01225520184738356 -0.029041742343530408
0.03135125901723883 -0.0052602278755802525 -0.026314999908208847
0.028709152994472093 -0.009149301052931864 -0.026314999908208847
0.03129009339679595 -0.0071280229623686235 -0.028256478343656
0.03190271206176779 -0.002406126010587546 -0.028316613697388332
0.028723601401664148 -0.006344781957748315 -0.029668810649939238
0.029767122361930305 -0.001505691798320437 -0.029548523184321173
0.029863309262618872 -0.004073405369306158 -0.02932194628313877
0.017521470085416227 -0.027574859098669403 -0.026322660066395727
0.0038451784590837483 -0.03100682759323074 -0.028715102618865666
0.0064427542918915936 -0.029043185794408056 -0.029685020822300092
0.008922249420723425 -0.029707656402880155 -0.028953799115784787
0.006482019166749535 -0.03137783760047335 -0.028178483913388383
0.011496314093050663 -0.02917641760385873 -0.02888027038728864
0.015418088590177799 -0.02834054861745476 -0.027913680295319102
0.0193720695682936 -0.023768924202583766 -0.02925550766887991
0.02177742218376538 -0.02264700121656637 -0.028848261519774907
0.01705530823237846 -0.02559855559473454 -0.029167894512252338
0.013611734065085965 -0.027502840304147368 -0.029148348753059692
0.005047606753513524 -0.027239701652445374 -0.026314999908208847
0.008386333304046197 -0.0235030041305979 -0.026314999908208847
0.003986335998008958 -0.030124378227803644 -0.026314999908208847
0.0033453464969965823 -0.0032346798719021944 -0.02706023295707071
0.014035297488503523 -0.0026333059156223053 -0.02664929185741457
0.012052173213012982 -0.007769411967520146 -0.0265817836554113
0.0033887277953384724 -0.019227039579368155 -0.02660098301013653
0.00968504813803405 -0.0051493946646737395 -0.02675154379958178
0.006420510027466626 -0.005134670282093853 -0.026882713692631302
0.01063746676163079 -0.01409962497122747 -0.02645734840060112
0.006756058968527462 -0.018100685106291325 -0.026498340333357465
0.005548258793197671 -0.015540538794890308 -0.026619955328228247
0.007744933502513466 -0.020516319741175706 -0.02638962778979706
0.0177926482841139 -0.0061646136386672955 -0.026397781140683137
0.011083311125345026 -0.0017294767939238062 -0.02679337935703376
0.011111081559885272 -0.011462218110985934 -0.02651383099962545
0.014935973788581268 -0.008424479895704369 -0.02644754368575126
0.014275430895900247 -0.006059982486467291 -0.026541643210957845
0.013601864560771143 -0.011410150614205625 -0.026415561718798206
0.009923676067482115 -0.01772576931514283 -0.02638219914306341
0.0032414492001019684 -0.007610922628499456 -0.026939197781323417
0.0075494882761023225 -0.013481737593664141 -0.02659870227143636
0.005223880425758108 -0.021017388275226836 -0.026476264316123106
0.00947151061779832 -0.009235968190613595 -0.02664318675843937
0.0040862444254157 -0.02501573518671901 -0.026407442527957178
0.017629364402681744 -0.008811123433349779 -0.026328608998859023
0.016909381113297588 -0.0027614660218967164 -0.026530514942630912
0.00856432936496068 -0.001767589898758662 -0.026893177241803335
0.006248220900741435 -0.0022684326860097385 -0.026971611949529264
0.00578147830207282 -0.009167780865439921 -0.02679292768126694
0.018472786571624957 -0.010210632895608595 -0.030114000663161278
0.022967223618703674 -0.005977535904567438 -0.030114000663161278
-0.0187606402647349 -0.02419023984859449 0.03226024552406736
-0.01654530880162705 -0.025108770083278425 0.03276761987000966
-0.008160712044480524 -0.028585227559428574 0.0329034500102826
-0.005033125321499005 -0.02988200098340387 0.032419325064617074
-0.01395741547536948 -0.02618177351589776 0.03101361420877733
-0.0026288602308140296 -0.031978327465649006 0.03065899945795536
-0.0068097456063851754 -0.030752615606036735 0.03065899945795536
-0.0023916978120249992 -0.03512623035448304 0.03065899945795536
-0.005172197907915525 -0.03463310217807645 0.03065899945795536
-0.009696994319789168 -0.02906103295012957 0.03065899945795536
-0.01982620815202034 -0.028428551036496393 0.03357828565248236
-0.007117925737875328 -0.032214156360860904 0.03530099987983704
-0.017912537897104865 -0.029011961858551087 0.035300999879837036
-0.011363094424913357 -0.030961588389172658 0.035300999879837036
-0.009406822476445266 -0.03370310974389986 0.035300999879837036
-0.004895454347203282 -0.033250139396000765 0.035300999879837036
-0.01919436253727834 -0.03128427388084967 0.03530099987983704
-0.007503881541920013 -0.03342149858065878 0.03065899945795536
-0.017208907336235636 -0.027712417662608124 0.030658999457955357
-0.010980619357551024 -0.03342473255823403 0.03065899945795536
-0.013736618726467528 -0.028753469592494207 0.03065899945795536
-0.013419338210916818 -0.033676103421633755 0.03065899945795536
-0.01956624715639853 -0.030470836393073374 0.030970725324879895
-0.01602740291616181 -0.03217525999736981 0.030726697900792195
-0.006187336923421003 -0.035465222880844145 0.03526658447325377
-0.014285360718078942 -0.033246167715643114 0.03519939846246754
-0.012155485880753067 -0.02694799257308971 0.03298366261319687
-0.009855044837916924 -0.02903356837714255 0.034722926111133465
-0.0024481728981854945 -0.03155418626208149 0.03394494806339031
-0.013942842006578528 -0.02819952006977963 0.03525547000149059
-0.017407328597103176 -0.02620258260565734 0.0348546255820336
-0.011580535501417757 -0.03571536954322361 0.03427547001127201
-0.004642558644436317 -0.03749890485497627 0.03400454096738675
-0.008970351847112977 -0.03605692144192234 0.03452670589421924
-0.01691165394655766 -0.033121724400434344 0.03495807567379584
-0.01807679269251414 -0.03328926639365487 0.031758051797831935
-0.015284369409118715 -0.034626050619920044 0.0330716227248273
-0.0069614460962924354 -0.03733221821938917 0.03229318249837586
-0.01095246918141779 -0.036319515646430364 0.031384798633100806
-0.0034985816728661393 -0.03765979663952418 0.031158471834943732
0.01098107898331258 -0.02840989673241629 0.03150497596503725
0.007182501791618999 -0.029189601060956347 0.03182822546600532
-0.0021100000012665987 -0.03396554856202214 0.033385620316778754
0.004307441084047705 -0.02977974236002241 0.031674669086398176
0.0017621080722214897 -0.03030220302535694 0.031928091232397225
0.002738652505110983 -0.03340058857687016 0.030658999457955364
0.00025586245097571113 -0.03294154750740118 0.03065899945795536
-0.0008085484745681715 -0.03751792977891145 0.03238469514054812
0.01044603702041294 -0.031557766142305585 0.035300999879837036
0.004290014192234342 -0.032537889614484554 0.035300999879837036
0.007580334324217685 -0.03143425796718372 0.035300999879837036
0.012219184609908526 -0.033101213316855414 0.035300999879837036
0.0059771406625911214 -0.03635307773659757 0.03065899945795536
0.0008050204231832515 -0.035812622707400335 0.03065899945795536
0.008781272468964383 -0.034714336055250344 0.03065899945795536
0.006317534962456594 -0.03382890990321107 0.03065899945795536
0.012507024069822039 -0.033239210360395295 0.030717519716324967
0.005950935674238271 -0.03732735030671374 0.033211686161276795
0.011126593169628796 -0.0358198357506128 0.034738935475823726
0.013870645568115982 -0.03528753603169608 0.03226002882063948
0.0035952190955788345 -0.037793763290319866 0.033266510061855624
0.010775675432789903 -0.03625227622907107 0.031335572334852055
0.0031909655962388574 -0.03708091620716335 0.030786536445181374
0.006715102683223178 -0.03489429613649375 0.035300999879837036
-0.0019705578890261257 -0.036298572104100424 0.03498736811198192
-0.0005359739603880444 -0.03411089323461527 0.0352558794879278
0.0031148551279372733 -0.035936321975921795 0.035265542835335485
0.005966418797437322 -0.029761793858569238 0.033797026456936455
0.013584237082570864 -0.028023162888950556 0.03346774737859722
0.010385600365176871 -0.028881326764929906 0.033847127264930596
0.0026956321869556427 -0.03095419779821581 0.03437666534342393
6.787673222659655e-05 -0.03148537738953074 0.034295095812404676
0.020215509630102574 -0.03169378061394112 0.034235087396420505
0.014348999597132206 -0.03239846862914871 0.03318365101762549
0.027432000264525414 -0.021678354396627898 0.03345745736186993
0.027381536579954173 -0.024432878872918628 0.030754851763304746
0.024440043871962358 -0.026089983156146575 0.030658999457955357
0.0258611170151917 -0.01873802194473267 0.030658999457955357
0.021639718107750443 -0.026425781118066406 0.03065899945795536
0.020278950380252042 -0.023449551640006918 0.030658999457955357
0.02714689520510468 -0.02151484075336854 0.03065899945795536
0.01881085465207472 -0.03297858869519414 0.031454875689607795
0.016677312949058606 -0.033893531765720616 0.032211841263692226
0.02643302825952402 -0.027106783232409053 0.032151401893097925
0.024476480400550154 -0.0286934129937942 0.03140567237035294
0.01794984515500932 -0.03293114745844004 0.03463079634647183
0.020362261261679372 -0.02404726392893131 0.03513107483716099
0.02444354825528601 -0.020304573068658772 0.03496398735861893
0.017673172114106097 -0.02606521378721664 0.0350230538966846
0.027415815788458097 -0.016297572843172542 0.03412243740057444
0.022993991458813343 -0.026283385136062147 0.03530099987983703
0.024774507140318744 -0.023153955464514743 0.035300999879837036
0.022915338731001426 -0.019016235500068947 0.03094689670695855
0.01719171382896524 -0.030760803826946473 0.03065899945795536
0.019495481129688123 -0.02864221561723051 0.03065899945795536
0.022208872645448588 -0.030077640304088528 0.030904895568467948
0.025008611278348677 -0.01721646267885701 0.03254709996217976
0.016619262884480283 -0.025104010277942714 0.0324119296097178
0.020265961603521912 -0.021983926502559165 0.03341390185817096
0.01553972177202836 -0.02779932888043038 0.03478652665713898
0.022196137157122132 -0.020479490246561302 0.033897987346460406
0.014833100703405516 -0.031176776441023936 0.035300999879837036
0.017708617248802884 -0.029935571185137122 0.035300999879837036
0.02133835191615356 -0.02863702860969203 0.035300999879837036
0.02361929518910771 -0.029535888544482247 0.033631830428924356
0.02561733416480451 -0.026870017999503983 0.03497106233123547
0.035518871996117564 -0.012915108114668493 0.03320766439570881
0.034742256009199765 0.001823000027798116 0.03302881604698854
0.032916884442677194 -0.0020297794747242454 0.030658999457955364
0.03506620679197866 -0.005033723670495007 0.03065899945795536
0.035895536464094935 -0.002367475674480774 0.030658999457955357
0.03506537121796884 0.000692052693240252 0.030658999457955364
0.03143604298806383 -0.005081516408751039 0.035300999879837036
0.03035993638560687 -0.015892307936059242 0.035300999879837036
0.030634967135701824 -0.012766502776129538 0.035300999879837036
0.0304934240995997 -0.0099967473221889 0.035300999879837036
0.03287257587953176 -0.014475749263744711 0.035300999879837036
0.03270228339556153 -0.00877783490810431 0.035300999879837036
0.027432000264525414 -0.01902500291685221 0.033028693120868535
0.027432000264525414 -0.015054772954530043 0.031598394879081476
0.03279829210254101 -0.012375176545627175 0.03065899945795536
0.03003108529033946 -0.009100329453714123 0.03065899945795536
0.03211871911828346 -0.005959034374646024 0.03065899945795536
0.03257163917357173 -0.00854518054068928 0.03065899945795536
0.033489604828706464 -0.003783879707452905 0.035300999879837036
0.03334800214853321 -0.0007928819525445459 0.035300999879837036
0.03469476380480817 -0.007053240482177511 0.035300999879837036
0.03538078036337873 0.000946958955900981 0.035300999879837036
0.030912185629036724 -0.001351422772621499 0.03417263871143867
0.02989725475537057 -0.00747056661694554 0.034850808856471335
0.02965268307610755 -0.004835954310553422 0.03107250871698421
0.0305785434467937 -0.0009272541668507754 0.031496520032698296
0.030917126567280993 -0.02051631267682346 0.03065899945795536
0.02838104848468547 -0.018783779351683166 0.03065899945795536
0.03276598192656404 -0.017470301735288983 0.03492635970141554
0.03667011052897665 -0.009004047071264745 0.031643270294062
0.027477283896582463 -0.023731805006311897 0.035300999879837036
0.031081933635963475 -0.019215572765548323 0.03523076332301547
0.02885932982779167 -0.02475550200974556 0.0327800741546124
0.029970631924229545 -0.02314343727155967 0.031057725923104042
0.03109889119300234 -0.02159856061854102 0.03369351514082292
0.033347338266518665 -0.017532363799535662 0.031231729150260838
0.03482268479335724 -0.014377827503495057 0.03099430648256487
0.03776754405890879 0.0015390262402287902 0.03389325363781711
0.037563992819097364 -0.0060224857772675795 0.03172230735867305
0.03779712219452731 -0.001617321129818459 0.03285372108630567
0.027937660129245784 -0.013606609109819687 0.034194091101000065
0.031080995730366656 0.0011599654079224864 0.03362068503603699
0.0285751880278868 -0.00959702477891652 0.033025841745721915
0.02990969464338064 -0.0038800594659555406 0.03348478272041503
0.03683571486539362 -0.006768808043791251 0.034398666202036764
0.034897593447222146 -0.01120938035505559 0.03507384801152659
0.036138791437889305 -0.002132531114267 0.035244477424131386
0.03474932197444437 -0.015408203965855951 0.033316145678430595
-0.0051114968008236766 0.0330028854208143 0.035492841249892736
-0.012718710259196494 0.02963349619081629 0.03553562272484462
-0.013462726846971295 0.028606017197376377 0.03065899945795536
-0.010167914069007078 0.03310271417561238 0.03065899945795536
-0.01969765454556012 0.02747144280466891 0.032713017270732545
-0.012613126019160426 0.031652296760953665 0.030658999457955357
-0.017493568274713805 0.03094226165085206 0.03065899945795536
-0.015025246837645426 0.033445158714696506 0.03065899945795536
-0.014278969820157483 0.03477593868396173 0.03428562956122308
-0.017199864971592004 0.03358731607748194 0.03329436605187635
-0.019447977589345772 0.03256058811246162 0.03221337562193574
-0.004253776342039554 0.03523942445351736 0.03065899945795536
-0.0037042367728380467 0.031032138590129515 0.033958949969933275
-0.0072015156783371516 0.03646071686689322 0.03070207398088886
-0.012432441606700423 0.034632423186575355 0.030791937088042235
-0.007441732141195482 0.03693437565001158 0.03350897435873971
-0.010368419054194215 0.03617333926656331 0.031868463186369586
-0.010616484627170644 0.027573516966126064 0.031026389776066535
-0.01388932124538053 0.026184190047692596 0.03235794682593467
-0.005547827655094106 0.029906298514610227 0.03268147014707096
-0.007881390567838946 0.028878517492956828 0.03276271154372099
-0.010424948315345104 0.02790401794689757 0.033471049653015644
-0.016556645737971214 0.02512986894335757 0.03308596737854382
-0.00976538375032656 0.035783517110958306 0.034940850388488834
-0.015933464109619634 0.029788821104895672 0.035721998661756516
-0.010941824321380609 0.03286595476031629 0.035721998661756516
-0.01388407361873327 0.03221575818308601 0.035721998661756516
-0.01724352349275565 0.03204495757707453 0.035531256175568925
-0.007317783453923322 0.035175855918299095 0.03550184318307243
-0.008699713026984052 0.03052078354273681 0.03531930601699015
-0.017627724360700234 0.026979706297660208 0.03516330169213187
0.008798767077097817 0.03600765539285881 0.03483110941515166
0.012135406087059842 0.03376027163867853 0.03065899945795536
-0.0033760000951588154 0.033645849751663424 0.03226413197553819
-0.0019029325469754512 0.033774919910104784 0.035340919770366935
0.002530665137024544 0.03442042299063948 0.03546407443487935
-2.2451478757443296e-05 0.03755450675501668 0.0325299113468191
-0.002321130386536497 0.03738449345139527 0.031821533759275177
-0.002009307289190512 0.03705202547374793 0.03471791670046259
0.01076653297136889 0.028707377493866513 0.030767173941905347
0.005010861970249561 0.029611027165932585 0.03097395343182825
0.010208722435899618 0.02898599709411915 0.03362348000481483
0.0066785155684699025 0.029385070592209555 0.03293783573975262
-0.0010422619697040842 0.0307152674032582 0.03238558529950441
0.0016414391736361681 0.030363873248371392 0.033576056149886596
0.00935026424245371 0.034792236334591074 0.03065899945795536
0.002187239608967393 0.03321650487858009 0.03065899945795536
0.007041688636769922 0.03434604513566776 0.03065899945795536
0.00423204665611087 0.03560173879180452 0.03065899945795536
0.0008722693098707562 0.035805749038039035 0.03065899945795536
0.0025839439613676383 0.03751909085689272 0.031327373480106
0.01166274062848207 0.03526018794215683 0.03494811693348831
0.005085979929642992 0.03521439747330454 0.035454899209624705
0.0037499624968972242 0.037404886993451604 0.033790454677100366
0.0015653689437468965 0.03678981164512151 0.035258470950493837
0.004537317601860392 0.030632154971017483 0.03476331592528211
0.00038328753247516374 0.03183482709377296 0.035164646390341954
0.007569419350907145 0.031996075349399744 0.035492289049427826
0.010327456687746551 0.032578356156267335 0.03567138516973274
0.007034860164276764 0.036983003286786796 0.03157636112661324
0.017931885223229308 0.028177780946009555 0.03557567736837775
0.020899614209077943 0.027663187098326443 0.03546441535072129
0.02304595872877693 0.025650932443083765 0.035374705841169224
0.022096736492610864 0.02803951862825811 0.03065899945795536
0.0172464477735062 0.025405488941335423 0.03065899945795536
0.019876677863638635 0.025066320339596708 0.03065899945795536
0.012660999782383442 0.03245680149683075 0.03317561912108981
0.024440615410358583 0.024851664836138012 0.03089431692755237
0.02059459079271834 0.021695786620021616 0.03166904926414562
0.02457847357512298 0.018537132461705512 0.03118500718312791
0.014220722825860878 0.034762757666882325 0.03369717620349923
0.01689754836057937 0.0336896456520627 0.03282066412503066
0.025321999564766884 0.026241129006262506 0.03310665469079883
0.024438033500962995 0.02894049174422909 0.03226326104920037
0.022474153655021648 0.03014279740740967 0.033887854335903356
0.025227715652392124 0.027236109746621925 0.03526882757129199
0.015734454965662486 0.03318008501503559 0.035077045279041326
0.017053716219299183 0.030847635328243993 0.035484407279142205
0.012660999782383442 0.028782852222175907 0.034046570509293946
0.018059262487991935 0.025297026905456987 0.03479821208877684
0.018170329436167858 0.023861864561745605 0.032705216088864314
0.013804135367754947 0.027174745800510713 0.03128338161967306
0.01576447155801848 0.026024834182101605 0.03343834490123533
0.022474475942598365 0.021582325448649013 0.034379820271321485
0.021808402379568298 0.030893870265988298 0.03147268393120184
0.020120920048136072 0.032226833413921754 0.032730449648143416
0.014655995486437921 0.03440953761862486 0.030734497274842253
0.01803520022298244 0.03237462214930464 0.03070609661583239
0.025181355077990384 0.020426851734511507 0.034958411153545484
0.014596059431064188 0.030200956316270594 0.035605772660431294
0.02075280158430073 0.024536879804094157 0.035344941102442295
0.029191551154260652 0.024087267503492944 0.03252871123971919
0.02759461452358737 0.015161869844770578 0.03065899945795536
0.029273374968795708 0.019391724060518596 0.03065899945795536
0.029644493973939708 0.012456732459923917 0.030658999457955357
0.02711087834751124 0.012480486975348986 0.031389743272229875
0.02810598050657761 0.009725545066432197 0.031260960365404586
0.030549505471018937 0.003441197749652486 0.03271648134645586
0.02921916817927446 0.006835638883644424 0.03193795227863532
0.03239488274872471 0.007058515718106079 0.03065899945795536
0.027124297738449744 0.014022544818301386 0.03391368162714231
0.02835588201734631 0.01074764606110901 0.03415864728510797
0.025932452164024813 0.017282299314465427 0.03375575890332521
0.026330867668356944 0.022782922739377525 0.035300999879837036
0.03194827754751753 0.010594845013082296 0.035300999879837036
0.0285955168166373 0.018530148110878185 0.035300999879837036
0.0300906264084959 0.014337698922008639 0.035300999879837036
0.02823266059694747 0.0161894437386604 0.035300999879837036
0.035958094907805896 0.00773073178209777 0.03065899945795536
0.027975598372575815 0.022965319155146033 0.030658999457955357
0.03233925288126695 0.013752877674601208 0.030658999457955364
0.036546393115922136 0.0042448981667444876 0.030658999457955364
0.03458679654946918 0.009814468535112362 0.03065899945795536
0.03175357087959522 0.01702933266846676 0.030658999457955364
0.03751335976114948 0.0019488513477304468 0.03065899945795536
0.03487287947154732 0.013744459426050354 0.030931546365542194
0.027121354306611792 0.02551534811762648 0.030796992506485286
0.031261304915247305 0.0052752052265768005 0.03502624702212593
0.029576784232728002 0.00858502384900702 0.0346645182553211
0.03358779660783043 0.0036465478017286695 0.035300999879837036
0.03208333397210027 0.007648467191368599 0.035300999879837036
0.03255983268269847 0.012811553567666417 0.035300999879837036
0.029068606042994993 0.021818543148508857 0.035300999879837036
0.03241379000560643 0.017798453443450574 0.03508311482741151
0.03530615618555543 0.006591941268833334 0.03523781144841006
0.035860561620894925 0.011506127384388965 0.032145378195656174
0.034667524219758966 0.015519446832857983 0.0330772771190349
0.03751761245362658 0.005714460313280655 0.032664840140277984
0.03332206430954302 0.017966994548997077 0.0326180688376272
0.031785635868957704 0.02047368542733328 0.03230948225079018
0.03115474901465362 0.01999633032471679 0.03514217723757926
0.036417868744834436 0.004041862057186991 0.0350416096812484
0.03623199757897871 0.009088465430726913 0.03470906029494935
0.025321999564766884 0.0236162224750881 0.033268331668864747
-0.009739355485015502 -0.0227858352534658 -0.03209999927740177
-0.014481916329386736 -0.021415473354278024 -0.03277839270658456
-0.005418061267397918 -0.024034472254724704 -0.031112330979746028
0.0006643800166382778 -0.02579199230838572 -0.03247989052395816
-0.003345664693041152 -0.024633290783089266 -0.032665986897717464
-0.007396337689732866 -0.023462849723313885 -0.03261509252199914
-0.004636477212508632 -0.025561387969248624 -0.03517799824476242
-0.007170637298789888 -0.024988966698855447 -0.03517799824476242
0.0006241431954659025 -0.02625519416255032 -0.03517799824476242
-0.0016767654617212396 -0.02567664540437092 -0.03517799824476242
-0.016690615482072485 -0.020966999232769016 -0.0344425118142699
-0.01908668894529014 -0.020966999232769012 -0.03479841644570127
-0.01290409094923681 -0.02248989294406033 -0.0351034939862721
-0.009931952126700283 -0.022840763608056366 -0.03471742817314405
-0.008071870268440608 -0.02484023035068828 -0.03011500090360641
-0.00683678858335381 -0.027627683321011176 -0.0349308828122417
-0.0025773632228158387 -0.028715480385430772 -0.030722102534454922
-0.0012717058092993028 -0.028955162418626546 -0.03340798250485235
0.0012642099396436444 -0.028714256207252133 -0.034574431089477595
-0.019398328368446745 -0.020966999232769012 -0.032247266081466705
-0.009061971976530931 -0.027473255513036116 -0.030115000903606415
-0.009615878191048777 -0.027007966583727082 -0.034857542983766435
-0.00410716403554714 -0.0286919597227665 -0.03461187048306902
-0.00786233166916392 -0.02807335806788252 -0.03257384443055782
-0.012205148612282654 -0.026385241285020664 -0.03359287307813288
-0.016280121902583992 -0.023873049577492464 -0.03471554521020462
-0.01769195139866233 -0.023170993015662483 -0.032052701923513116
-0.015550676595663327 -0.024643913776219706 -0.03198295469866188
-0.0003911763180200847 -0.025321823490059597 -0.0266252937762999
-0.002574762660764282 -0.02665257613914116 -0.02643889863133584
-0.01637743229387867 -0.022431253729994067 -0.026410628498070153
-0.013468441936211942 -0.022650511287207697 -0.026477611734841727
-0.008109439801364192 -0.025983453498662903 -0.026334390725097134
-0.01063800814521108 -0.024039567860139978 -0.02643576428968655
-0.004629093009890829 -0.023789911705078794 -0.02663807915721406
-0.008414483341370052 -0.022344200970635525 -0.026656542683621196
-0.001904810943404953 -0.02195256960794831 -0.026886747295208957
-0.02155045104683326 -0.021243426759589297 -0.026364145440974467
-0.005394261948805348 -0.026962523936549396 -0.026326418256485188
0.0009409114442134265 -0.023093661053938935 -0.02686792820988601
-0.018660660048494176 -0.020545000210404396 -0.02655849257194396
-0.0118562099327077 -0.026751784617297426 -0.026314999908208847
-0.01733265457262279 -0.02483468303023901 -0.026314999908208847
-0.0033233546020078704 -0.02899710700231124 -0.02631499990820885
0.0008162929083735173 -0.029798974624476924 -0.026314999908208847
-0.014417557986756016 -0.025061948662007404 -0.026314999908208847
-0.012479743930952606 -0.020545000210404396 -0.02951284146849047
-0.006193194564032766 -0.02703677461659839 -0.030114000663161278
-0.012617075333793387 -0.02428303811625305 -0.030114000663161278
-0.001187918432931762 -0.02573773225085054 -0.03011400066316128
-0.003541812532655817 -0.02626737742556818 -0.030114000663161278
-0.011739374770270462 -0.02897631685114683 -0.028891487113067563
-0.014432383577254267 -0.028885614386525097 -0.027893878910819812
-0.016631919262549207 -0.02734416781704171 -0.026314999908208847
-0.025092638138999354 -0.02056473778629045 -0.026570449925703496
-0.02153490460896456 -0.024636276505943668 -0.027716371213644682
-0.023179901314091145 -0.022847554660473703 -0.02769880473454219
0.0012782893663409226 -0.027220282265869346 -0.030114000663161278
0.0010915778473320353 -0.032225049848372274 -0.028000505582586613
-0.014249386036516803 -0.02622663333827896 -0.029632958685874934
-0.01660782833615227 -0.026403772309113633 -0.02888418883329899
-0.01924224094108841 -0.024942249768524025 -0.02861282368970164
-0.02095380911249753 -0.021293900439795153 -0.029666264018234627
-0.007746927835277438 -0.022258558314704538 -0.029912939518159105
-0.001990415931787856 -0.02300029632489909 -0.029696171369397895
0.0018856219921802196 -0.023855943262221107 -0.02962660610570585
-0.00892677012133163 -0.0309798583697354 -0.028280021555832084
-3.655539650032711e-05 -0.02985038344596478 -0.02952794084630494
-0.002218090629364472 -0.031179369646475046 -0.02893748040013635
-0.004725056175652191 -0.031048821473860403 -0.02895164831566838
-0.027121212034174596 -0.011930181866347032 -0.023544149266999784
-0.023114551627885952 -0.01855630704092385 -0.015572511495379816
-0.024190419029936818 -0.016635653082226354 -0.01120589869552766
-0.02274220580554117 -0.019066632881042586 -0.009979171498483638
-0.02277991710114694 -0.019061904149534827 -0.012706482814546926
-0.02377492663486098 -0.017579789348398947 -0.022205723171209026
-0.023114500820472512 -0.01863611791385941 -0.019241176570765874
-0.021697961954765477 -0.02079499659059 -0.007966736376866563
-0.022867441196051302 -0.018793437033702915 -0.007187355242644595
-0.02545705623312647 -0.014719019298367494 -0.021921681204183044
-0.024733649231890316 -0.015817567490511802 -0.015981679918366607
-0.02514048217727565 -0.015191117031714033 -0.01892448177221241
-0.02177117517607432 -0.02403474498078369 0.014162914098177656
-0.021629088850672003 -0.02275529198518347 0.024103341248391103
-0.0217991068981773 -0.024286263382823765 0.02022027494933275
-0.021609918524025343 -0.022582667830218145 0.0069011261562968145
-0.021910474673468953 -0.024655866938448623 -0.013468852973727397
-0.031669477917387 -0.009977448586812775 0.003402527452678255
-0.03151472789604645 -0.01016830229957854 -0.006292801514741474
-0.02152400091290474 -0.021476479158352775 0.0010402745743301944
-0.02152400091290474 -0.021766242312523273 -0.01295939789759299
-0.02152400091290474 -0.021522049506260285 -0.016960423618110555
-0.02353296476301439 -0.017731594033259107 -0.0019531318761429094
-0.022527306899517877 -0.02000620940069812 0.02348788215832948
-0.023231612482339844 -0.01876572913413658 0.019432538428545545
-0.0220699668240392 -0.02066124868021241 0.020247356648060207
-0.024285269098039804 -0.01695159039564412 0.014991468752898768
-0.02498890006083462 -0.015705330316245252 0.010667992504794667
-0.02707658997732334 -0.012084395181658023 0.0008362356328565166
-0.0236927733510921 -0.017735769648809338 0.00827764452939134
-0.02494914454921151 -0.01566528345636014 0.006600089837070869
-0.02741927538022627 -0.01145442203946782 -0.0021678284549898354
-0.024865789846665022 -0.015537412755868356 -0.003642979686186786
-0.02602309504306191 -0.013726151282119679 -0.0014419778865536084
-0.022986881987935377 -0.018675617618895125 0.0004970100162345892
-0.02238749310484652 -0.019843238911546157 0.0083177260341945
-0.022775851295711844 -0.019349356068947568 0.013503687954477553
-0.025032269634990056 -0.015359886504296212 -8.519762913699897e-05
-0.021989322485681837 -0.020563042792809683 0.011333091351739872
-0.02298212623269276 -0.018815882228232227 0.005673048741425541
-0.024093945728007226 -0.016960046521085133 0.003268412622672548
-0.02162614263009941 -0.02095312862478277 0.003681312413224326
-0.023056170271538695 -0.01897671764636628 0.016616432277159403
-0.024764977978756056 -0.02259557864033255 0.0169765851342379
-0.024319592928748576 -0.02313150458420627 0.02268211428658022
-0.02570352143916417 -0.02106691250205908 -0.022241304412232373
-0.024027531368236772 -0.02337819214705214 0.01929016273595198
-0.023885346833173664 -0.023650655833457893 0.02801535725453996
-0.024697573956353427 -0.022611466883677697 0.013398613487592002
-0.02493562577629327 -0.022260779020153956 0.005974041895943842
-0.024259019392060252 -0.022981966595244426 0.008310626729808417
-0.02551642463573229 -0.021297348323456998 -0.01948327503553798
-0.0231832527581921 -0.022909428724883014 0.030554752650020382
-0.02626722579260869 -0.020640542716880247 0.0009477858361944917
-0.026304977142369793 -0.02042612121213404 -0.012124351317927566
-0.026917508601974217 -0.020084588971203944 0.022901074336549972
-0.026494640775395595 -0.02058752492419758 0.01976316828432048
-0.026048612983344058 -0.02100974607896658 0.007926391055901323
-0.027317432544624265 -0.019613104857989987 0.026196669776423234
-0.02601007599041419 -0.020885004788219617 -0.005794783969863391
-0.027669430836155525 -0.019197142094396654 0.029020154013076435
-0.027169586743283434 -0.019638246475043763 0.013229958078931282
-0.02692404756943545 -0.020006776351035312 0.01743330487868211
-0.026047263428484454 -0.020803455211508837 -0.008458381088381102
-0.026215997564268963 -0.020828156357470914 0.010545932534402575
-0.025836665980872243 -0.021528995193644526 0.027397131620057275
-0.026796548872413912 -0.01992956008344035 -0.0015384840388414254
-0.025111492591042395 -0.02125071540903252 0.030657999217510223
-0.024601070305715518 -0.01690119178876488 0.02884110829741957
-0.02779874650352748 -0.0119862347811421 0.029733423250257584
-0.026264717013456104 -0.014377441599370837 0.029805872067789053
-0.027542765807131494 -0.01212267489875679 0.02580375850499836
-0.030635578872619546 -0.009572000242769718 0.00952493147782804
-0.03088031146291377 -0.009656741028103434 0.029371056356786503
-0.029696804537775068 -0.009665355610546681 0.026963147482650923
-0.028686107469148577 -0.009614222146016363 -0.020554998446373124
-0.025750043111517355 -0.01487260237746532 0.023017933560435
-0.023830981659487254 -0.017884311271624882 0.022026612091138823
-0.02833090754532815 -0.010659605429843335 0.01909789844986967
-0.028667267760174017 -0.009911975507043607 0.01217516827823267
-0.02705871481734469 -0.012413383303402295 0.01060153040811564
-0.026003632233270332 -0.013999080270657079 0.0077923927718632656
-0.026883035243275226 -0.012966833985945652 0.019479809212930785
-0.02816884500478806 -0.010593010702753926 0.008650615063774684
-0.028492278092653225 -0.010552175066341533 0.023890086666602906
-0.026389033136398742 -0.013295948495192429 0.004817246304607539
-0.027727968987386054 -0.011218187559835172 0.006268371835235835
-0.02256281608450021 -0.020028218214678324 0.026334574866729903
-0.024259494259818392 -0.017296183639930532 0.024972314842055372
-0.02583719112607559 -0.01482381236721372 0.02590393256995837
-0.026799176703020382 -0.013014674680287034 0.016731559163265897
-0.02304320871061878 -0.01933820454681143 0.02864614070118087
-0.02829665671916717 -0.010629179580792514 0.01636190804823385
-0.02561593642520241 -0.01484248771555868 0.01517987416530905
-0.027327701231929312 -0.012337434723254853 0.02191972876851854
-0.02692168144908683 -0.012719811407712372 0.013481376031321594
-0.025211129631303952 -0.015639485379282104 0.020192681035747652
-0.028871139503599954 -0.009572000242769718 -0.023502838012687346
-0.029461631997026585 -0.009572000242769718 -0.015255055861058313
-0.03171390203837242 -0.009898105133316352 0.006378831914886652
-0.031320195815564625 -0.00959597393580116 -0.020166280941838467
-0.027851872170438864 -0.01855212855797886 0.007094020477673929
-0.027267436928492535 -0.019346699638635143 0.0034275585059382035
-0.02727295314633059 -0.018818961964295777 -0.019775977792376054
-0.02673269887388683 -0.019681529941333816 -0.017444902206493994
-0.028135451823841216 -0.017725636606136387 -0.010823427389354816
-0.027233537671144534 -0.018796083208990896 -0.023438865647040105
-0.028096978046884307 -0.017451652764841705 -0.025639652482249562
-0.027635577741322984 -0.018583963563922893 -0.005976219499465005
-0.02651553540347904 -0.020064107443505973 -0.014906304605699687
-0.02788260803072433 -0.018278145991958067 -0.003084932905694006
-0.02803725406689881 -0.01833627093918124 0.009873070908940813
-0.0282430254781777 -0.018149923070809815 0.015336418551808142
-0.02906320918802384 -0.016033754024570215 -0.01415347089052026
-0.028334701651939586 -0.01812725989112232 0.021218384745022217
-0.028522440896879442 -0.01759970254291597 0.012636584952483175
-0.02840141095513033 -0.018080539581003502 0.02445547155019826
-0.028413146813655966 -0.017113011455071332 -0.017825722500090967
-0.028832511297721942 -0.016743655363996135 -0.00085516449448999
-0.028502344532654177 -0.017452076683520903 0.004438520358310424
-0.028467655337159593 -0.01692442508820814 -0.021899281068220287
-0.03009748942694497 -0.014275942432004696 -0.0005696887821634092
-0.02936174981897364 -0.015627939127247244 -0.007218828258484812
-0.029085833112568453 -0.016430588079787974 0.007519413900032147
-0.030746749426274082 -0.013478740984507551 0.02837360532567965
-0.030801798105170634 -0.013274736226379967 0.02287617655641212
-0.029165164110178214 -0.016086131475243653 -0.003344496271728791
-0.029740291292532063 -0.015408886407635167 0.02398044695074974
-0.02950593788525141 -0.015717178310328414 0.014730402937494457
-0.029348054935600863 -0.015600438842334753 -0.010412476648719056
-0.030362844563187764 -0.014060675287257945 0.017703598546904425
-0.02907579718695983 -0.01635083783817564 0.0017051252218125217
-0.02969542945250936 -0.015164288396296384 0.004512198084742109
-0.029036853839949063 -0.016696850580241215 0.017350787122933205
-0.02950819554568948 -0.015796574542418822 0.019620607290377658
-0.02962842421482998 -0.015397203821887872 0.010306058543327837
-0.02933213939930186 -0.01626961734415749 0.02674508510762741
-0.02569476204033859 -0.014188512872318992 -0.009684966375339669
-0.027053679622865843 -0.01198027142583342 -0.006519927566950318
-0.025772297749046887 -0.014062517324278557 -0.006868065758678092
-0.02227401092826525 -0.019747234373106146 -0.004066340111803402
-0.026290071617239154 -0.013221134645630066 -0.011855680067200195
-0.026857246978431754 -0.01229947452722785 -0.015473160591397804
-0.02787218884590682 -0.010650193712593195 -0.01316013383851611
-0.024339803834042172 -0.016390320331337187 -0.008536988772508181
-0.02763457842716696 -0.011036310708594036 -0.018145661056238716
-0.027265695835324035 -0.011635745022100855 -0.02083532933878069
-0.02742178645208401 -0.011382097726805845 -0.009331611303589157
-0.03086358782605878 -0.011892799282180571 -0.024922705128828146
-0.03134668078000108 -0.011128147927980269 -0.0007106276719440561
-0.03127076276713161 -0.010708261630852593 -0.016374562027767162
-0.031228068054476033 -0.011469237975735642 -0.003288012494468264
-0.03133054099242505 -0.010776131051961282 -0.009810466051029872
-0.029593334035645683 -0.014862623335117418 -0.020868396484988828
-0.02923095208978881 -0.015409038062495118 -0.023642046151488415
-0.03110073435033943 -0.012224250759155345 0.006842023971301438
-0.031207568891555702 -0.012103290796940197 0.013104138962662477
-0.031323838988176596 -0.01216037776746108 0.026060174573280748
-0.03140640185830528 -0.011660473886467532 0.017675448459944572
-0.030732411239565428 -0.013007794382970651 0.004177715012092375
-0.030556339133130744 -0.013037932171317521 -0.010170407709534786
-0.030727216374926675 -0.012953360224726335 0.00155770221018917
-0.031031882176015116 -0.012740978026049891 0.02002266264508747
-0.030162462648932454 -0.013838739950622242 -0.013147285880471097
-0.031015637026992938 -0.012508104573327513 0.009341903091722642
-0.030718814989452337 -0.01246770995591305 -0.018467380334077424
-0.03063130384823544 -0.012571100816654024 -0.022088164437773387
-0.029795332218451175 -0.014565839457707364 -0.01668952942590812
-0.03088434274118599 -0.012376574754644636 -0.007472160181018331
-0.023131995039134302 -0.02437690048785894 0.02568083498085999
-0.022958267071853312 -0.024407135398781588 0.0164655147937878
-0.022060974515628422 -0.025482240295872424 0.029312341833701745
-0.024073417159519765 -0.022961997982274857 -0.005074865778658762
-0.024046833194603302 -0.022698637706414372 -0.02380733237919622
-0.023797227014182576 -0.022990249956930497 -0.021061232766388566
-0.024499925136571003 -0.022410976374591406 -0.013174983316698254
-0.023661220446337276 -0.02341902425640361 -0.0021256546382330595
-0.022580115257461023 -0.024255467884132915 -0.017798007578252947
-0.023542560470888943 -0.023748011186780965 0.011480496322584608
-0.024772546844853038 -0.022095911745099586 -0.015952236385877012
-0.024075575748093908 -0.02288948984285738 -0.009621042619552362
-0.023254142488904516 -0.02393935077710246 0.005244058883064576
-0.024224899892434006 -0.022921433513015687 0.002073288247858832
-0.02189601517508277 -0.023377139377027158 -0.0249415000217236
-0.023210890081061853 -0.018723192077990062 -0.024414553966868396
-0.02231163684978454 -0.020085376712960203 -0.02230734422784656
-0.020351824499261296 -0.026325427094425046 -0.0014765342684984438
-0.019620520724922423 -0.02694583340093349 0.002298077240154541
-0.02057134334523969 -0.02589729922504277 -0.01780487871023248
-0.01935277786265068 -0.026874864290965094 -0.015046402955913796
-0.019291002042130818 -0.026992309277102215 -0.010642109747167068
-0.01963962493741564 -0.026827825217373362 -0.004195369997156204
-0.020104775214541952 -0.02673910427431866 0.012619025829771998
-0.0204193816813079 -0.026192430601954097 -0.006579471901962168
-0.02000856199050684 -0.026765388663161332 0.009639411826762655
-0.009735315817761898 -0.028566222667106424 -0.026314999908208847
-0.011926825010146917 -0.03076176028105289 0.030657999217510223
-0.009285000152885914 -0.031150022438301114 -0.02444892138639487
-0.009285000152885914 -0.030224759837291088 -0.00546598423988978
-0.011272678363772382 -0.03078435815583807 -0.026314999908208847
-0.021285179259251268 -0.023527625648121844 0.027902399186819537
-0.021304675598277204 -0.02244137582507132 0.009266772183964305
-0.021522000432014465 -0.025045207300463244 0.010775009808719108
-0.021522000432014465 -0.02430610724076111 -0.003930798060080631
-0.021522000432014465 -0.02405706235318242 0.00327771774301
-0.021522000432014465 -0.02402627906671551 -0.00655889192648512
-0.02152200043201447 -0.024871402116346572 -0.010323009703668416
-0.021522000432014465 -0.024953788121789125 0.0003253763811586364
-0.017918224019938922 -0.02364778237058646 -0.02355006295758479
-0.02086090253693789 -0.021989150546062278 -0.022911473082817234
-0.013818482749818947 -0.02594365773084757 -0.024168808942214418
-0.019139391240947806 -0.023105199782869724 -0.02592930830523272
-0.018531881757544274 -0.023185440727278885 -0.021303749624957492
-0.020505008884265156 -0.021989714121532486 -0.01935896773032918
-0.011519952925908683 -0.02779105341773671 0.02028939668912302
-0.014114200615192562 -0.026369890501974653 0.026437608244197375
-0.01226439638984479 -0.027285482617118745 0.018143263581439778
-0.010834313812079615 -0.028368976480509053 0.026757773690203344
-0.010688349418395382 -0.028371375218592565 0.0233091707971875
-0.016291088420042277 -0.02506745993062983 0.027200335839084742
-0.00964427197188672 -0.028796349162863402 0.014955018990934144
-0.012255645381202763 -0.027554832275697112 0.028705358153771628
-0.018285611407557873 -0.02390810453962932 0.029257902005865134
-0.013669171167516448 -0.026573355858962734 0.023769718512768278
-0.010065547020376805 -0.028613111946093134 0.01785523544972798
-0.009285000152885914 -0.0315835296789186 0.012239038269838621
-0.009773033689619208 -0.03167642750542644 -0.0010257846669495358
-0.010610476658309628 -0.03139538936506492 -0.007479382127650543
-0.01027283339502914 -0.031448241560812565 -0.010311382065550835
-0.010162281505717592 -0.03135164929182964 -0.021475801939439595
-0.01324719777801002 -0.030586904896671492 0.007589575934772155
-0.012569759507539364 -0.030726105043966504 -0.0034030427946578658
-0.014030730022604087 -0.029990302176750486 -0.01138013875628921
-0.0136781804043494 -0.03002752547492537 -0.01966253026131787
-0.012374539748909185 -0.030527712408790677 -0.023918784032507003
-0.013111901910587741 -0.030675589161820588 0.011678157612858113
-0.01121642960694234 -0.03142582417394957 0.018097266374188844
-0.011249809990769834 -0.0310632830408077 -0.019040342380204193
-0.011192515160908861 -0.03113308039289697 -0.013852189188288132
-0.012180293699048892 -0.03095080186386983 0.0049209908350759096
-0.012548166970722944 -0.03098601225792113 0.02283943348514496
-0.010728286468845898 -0.031628075886295105 0.02070881571251905
-0.011221775332296284 -0.031344760103593584 0.00971162752497603
-0.012474888153244693 -0.03093336498291896 0.01443356608115956
-0.012477019119051726 -0.03105653642337785 0.027570395335487535
-0.01137709018410598 -0.03104221962946567 -0.016364401222540136
-0.011996852396876262 -0.030965438028948578 -0.0006019424430537285
-0.021522000432014465 -0.024965162963692916 -0.020368033521790285
-0.020469009052261476 -0.025789610212756983 -0.023520698066631943
-0.018028667211459376 -0.027799087777581846 -0.01669201314187553
-0.01837610753824092 -0.027982327906881543 0.01128601360548709
-0.01795530379457551 -0.028096108970253122 3.531758768171751e-05
-0.018129001868940446 -0.027636923432631903 -0.023113989658774918
-0.014633263901624774 -0.030103172730190926 0.016023223337235704
-0.014580810970908084 -0.029778841157808617 -0.007648739294621553
-0.016691946540065034 -0.028529330308005238 -0.020702237521915273
-0.014582509346916963 -0.02956517473285676 -0.022018874860558774
-0.015370945761521093 -0.029427660898285954 -0.004669523326286724
-0.014822759476427708 -0.030142148846927768 0.02505652214974049
-0.014340058335692098 -0.02976198316980388 -0.016920097874186264
-0.01506251273163316 -0.02997791753990397 0.022066332788014436
-0.014840801833624687 -0.029764281871153007 0.00015111541832175512
-0.016172862683533434 -0.028886318237115807 -0.014132721463795541
-0.015351790401939682 -0.029546181640708255 0.002686312947979906
-0.01513834731153553 -0.02971061194735376 0.006578743149147578
-0.014849209299636696 -0.02937825953662568 -0.02563045345072257
-0.01792093766989053 -0.02831365508109743 0.015491471654146684
-0.015677804651787607 -0.029597800910954125 0.01856401456775092
-0.01716547264549189 -0.02843788386610553 -0.008424309633996093
-0.017250922599432193 -0.02859881358071801 0.008443818379346846
-0.01807367435342996 -0.028351568393851674 0.025428281174805785
-0.016228868808098703 -0.029204388125011197 0.011500674703309465
-0.017519160197947973 -0.02829537591073935 -0.00405473031272429
-0.017800083814430465 -0.028447742780280845 0.02091015852119064
-0.01797714935816242 -0.02815290695433221 0.005008123435686195
-0.016703287277338694 -0.028661884314800004 -0.01107666482049839
-0.01586198705730999 -0.029622699092246855 0.028861390560390155
-0.02101970587794886 -0.02181199938058853 -0.0046321364914722225
-0.01759570480147716 -0.024109957076044835 0.018295574976554967
-0.02048953370543848 -0.02228439567676284 0.012440415386892622
-0.016784164201592185 -0.024683227577218244 0.02349460887907136
-0.019469538564529126 -0.022951400457758467 0.015870115108783066
-0.015228290754896751 -0.025426773191500468 0.01283694893979059
-0.013337286903881113 -0.02658321851908877 0.014546274345788293
-0.012578695600398627 -0.026994218336757653 0.012162025062542076
-0.01545922580690259 -0.025432062652638733 0.02112831166630729
-0.01766262348958223 -0.02399077594153773 0.013695079837485274
-0.02047501163006908 -0.022401657967652373 0.018741185286374022
-0.018424913931876598 -0.02348486471933252 0.010701026371854699
-0.019221429032804698 -0.023277276265250214 0.026197203884698952
-0.019346160032582896 -0.023111179852058912 0.02087380198469415
-0.015543222301751104 -0.025297965722154033 0.016252949382320716
-0.0181639647452026 -0.023588253737877787 0.007576441954456627
-0.01112871238436574 -0.027793300146350366 0.0073013258373706095
-0.009509171965703105 -0.028546375854816054 -0.008453254041024146
-0.014339924261884202 -0.02575728539985318 -0.001088018789531263
-0.01644593650573598 -0.024531960357783475 0.001437093724418144
-0.012846413101875016 -0.026697330888184375 0.0023108106658647183
-0.016416695174014874 -0.024649466878299154 0.008738296528138898
-0.013505203350656764 -0.026220526519932147 -0.0037254348841345153
-0.01858497568655627 -0.023291770514463326 0.004319440349178624
-0.010555999542028512 -0.02788217139316798 -0.011223229166131471
-0.011321074435281776 -0.027565874710057205 -0.0009001821799251601
-0.01260301993544789 -0.02688592099244942 0.0054485327093764
-0.010076539255090326 -0.028490126907518207 0.012219352617541845
-0.012686858646110903 -0.026637179083179405 -0.009048727495104488
-0.011130665239332718 -0.027611838356405446 -0.005860557736901153
-0.01394057150014942 -0.026120585414045876 0.007992667058368482
-0.009987932897700834 -0.028180169667417834 -0.014278064158169165
-0.014818453959537266 -0.025559256119794604 0.005354413712099165
-0.010826766988226896 -0.027906336689061687 0.002366264402042269
-0.014446679149438884 -0.025504411802454875 -0.020488956385062623
-0.011351707934213928 -0.02733835832395753 -0.019817351520489433
-0.013241408766936281 -0.02621860307330977 -0.018364369269803536
-0.012358021275787816 -0.026742060418748423 -0.022094952335799882
-0.01597298518573697 -0.024599988642637557 -0.017631667099623147
-0.015924026340809375 -0.024661580809375 -0.014387991202256976
-0.014296290716259409 -0.02560650629684364 -0.01615101961951941
-0.020760382687888615 -0.02184119924700283 -0.010379233167962899
-0.017458899486784297 -0.02382529893520388 -0.0074686340083952585
-0.01741267785960691 -0.02381888715731434 -0.010711531766903065
-0.010937907391751328 -0.02758448431351137 -0.017062389292929556
-0.015300233262394254 -0.02510943079923593 -0.0068300901026598915
-0.01673790231708543 -0.02428590477409185 -0.004210422425645636
-0.018568262665633644 -0.023106935929565132 -0.013408812396927912
-0.014688268152061411 -0.025419417148721552 -0.011840624903188247
-0.01885817437758823 -0.023025350138870717 -0.004766770071890011
-0.012470719026738204 -0.026716562895038834 -0.01329892776073067
-0.02041549262788805 -0.022132698986351673 -0.0019855200417454137
-0.01852454182783197 -0.023106187808654907 -0.01596562380911516
-0.01877066661682252 -0.02312849083488842 0.00016539342578311515
-0.019955903224147253 -0.02708837706699345 0.02907661639091838
-0.02042037485963912 -0.026683139566664335 0.02552324756154263
