0.009536322048997709 -0.023892616475321087 0.027396043693813335
0.005998419348585746 -0.024634783006109946 0.020333767607469605
0.0074209493466699285 -0.024690698567091128 0.030376070272741466
0.0059658652241954355 -0.02419509358795642 0.011192078146315503
0.008993022191711908 -0.023746230824493387 0.02101905901238351
0.007799880477942929 -0.0244575474384153 0.028008914224710496
0.0061511456727762984 -0.024987112686238443 0.028451963280386662
0.01024955895996331 -0.02392611832126345 0.03254223831295845
0.009180975060307489 -0.02417983484040245 0.031009910893309223
0.00691963764034431 -0.024142864528524446 0.016101416924553524
0.007708851873800275 -0.024229823524819297 0.02280992549251283
0.009166163723566866 -0.02409535845863826 0.029199972592029784
0.009632491310111665 -0.023672784360181574 0.02352941864551724
0.007451274523176021 -0.024160526907527357 0.019788734762402584
0.008072388357513793 -0.024268231410871276 0.025866569539285608
0.006848246939593888 -0.024578777826389557 0.02451560590443629
0.007711409901426618 -0.02397253687239302 0.017595887162162364
0.005767390439549699 -0.024789325640327545 0.022028924948301297
0.00623646561570853 -0.024474525184771855 0.01856636526844169
0.006247325403814872 -0.024876443106275754 0.02680442994228143
0.01988531572752408 -0.013214141605667369 0.008813368928400593
0.02188524524249559 -0.011613883323184946 0.008862692537323733
0.023376634556501207 -0.005978443181402021 0.008806905027383106
0.02234455450801139 -0.00971086599983161 0.00884202197192061
0.021316864695479006 -0.01325381573622944 0.015143567242957167
0.021095976742689128 -0.01422740119414312 0.020625953777015506
0.02088333825765022 -0.014891656416678967 0.023640397693400338
0.020123899123782034 -0.015705246134831752 0.02148248565659372
0.02115030361097323 -0.014783735236661544 0.02587542617589337
0.021033508911808732 -0.013411009864067718 0.013124905340689823
0.019380279136332813 -0.016097559237398706 0.016017227908568424
0.021463144603644874 -0.012476888308959728 0.010416994983989056
0.020373978994105934 -0.014668186183647097 0.015816067445726147
0.019591841461494487 -0.01555217356129485 0.013975714647125614
0.020145558626387026 -0.014387660395472523 0.010812313094994551
0.0193583847708472 -0.01563828782443544 0.011952728192645541
0.02130652869932 -0.013739088921641237 0.019045790796418778
0.021358860399172057 -0.014695481329219273 0.027588755626002923
0.018506887936667497 -0.016652503745094086 0.01037895724611811
0.02100861030878916 -0.0004706474940477925 0.008672649201153411
0.019455071451700046 -0.010062882905106927 0.008760450736575054
0.022366710159289708 0.0018112388873830023 0.008676462979015316
0.022326318458505842 0.005741994030632824 0.008623566536056464
0.021732336601080978 -0.006166238286542608 0.00876591675746211
0.022531586208284736 -0.0028441076860374506 0.008742034787469715
0.020459566105509717 -0.002529330515511528 0.008686105259890196
0.021370613370100027 -0.004238011329828922 0.008731425057661023
-0.019055171715140387 -0.013388635637631197 0.008503500372171402
-0.0170745616449288 -0.01650906502733721 0.008503500372171402
-0.021241854340494543 -0.013491303942711261 0.00872854675306386
-0.01773383974316395 -0.018802798179973046 0.02748842770385399
-0.01916997664076603 -0.017411060748194394 0.027842315023502127
-0.017633376643834762 -0.01902812517267164 0.030440280956754617
-0.019836766419407584 -0.016569084522989698 0.023452246869552495
-0.019424383699148163 -0.017049020525053044 0.025218484163421272
-0.018551375175008912 -0.01763229698797657 0.018891912303346105
-0.018747306422998343 -0.0175855441791227 0.022269223646883926
-0.019829615118131867 -0.016354919702740247 0.018307759928296016
-0.019130205181463467 -0.017558226460182916 0.030359131491884822
-0.016859511611791795 -0.019865031394566614 0.032272436872600375
-0.01739216181702373 -0.019063685710376047 0.02577073281077089
-0.01829428489141016 -0.018446306286092177 0.031967510692549224
-0.01901654985926892 -0.016945500901827493 0.013517058193945108
-0.019605287509649807 -0.01664809063339576 0.02001511111103347
-0.015384632749985703 -0.02069877864941853 0.034623999681775965
-0.017065842620557957 -0.019171482326231153 0.03511916687550483
-0.013554235997436319 -0.021850191673742553 0.03453063569510498
-0.019350163712035892 -0.017295668324957422 0.033147889244441224
-0.017692821769137362 -0.01906198518518571 0.033605609840736995
-0.016394249296142305 -0.02012078008254777 0.02899706763446752
-0.015483733839600248 -0.02031881556014454 0.019730902249674533
-0.01526498479713816 -0.02060237882856124 0.021327297797989864
-0.014849847113585026 -0.0210646281852047 0.023127592707451496
-0.017217888649266544 -0.01826454209010311 0.010212970369685104
-0.01847866334773005 -0.0175449667353231 0.01582960454320662
-0.019190471477510906 -0.016665343602271447 0.011332929312047556
-0.01683952079407004 -0.018857870831686593 0.01464027308962278
-0.015162506535035987 -0.0209227057596282 0.02511210457059161
-0.015400896997676397 -0.01989913395161904 0.01179791322797628
-0.015687784806656353 -0.019791279084387596 0.01398119224502071
-0.016426556404241288 -0.019691259834991544 0.022482174164155596
-0.014898281165190942 -0.02016604664693812 0.009235640770952784
-0.01759191727643236 -0.0186244224844409 0.021166590206723478
-0.01437108056055589 -0.021136198832716082 0.017727844328412026
-0.016358594772984632 -0.019880327609420982 0.02461368109226649
-0.014269155465513803 -0.02080463267989621 0.01096066823739024
-0.014359400105278294 -0.02104420931288092 0.016077748785667784
-0.017305827794394733 -0.018593496280821728 0.016746230483785363
-0.013429746444201317 -0.02139518425853532 0.00902675094641809
-0.01671667258328948 -0.018854509620518104 0.012902814491924795
-0.016021980280884453 -0.020312376886180157 0.02700054871370843
0.01385095720148661 -0.02165673662402874 0.025205244730121444
0.01540313076696376 -0.02035882497367352 0.02284043997806181
0.014153903911379512 -0.021672307827927513 0.028749629765693736
0.012963915646134421 -0.022452855488532687 0.027366897819322347
0.01311208911350709 -0.02143076839179884 0.013760032889314308
0.015630316135506698 -0.02089209959893265 0.033269165746307984
0.012902238032189246 -0.021833587681423676 0.017466705854731285
0.013837707406138721 -0.021400261722543015 0.02123942560422815
0.015363403715396653 -0.02051717929168262 0.024765218462341816
0.013417676289533633 -0.021086353912904345 0.01197024533080577
0.014085190794115559 -0.021841853774282924 0.030524208011398067
0.01435098134085663 -0.02088308352961446 0.01914665350315365
0.01661817229351517 -0.020072790955317783 0.031864335347291294
0.014102610358270503 -0.02195965502007816 0.03246966808781046
0.015614967921802761 -0.020440856186937778 0.026378753976867828
0.015085308332494055 -0.020214406869405357 0.017759695732792066
0.016828702377561223 -0.01956379179805855 0.02721880695869039
0.016236464009700323 -0.018631910035461045 0.009297139642396266
0.01413486335202168 -0.020387179027845984 0.010281950911270476
0.015716464054078602 -0.019274731892155103 0.0122009885763064
0.01617044545728228 -0.019277002831397303 0.016854546070106925
0.015982142640603787 -0.01925911283364036 0.014708120576140358
0.01736438351078251 -0.0196710982012791 0.03404463150887857
0.017430159397207417 -0.01921172527445093 0.028854116998309125
0.017334166120239657 -0.018269929193522823 0.015861079680772085
0.015257069516222722 -0.020317734344666806 0.020827604341061248
0.01694556798379245 -0.01918390061994881 0.023562736237799184
0.014658648988487299 -0.02033544262252139 0.014957574099286487
0.016849121806136378 -0.019406064814057475 0.02541457591306322
0.017364498919302786 -0.018515374239283764 0.019301393230366344
0.016877254644030518 -0.019020404289760505 0.020781004780367728
0.017325883268228814 -0.017965046058212045 0.011887087883013112
0.018206884076773608 -0.01806020179042065 0.0242043538165721
0.018178651888343215 -0.018536300312514947 0.030423705993268553
0.018542958215150594 -0.016868301649969938 0.012670849491873378
0.019752806627942533 -0.0168244783300499 0.030459798016827473
0.01792293427550215 -0.018523357381492103 0.026353672090878622
0.020168648974938138 -0.015993792005838673 0.025183884291272676
0.0200427749078343 -0.016674915302321125 0.03278135519576415
0.018760071342632124 -0.017019562961262003 0.01808536064350889
0.018556688162072066 -0.017959639355541346 0.028120267694324335
0.020830733348420616 -0.015723520722222894 0.03147936773012539
0.018687427636693933 -0.017387620627725017 0.02212044794767603
0.018500685007711452 -0.018330899536774987 0.03245316939625235
0.01982829946306206 -0.016498190540832076 0.02705136276133218
0.01848360076029798 -0.017470070253038972 0.020171798334640115
0.01862107821269943 -0.01690972599667312 0.014437493174552396
0.019972144229312296 -0.016469140262253226 0.028833451673292994
0.010774043436196956 0.023131782893156438 0.016622158283682395
0.010322383684123868 0.023501079180373752 0.02031142254673722
0.009856749107440308 0.02394275751216992 0.025314670593890955
0.007829212177950658 0.02438174456969363 0.01788527745789626
0.009479144163835265 0.02348193474598715 0.01325105670229135
0.008828080450393938 0.023919398899003887 0.016701639239365636
0.008889011119607017 0.024104413963770444 0.02082636312077767
0.007926743809936314 0.024085561349280686 0.012828324924737603
0.0120400399190491 0.022574628971209515 0.01568960332870219
0.0060623893752713995 0.024814944061514473 0.012408388431168302
0.01074123246847798 0.02371500107965398 0.02784200629133718
0.00867175972188951 0.0242820460717516 0.022600886690484715
0.01070520905848647 0.02345801398963164 0.022498020013267037
0.006336990434119682 0.02488089475814824 0.01588303708712342
0.006572710594915255 0.02469548862111251 0.014101875398411713
0.007657101092878878 0.024539890503786126 0.019634023425526146
0.008423660702088241 0.023982479047121825 0.014737853350093345
0.012335205238255615 0.022217728264525217 0.011003952542589547
0.009223247372391552 0.024293488245686216 0.02719721262874405
0.011853781250178462 0.022778877311293376 0.018233682521207148
0.010663255439699076 0.022920529972511462 0.011585805478935802
0.007357068407185445 0.024226376453483533 0.011084833426465506
-0.001958218750550459 0.02528428332059233 0.016082125429513202
0.003819054717960466 0.025374826840250185 0.0204299781603046
-4.11245733103905e-06 0.025197364134906593 0.012306442929951363
0.0011562257387614631 0.02537178450634332 0.020152839600932074
0.0027503296477412306 0.025228063673629522 0.013822852406288631
-0.0024511251877503736 0.02524215658823492 0.014175742594910452
0.0008519072076140614 0.025326137772308254 0.01809936147382643
0.001389627808390915 0.025250275679522476 0.014741997227231195
-0.0003420007652188903 0.025246312299661972 0.014473181392273684
0.0029276859613567496 0.025409800748479393 0.021943631243897276
0.0037487386016746066 0.02518678924584459 0.01203367398330795
0.004410757153996954 0.025322595316714 0.01813016877469753
0.0046966398671477744 0.025403971776747185 0.021777372152166324
-0.00048270839514203686 0.025379446659564892 0.020407819889660162
0.0027568863387517663 0.02552941724030261 0.027273337287535462
0.004494373851285658 0.02523681812856504 0.014306164545549994
0.00450798567040369 0.025555388570078018 0.02852545460403661
6.272879599406641e-06 0.02528387959531681 0.016168387973474425
0.004295426447164298 0.025504076337088694 0.026223982478607133
-0.0016599933380037528 0.025175343751143518 0.01123572038080575
0.0017347507324036288 0.02517229004478386 0.011279630451327717
0.0030730511489526 0.025288818132830897 0.016551601652793256
0.0028442849191285674 0.02545298805149512 0.02386675758019134
-0.003392830244376858 0.025206767958010103 0.012546273787438087
0.009740633595900536 0.02313830481781603 0.009885617953575962
0.009208653967560413 0.024358194246977997 0.029066807917138043
0.007849676338613465 0.024767968659704962 0.029817606419880963
0.006902995838941969 0.02500613261861301 0.02822995829942572
0.009840632607433097 0.024217156704986916 0.030928025921700884
0.00578448327742194 0.025234677205366485 0.023995378453893063
0.006026438808478175 0.025055996292027316 0.019142999554958892
0.008064353841030646 0.0247500989139568 0.03179057862033606
0.007827588361060707 0.02464275976739911 0.023944172821050144
0.006067469822043076 0.025365633794936802 0.033492398315207936
0.006003074733019899 0.0252147140189852 0.025925427263467856
0.005120311671865534 0.0256011990233197 0.03178259821423573
0.0064467371218509895 0.024986791694318042 0.021478433474719665
0.0058486974697453935 0.025350465380887855 0.02999200682728421
0.007765153417341279 0.024699006574288845 0.025648843095195155
-0.02544453218298501 0.0007157265374824924 0.013250626613588634
-0.02567594930985445 0.003942388890632782 0.03081695837347507
-0.02549287233035006 0.00375074601716523 0.025779866871707267
-0.02548752468823243 0.0023092349459407756 0.02024437101232985
-0.025731724565952997 0.004204994636509368 0.033117884632831926
-0.02545056543822781 0.0029677143331066297 0.021843662732245434
-0.025390606811851565 0.001676482473671633 0.015584079683094092
-0.025386233263679243 0.0038682050243695706 0.02370551799806675
0.004035044734302778 -0.0238523621306127 0.008753807910449404
-0.0011752133502662269 -0.010511633401232762 0.008503500372171402
0.010568807577611746 -0.00045773264954793516 0.008503500372171402
-0.00554196933830472 -0.015035932423610343 0.008503500372171402
0.013050489755414108 0.0031648952603624773 0.008503500372171402
0.008734185584115822 -0.0011254315136236086 0.008503500372171402
-0.0006506625228043118 -0.01354185151847763 0.008503500372171402
0.015034952862371182 0.0051442846202296244 0.008503500372171404
-0.0038257929538745065 -0.018203891289087486 0.008503500372171402
0.003953101028693848 -0.006971114774641634 0.008503500372171402
-0.00267708021119955 -0.01456279592285855 0.008503500372171402
-0.005491571494364208 -0.02078823454827527 0.008503500372171402
0.0020876598426705886 -0.007564503891248823 0.008503500372171402
-0.0011132260224753741 -0.015479010622119965 0.008503500372171402
-0.008018716959075523 -0.019076261657422846 0.008503500372171402
-0.0039870232788048 -0.01569929832845099 0.008503500372171402
-0.003451426043762894 -0.01296501632946288 0.008503500372171402
0.009509305688494661 -0.0204675551623903 0.00873529828272972
0.011370394998554533 -0.02015875035583261 0.008763818309470718
0.003600823690161621 -0.02165353487000997 0.008649961178626951
0.005445196587958393 -0.02188426771996764 0.008691817979923496
0.01265524261166278 -0.01881055072662549 0.00875476497217934
-0.0012319169610343732 -0.023130996091363674 0.008593010748369314
0.01891909760905933 0.0045944479638052906 0.008568163040277025
0.020256021634205142 0.011403855962837786 0.008506649102615529
0.0108474344905991 -0.014900370510368641 0.008677107009680579
0.013815877316571433 -0.012990876047502806 0.00870090134837731
0.01487760358795772 -0.015194308151093386 0.008744455034895314
0.010299873043693307 -0.01664296558653662 0.008689598017188013
0.01076072862814832 -0.009151642204104353 0.008605940894201284
0.006595202745366756 -0.015764239135916056 0.008620301386877702
0.0051479512185884655 -0.008729093044736081 0.008511985876076237
0.01717106979415198 0.0018953080791846988 0.008573269264808727
0.017413057582509182 -0.014862502735298575 0.008780551463638226
0.01767111553782915 -0.01101447442264737 0.00873791735401728
0.010719408221509033 -0.0072679293084677125 0.008582417265129285
0.00667681113913573 -0.009582250266329735 0.008546538812667764
0.004425240207093287 -0.010171464517330515 0.00851806011215963
0.017498414359466072 0.007716358817404694 0.008507777650356521
0.016473672717855704 -0.0015691818953256923 0.008604294169503268
0.019298298195278292 0.00809992650950906 0.008531604887885545
0.012502665520145794 2.583031015839215e-05 0.008522086371257887
0.018397611477054963 0.006213314180990508 0.00854025599465785
0.0014795427640975408 -0.018595811851589057 0.008573721020484091
0.008902242030401542 -0.011047928904708798 0.008599551803541708
0.013331461638243388 -0.005099113531794625 0.008597423208229338
0.01649346520753351 -0.0052233765100992945 0.008648972109203665
0.018196089246373143 -0.006487403685490417 0.008691263223062316
0.01873666669357532 0.00261833708053916 0.008589267477353411
0.009714512249070661 -0.0051164828273631896 0.008540394091062482
-0.001022984024904883 -0.021136509419154542 0.008564963318856094
0.008516023095834147 -0.00380690904726829 0.008505528187845657
0.015573743453991139 -0.009466610136860587 0.008685933159887119
0.015742335839547962 -0.0031661175007096443 0.008612108423659491
0.01304054164396448 -0.014974300544143997 0.008712711570445376
0.015665075269272747 0.0013240584969165022 0.008556371570917857
0.008013665845926912 -0.014471625855406879 0.008627055946845914
-0.005142038705897604 -0.02278803109422505 0.008519827997919293
7.600178177245495e-05 -0.01739251976720343 0.0085369004127188
0.008460734671779229 -0.019046585284528267 0.008689674531781294
0.007161527274515991 -0.011223202495127902 0.008574132096151885
0.013959988952477183 -0.01685105254094369 0.00875004747673572
0.01177636550976733 -0.01064444176613534 0.008640137571708072
0.008246222885041465 -0.00824017627982131 0.008555081718049235
-0.017880008584633008 -0.003371717755543121 0.035301998257637024
-0.022982697506034003 -0.0001436515562860852 0.035301998257637024
-0.02142535873866648 -0.0013345727303104744 0.035301998257637024
-0.02175538200341764 0.0038591582372887023 0.035301998257637024
-0.0177064300708549 0.00989282841085768 0.035301998257637024
-0.02107255737873749 0.005401453041701731 0.035301998257637024
-0.017452172899304574 0.0047311692761423975 0.035301998257637024
-0.020375123965111916 -0.008622232983748812 0.035301998257637024
-0.018511765967914855 0.014196422774162581 0.035301998257637024
-0.02008231870516325 0.008399915080377681 0.035301998257637024
-0.022277859297168343 -0.0028029672364366306 0.035301998257637024
-0.022170669198773665 0.008877187301294548 0.035301998257637024
-0.020117104985857025 0.01024583132140275 0.035301998257637024
-0.021291501773877772 -0.004256099848213484 0.035301998257637024
-0.022985391653267663 0.005840681885270061 0.035301998257637024
-0.019860826982085533 0.002828577048806239 0.035301998257637024
-0.01946067903915656 0.0011528776119427622 0.035301998257637024
-0.018142274853650775 0.011519156726703726 0.035301998257637024
-0.018754114364014904 -0.012355297140477457 0.035301998257637024
-0.017349508904557012 0.01700838781334668 0.035301998257637024
-0.019329728049067733 -0.004176417867347869 0.03530199825763703
-0.018311201592057368 -0.0016993801197099378 0.035301998257637024
-0.023243725656067943 0.0019588311015280003 0.035301998257637024
-0.01764953866701864 0.007635543052288002 0.035301998257637024
-0.018814511774929276 -0.0061931517520080305 0.035301998257637024
-0.02164874085478185 0.007060645487012383 0.035301998257637024
-0.017905585989637086 -0.009115321882620615 0.035301998257637024
-0.01975561382602218 0.006518551257834468 0.035301998257637024
-0.025503993642713736 0.0015527472700484868 0.034927448289860406
-0.025403302765645744 -0.0028622027376715787 0.03488095806800904
-0.020436898209703222 -0.011810520081284016 0.03523572136354694
-0.023421821579057873 -0.004854270701483165 0.03514652160800927
-0.02405536568838141 -0.002023444976768975 0.03520315288584259
-0.019813374145681073 -0.014844706078808 0.03516614188605269
-0.024770329199211995 -0.0005104256772420347 0.03517324129287619
-0.0223140585634859 -0.0070257382121799074 0.03520250756765593
0.014807084495347563 0.021037592090080423 0.0347078620053342
0.009487694390845496 0.023601992662705285 0.03438848421222217
0.012738729140531067 0.022157535136504945 0.034313120632955635
0.015257282388320907 0.020539897971165864 0.015200329790329311
0.014020106171111307 0.021368843435697338 0.009849240488785023
0.015372706446824447 0.020156885604323514 0.009711814601408264
0.01574933115364986 0.020298417280328194 0.0190564131222153
0.014647257031160387 0.02088616797483579 0.011338208458168708
0.01728141327378146 0.019020311425797506 0.020755235959408203
0.017220196614322128 0.01876928871834301 0.014769798369964721
0.01596726246121399 0.01973618134995503 0.01184592678017152
0.01808570688985454 0.01793131663097857 0.013458414340489432
0.015669730625359844 0.020802424899466803 0.027540189244789383
0.01607387727886703 0.019878438086623085 0.0164929951014544
0.018033043363792682 0.017873800021910916 0.011412751914220826
0.016714252684624804 0.01900965573465702 0.01064942593406832
0.016134236754436867 0.02049380433127132 0.029600468587645024
0.01496676338409197 0.020919356520500743 0.01756378444097855
0.01648499025907823 0.019816397792862147 0.02245172394648761
0.01701710294028325 0.01915950552906734 0.018869584345391533
0.018340191900633067 0.018321832462909908 0.028240413089635246
0.01801035013835965 0.018435548212203848 0.02304749173333069
0.01725899835894334 0.01928015159881366 0.025486603461159756
0.01866427565072739 0.018081080474295155 0.030198906209934415
0.01856696897609592 0.017724045775496952 0.019149895105784832
0.01893878803358707 0.017646045084026833 0.02622656801432286
0.019854328537001403 0.016820147747424227 0.028207454494265594
0.01766644907275531 0.019114433353406922 0.0312862190726141
0.017316226268627114 0.019528829410166298 0.03292768730151831
0.02055550260037894 0.016250153376029766 0.031248054882559335
0.01841477252591788 0.017802405231836172 0.017384569706312178
0.01971340853625385 0.016559316848333644 0.01844956847882105
0.019097842188571898 0.017262971970582915 0.020732716177263938
0.01976083211188204 0.01669217155970838 0.022831751951418067
0.017033510159450933 0.01961914660586144 0.028302439087989347
0.019064278818934955 0.017824448373409678 0.033603470807822285
0.010397257256944625 0.023716978403379833 0.032731913233856394
0.008043773123206923 0.02457637011926538 0.03341522950555956
0.013979684115659235 0.02157457412361675 0.016009804730915643
0.01250849713317203 0.022594041643180816 0.023443162036385367
0.011262099199564645 0.023386115698845474 0.02615472238114595
0.014426091672402209 0.021581091167382972 0.02956829507374237
0.015545834121523548 0.02098446910326001 0.03288814970093412
0.013671708610838747 0.022091080177039805 0.03274080172341446
0.014516948556639079 0.02156354764226332 0.03138308187964861
0.014079832445186392 0.021664997106167618 0.023505553482498526
0.013749949858857451 0.02177225998301345 0.019097650242501665
0.011983512447167244 0.0230111536088991 0.028765320562353817
0.014044213542622953 0.021641826322878546 0.021289665286435673
0.013690386115166214 0.021677700471177792 0.012597787394464767
0.014406539623948767 0.021520394478918688 0.02594984690629231
0.012708375139867549 0.022543196792565955 0.02682220706786473
0.01218898473435471 0.022721084579526884 0.020332973438300542
0.015284066091132142 0.020971198647628704 0.02446453459689373
0.013206348166311799 0.02200298415328114 0.014536111462216374
0.0116066996772875 0.023273843319393382 0.030748076100541456
-0.023309396360368505 -0.00968858624480606 0.03444926601894016
-0.021662395722856068 -0.012803270677199824 0.034212388256324486
-0.024911973038145213 -0.006622152490345008 0.03471338762941702
-0.02225896101009112 -0.011396687326757023 0.0345600289612841
-0.021073658432008487 -0.014623579301780841 0.033462839127080535
-0.021368865537978524 -0.01371834169642618 0.011143566220394627
-0.022421858713684004 -0.012991819577775126 0.024118031204920752
-0.021223431790940498 -0.014470435064126602 0.019140947491546073
-0.02162646294552976 -0.013665179628596803 0.016188601383562477
-0.022550530827787053 -0.012229351008330967 0.015584579921293626
-0.022366416040996793 -0.012115822996533564 0.009702780004811215
-0.022451471928398706 -0.012210636929047895 0.013056365843501522
-0.02091718309548657 -0.014810347102316452 0.017299280193744156
-0.022775299124323155 -0.012580651804950977 0.025959963459508663
-0.021556429995513018 -0.013547449358797542 0.012831601752512214
-0.020820556158068982 -0.014770400532590195 0.014507320655733253
-0.020431531664134778 -0.015127809993985586 0.011050717479894605
-0.022588431155162618 -0.012538169221433585 0.02108281701973847
-0.02037857100458202 -0.01618102984038169 0.02900062341411762
-0.020090144131655614 -0.0158763085824193 0.01540766146221235
-0.021492185700699683 -0.014369937606275016 0.024151800947181702
-0.020071277395422225 -0.015758328079955284 0.01263701245664806
-0.020600664700050876 -0.015450443256053745 0.02094512911813724
-0.02198284273099584 -0.013950338914058788 0.029276102303935868
-0.020400615725457108 -0.01602829129421997 0.026661628436029164
-0.01973189047228863 -0.016054752075979214 0.009211284944662302
-0.021901733971781932 -0.013913612202791633 0.02639321705874573
-0.02148325336109923 -0.0142813497461328 0.02221196533740006
-0.0206570761308513 -0.01558659057114051 0.025072626333768794
-0.021486933756050448 -0.014764889488880856 0.031589726901914285
-0.020338007919581468 -0.01636610182584365 0.03146278692146524
-0.014965403219324054 -0.021186561934917185 0.028430977135290914
-0.011385691091865435 -0.02313748413176507 0.022688210879123306
-0.01291334338791042 -0.022514573880154418 0.03175443924560448
-0.011602494902238965 -0.02317426392487083 0.0279249986346347
-0.010131931625372452 -0.024150341441430287 0.031076213269985102
-0.011616828005359257 -0.023237540600969702 0.030191157946481747
-0.012930383256629116 -0.022023952528088402 0.016593398323220446
-0.011392939288788137 -0.023073955831628336 0.02081986999208524
-0.014314980755419133 -0.021718145008284357 0.032976082729606386
-0.012771850007338702 -0.022338672069580075 0.0235436371376037
-0.01282391938616954 -0.022030087262326685 0.014785309775732256
-0.011878649655743357 -0.022922559151009075 0.02517461976399792
-0.012993851127494644 -0.022150441270801024 0.021777997736442727
-0.013619645718251219 -0.021996746063851703 0.028693995714490265
-0.015510195849251016 -0.020972089414473788 0.03190621554701973
-0.012332361112832299 -0.022468547948640734 0.019378832467475397
-0.014041294234280893 -0.021460216077516824 0.01969152446565496
-0.013591722423303167 -0.021924031849439987 0.025874523186444558
-0.015211562767711627 -0.021096823212456907 0.030227438485593908
-0.01351740915687403 -0.021571276121587706 0.013346226400352273
-0.010234490156553049 -0.02403311030764319 0.029305261451437654
-0.011070531452029912 -0.02357214953726392 0.03248479333956376
-0.009968253739674937 -0.023807292393183428 0.03435737815117172
-0.008370965326586335 -0.02465592275262855 0.03416172509383692
-0.01023966679747974 -0.023907783329216482 0.026847668854219405
-0.0078619140503162 -0.02407225709470447 0.008672707895833444
-0.009319659999161775 -0.02397372571462753 0.01986100319093731
-0.009508396246757199 -0.02349762634838668 0.012129838644184444
-0.009047180485452149 -0.024268044627779525 0.023235860418176355
-0.008037629526014353 -0.02425743316309251 0.013925343877613367
-0.009870464291136714 -0.0238101129978028 0.02158456579220667
-0.010800562449689697 -0.022821883696639077 0.010389871783152815
-0.011305097783704575 -0.022932332650978292 0.017126060194919166
-0.009128866836615141 -0.02356415909518344 0.010026834167118762
-0.010912048334120666 -0.02320036836466805 0.018893355229806126
-0.010739835952190021 -0.023036596158789068 0.014096349578698944
-0.009910185648981822 -0.02348905987355118 0.01558192519882538
-0.010470479846222716 -0.023656181661499933 0.023943535253287757
0.022930070975726014 -0.011121385511349518 0.019941146546775743
0.02302602530289316 -0.012070711778586155 0.029756471809590214
0.021808648924104102 -0.012781530639740232 0.017039631757385064
0.022522751009943245 -0.012040757015897482 0.021660650362740112
0.022869820439356623 -0.011685036694367356 0.023944367527690694
0.02210568732465797 -0.01393455920322938 0.03177040370068692
0.022135694395494742 -0.011891870540022453 0.01433114337273362
0.021941175745980653 -0.012040279224080876 0.012604506285957738
0.022380408796863552 -0.012758564887596585 0.02573749648220877
0.021845241957803404 -0.013420328194111425 0.023208915765528117
0.022307482150466275 -0.01313684996372523 0.02791849136405128
0.02228092267544855 -0.012099434193192881 0.018411068751784273
0.02189284777276632 -0.014091920457864789 0.029837088724549814
-0.024719222282201733 0.0019815184397088174 0.008561063877343907
-0.018226049615773957 0.016081256187759987 0.008848944092213519
-0.01897985176287096 0.014231810238431434 0.008806159449810641
-0.020482008633668065 0.010011857748914351 0.008701600053178035
-0.01997847496297534 0.014918089595844335 0.013474308261061834
-0.017631761313091954 0.017711753328602788 0.013325440902369073
-0.020901748229949037 0.015316240956266425 0.02930252017052302
-0.02079776948392463 0.01493565576024504 0.023983789882721807
-0.01730900989841474 0.017865255228397534 0.010874960955823382
-0.0206979919127188 0.014540797813993964 0.01856767692423253
-0.019655147957955553 0.016275522462708636 0.023696699534829307
-0.0204946623887035 0.01407186386764394 0.011066449234710259
-0.019449994723030384 0.015353055922553696 0.011395762855604563
-0.021133181734484967 0.013117971907541102 0.009066205632382208
-0.019702013941007453 0.015430802010532135 0.015390465765797631
-0.020965368082725346 0.013800484910427367 0.014139885676678328
-0.019336291568084855 0.0160776241347337 0.017594261691810047
-0.0173027458402466 0.017684693260467253 0.008894296242691838
-0.01841558452759922 0.01649619483167623 0.01040032477117714
-0.019273074509647346 0.01639895076135392 0.02018192030543754
-0.021356411286045762 0.014454348353255776 0.0259543442893118
-0.02103468390541037 0.014381346078023485 0.02113116600499763
-0.014736588453055666 0.020387670002172564 0.015838206658846773
-0.015762474583647355 0.019244148970496533 0.010214755696329285
-0.014622377540378852 0.02065348956099642 0.018840149069100445
-0.014684058166608546 0.02028891268634066 0.01342781482806267
-0.013956326254498018 0.021276215602931692 0.02043796023249608
-0.014414293242552669 0.020332709808675593 0.010499954350011595
-0.01633402437772835 0.019030654699087747 0.016007234774577057
-0.016837395082182103 0.018977137014259144 0.025856980786862677
-0.01651190510985588 0.018970379002833937 0.01846016562256426
-0.016576504216868394 0.01866125248878968 0.012213987233802376
-0.013090128826935169 0.02254735502237858 0.031342229384069636
-0.019185280757151695 0.016966071496148396 0.028032815030445146
-0.017920216095832622 0.01775521830831149 0.019544597822727487
-0.015054204221640385 0.020746127175843367 0.03020775741597759
-0.017036630057225083 0.018888065866307435 0.028068692362145705
-0.018032283714873934 0.01783131868977624 0.023924408236514556
-0.019624559381367975 0.016511999280988548 0.026506528403536473
-0.015541608485147112 0.020104328081819757 0.025085849832417313
-0.016278148122190344 0.019639132402832174 0.02988513175502528
-0.01958694366708229 0.016831630753103153 0.0336130056621258
-0.01635627567894054 0.01923042473394798 0.02146511380465064
-0.016046920620613112 0.019194980503142934 0.013713875919173935
-0.014285658105572332 0.02150701336381099 0.032044667824199444
-0.020965870364407307 0.015572993056209782 0.03296455918694126
-0.018141806122540703 0.017465938297678844 0.017278201868655037
-0.020580280665755575 0.015851860857038637 0.03132992760064328
-0.017432576920604098 0.018013966502734 0.015143608007631615
-0.01768381433267838 0.018435229107865853 0.03119053842259832
-0.01437541436540291 0.021239001753951582 0.027378795315909043
-0.01849744617639462 0.01764941703064898 0.02973561514390124
-0.018743737024459674 0.017119158154414893 0.022030195717904984
-0.015792001602522723 0.019666885884404482 0.019777758388748883
-0.015710383396900802 0.020068921121895743 0.027954461378829593
-0.014515485693340532 0.020949605690385304 0.023299044017069757
-0.01819183463472586 0.017761165965581284 0.025724832227286096
-0.014343074277515404 0.02119795321541851 0.0256406105944092
-0.013073118489280583 0.022477766909609127 0.029235383529642188
0.005645640290772565 0.022753182999094103 0.00874175862557987
0.01274302813225311 0.02033115014112521 0.008641427640786398
-0.010518140054035644 0.017077371093285765 0.00872399154608491
-0.0009768991839955517 0.02316069556101322 0.008770594468313884
-0.004415272156454215 0.01108163476990918 0.008563633008208237
-0.001502339075605305 0.014532573570050002 0.008608514832723594
-0.02004905238890518 0.00360315892967658 0.008535152955762163
-0.0021396671559296737 0.01714895966366723 0.008663542450209545
-0.0031978659531644816 0.015147059488767376 0.008632845671894505
-0.010056413450792603 0.008442537457236107 0.008554498360072181
0.010960789057650078 0.016065741374244987 0.008546037059280849
0.0028625750535708388 0.02175168104146575 0.008715160808257644
-0.007364223088279565 0.007653844987735981 0.008519462223021336
0.005420777712282901 0.016545010467437518 0.008596136132564762
0.0061520895503940605 0.013052979213566941 0.008523572465791036
-0.011072717004693375 0.006878425049306204 0.008531913024826658
-0.016757994550274827 0.004960308372923014 0.008536971710730824
-0.0010884524545860348 0.020283773578061107 0.00871608170611048
-0.00559417554284037 0.00889996990888456 0.008530369258099376
-0.0004350277759623813 0.017675385453205596 0.008661089145616176
0.015476030218431112 0.017971699506621253 0.008549378392111746
0.003527382039256323 0.014098573290012214 0.008563051990234348
-0.015325148603158655 0.00594137350501937 0.008545268737276714
0.005175926798202455 0.014773867479535156 0.00856387601422832
-0.012160623282409522 0.014941293105554991 0.008695025461218303
0.006877894135460232 0.01774163261484034 0.008608400178053244
-0.012149231365054134 0.010398192345674006 0.008607557481693017
0.008705447014648794 0.014749511513891315 0.008537362660148505
0.0012195815386193494 0.017548238372696607 0.008646433924362162
0.00433460370717761 0.012330754569522094 0.008523092404292124
0.00033218193454022675 0.013457846133067374 0.008574305854588656
-0.006801388184800396 0.016507713025560606 0.008685608009685562
-0.0025778922374564356 0.01215929884381517 0.008570802940170302
-0.00560217798858071 0.017868279876151295 0.008702928567111051
0.003958652925331296 0.018010976581797816 0.008635122390569768
-0.010126627906370832 0.014828656809372736 0.008677849797486124
-0.007367536479467383 0.018211466248792562 0.008722556414735079
-0.005837768475995282 0.01960404995408228 0.008738053560143033
0.002736811772876296 0.02003976419351034 0.008683161104230877
0.01221967416194333 0.01739554614244649 0.00856232557536408
-0.004654168170662018 0.024573715654746676 0.009268677909713346
-0.007143537510818736 0.023457858598908532 0.009095223636564564
-0.008839012958293185 0.023073765477939434 0.009746540112138897
-0.02073720501680889 0.0066119634563338555 0.008609121666300925
-0.016187486168488543 0.015119674378282513 0.008766201174400972
-0.016928381210165166 0.009801504086510059 0.008632025981509686
-0.012727558081356928 0.018973097686270958 0.008813407080108481
-0.01528652508503385 0.01256131950685047 0.008680141169817374
-0.018898126738975986 0.009574548709129672 0.00865946150250308
-0.022194402277763516 0.0056622778906752335 0.008607830518196694
-0.017226879029301628 0.013286529605579708 0.008733366181501315
-0.013715701268607652 0.02056918086363288 0.008874387328681831
-0.020200718635531946 0.008207719844092356 0.008644006362760397
-0.010291402506720986 0.02027938606379876 0.008807795139128861
-0.002344507157517687 0.024805495446012148 0.009628992010265916
-0.00020505335045795136 0.02506770708971791 0.0105208642812571
0.0046594050064943 0.0246256225032941 0.009810682718166567
-0.023365623739049175 0.007960892041807915 0.00880104133442339
-0.025044033370472188 0.004798883939205463 0.021359235422434546
-0.02514359208990689 0.002315603958095054 0.01370795791938573
-0.024592498096361687 0.005939667201918347 0.018077824539993247
-0.02508042466146535 0.005577756397932475 0.02489148665649324
-0.02429710690865483 0.005651146988411022 0.012047943164036158
-0.024761526114149907 0.003781314993891666 0.012809327499145338
-0.025205418884580322 0.0031164409229689867 0.017748624378534243
-0.02442211368565616 0.0055507405932774916 0.01376476532883237
-0.024231396449627 0.0053918367918025095 0.009974349942252263
-0.02455360620250501 0.003838113047568181 0.009540239088401367
-0.02430277705319906 0.006491985177460131 0.015298209628227057
-0.024779522697778597 0.00323030431303025 0.011043027334918206
-0.02532837041395124 0.00529610665775455 0.027987153370832313
-0.024696257774546742 0.004876320136587377 0.015825300599434076
-0.024370987833067456 0.007095205546719154 0.019988766161078104
-0.024988875907485015 0.0063420507194127595 0.026322345127062028
-0.0244979899908334 0.007162998680524998 0.022775523486059695
-0.024038645438076947 0.010033117706891739 0.033478369374954645
-0.024591801953933137 0.007167616579067166 0.024530751263813957
-0.023844539147795663 0.008839313061124352 0.021946576925018873
-0.024560036008242678 0.008329632731006589 0.03169857218185289
-0.023979477342250415 0.0077817263080712535 0.017371877509491998
-0.024096504989980103 0.009051518429180831 0.027993741927294633
-0.024239431768849823 0.00892791108919793 0.02979640079504286
-0.02393975942453537 0.008842630604648764 0.02371901730045698
-0.024307362278198137 0.008150031248851202 0.025855893364257268
-0.025025012113189027 0.006839006491372958 0.030301748473987505
-0.02476236047418902 0.007329683580873399 0.028747042695227633
-0.021597192868534294 0.013502975142222089 0.019604167274404533
-0.022964815107831403 0.011581875598624261 0.025960044423386515
-0.021573738978012024 0.013349298875440003 0.017293557184376404
-0.022497401637642585 0.012055135518327813 0.02162518112160721
-0.02166253813632153 0.013665718324205108 0.022910629393356488
-0.021556973923481854 0.01428586639891294 0.02798666633162255
-0.022888817579516135 0.01222990998347961 0.03199243278753204
-0.022814593632902724 0.0121749079589719 0.02976861563108031
-0.021917199139349156 0.013356831902582023 0.02467026548886314
-0.022595503938064608 0.012936350645856354 0.03410264533994136
-0.021826476768458062 0.0142173714148086 0.032897167967879476
-0.021636847195795353 0.014360716990348896 0.030564512738891367
-0.02227107520673522 0.012923806406051494 0.027070644543297384
-0.019940502966697696 0.015489604999044074 0.03481777226402404
-0.025390703464903092 0.005993224839307492 0.03179960565363676
-0.02090115844641669 0.013926471819669557 0.034773775990505504
-0.024749783430550756 0.005478657670517171 0.035107901691949245
-0.02171277807703106 0.010675985987825898 0.03518826608921181
-0.020951720764485218 0.01226545060691004 0.035141180430950214
-0.025474122712481402 0.004009169171286299 0.03481743337271473
-0.024575182796070308 0.00729158105125891 0.03473941091054302
-0.023138500955904 0.010714602900001199 0.022330475931286207
-0.023773473461915058 0.007786727251675911 0.013665791797398673
-0.022465204937858134 0.011231566862429798 0.014240083322863938
-0.02288724967498693 0.009408751924049014 0.009303889991085612
-0.021950865894805407 0.012215146502632434 0.01199035507896154
-0.0223410207093655 0.011791123303739354 0.015847464853634287
-0.022234966717349786 0.011195955473478476 0.010055345462066443
-0.0233251433170079 0.009628446109400522 0.01827760157785794
-0.022681362996535774 0.011282363148837904 0.018284838525245626
-0.023727965965744946 0.008831207468393028 0.019859846904502605
-0.023365261709466408 0.008442576187309416 0.011047076500555518
-0.023091967014271 0.010583253475638939 0.020655704331799106
-0.02373673050783652 0.008174956416766738 0.015628187914172698
-0.02363492743954091 0.010478581351507723 0.0292647133627742
-0.022938415439399104 0.010243941607219746 0.015757735191011542
-0.022772664963963313 0.010113471784479263 0.012045118033845777
-0.023525599523825835 0.010150168008503309 0.025197638075446158
0.010962956596798313 0.022635121315057537 0.03493770977395723
0.004476925312430049 0.021812423331846912 0.035301998257637024
-0.003454732577210004 0.020885431938869162 0.035301998257637024
-0.0035295339643800733 0.023172217277390095 0.035301998257637024
0.0025984240431406597 0.022579316558369644 0.035301998257637024
-0.007718847705472194 0.021130534751875124 0.035301998257637024
0.00648005141468995 0.02120069460966594 0.03530199825763702
-0.005027359590538719 0.02161022201733355 0.035301998257637024
-0.006045394796166783 0.020202317533054435 0.035301998257637024
-0.001750812831037392 0.02204265429361963 0.035301998257637024
0.0009996962537793775 0.021993592508358258 0.035301998257637024
0.00641052664085422 0.02320853838895829 0.035301998257637024
0.0021471076968834144 0.020633146891695896 0.035301998257637024
-0.01383916958336858 0.02020401406485972 0.035301998257637024
0.011045748613021543 0.020516686745358562 0.035301998257637024
0.008303539768743174 0.0226550091993184 0.035301998257637024
0.004135784433971241 0.02406803860578103 0.035301998257637024
-0.010439947314527506 0.022242956829212058 0.03512290853817525
-0.009451102382301131 0.023555707269401184 0.03493906107924349
-0.006705156141160866 0.02254379241440565 0.03525685035270146
-0.005227468530116296 0.024770077779654634 0.03493506244612119
0.0007908699031600173 0.024876747041627047 0.03521814689264563
-0.0010185346439615635 0.02477250066236103 0.03514587477942062
-0.025549655458810116 0.0007939249438249915 0.018756038874176473
-0.025535824256244295 -0.0022065866695905444 0.02896981135403688
-0.02568893251435364 0.0017069951549315951 0.025861196700854946
-0.025703266176999053 0.00033596366442883367 0.03208993541759316
-0.025834599791556452 0.002574882521475765 0.03361910665837363
-0.02540587563282567 -0.004418274963287871 0.02744318246712557
-0.025432647061227446 0.00032886743014480063 0.011653540191454542
-0.025534914970833503 -0.001373349388242521 0.025774274761759537
-0.025494046919062867 9.427955000339543e-05 0.017176633940044837
-0.025498263754359936 -0.0007885405797087474 0.0208083359337533
-0.025557835154990653 -0.0026777454481677044 0.03240223432113383
-0.025699062154806978 0.0014447483854318189 0.027611254561252702
-0.025471492126218274 -0.003989609735713536 0.030796216516163117
-0.025432757388243785 -0.0023741038137951383 0.02180496888452629
-0.025438457842069613 -0.0032624185013518277 0.02556947427763455
-0.02553639097910883 -0.0005879412979158428 0.022938585903140095
-0.02560829936422703 -0.001294990634764648 0.03102923239403422
-0.02546875663514196 -0.0022295201758771614 0.02398451312329041
-0.025661517546702976 2.1869513681117272e-05 0.030111748061344448
-0.025598246110857363 -0.0005685550896982138 0.02754305015254827
-0.025400611350924914 -0.0010048013109357776 0.014235825077879596
-0.025426661554552827 -0.0018101376567592074 0.019227706868448748
-0.025679015533958124 0.0019421227999527936 0.024228985643737086
-0.02574431764203517 0.001767995251917584 0.029820268778600514
-0.025329164099737195 -0.004456554580210373 0.024236801530379395
-0.02523331036099232 -0.0040597278012243715 0.02118236459401332
-0.024499305081733057 -0.006798517495337254 0.01947336064283025
-0.02484028298544988 -0.004957111938369579 0.018131618975687717
-0.025122236947553382 -0.0019762518811032312 0.011550118946268097
-0.023948956754035987 -0.008058973053742275 0.015215972619059957
-0.025283740769887056 -0.0029481640409880975 0.01783468681161918
-0.02386861624726876 -0.007666287973874688 0.012430412898384825
-0.02485928913311981 -0.002573781017608034 0.009498380556992451
-0.024903398965538993 -0.0033814328661614414 0.013249475186120427
-0.02498872166008876 -0.003626372623759322 0.01556197083364494
-0.024634372877980037 -0.007635067740666394 0.024818266239880274
-0.024424198156489177 -0.005414649636354547 0.0130537848740187
-0.025310468464546626 -0.005771739926078824 0.028866820668287472
-0.02336207108885903 -0.009795847401603072 0.012149714564845576
-0.025318465745094408 -0.000473117113541411 0.00911397037815859
-0.024339752073637352 -0.005271337290655281 0.01113696840982532
-0.024483023713629377 -0.005925684049548149 0.01593211379175584
-0.025045427073164504 -0.005251590186810437 0.022586726446382932
-0.024856291775365455 -0.005504050817729388 0.020445472686806687
-0.02403288021061834 -0.008340190023632722 0.017641751082771495
-0.02453736430855069 -0.007526647356693406 0.02282723552493912
-0.023266656841068666 -0.00969729243624831 0.010221740210893945
-0.023765654228836988 -0.007635036693400063 0.010631743167895145
-0.025122580058450875 -0.0058090213327520205 0.025938454083320503
-0.02564452915997795 -0.001005154266655956 0.03364765782608133
-0.025414132426632607 -0.004999373697833107 0.03456947365637993
-0.02539489855283721 -0.005726702132578889 0.03227891179705542
-0.02349092166770888 -0.011020424346582559 0.03289183769460066
-0.024503792003254823 -0.008252198017999307 0.03347655919847942
-0.0244651779017504 -0.008616151370093418 0.03190099300048264
-0.02466428213241209 -0.007985826931654356 0.03008372843841555
-0.023938347485726513 -0.009209248428739991 0.020214155566581665
-0.02281860611934434 -0.012887315212974643 0.031890905783642884
-0.023222879982312393 -0.011090251075582966 0.020628778196120155
-0.023330616295066206 -0.011235356097379237 0.027000193236120795
-0.023437332073483166 -0.010780528073300438 0.024320851686164727
-0.02319420969737166 -0.010711833392224432 0.01382937503801758
-0.02441052147771864 -0.008409070809581108 0.026567287353895425
-0.02487133329793661 -0.007336474798333285 0.028386578260825544
-0.023059828718344666 -0.012140925031611665 0.030065815578439726
-0.022898011252369534 -0.01177287203527074 0.018241452060259757
-0.023527289914178896 -0.010090355412825056 0.017454575938493283
-0.022920511620579044 -0.012387611283703729 0.028350360461896266
-0.024196193239034353 -0.009071847151416774 0.028182925883288336
-0.024066399727282715 -0.009206636197417212 0.025157318928124544
-0.023954445356796965 -0.009369399323993704 0.023245990376071037
-0.023717037383068695 -0.010484413639843058 0.030756272046546185
-0.023622763049040728 -0.010577337011622882 0.028483858633845505
0.024721883356747625 -0.004834939990663994 0.016483538085837565
0.025499924215529067 -0.0052289656866765935 0.03077136983693457
0.024470377260737947 -0.004693679708455195 0.011823221331844647
0.024798531111833895 -0.00590369597431482 0.02098289032633796
0.024509497668099414 -0.005079921814775753 0.013641620463206187
0.024071657113070404 -0.006419056251651227 0.010286803834987021
0.024593309251939935 -0.003395470999856714 0.009996706032715033
0.022919543659179312 -0.009715764882793822 0.011875296611481078
0.022667736330664937 -0.010620611280303666 0.013380052256435817
0.02241798402181412 -0.01073983094455231 0.010612146939796823
0.023561146872670843 -0.009529439451542878 0.019642551248587162
0.023494981575870204 -0.00796760521707783 0.010186316845946597
0.02385480975241332 -0.00832382410666667 0.017064522296159276
0.023864931548981914 -0.010519081438904516 0.029220784375608412
0.02372810819417421 -0.007763208942393652 0.01226023236702119
0.02371789595053558 -0.010059076279743492 0.024688779259995436
0.023801180528893087 -0.010317246407907514 0.027242745039654032
0.02317730497858876 -0.010229381406768255 0.018217266869820694
0.023236418335891594 -0.00954468312482666 0.015278584351567665
0.02330925368739456 -0.010625503406807634 0.022192925382310467
0.023344477714116692 -0.008956118170794796 0.013536525381922779
0.02494142795186692 -0.007161921081857812 0.030304642853884324
0.02468423649201322 -0.006628785110182623 0.022605912009420092
0.02430814185652637 -0.007214986785763922 0.01866324191222779
0.024321093568844872 -0.00675347921753348 0.01643530806741894
0.02436869798650818 -0.008872417372433342 0.028680783011612337
0.025099090624453636 -0.00700006619005467 0.03240674708904837
0.024039152552944743 -0.007424219179132684 0.014718462579671462
0.024250246681558944 -0.008223804455998419 0.022976220207756432
0.02469781777991483 -0.007223552290883946 0.02604723528808708
0.02442353844146491 -0.009289798043242762 0.03194899024260371
0.024980380540055233 -0.00592619227781778 0.024419615717499666
0.024311972916159708 -0.008365927615288215 0.02489981821780648
