-0.031538587741976744 0.004194637738523794 0.006115422817613147
-0.029711031498313608 0.0048944260724308585 0.005671786859809671
-0.04185146683727814 0.0045872194156341955 0.005914175066580391
-0.04393824405149056 0.005412464498850833 0.005408825701099296
-0.0367401793463214 0.004403114358055876 0.0060073970591097165
-0.021058499292489277 0.005069956107685533 0.005526084249284315
-0.04772078053406904 0.0058048147264026 0.005180287729547369
-0.03301350650729567 0.0049445578526436575 0.005654429387734709
-0.049157595207404085 0.005558282050105076 0.005339910268216494
-0.02338254221557806 0.004644151114403751 0.005801118220922857
-0.026606781556855752 0.0037025707797076167 0.006401254747899493
-0.038858599814861665 0.0047838908799182215 0.005779078279347101
-0.02820099043888935 0.0034853975740782306 0.006543247973776322
-0.019737994849726718 0.004890083073301942 0.005632595086591139
-0.024826013574898723 0.004861928707717027 0.005671509969874952
-0.02701690578003807 0.004753441389877775 0.005748300126197167
-0.057023390206737204 0.006197494834890481 0.004974734447082078
-0.0187175334442114 0.0032959951275782834 0.006393907046612125
-0.021754671143797855 0.0023759907802158894 0.006833919317174676
-0.016496547036118265 0.0039162320069946605 0.006092032026532229
-0.017312965721095638 0.0027711885492815135 0.006550258054623574
-0.0135944048445597 0.00312503803341115 0.006304072307379253
-0.015346746546839382 0.004342829312292156 0.005895801508436997
-0.024249028478258633 0.0026318004506625447 0.00681230967347384
-0.007254286175014063 -0.00028404192957711376 0.006379653545213794
-0.010623045493440477 -0.00037982674965555616 0.006563317564985904
-0.009349293033909219 -0.0013193563403947422 0.006561511475078859
-0.010803695957901273 0.001727889309903617 0.006426703941523653
-0.003080209079435213 0.0005186393104784814 0.006104669087436088
-0.0012336639857200293 0.0009466449759585537 0.005977966081515687
-0.008972227955841695 0.00011917239505050486 0.00644197854729587
-0.007580668791260346 0.0013352684178373647 0.006284554186831347
-0.008598187267851005 0.002091488764690761 0.006285602462269967
-0.005816200254417588 0.00020699242225058993 0.006270045435142685
-0.005393346439705768 0.001676015105051491 0.006145992528378387
-0.023074995154982837 0.0006666098067952584 0.007060306089980214
-0.015411882275868267 0.0014586889120913342 0.0066599100740604425
-0.012135442394228757 0.0009086281068087461 0.006549502641096687
-0.021393371545559505 0.00047329966617528567 0.006997551976958532
-0.01463358946448512 0.0023496414407430475 0.006563808314170275
-0.02030102399731877 0.0016293793481375772 0.006869127310348104
-0.013961684965990146 0.0007134369956099289 0.006645362943113987
-0.01684949046950783 0.00156009455489791 0.0067179255295680175
-0.012381140510181493 0.002288456592380942 0.0064662272890603075
-0.012077583000984906 -0.0014780423948280396 0.0067101294593045644
-0.012494601634113629 -0.00031001646601700253 0.006649081028782982
-0.01837637135443574 0.0006315678463785133 0.006850418535413183
-0.017364146623156315 -4.524406722328174e-05 0.006850977966151043
-0.025146997374914982 0.0016071168022579125 0.007089591586020222
-0.026700775184087373 0.001733587462759939 0.007151141226943818
-0.015519547717185441 4.617514474281959e-05 0.00676138600132975
-0.018513090586769965 0.0021184703032517058 0.006754895976107709
-0.009936319812466642 0.0025668338591902395 0.006306157647797943
-2.165551831775827e-05 0.0021828182132049728 0.005680525074819646
-0.0021179747078111663 0.002286357388526695 0.005808027718879611
-0.0041426996175633855 0.0018692472447457492 0.006041769869256155
-0.008272866262132778 0.0035176150220067454 0.005830786280873551
-0.00703275029645443 0.0028733656067584544 0.00598513998811251
-0.011775842791358591 0.003288292318430453 0.006182109796565229
-0.005748802487565957 0.0032806797678632243 0.0057321650513601965
-0.011985046826480808 0.004609359948142023 0.005690244465416209
-0.009850372324939089 0.003968729492654885 0.005775990874236284
-0.0032079128023333953 0.0030866910024415378 0.0056157784910673405
-0.04750586933175596 -0.007044497725021488 -0.003809130947761259
-0.045853656498933304 -0.007193778444975831 -0.003526061295811552
-0.058631599277531594 -0.008310291519102559 -0.002671242885495839
-0.02639755410143249 -0.006771959500828279 -0.003114337964062619
-0.04445789454117661 -0.006928984489922197 -0.0038108876120773903
-0.023487874714937657 -0.0066970349620350585 -0.0030686358779626697
-0.04787956986035631 -0.007890138933082016 -0.002694420057265148
-0.05108231216454192 -0.008043648475051698 -0.002649506682760735
-0.04394470569923306 -0.007636652014823024 -0.002836572434580656
-0.05974205193108102 -0.007795379290396038 -0.0034171887742945
-0.017850185373276095 -0.0065688648438453935 -0.00295729746995179
-0.03988260247850206 -0.0075861576077959 -0.0027002479612387577
-0.053760324312311585 -0.00700877444236752 -0.004171123519484237
-0.05575207630756524 -0.008213763607678419 -0.0026560119918655894
-0.03318809447903855 -0.006967776829567821 -0.00319290177829902
-0.058373353253414015 -0.007565889375343336 -0.003656053501279195
-0.03842288337324258 -0.0072993986016647895 -0.0030113037049072757
-0.04909827165866403 -0.007237691087230729 -0.0036301521143325263
-0.04260391631141114 -0.007739138760222915 -0.0026318646328162484
-0.05550463336576946 -0.007257748688338769 -0.003925006248002189
-0.03115625380217347 -0.006948710012979199 -0.0031164158591800136
-0.051179302258856224 -0.007309793632238211 -0.003638020520116835
-0.05696593197393762 -0.007718696262329163 -0.003380551320880936
-0.01654545301694669 -0.006172556901018489 -0.003338855514638491
-0.04072984529413451 -0.0066493590404217385 -0.0039578098147002565
-0.01398346603734551 -0.006337338323226858 -0.003032363073779583
-0.037135151983440175 -0.006593561700385664 -0.0038489427891576595
-0.02198447090033436 -0.006459267353102639 -0.0032772105838435985
-0.00910425928715997 -0.006102831082235605 -0.002679273162093568
-0.002279153788924781 -0.00587758386519086 -0.0018280062508209938
-0.004894498190160163 -0.00602559847827785 -0.002066008844085544
-0.009443264500915375 -0.0066731363597982915 -0.0016919252331056807
-0.01068186827401415 -0.007132523815555588 -0.0010038675801535683
-0.00596501865592208 -0.0065656597870442784 -0.0011941287848868185
-0.011161618792231286 -0.006662799729554548 -0.00206819598368847
-0.0073771528416791115 -0.006407758151180732 -0.0018103532664324666
-0.03354429049809653 -0.007805376735768563 -0.0017045134271012287
-0.027653246252111904 -0.007293653958714248 -0.0023259031355395525
-0.014605656350046023 -0.007376960334625779 -0.001007960787175784
-0.04984696073824517 -0.008122047613244487 -0.0024195234796630773
-0.02659330446232244 -0.007536720940244226 -0.001695577805390472
-0.023172639862300375 -0.007417448913313471 -0.0016625334090268598
-0.037121176735472904 -0.007557164347830579 -0.0025648845115999875
-0.017057653512175006 -0.007283987941329806 -0.0014268480303428646
-0.02031175452620585 -0.007090197388541751 -0.0021386667382411644
-0.03509259513852197 -0.00750265884965838 -0.002509354401999216
-0.04552702076865989 -0.008131883801239007 -0.0020224608031932513
-0.01333471601262446 -0.006954861859011603 -0.001832244243062504
-0.041486455821448755 -0.008020196730476643 -0.0019187683896325482
-0.015352177551889161 -0.006726274024322267 -0.0025136886107463337
-0.018701607654605552 -0.007088128910798812 -0.002003370614271658
-0.030038028611378144 -0.007378273958522847 -0.0023456917065972603
-0.025006017255499325 -0.007400096353471013 -0.0018602278329377872
-0.02178867416598065 -0.007311572159150573 -0.0017767585394397717
0.0004386173493644305 0.006584652202069457 -0.0012709857055591745
-0.0033344886422960037 0.006696047946951987 -0.0016430422476225509
-0.00757491912721704 0.006667390055661578 -0.002105646234613081
-0.01114864079880831 0.007083835853890426 -0.0019857563670336907
-0.01249060175873273 0.006502395379532838 -0.002794374125976219
-0.009886493964148417 0.0064185718165737735 -0.0026276260124996455
0.0010912401737734846 0.005737976514768122 -0.002086842363948943
-0.0003356748058173109 0.0053754276774614015 -0.0026277212196990528
-0.002283439261378816 0.005192892389382952 -0.0030309418688515104
-0.004482876135919987 0.005220787561109695 -0.003252085851808785
-0.002329398923819358 0.006087657291952467 -0.002142447965510839
-0.01372944566567802 0.0056863424275722845 -0.0038339227076028513
-0.011139794826296838 0.005503026330640779 -0.003723836707421545
-0.008747748470171082 0.005781216282681216 -0.0031751668736407198
-0.0074401677252083735 0.0057253969462057325 -0.003082883854290016
-0.006214610102197483 0.006247348243020012 -0.0024228057923836284
-0.006045615545277391 0.005377706270630357 -0.003272277538849093
-0.004900520763470565 0.006305344321637913 -0.002216106316445248
-0.0009375027832657487 0.0066080540609469935 -0.001465090816656289
-0.009412333101259638 0.007157343823120495 -0.0014952578602274965
-0.0104258834404303 0.007353931927679205 -0.0006114564638608955
-0.014587796483996895 0.007486174882396171 -0.0007437414057872548
-0.00779434051025009 0.0072552978763271185 0.00010760269037170917
-0.00047535491571696383 0.006895193757305596 -0.0003050093353384488
-0.012209693227050122 0.0074702328808467795 -2.5211913772721036e-05
-0.002867248929057274 0.007011099971598728 -0.00046448328596102647
-0.004244389868001066 0.007079234915143358 -0.00032432921721215375
-0.0029448218038840577 0.007022435259020564 0.0007842947125863322
-0.009081934428805718 0.007316943745517234 -0.00010208882725901603
-0.0060033262079712555 0.007164028856964491 -0.0005145026302260741
-0.019734361474462024 -0.007505949760819026 0.0021336549220010497
-0.04577377190429727 -0.00808230301038837 0.002488879096040655
-0.027310453992658364 -0.007668291120700912 0.0022646935937743152
-0.04820443520237656 -0.008137747078754868 0.002513524624895163
-0.035129449463007875 -0.007798526024282637 0.00259313581965867
-0.02508701116123496 -0.007638393942669121 0.0021343403983244847
-0.04152969143590333 -0.008000971418351467 0.002365705105610052
-0.05230377810043452 -0.008205004048904192 0.002691015357502953
-0.03967731220127508 -0.007898255961576598 0.002660002394616258
-0.027843228232299896 -0.0073025627341638194 0.0036439339007108334
-0.02431157328747033 -0.0072988777954865755 0.003315489709314892
-0.017168510996612475 -0.007001257725614901 0.003664177795139602
-0.016754498792875112 -0.007413287125309397 0.0021857427687232926
-0.036962168415207705 -0.007640989696726202 0.003343740186351709
-0.042348833736306386 -0.007817957456684477 0.0032465149516394238
-0.014877340625415878 -0.007030972509926316 0.0033390165528179028
-0.029176861695252437 -0.0073634824607285414 0.0035601447282128215
-0.03203160181256719 -0.007550859837174674 0.003181886767170874
-0.017992563855964677 -0.007330414539627161 0.0025947067442840055
-0.04915229011853182 -0.008002424665665678 0.0032600310847206823
-0.021396232052374613 -0.007252578176831708 0.0031953785843432695
-0.0437361449010972 -0.007919979420077404 0.0030244225194510704
-0.012598533210420778 -0.007012271024754265 0.0031840747212677966
-0.022568070358247858 -0.007433373337174046 0.0026774594763545488
-0.05460885803767264 -0.008129789701237448 0.0033427280435487446
-0.060799853348969896 -0.007565099172203047 0.004342348657601322
-0.06003386522972506 -0.008121678990555256 0.003282549492809162
0.03923567764155222 0.0001849999971454963 0.0007055760576595736
0.029067702866929362 0.0001849999971454963 0.0008542312739656695
0.03241610773294025 0.0001849999971454963 0.0003087965354424964
0.036292417964569446 0.0001849999971454963 0.0002987879541813429
0.03458047612418474 0.0001849999971454963 0.0003602777440544675
0.04291199892759323 -0.0014390702575956614 -0.000651180146961139
0.04291199892759323 -0.0037948247429681866 -0.0003023622350157498
0.025325000286102295 -0.001998228234175906 0.0020311788287597386
0.03112372167250104 -0.005879048043530088 -3.137102378963962e-05
0.03718762892881621 -0.008770426621051996 -0.000987337570176749
0.037285482819693044 -0.008507238529752208 0.0018233093821727786
0.0361312853689435 -0.007581393789834308 0.001944772660960651
0.033356598282963425 -0.005155255475260285 0.0022503294610304045
0.0395852454338556 -0.009860504561684417 0.001414892437209147
0.03839162245315188 -0.009369988572109302 0.0015233672460440778
0.03950036283308462 -0.010049771861737897 -0.0008817097786932804
0.033627285856186476 -0.007571820381573221 0.0008488587401534007
0.0364838763355391 -0.00906759594878933 0.0007282207369072005
0.027193012671644194 -0.004164542325633292 0.001421676605595266
0.029180136906720507 -0.005227819540591712 0.0009180702598540548
0.03172116927472533 -0.006587483809025138 0.0007473749182777436
0.0414322972630559 -0.010631583865404267 0.0011282567495399837
0.040560938686260324 -0.010643711885007 -0.0003794118206168846
0.04167855327179651 -0.010994976625553581 -0.0004745310850367921
0.03779221574205541 -0.009735002232372687 1.4416313665267586e-05
0.039255312795730295 -0.010264486037524521 0.00033986976825933594
0.042559734901072475 -0.008963017991846933 0.0013172533647557807
0.04271234767355919 -0.010331685814768163 0.0013952252864419168
0.04256998375303253 -0.004183797105256632 0.0009475804781411385
0.04197129440874276 -0.006964121973264549 0.0012689331440065323
0.04177462395685924 -0.0053436274802577555 0.0011794801823788517
0.040691440423446704 -0.008526111296904854 0.0016186701196984042
0.03656339352082088 -0.00331077384115024 0.0017072761949136466
0.034250643555702384 -0.0032791618415356225 0.0020106124820539807
0.03445936896990298 -0.004560918933006515 0.0020991140678114965
0.03553801100116129 -0.0038473119110415495 0.001891647596258751
0.035703237530150096 -0.005343588019272436 0.0020053452146943126
0.03803768949412063 -0.006980585826938265 0.0018445948271744515
0.03287361606812363 -0.0038675691862890705 0.0022462402494924164
0.03810863920996385 -0.003365278273043492 0.0015076291860020143
0.03923714432465318 -0.0010515478088648253 0.0011485786383760718
0.0382581864455622 -0.0019864416339819093 0.0013628973840151533
0.04116456960163307 -0.000648933701646559 0.0008569141638024377
0.04086743432997729 -0.0018613543561175892 0.001006107689379795
0.03943883250208226 -0.004149467885888361 0.0014025689901600203
0.04043209781517641 -0.005331272077332375 0.0013781436198367096
0.03902243298609413 -0.005246256664016846 0.0015570756567603646
0.03713344216732482 -0.004805037387998267 0.001767194332687357
0.039636857375238976 -0.006626566915803477 0.0016007936259847847
0.039672178145988383 -0.0024829185153341865 0.0012206737679518547
0.04177810427521755 -0.0026662747863900813 0.0009584693738485205
0.03871541619086656 -0.008038114981505258 0.001782078636782072
0.04208882624453371 -0.0065224565186274746 -0.0015968912544316956
0.04059952446860293 -0.009562709158221964 -0.0013450100105566278
0.042711724242920135 -0.009258511264752557 -0.0013200722579300257
0.041458872632995386 -0.008680431538257873 -0.0014071960185350978
0.040193067416329616 -0.007969359025595037 -0.0014801293720305682
0.04081617568588271 -0.0067897244053821935 -0.0015378030712391586
0.041542460052703345 -0.004979777703477128 -0.0016132618754610619
0.029815445394448033 -0.0011407793537549274 -0.0002623902665353993
0.028187230005126622 -0.0022392108516888108 -0.00011305477568151994
0.03213670439074051 -0.0009082145704416339 -0.0005335089147424668
0.027185070013172594 -0.0012762498016777326 5.04241128691603e-05
0.03647639795354546 -0.0014381287938524789 -0.0010824976141976888
0.028515577615161367 -0.0006141216912034824 -8.188716298499523e-05
0.03327219528748912 -0.00152244990694651 -0.0006979178534054634
0.04204092124802317 -0.0013726225861290537 -0.0016830000095069408
0.04029398641201479 -0.0018271065169756127 -0.0015496812405516468
0.033511971534600934 -0.005082964367457903 -0.0008052106913491625
0.03117451832325523 -0.004431757984476926 -0.0005134102403009863
0.03741900782351344 -0.0025772403818564446 -0.0012215793326048204
0.033761886623754345 -0.0036697524200407293 -0.0008069631829240977
0.03252057022911051 -0.004398386525862419 -0.0006733376749479496
0.034701715435360575 -0.0025457885048948948 -0.0008967694023643252
0.03151853317178138 -0.0031354690525228646 -0.0005287111152649182
0.03616800671722245 -0.002718634696942392 -0.0010751370057055154
0.039209576159732355 -0.002595448094359604 -0.0014355638597896734
0.03515299773194416 -0.007431981373964276 -0.0009340699712746545
0.033147993202709156 -0.006277851421266436 -0.0006982945574234871
0.029811024352688918 -0.003941106225338528 -0.00031585762454784357
0.03723749979363455 -0.006871805383025716 -0.0012060033893236339
0.03826674305388876 -0.008055447098134022 -0.0013055363445927766
0.0346978518686197 -0.0062452033157664585 -0.0009466503215940679
0.03658225236381835 -0.004262916936133515 -0.001153763557774085
0.03851836514693756 -0.003767245925308392 -0.0013573195373136047
0.03833352249659169 -0.005941066090646938 -0.0013251339778556793
0.03511942706984827 -0.005119074362094553 -0.0009970790207866841
0.039189147439605596 -0.006834773100772977 -0.0014084185034644228
0.039460343793626916 -0.004818917053428223 -0.0014486031550197617
0.03610557052893609 -0.006225247376297354 -0.0010926113374707456
0.040808152680442536 -0.0034987802356337347 -0.0015961541757993504
0.03672642634805709 -0.001040038226176072 0.0014610339988005208
0.03194789632201676 -0.0001670486913148244 0.001832440337112312
0.03493119763432794 -0.0017695769836200447 0.0017719113946006995
0.03218455689517062 -0.001835036203223659 0.002077299935669734
0.03430753468159886 -0.00036645957957974154 0.001611502834210124
0.030745880523249274 -0.002789980981551921 0.0023864323367671445
0.03553163462814834 -0.000164176843468744 0.0014473514043339556
0.03347416288057169 -0.0022403396213403768 0.0020045634919307427
0.03808738348085645 -0.0003658768625965546 0.0012057373039990533
0.02925211994368311 -0.0010425160431996464 0.0022016457518763844
0.030299970325214674 -0.0002836083047432035 0.0020237543022342042
0.02640125975844287 -0.0015760920900227226 0.002281805357775956
0.028292211413198643 -0.0020361435255175074 0.0023816105542861033
0.03534949330169875 -0.008415363381161858 0.0014719863020535662
0.026302017787270864 -0.0034610935931984697 0.002115553650021768
0.029792954804144428 -0.004075095840705725 0.0023106747517081783
0.03181073007921633 -0.004689112296926406 0.0023332693532033487
0.03247674653610199 -0.006079918993837591 0.002092371354928794
0.03348568094776203 -0.006715231874125189 0.002035046646025704
0.02854257928923623 -0.0037108909297389587 0.0022932684406089068
0.03066657022299999 -0.0058052657397197095 0.0018487955494114736
0.026094225469561617 -0.0025154497940210255 0.00044568590926622647
0.028266462572819097 -0.004377875158291062 0.0004225433660303656
0.02600854099476184 -0.001020097679627837 0.00029731968789719064
0.03954472604277974 -0.00010723322105841502 -0.0013136575669415503
0.033185726848474865 6.004326163575097e-05 -0.0005714516701215907
0.03741901305543112 -0.000723326622540418 -0.0011546606307435076
0.035352617394645826 -0.0002494862477830559 -0.0008578515651391749
0.07237667429215286 -0.01244598904842009 0.0006364406204716754
0.05939299985766411 -0.011959030656279386 -0.0017342893747480776
0.05939299985766411 -0.010125108372141024 -0.0017273968106087069
0.06103316835797031 -0.011824150630346792 -0.0016689619817676492
0.06434320663246705 -0.011996531225436202 -0.0013189667576154565
0.05939299985766411 -0.008211781546144705 -0.000618056953326502
0.07993100692859574 -0.00595800019800663 0.0032348116434567534
0.08286777448527266 -0.00595800019800663 0.0037613877485623503
0.07858245737640909 -0.00595800019800663 0.0031096118703773205
0.08669412607039015 -0.005958000198006631 0.0034519117867929327
0.07638127159345284 -0.00595800019800663 0.0026403611567733026
0.08491895608231248 -0.00595800019800663 0.003913179126765474
0.0874666337465133 -0.00595800019800663 0.004665631970005337
0.0693492199230615 -0.01212279912776354 0.002547187180141448
0.08349723880274589 -0.011234609041371614 0.004874621311400035
0.0706672426404866 -0.011980118691882164 0.0028180478697296895
0.07365721528477384 -0.011776659815761852 0.003324119061423491
0.09789503517766575 -0.00754587913735022 0.0076134414371146954
0.09038170371405128 -0.005993193138810606 0.0045447416047140745
0.08938336982023448 -0.005967685075225752 0.0039027250336455014
0.08659539768012864 -0.011090348512742744 0.005338030232676971
0.07912637799796858 -0.0101941670500111 0.004484687114934395
0.0679024801874836 -0.011896110698374705 0.002450794865167699
0.08042557999211415 -0.010102908233255251 0.0047052767808070245
0.0717699323874254 -0.011393916875674448 0.003139796079649895
0.09305855608276263 -0.009118888182370662 0.0068637754530091665
0.07757992213353869 -0.010446428578567054 0.00420195966790393
0.08185067735824245 -0.010141233319029275 0.00492781600426254
0.08957613200854453 -0.00963474663011227 0.006234434637991866
0.08794379786674268 -0.009701102223643922 0.005964061517624539
0.08578409634586132 -0.010029222124431194 0.005572611436514433
0.08354657463201329 -0.009920829876665527 0.0052299730200482475
0.0922884401625937 -0.00673902443515218 0.0036670473942057615
0.09322807656563081 -0.007404833375579046 0.003859855972076109
0.09465967549345741 -0.007222483879724216 0.004229852839125062
0.09515417532405732 -0.006294526754359918 0.005029858395060742
0.09378888162223492 -0.00632315425262519 0.004534216755487592
0.09098759861752925 -0.007625924963581655 0.0033489719079568842
0.07066466126738696 -0.010727255643627979 -0.00046923881952094825
0.08755173170002306 -0.007559579357559209 0.0026493301365899985
0.07755662512415012 -0.009858922679657716 0.0008424064572332351
0.07910133750946174 -0.00801888678325835 0.0009856225560972724
0.07904422187280533 -0.009348712170777755 0.001095942520014937
0.08436869924268442 -0.007969422511879532 0.002044357669017192
0.08065127567696509 -0.009521707600421632 0.0014361929593100372
0.07741355900502865 -0.008260498870447417 0.0006670667395062709
0.0739847256015519 -0.008982719036521175 4.109949150427999e-05
0.08578494539296586 -0.007743903499729319 0.0023095766556541844
0.07361010982152505 -0.010346591073202351 9.044863776338023e-05
0.0832463938794868 -0.007600698431016057 0.0017840241125066845
0.06863133057555112 -0.011342142022958985 -0.0008233452613782029
0.08052928858325215 -0.00812542468637892 0.001283630020127308
0.0751367339899345 -0.009506774342959897 0.00032166158495364997
0.07785494927196653 -0.006647071704329497 0.0007661632891359255
0.08550620778189637 -0.006578399992758171 0.0023049698955117776
0.08128956045246086 -0.007007939142271764 0.0014047199896369713
0.08897532465602298 -0.006889348626060132 0.002973203208200966
0.09473334227481398 -0.009409908075340898 0.004629936278499886
0.059923224863285135 -0.006202146167283197 -0.0015409472708872395
0.06505328788299565 -0.00595800019800663 0.00011927645223163536
0.07733697878984691 -0.005958000198006631 0.0017533184315504818
0.07875133657502684 -0.00595800019800663 0.001889600775196244
0.07576716039410805 -0.00595800019800663 0.001611024774418364
0.06873110675024614 -0.00595800019800663 0.00011214496992468007
0.0723769022673571 -0.005958000198006631 0.0010966851188851546
0.08234980341831398 -0.00595800019800663 0.002529065638023401
0.07072486007348402 -0.00595800019800663 0.0006040192645791609
0.09081741523538554 -0.0099486798886594 0.006386681225307713
0.09444028752679857 -0.00947131993786692 0.006907796417624776
0.09585301562028824 -0.009609601588946885 0.006574247124454636
0.09693005228321538 -0.00944333489064684 0.005895046578188485
0.09694391902190211 -0.009002712630470972 0.007310067188545204
0.06633708816820132 -0.007519850222237202 0.00190165463811386
0.06328942906653895 -0.007099981567858564 0.0012450717215762362
0.06025299794263039 -0.0079039367861539 0.000801757917639158
0.0726565545630648 -0.007851781724713864 0.003170183988119658
0.07133344589405663 -0.0072265293907093076 0.00280872037565523
0.06153407985730895 -0.008160890872540594 0.0010916324747967869
0.08547623919944652 -0.00788831418475211 0.0055257671071669585
0.07836168861738518 -0.008264665604554803 0.004250396732514732
0.06815532609445396 -0.008420084571371438 0.0023901833285625805
0.06500010412704343 -0.008848066379569084 0.0018453477408653899
0.09337536355601705 -0.007807962160647776 0.006968640809875018
0.06945552419817758 -0.0086016326569356 0.002643181110253896
0.07084998490851711 -0.00861185733265131 0.0028998393110563196
0.09039912771829686 -0.00754984914798008 0.006382309546344124
0.0963416080599096 -0.007133554570915777 0.007361075101337397
0.08900290430643748 -0.0076486861317734975 0.0061525612602707225
0.08426165418360958 -0.007437465549340085 0.0052557194871290305
0.07522155263086396 -0.0071044504474521465 0.003489767161340676
0.08215788805540715 -0.0071321434652200704 0.004772838501580067
0.07956291374808781 -0.0072548587054726155 0.004353072692358972
0.0755972053517003 -0.007806057068811462 0.00026030353600934144
0.06939492423098355 -0.01020458283865143 -0.0007702840988576175
0.06805410014243726 -0.010014429842307784 -0.0010539304051946914
0.07261851587188677 -0.009339883882744458 -0.0002018494314405954
0.08607248355193169 -0.011315855853070586 0.003561300238971753
0.091226967215558 -0.010332575710397451 0.004271475496813655
0.09306530316541695 -0.009994284924577173 0.004551167584284407
0.08842345965297235 -0.011006299822499609 0.004796071342853068
0.08506230730662037 -0.011500274800504825 0.0046859269320921855
0.08992103055533748 -0.010786207878628048 0.00490868585194045
0.09277689945186723 -0.010366492367404582 0.005832004303343018
0.08725937789496356 -0.011177380214446964 0.004218046353881944
0.09577676568074368 -0.009655771672972553 0.005363298688142593
0.07587672460916495 -0.012360644600384014 0.0016851353331763285
0.07798270196966452 -0.012225705171250474 0.002340814905760859
0.08018876152759044 -0.011976204588965212 0.0025424923540704704
0.08318976150330065 -0.011753861777553921 0.0037757130091496107
0.0601205319687634 -0.006180989937038811 -0.0002351786926537711
0.07282781553788446 -0.006091471182462733 0.002280837074918717
0.06854478842385991 -0.006134806428685911 0.0015471708856534898
0.06729018288647523 -0.006004632992645557 0.0011313559010172269
0.06330078174055823 -0.0060500405558958645 0.00045507866150873075
0.08079674316191067 -0.006873852495072741 0.0044043259931797595
0.07652251557802264 -0.006827435509838714 0.003599976912252741
0.08775788541949611 -0.006792254114266135 0.005638558922529755
0.0861939730988176 -0.006740460633771461 0.005327477186454432
0.09266239115120203 -0.006805197892033415 0.006542087378751187
0.0695982855263218 -0.0068202035113911815 0.0023296878886569753
0.09507742226673303 -0.00687604101757649 0.006985008928089761
0.08924390957279749 -0.00650256904235225 0.005726774662961507
0.09077865294054875 -0.00638277810887985 0.005834445866970556
0.07419542371144394 -0.006452136139688738 0.002925646295891908
0.06202403804986825 -0.0064769284788735925 0.0006789471854575436
0.07064730758058484 -0.00628493103881358 0.0021083330630122486
0.08387854638310198 -0.006362068717226008 0.004618938915983444
0.06216377558545705 -0.012937000021338463 -7.67957998435447e-05
0.06083002498152469 -0.012937000021338463 -0.00022087033264831207
0.07354687956772885 -0.012543142876241616 0.0015660244048750875
0.07109524625844262 -0.012666436895845517 0.0013529663081091308
0.09623097877047482 -0.008563200907246372 0.004742581412246757
0.09838826310121368 -0.008363584053714125 0.006825649272987341
0.08519195693631745 -0.010123282606299256 0.0024564422590632414
0.08223784206319572 -0.01026733303051357 0.0018606567081355426
0.08610556301850472 -0.009033408078117238 0.0025062846906832885
0.08738033044124477 -0.009157692437842424 0.002787353800848024
0.08367883446198272 -0.009386822979579329 0.0020470903754153938
0.07537160540902833 -0.011007923085469983 0.0005280515462790373
0.07890118143820107 -0.010592840313892633 0.0012086534593318573
0.0891026317337038 -0.008241054425292462 0.003027640136949979
0.08823943825084006 -0.01055132751518338 0.003323937639710313
0.08675511223164478 -0.010447116658988337 0.0028407826441234183
0.0902408951609319 -0.008790817837880868 0.003341567317415272
0.09229124366434663 -0.008761824828106246 0.0037841657401414385
0.08224557370525941 -0.011543817836844788 0.0024314954606517837
0.08417565328102004 -0.011064749875052902 0.002517632510012439
0.07710849889965066 -0.011242933635581468 0.0009361178312196289
0.0734474337675703 -0.011811228642036115 0.00036228395553123224
0.07051349854277036 -0.011914281603042465 -0.0002604660480310846
0.08112575175051855 -0.01116733212866363 0.001819089119790852
0.09609431770252025 -0.007296893678188155 0.004647939282427381
0.09750660865463451 -0.007014937455827179 0.005248329335976017
0.09836554316984847 -0.008011820794248998 0.005301468819737392
0.09390880488163844 -0.006309521242689339 0.006203664377707829
0.09657352555258925 -0.006296447838879166 0.005928188972332285
0.09283485916984077 -0.006095553711836689 0.005530090962643255
0.09856435820498691 -0.006866889361435204 0.006704905488360605
0.06322052125582873 -0.0060046864232890015 -0.0009691235610423401
0.08377387262501107 -0.006015485803176904 0.0025439040444754555
0.07390593229367509 -0.006064017162723456 0.0006617846465043208
0.08002753128232112 -0.006116213320702493 0.0016117246154155715
0.08245026525390838 -0.008472111624292348 0.005016087946495619
0.07999881463458487 -0.008664252718471242 0.004580568792013524
0.07446194547330134 -0.010085337459727811 0.003666997876504384
0.061745619023442604 -0.009448175115303246 0.0012918215611791087
0.06409053283015531 -0.011062323876007463 0.0018360885940421655
0.06335020790520904 -0.009213071172027045 0.0015691248461242211
0.09191623399555307 -0.00819867792986142 0.006731059157534322
0.07178713837493991 -0.009417303926006378 0.003129471993213602
0.07684880520908154 -0.009370583215243986 0.004053570750286892
0.06871901069501704 -0.009662890102144892 0.0025847583215501155
0.07511986057842851 -0.00890487281729376 0.0037037164640230176
0.06273988538042025 -0.01036514947661897 0.0015391105738095667
0.08699747797702573 -0.008860596886674177 0.005876831371941569
0.07359926753297011 -0.00916609731832245 0.003443658061294597
0.0603973280124461 -0.010314591567516677 0.0011063087276777551
0.06649402963608417 -0.010027375225761042 0.0022029721831709325
0.08462560512417634 -0.00904108757216059 0.005455065420251974
0.09524574837576211 -0.008115962646599719 0.0073352307823656895
0.08127528518737533 -0.00864886146216791 0.004813355275233004
0.07309019588741815 -0.010479836526216233 0.0034297832866908417
0.07596755641109541 -0.01029644771889325 0.003937459187805285
0.06978511363539106 -0.010990765674667093 0.0028466409947368104
0.06122340154069037 -0.011585256976214228 0.0013360291450945955
0.062481141345436045 -0.011760908381519056 0.001557942312904978
0.06599226038176789 -0.012480298484025059 0.001839166350393684
0.07722795311876782 -0.012048999482982891 0.003413952824486574
0.06464839649704907 -0.012480540643081722 0.0017130126250132485
0.07265220703133764 -0.01219880707759597 0.0028039228740490978
0.060896344493705484 -0.012766768096754578 0.0009694490078574311
0.07914070904933543 -0.012011282266975383 0.003561368000959636
0.07497235832244739 -0.012316951233862531 0.0027976033254582177
0.08183348602437504 -0.011883127989176945 0.0038815147334876673
0.06792765874516606 -0.012731814653813256 0.001625950865776644
0.06335517952193373 -0.012915575674926131 0.0007976386514753053
0.059499562683316326 -0.008741439897254188 -0.001827517214181426
0.0630383390124069 -0.011436354116407404 -0.0015662940520616273
0.060270395460278146 -0.00771774940621083 -0.0017424616565420764
0.06258169967768931 -0.0079849916327386 -0.001610835576855089
0.061163600895975626 -0.00976007563822668 -0.001846837060530752
0.06694560061812825 -0.011191482404782566 -0.0011527123540519433
0.06400864406075171 -0.010158298562823881 -0.0015409809454451878
0.06533633678706754 -0.011073603735894168 -0.0013432948245341416
0.06656537725973055 -0.009787787935274187 -0.0012555591136316064
0.064739776717024 -0.0078685957786825 -0.0014338712812709009
0.0627474967040994 -0.009386717538370186 -0.0016716938163866052
0.06195154524049324 -0.006538155873081977 -0.0014817539503255523
0.07371172328393222 -0.0070910741253163816 -2.2501309225714608e-05
0.06767566730733911 -0.007980667849930415 -0.0010529378462806258
0.06644108144938757 -0.008039952079049775 -0.001227757399924341
0.06861591489023099 -0.008912806442836485 -0.000949975775920358
0.06984951473813615 -0.007590871007998538 -0.0006991349582762233
0.070347091294534 -0.009056062856926162 -0.0006640699394951586
0.07246568868665842 -0.007855141394829656 -0.00026865140726397473
0.06490930577927179 -0.006403442458744889 -0.0010230142160813954
0.06733685005935816 -0.0066179877580188635 -0.0008088220808475529
0.0764389405416087 -0.006484212614413047 0.0005283874672219089
0.0708865140015026 -0.0069038569010039345 -0.0004739510981434115
0.06306109556391788 -0.012648504291643894 -0.0010583906071635742
0.06688150359734249 -0.012869538956804462 0.00023391766142673518
0.0690098420368034 -0.012797026641066758 0.0008184031401550452
0.06559924728923913 -0.012937000021338463 0.0006822785700718852
0.06454204380186535 -0.012937000021338463 -0.00026423515431063397
0.06567256221112405 -0.012607411584394835 -0.000661880786240829
0.06824879818801566 -0.012395821189939085 -0.0003058732424172078
0.03231776626198851 0.0029148035550338306 -0.0006766128383207974
0.029368773837010084 0.0020436499304142663 -0.0003173341750512976
0.035676180826692924 0.001706149581843995 -0.0009362258686412015
0.029354662815265192 0.003455829262854682 -0.0004118588835289633
0.02834112240512612 0.002747930827833538 -0.0002606203951442105
0.03040755471977126 0.0027862478884648177 -0.0004734989761215459
0.03956200182437897 0.0016366808909450358 9.17770094720099e-05
0.03956200182437897 0.008078286979485939 -0.0007350800406405781
0.02763401810642328 0.0001849999971454963 0.0014908878486755957
0.030878884663930975 0.0001849999971454963 -0.00022864016810539788
0.025829125911381843 0.00037927916428393 0.00035465280373462194
0.02651458141360246 0.0004233390812553098 0.0022052436246416678
0.031625129938524454 0.006289153194179921 -0.0006842781004767383
0.03611480706625086 0.00879627232876615 -0.001280248323408456
0.030269976558649905 0.005345178700057209 -0.0005258902317295646
0.025599365498829452 0.003914400083517436 0.00022928666265742
0.03853009342226449 0.006982553970644558 0.00017693967229662257
0.03907485939713655 0.005644869411985295 0.00028057048010251477
0.03604319847924059 0.006588593442120645 0.0005708611070907106
0.03860545279163687 0.008906193916067548 -8.996685247079515e-05
0.03841829721064955 0.002989532033808408 0.0007248478752294201
0.037733087983220635 0.00538309222683264 0.0004996703575413478
0.039348387387489234 0.003999719815032703 0.0004624418789689906
0.03723836581330053 0.007448614822338499 0.0002920959614762313
0.037136755542302 0.0006599386000922087 0.001115398159398828
0.03444620410906859 0.004536594115467767 0.0009997978167195
0.03609272179159423 0.0014501297021617169 0.0011759094263781274
0.034022669335588604 0.0029585786466769983 0.0012343384224933153
0.03838041682394912 0.0012638723259528967 0.0009366342987795026
0.0368993203221849 0.004007570074962956 0.0007820714802173228
0.03723835323012864 0.0024865671907234425 0.0009228022085620525
0.03531618369166127 0.0024237650526909493 0.00114971911007896
0.034567658600547335 0.006507900016576269 0.0007533538062737116
0.032005721810668394 0.002005089725322855 0.0015771617641324798
0.0327201896127938 0.0029964909728703417 0.0013786058468693704
0.03405062218823918 0.0010971539745248085 0.0014507566840147397
0.03381029119529316 0.007496060001833647 0.0004628520129390108
0.03726418825439962 0.009319446136131107 -0.0002942749861304145
0.031171704859352875 0.006417466414987867 0.0007833466096847591
0.030147137374283938 0.005816210157227384 0.0010574645854911535
0.03643785091087229 0.00858325294667565 0.00012075090291167919
0.03513218162910922 0.008478696716781389 -0.00015893404719725105
0.03292925238560304 0.00739066616496749 -0.0008018248692127611
0.03809949779532951 0.009816795885394705 -0.0015449533992952346
0.026277041836071678 0.004303636105588084 0.0014211812223347382
0.02767760797105203 0.005032506535159584 0.0010365531071021374
0.028839120173204124 0.005660287602529075 0.0006709408074418266
0.027672962150116626 0.004014959700457852 0.0017097716623204124
0.03248127319087183 0.0063549923657007365 0.0009670231821086643
0.033162004363112875 0.005361511829851381 0.0010430899932100082
0.03047877459741972 0.001539342292760494 0.0018021981656606962
0.02994986675373857 0.002672166706325353 0.0016937059437033902
0.0318948412889267 0.00400544618336379 0.0013401417588392594
0.02863066482264909 0.0024855149742109596 0.0018353056799604696
0.029952589948876306 0.004564393891483736 0.0014345217686994602
0.029221906256337474 0.0011262381656645247 0.001965251085260214
0.027539480216124065 0.0015784659335527874 0.0020357291557809953
0.026211750607795146 0.002064046658363938 0.002076937205807811
0.02541045499853653 0.00352790640143799 0.0017469952322428466
0.03955127948447382 0.006948656353505615 -0.0015007280571255781
0.03925249011737348 0.00909996752155455 -0.0016369603366399906
0.0393074653920312 0.00210335575079133 -0.001238373415665682
0.038953082560335514 0.005899334995877986 -0.0014684501943305792
0.030975174089628056 0.004353732877480215 -0.0006364436396642582
0.03525465938875339 0.003051352094606845 -0.000976047199144871
0.035137990676849216 0.005284991698573696 -0.0010949737804369663
0.0378920721894319 0.0023306620022292834 -0.0011901215184847904
0.03591319373710691 0.006473732543291696 -0.001239570449968508
0.03759379812386505 0.007273685023893299 -0.0014494122886720333
0.037012234675524565 0.005065455946011004 -0.0012641668481646244
0.03711007517564403 0.003615916807513366 -0.0011891370876606724
0.03822079489871584 0.004689083102341921 -0.0013595737779901866
0.038596362880544376 0.008054338733498518 -0.0015922887916373237
0.032484458908456464 0.005135153969419283 -0.0008285691093937375
0.033652471101143666 0.0029493660398610113 -0.0008145219920027614
0.03402625762737079 0.00574772264221305 -0.0010140050976953012
0.03456426479331473 0.00723545622019733 -0.0011400086352333087
0.025895280363579624 0.002496755982840971 0.00012942999771691044
0.028137720267681368 0.0041940285114061395 -0.00022924220126359102
0.02700972022170751 0.0039201734618506635 -3.2879685282235907e-05
0.03199423656853016 0.0012362990964603499 -0.0005236516548410261
0.037399925787695784 0.000709476410118892 -0.00103718637307457
0.02965587358121226 0.0007852200716024066 -0.00021287747003317762
0.02712855518414139 0.0015406037141432677 -3.9239709490820344e-05
0.027353773454008874 0.0003108229290574227 9.703437846183448e-05
0.034172868592450174 0.0010592744379731682 -0.0007352272149264919
0.0460167088175175 -0.012470855610085289 -0.0007270964661463672
0.04877812047998761 -0.004840000066906214 -0.000541313810340853
0.05256169143979056 -0.005652673220615563 0.0005309016540025647
0.054280310164352016 -0.006573906446098731 0.0006064264751803466
0.049920878323247236 -0.005483686937346482 0.000625371003748346
0.05628353473226468 -0.006792152885852144 0.0005499746644458217
0.05493583629240774 -0.005385422853342976 0.0003751822667175076
0.052484594189075764 -0.006845412394883725 0.0007359216435447349
0.047614410441558015 -0.005444583284376202 0.0007262012120208654
0.04450158327655025 -0.005172600462939723 0.000825262742494972
0.05110021553287198 -0.004978977009512905 0.00048520311608273926
0.045980132713024265 -0.0054110121233206495 0.0007966554964609972
0.050832904370045895 -0.006783161320313809 0.0008023435325984656
0.05700583671513228 -0.008447856801244612 0.0007959441953866157
0.044115455269367464 -0.00485908044280638 -0.0018138361386922193
0.04870140922480065 -0.006434721417205494 -0.0022410000674426556
0.04899137732717301 -0.007663323395463897 -0.0022410000674426556
0.046822602209184064 -0.007700355054826659 -0.002241000067442656
0.046578581633877646 -0.005465354305154566 -0.0022410000674426556
0.042913999408483505 -0.007634524431637623 -0.0012248512250154727
0.042913999408483505 -0.010187349306297902 -0.00015869413781890112
0.05049365783661357 -0.00796513030261258 0.0009641497124905046
0.05452105361977072 -0.008561608189802807 0.0009020881209379137
0.04502084810865359 -0.007293205465518939 0.0010652119572093326
0.04820295598149232 -0.006674963507759402 0.0008847105738407635
0.05584194320166082 -0.00836016486247769 0.0008338213586326492
0.049553280250743195 -0.006685981888703232 0.0008411004332730345
0.04312709888601679 -0.006669319057150717 0.0010529572467842903
0.042913999408483505 -0.005823018292860535 -0.000498342134529507
0.05153171886612126 -0.009061905960493798 -0.0022410000674426556
0.05132657592114575 -0.010862059365121465 -0.0022410000674426556
0.05024018918125588 -0.008670524085643302 -0.0022410000674426556
0.05389323883333253 -0.00894482983768608 -0.0022410000674426556
0.04918194836916536 -0.010533913422788312 -0.002241000067442655
0.05172855358407192 -0.0072885349693580705 -0.0022410000674426556
0.05026563254433168 -0.007307752018440938 -0.0022410000674426556
0.05839195318057898 -0.011038438474598025 0.0008610465482875658
0.05676500517409565 -0.010893146860149321 0.0009118602091733518
0.05461383119868878 -0.01058496079692779 0.0009790467599771024
0.05329094044555979 -0.01139238395798119 0.0010203639513382064
0.04678368241523746 -0.007855830292940366 0.0010529744017627454
0.05849020158967402 -0.009342051382701439 0.0008510082681537141
0.05179419508273452 -0.008714746479560586 0.000974791770322453
0.05342033763420978 -0.008994607177706834 0.0009494587876783308
0.0483902480401463 -0.010097450023116204 0.0011008101458224995
0.04818535670953969 -0.007913605583011685 0.0010243361322110594
0.051328184951649376 -0.010095121325710459 0.0010362073033543372
0.05613062304951928 -0.009771846685305768 0.0009187602418658321
0.052574330915955717 -0.010156232061906051 0.0010111080772524125
0.049892287060847335 -0.00959289104861968 0.0010491174510105278
0.04953967691674023 -0.011135199762086039 0.001108999946154654
0.047094707284457915 -0.01109281754298738 0.001108999946154654
0.04425205599517663 -0.008709859646787055 0.001108999946154654
0.046299075400876605 -0.009172055113261753 0.001108999946154654
0.04533513320643344 -0.010287746561194388 0.001108999946154654
0.05847438109751066 -0.005900919705782433 -0.0016191965355979029
0.05444282398181896 -0.005623339775003899 -0.002030682722458056
0.051223001025144495 -0.005583930248266222 -0.0021894087403007217
0.05284296485199821 -0.006256538235703332 -0.0021470698440749234
0.0541036073239335 -0.0068816742484885006 -0.0021199684826127907
0.05523788053524091 -0.0083790695026582 -0.0021493201767842107
0.0530639201421968 -0.007508957999009193 -0.002208007048736046
0.0593860000371933 -0.009557455401801867 -0.000481113834480331
0.0593860000371933 -0.01083704772314105 -0.0006463467156137924
0.0593860000371933 -0.012151323006606566 -0.00011912842650205354
0.0565554592474249 -0.013180063553311652 -0.0007865717926109875
0.05799410165037923 -0.013143695023105688 -0.0010227522854266778
0.05211612548989376 -0.01295405045347942 -0.0014064509138497704
0.05833416395544495 -0.005991092457654322 0.0001212133103506476
0.05648014964694541 -0.005559741947230646 0.00031218803093873473
0.05848884231396653 -0.008011914301662582 0.0006425788612789117
0.0575942295552324 -0.006995423787278325 0.000510592043173402
0.04380551699290066 -0.011397395683518795 -0.0013134805570228095
0.04507833859653055 -0.012154531056254575 0.00024144304158167258
0.043344033044483844 -0.011722265920940354 -0.00021851405363675915
0.04374385565585265 -0.01123803703835146 0.0010900344408539882
0.05108867321540223 -0.011752559498656747 0.0010742536492646078
0.04835335382123919 -0.011482102161376712 0.001108999946154654
0.058257692299250846 -0.009547595393713693 -0.002046829967114335
0.05844410328020079 -0.010912818626972909 -0.0020227380085855807
0.05907827963216515 -0.007263514743118873 -0.001826850339913626
0.05563290324619379 -0.006612003996609621 -0.0020278606892396665
0.05830487191834601 -0.008305348565818806 -0.0019908217341108496
0.05682017513808605 -0.007461108050448176 -0.0020169639872868917
0.05637639532600273 -0.008987580838763236 -0.002127103564135013
0.05936009758220426 -0.013056283626215462 -0.0009621087916422508
0.05197677707118447 -0.013124342375872955 -6.689644424357304e-06
0.05344458457610545 -0.013177354469888946 0.00018229568884180197
0.05769385547903623 -0.012881224722442502 0.0005349112583373575
0.054961450536689854 -0.013217000290751457 -5.697271744458448e-05
0.050871885901627584 -0.01285830049290906 0.0005001385622580299
0.04743288269665484 -0.01240287812639679 0.0008277506144546543
0.05568410073401249 -0.012577016857046756 0.0008399116879752343
0.049847663571561465 -0.01277854104008719 -0.001439312242457353
0.04835523669391957 -0.01210296667700057 -0.0017547617397059784
0.046941519400239454 -0.011544552060768534 -0.0018639380458833222
0.04580183704374056 -0.01103203053031258 -0.001981329337696073
0.047362776609570736 -0.009053235041952495 -0.0022410000674426556
0.044834310158090876 -0.006324155114667211 -0.0022410000674426556
0.04364560205951657 -0.005999279095152899 -0.0019005026284977457
0.045271919934356995 -0.00912252316058119 -0.0020855908327305165
0.04760393988738218 -0.010377795957988158 -0.002185954584102987
0.04463416138227359 -0.010260529083451587 -0.001848900303403997
0.04457161475518122 -0.0080290527887644 -0.00205760802749604
0.05798206505587737 -0.012376000315376744 -0.001921253031670525
0.05661715100837806 -0.010951713859409368 -0.002167705248825435
0.05280422119340325 -0.011206404713799745 -0.0022410000674426556
0.05493953972163567 -0.011659626307567714 -0.0022410000674426556
0.050616433400746084 -0.011992125138420257 -0.0020658611785788835
0.053557027835144266 -0.012522710728798545 -0.001890122945172372
0.04782383924296156 -0.012757342049812123 -0.000258511838672752
0.049220413264556784 -0.012897500136443325 -0.00013639531225707988
0.04488521583649807 -0.0120404227929298 -0.0010806291331149727
0.049675376315847106 -0.004374870960633251 -0.0022410000674426556
0.04954624417725624 -0.0028649927937206433 -0.002241000067442656
0.051714700672883376 -0.004436940702062339 -0.0022410000674426556
0.0593860000371933 -0.0014212841178670103 -0.0005057370393512551
0.051738893953438045 0.0001849999971454963 -0.0002039615866337308
0.04737001267555907 0.00018499999714549628 0.0001559897380355529
0.04875973129157267 0.0001849999971454963 -5.3536637175242334e-06
0.04410412400372889 0.0001849999971454963 0.00035276434035085567
0.04379976574459382 -0.0026513008364056332 0.0007119435848526813
0.043978608059452785 -0.0011040736946493323 0.0007444392005410685
0.04932889431357071 -0.002502554942330655 0.0006993997110904489
0.04551212784746139 -0.003971421113432843 0.0006013648022538639
0.04697362541852397 -0.0033090180667572824 0.0006513647645386172
0.04793488111275502 -0.0010505144436837354 0.0009115008725521704
0.050921041714856834 -0.0035714989020705287 0.0005306418052493096
0.052198560561453514 -0.0039036855921995035 0.00046074870127854953
0.04538580890515383 -0.0026427389020159276 0.0007698263064464366
0.046271364235826166 -0.0007592363418776654 0.0009848989966115232
0.047947132082240586 -0.004207364145435472 0.000517666480871916
0.05350663860780402 -0.004488587690787033 0.00035866856509011167
0.04929620456291027 -0.003950208336449418 0.000519650969290468
0.04548799312274201 -0.004840000066906214 -0.00040303060706317964
0.044007122499581386 -0.004840000066906214 -0.0003783293014629048
0.047419427302683094 -0.004840000066906215 -0.0008681353176169396
0.04989417334927562 -0.004840000066906215 -0.0009219379597564223
0.04959725662549935 0.0001849999971454963 -0.001241784342512297
0.05655109021235354 -0.004840000066906214 -0.0008323535552607988
