-0.00158636631033 0.0178627249332 -0.0384795237679
-0.00587002718616 0.0173819705216 -0.0483462021264
-0.00255584152542 0.0176837346775 -0.0435187009615
-0.00205701532491 0.0185462921804 -0.0101216203237
-0.00456274727003 0.018423594984 -0.00955523932951
-0.00913941531179 0.0171501526899 -0.0504749671363
-0.00161976805874 0.0183892629028 -0.0173547588183
-0.00646192175393 0.0171973407538 -0.0544354153457
-0.00923054624937 0.0169430888603 -0.0585546956862
-0.00546969415166 0.0171002851603 -0.0604826751859
0.000886305653912 0.017085875672 -0.0749390011805
-0.0035189919318 0.0183302499413 -0.0155666715753
-0.00288046188199 0.019333312073 0.0231429219362
-0.00510335855732 0.0180011739033 -0.0252637182771
-0.0036716605288 0.0185611212319 -0.00600267437428
-0.00327954061543 0.0172498918527 -0.0592840127833
-0.00398660690316 0.0193192184005 0.0249950304991
0.000937130239116 0.0177472841101 -0.0486058343956
-6.01044577712e-05 0.0178576483383 -0.0420155397753
-0.00313799963383 0.0173130493035 -0.0570679745664
-0.00248238115877 0.0188088159753 0.00130340949619
-0.00392017794603 0.0189525843798 0.0101913540807
-0.00629112680796 0.0174388634502 -0.0451519367045
-0.00627940685202 0.0168258323479 -0.0696874855164
-0.00169411578771 0.017939066506 -0.0351919637663
-0.00549831025033 0.0170446291371 -0.0626453994355
-0.00410950568001 0.0175610613394 -0.0450304886349
-0.00333779287041 0.0169588800987 -0.0707919127298
-0.000658817124734 0.0175621926904 -0.0525208579404
-0.00338002738598 0.016862366611 -0.0745584432946
-0.00753095615446 0.0178356336869 -0.026580898643
-0.00125813636195 0.0173738741676 -0.0587413394578
-0.0015118212385 0.0176183124175 -0.0484143147046
-0.0021826262248 0.0182595197994 -0.0213129258283
-0.00633243435208 0.0181663893931 -0.0159740894653
-0.00551826428191 0.0178660792946 -0.0297589450084
-0.0043966258904 0.0193663538958 0.0277749804254
-0.00129508712655 0.0171287278432 -0.0684619849797
-0.00346552830869 0.01773146087 -0.0396239611073
-0.00709008487995 0.0168867265022 -0.0654824846877
0.00093791097146 0.0174784749639 -0.0593549549468
-0.00194672244511 0.0174334765725 -0.0548546088083
-0.00468335804618 0.0191222798737 0.0186426790453
-0.00305267074934 0.0190718133219 0.013063856692
-0.00366673048992 0.0177793691478 -0.0372691275763
-0.00710903142886 0.018183054738 -0.0136118523848
-0.00574780424785 0.01871517453 0.00469049652089
-0.0121903941868 0.0161179817484 -0.067099660841
-0.0174899923792 0.0147884580884 -0.0475507953753
-0.0175845864804 0.0150995518154 -0.0319761164033
-0.0153336486328 0.0160294699071 -0.0236713398401
-0.0131185985896 0.0159055710482 -0.0627457995841
-0.012844750539 0.0168594808619 -0.0235021711623
-0.0133151821917 0.0156461671035 -0.071574078799
-0.0118853334739 0.0164896515535 -0.0548038940143
-0.0154427785529 0.0158281971733 -0.0311764501756
-0.0149804899898 0.0171182541826 0.0205081975296
-0.0160117986212 0.0166227434523 0.01354498375
-0.0154148533272 0.0171924795874 0.030441031196
-0.0155986231184 0.0171807895864 0.0326837905124
-0.0129261444596 0.0162740828164 -0.0488936342152
-0.016459325786 0.0173030441539 0.0512370785959
-0.0159901322616 0.0173314030399 0.0454433127472
-0.0152646705607 0.0149865060662 -0.0721401903191
-0.0129486612478 0.0163126688938 -0.0467990468939
-0.015591170765 0.0161325748209 -0.0150949938315
-0.0147558435014 0.0172726954329 0.0241397657103
-0.0128797254081 0.0166677900378 -0.0316910647332
-0.013951883145 0.0155696060076 -0.0654434121113
-0.0170046025181 0.0153580833413 -0.0289756528525
-0.0108151305403 0.0165050883918 -0.0702586320152
-0.0167901389152 0.0160535959003 -0.000585802770868
-0.0168264385425 0.0158699387636 -0.00838937459276
-0.0136099086913 0.0165570428632 -0.0257036778069
-0.0165171501457 0.0165108348581 0.0160853018327
-0.0179764836142 0.0140408030867 -0.0742049944603
-0.0160721749755 0.0155387504245 -0.0348367722207
-0.0135858757771 0.0162345007048 -0.0407337073995
-0.0173656093465 0.0147424741922 -0.0515196503559
-0.0142469532493 0.0155800696608 -0.0605129568136
-0.0153380785661 0.0153310577621 -0.0553638949936
-0.0164238657584 0.0173776483653 0.0540942781002
-0.0149310220064 0.0160426790369 -0.0291490707432
-0.0177327466042 0.014294898809 -0.0663299687679
-0.0169747455951 0.0150064642761 -0.0454158432923
-0.0167181767394 0.015225300986 -0.0393378984618
-0.0169723313342 0.0157095310925 -0.013481192349
-0.0134796710143 0.017048740574 -0.00531050982294
-0.0160485158442 0.0161813262962 -0.00597360352865
-0.0162213155017 0.0151697009674 -0.049367287961
-0.0168231284722 0.0155648996579 -0.0223106244116
-0.0175594549274 0.0153803329728 -0.0195873462935
-0.0139712580111 0.0161967470849 -0.0366324432585
-0.0165395061498 0.0169840234348 0.037940475916
-0.0140015193439 0.0154923807743 -0.0682057836143
-0.015790883188 0.016510059007 0.00508566672352
-0.0149732781992 0.0157363764393 -0.0424398685857
-0.0170613639822 0.0160327495062 0.00256088132694
-0.0151038790553 0.0172324110143 0.0275621271096
-0.0169770105634 0.0150889465605 -0.0416308689414
-0.0166126564776 0.0158802754998 -0.011146763205
-0.0149120972433 0.0154065908239 -0.0583601044447
-0.0163822313528 0.0171097972455 0.0412855288751
-0.0114167247689 0.0162552998422 -0.0725352722028
-0.0159199841821 0.0157628566555 -0.026943420877
-0.0159820264117 0.0165111952366 0.00802299881399
-0.0140149420142 0.0169409046341 -0.00213330251346
-0.0153214307963 0.0150202030728 -0.0697509587756
-0.0148191070981 0.0163028972537 -0.0190055316657
-0.0152612905496 0.0154351975923 -0.051787522628
-0.0166597032174 0.0174387550295 0.0604334347796
-0.0169467610217 0.0148297967951 -0.0538720590193
-0.0160006496681 0.0176061505243 0.0580958965294
-0.0150705724959 0.0156138661229 -0.0465420356718
-0.0175015285291 0.0145348344503 -0.0589098586695
-0.0128273373408 0.0162388956199 -0.0519854064329
-0.0162066909079 0.0167490379445 0.022230332989
-0.0161963388546 0.0166632032255 0.0181708211671
-0.0174951373011 0.0157510224612 -0.00370169227325
-0.013502061826 0.0153254413639 -0.0754089784696
-0.0124018194826 0.0153829338511 -0.077159212526
0.0230570879386 0.0084723737513 -0.0686779213816
0.0221115492351 0.00848821064079 -0.0726138121744
0.0257619656269 0.00162216573818 -0.0758834221666
0.0255183120536 0.00282729879892 -0.0736386515693
0.022946089582 0.00675435675626 -0.0738067684831
0.0215505840892 0.00989846383137 -0.0711477167306
0.0244879030841 0.0053378111533 -0.0711624902399
0.0245637027016 0.0060006206924 -0.0690450186896
0.0254331646654 0.00531022727214 -0.0672596405208
0.0254253703344 0.00843720141443 -0.0367279119757
0.023896205038 0.00832871673479 -0.0602257519695
0.0239226845081 0.00933465085564 -0.0468025368243
0.0214498334429 0.0107923509618 -0.0636299522132
0.0260220850725 0.00919649360678 -0.0182640520452
0.0251199509383 0.00769850926468 -0.0507164465534
0.0279432874416 0.00774817787531 -0.0092845121198
0.0235303029801 0.00937711532917 -0.0519206770065
0.0237552382248 0.00892002245217 -0.054596728443
0.0251615111524 0.00784813110163 -0.048176377187
0.0264143035959 0.00821985401361 -0.0252586742014
0.0216957429684 0.0108265897167 -0.0596334957325
0.0290030888469 0.00801959700622 0.00954478455341
0.0246525468185 0.00882561835458 -0.0428573639981
0.0261231497349 0.00703856295237 -0.0447788572739
0.0227088863694 0.0094889924612 -0.0623371328165
0.02615089948 0.00717192880638 -0.0426490427404
0.0264322508915 0.008908433081 -0.0160728310565
0.0236872417479 0.00827819756151 -0.0638995105208
0.0253931420215 0.00922674437657 -0.0269580732981
0.0281657004585 0.00834971819473 0.0017268485865
0.0212094503861 0.0107178503707 -0.0680685133219
0.0265395488434 0.00640809689929 -0.0469364432226
0.0251499931834 0.00684109699764 -0.0613977071309
0.0296430093268 0.00803785325153 0.0190262265482
0.0253816960945 0.00829471032408 -0.0392060809742
0.0287318225526 0.00876266156533 0.0152587665763
0.0278584113471 0.00897117703276 0.00534395240818
0.0254117957097 0.00710439179884 -0.0542022243711
0.0259492955506 0.00837109397246 -0.0300158941062
0.0254937783518 0.00857278826519 -0.033981925017
0.0234851246205 0.0100003642363 -0.0444937180678
0.0278325799653 0.00747619778907 -0.0144097559255
0.0234731136091 0.0083511208523 -0.066047607812
0.0265953077398 0.00932977477881 -0.00825502308658
0.022923251679 0.0103312266338 -0.0483217417597
0.0264114213678 0.00634727645679 -0.0495759298021
0.0250262088494 0.00726729566455 -0.0576608581792
0.0273183585961 0.00760464860167 -0.0201733811999
0.0274968216368 0.00686195468677 -0.0272232639066
0.0224305948142 0.0102170369752 -0.0569193590238
0.0283137274166 0.00798162106751 -0.000906559671699
0.0267983197145 0.00664977954729 -0.0400649324655
0.0267136802731 0.00813010577579 -0.0220971267002
0.0276994684012 0.00837624278699 -0.00466483244958
0.030091451074 0.00524458280385 0.00497396022267
0.0310941648418 0.00449811311143 0.0165835423705
0.0298900054004 0.00793262816815 0.0224601505456
0.0311815792022 0.00683285394351 0.0363345771374
0.0316989317059 0.00426103662308 0.0252499465252
0.0304645927027 0.0049480077466 0.00914753297192
0.0323348714853 0.00480415376942 0.0405506171474
0.0315360619417 0.00380294465189 0.0188404425792
0.0289786618258 0.00620307647133 -0.00689437845172
0.0325277655496 0.00412349582978 0.0385903644662
0.0321302548041 0.00449583274643 0.0345845694295
0.0300626512197 0.00672442499494 0.0160284263335
0.0291934379121 0.00730442152728 0.00544067187816
0.028216415545 0.00564165173327 -0.0245346235426
0.0273695248207 0.00633695343117 -0.033833802818
0.0311053145827 0.00528076528785 0.0228887795806
0.0296929713008 0.00700977866734 0.0118274347759
0.0307326725885 0.00465198609346 0.0114982786578
0.0291750321968 0.00672002392204 0.000557313073944
0.0306459162173 0.00581137867746 0.0190425853467
0.0293759902666 0.00506617628842 -0.00886183686825
0.029897304201 0.0059707161759 0.00726751943672
0.0320295245616 0.00434305029878 0.0316397511621
0.0284767839475 0.0067591407169 -0.0112806090971
0.0294188177873 0.00457148448298 -0.0119798104287
0.0315304146553 0.00411116905136 0.0211489960422
0.0309871038735 0.00437164401966 0.0137340927934
0.0307618375618 0.0066583212084 0.0276719354551
0.0297471904573 0.00572722275685 0.00275554799912
0.0283186937195 0.00634438789836 -0.0172685779945
0.0308381685294 0.00717952185328 0.033069210401
0.0294346380593 0.00545216496997 -0.00482789427492
0.0288140252704 0.00547222734501 -0.0154644299175
0.0284652868117 0.00564284938989 -0.0201971051623
0.0315688509301 0.00630649559269 0.0389596290209
0.0317633330029 0.00465352148762 0.0294346747476
0.0276903228565 0.00621168630168 -0.0292328913597
0.0293452523365 0.00599786320189 -0.00212134000658
0.0266093819997 0.00547665373533 -0.0532210502167
0.0287475616788 0.00283962655417 -0.0271544133831
0.0263630399712 0.00463653087048 -0.0593282393772
0.027986599649 0.00385734388273 -0.0362163751163
0.0279042920907 0.00240850371991 -0.0414265961082
0.0265211991043 0.00211716032832 -0.0637070311039
0.028298690985 0.00424689905614 -0.0303101973936
0.0261887527797 0.00330924316209 -0.0656377721685
0.0267887009943 0.00350584373594 -0.0557825750432
0.0303959085492 0.00318279356352 -0.000611959663721
0.0267863251929 0.00273747479675 -0.0579044236958
0.029070855346 0.0043581213097 -0.0180108520891
0.0259366629386 0.00254181548838 -0.0716370131749
0.0291318874431 0.00323905839389 -0.0200990891337
0.0308837465167 0.00293876018331 0.0063056775832
0.0301293536631 0.00348801762787 -0.00392535998385
0.0271747718387 0.00426707667611 -0.0477184055234
0.0259182488561 0.00532028036714 -0.064383883777
0.0306152489583 0.00324763764771 0.00297200621724
0.02666846168 0.00262998200133 -0.0600274117495
0.0277100066101 0.00421673030246 -0.0395387767076
0.0273428563467 0.00227854844096 -0.0505025644737
0.028801509078 0.00330306874537 -0.0250586730184
0.02949930159 0.00336448956344 -0.0140500186008
0.0269481647337 0.00436431477602 -0.0509754754115
0.0287771282029 0.00433353118564 -0.0226413788766
0.0270798926808 0.00296804814036 -0.0527174513754
0.0281854505643 0.00399476732669 -0.0327538251155
0.027478951791 0.00424634329605 -0.0430484508914
0.0272970832352 0.00432929968416 -0.0456491457482
0.0285564875595 0.00202200430995 -0.0323418197658
0.02609013803 0.00513040880255 -0.0622283536636
0.0261715647877 0.00198984044489 -0.069484971428
-0.030753749944 -0.00545653121502 0.0668341322679
-0.0293682444817 -0.00687966713453 0.0762842075453
-0.031365150964 -0.00300334239372 0.0754589095596
-0.0301569171203 -0.00579436926733 0.0728341802018
-0.0312981585286 -0.00467098826348 0.0647076533098
-0.0316911029627 -0.00361616153006 0.0665926385889
-0.0290175645598 -0.00835281422219 0.0708740981704
-0.0320397380282 -0.00349753671278 0.0625359101772
-0.0283545818288 -0.00885366069149 0.0766589274268
-0.0273026349735 -0.0109293980167 0.0768571944692
-0.0307212555907 -0.00499177086722 0.0705478209949
-0.0316396034058 -0.00274876189191 0.0733953979404
-0.0316277569709 -0.00460920899582 0.0605193427847
-0.0326321275251 -0.000939521197624 0.0721621126339
-0.0313685602385 -0.00547911332754 0.0580553895329
-0.0317507849089 -0.00173193890958 0.0789646496736
-0.0316110684949 -0.00533270016912 0.0556814990949
-0.0321566748701 -0.00122126961541 0.076853454422
-0.0294401992953 -0.00814913697487 0.0663760353858
-0.0294466891072 -0.00630114715724 0.0792398689243
-0.0308376702055 -0.00591930772732 0.0624132928075
-0.0286597371111 -0.00874123366589 0.0731683939866
-0.0328212175987 -0.00361121227048 0.0507816624484
-0.0322998223652 -0.003522017359 0.05871757586
-0.03035420174 -0.00471043576477 0.0776666146859
-0.0306722074581 -0.00662974066044 0.0597529984172
-0.0319298467838 -0.00256552622093 0.0706103334352
-0.0302968522102 -0.00516754612303 0.0752662817844
-0.0302460371893 -0.00675413103356 0.0648564529889
-0.0307786884218 -0.00798917707916 0.0347856846426
-0.0306886815587 -0.00681922246987 0.0125020292573
-0.0307849618823 -0.00781468562955 0.0321644917012
-0.0312064737587 -0.00627354536804 0.0220663893801
-0.0304340906435 -0.00654975895837 -0.000968204379825
-0.0305198789708 -0.00814163758899 0.0280439826691
-0.0307576741253 -0.00571952372744 -0.00296735979328
-0.0298747884507 -0.00567749164344 -0.0351303119288
-0.0305956579516 -0.00526829509411 -0.016100460193
-0.030572504706 -0.00675112642804 0.0072497367074
-0.0306969158764 -0.00694182581802 0.0147945008134
-0.0312665228764 -0.00702864039306 0.0365181970567
-0.0320685979603 -0.00540500324472 0.038643372096
-0.0301360941001 -0.00492816503722 -0.0380307569686
-0.0294544384597 -0.00492188926731 -0.0624362593167
-0.0299575563726 -0.00688066938535 -0.012563086716
-0.0299769249334 -0.00635560801365 -0.0204329956082
-0.0311555977032 -0.00741066484935 0.0387917871347
-0.0324369664809 -0.00394411269427 0.0279589104369
-0.030125896194 -0.00482087321144 -0.0401436017285
-0.0315092195449 -0.00465097453939 0.00640627747323
-0.0299281537788 -0.00579382967013 -0.0313309249409
-0.0307305398929 -0.0054141456836 -0.00891358271157
-0.0310781667278 -0.0053251513181 0.00202947543766
-0.0308736122125 -0.00724840302837 0.0260926376112
-0.0312253215619 -0.00599689269247 0.0182279024411
-0.0319496675408 -0.00579216982123 0.0407153855195
-0.0315978953718 -0.00459103906 0.00859067979091
-0.0325131994614 -0.00430249409743 0.0365198118553
-0.0303052128855 -0.00549830902209 -0.0227056620238
-0.0307464636074 -0.00557829961516 -0.00566953024989
-0.0320392110655 -0.00430450079397 0.0196533400177
-0.0317433442969 -0.00450356834888 0.012350295964
-0.0300462912033 -0.00481059026357 -0.0431494223481
-0.0318419640539 -0.00514416502208 0.0263105188157
-0.0321483937639 -0.00488892636258 0.0330743666143
-0.0318892455341 -0.00529430587708 0.0304441095698
-0.0322958902841 -0.00404348325785 0.0245492078792
-0.029521971427 -0.00493139913892 -0.0598734486177
-0.0311338220041 -0.00427983527554 -0.0130287893609
-0.0287173863534 -0.0100362399451 0.059970337627
-0.0290825150955 -0.00960241055297 0.0577170484689
-0.0298187101429 -0.0079192172514 0.0622800280079
-0.0294946160448 -0.00952202684539 0.0505642861592
-0.0282283672863 -0.010594742575 0.0632419177554
-0.0317728385424 -0.00625628499524 0.0427995349496
-0.0303102432801 -0.0077923249072 0.0540979055583
-0.027739398197 -0.0106083464104 0.0726499126552
-0.0304478380726 -0.0087101166093 0.0410699803957
-0.0324820343072 -0.004802815395 0.0453029928842
-0.0306299969881 -0.00818793039215 0.0433896474832
-0.0309673185003 -0.00729314040424 0.0468720620138
-0.0317784402029 -0.00548409627869 0.0513874415718
-0.0282727239611 -0.0100439337583 0.068578533496
-0.0306745300239 -0.00743243087596 0.0510283200069
-0.028029065387 -0.0106649872557 0.0663478425474
-0.0320288195885 -0.00539717207432 0.0474706236565
-0.0316048429533 -0.00559438529214 0.0535397081514
-0.0322517226272 -0.000156495052873 0.00820362475295
-0.032201212428 -0.00225236357662 0.0123883622025
-0.0297939297821 -0.00426342203484 -0.0570119018533
-0.0305693458404 -0.00404685125266 -0.0334727615514
-0.0318498959875 -0.00125564669746 -0.00128371643064
-0.0320361499467 9.47884210698e-05 0.000803941715514
-0.0310996100993 -0.00350956210816 -0.0184446429323
-0.0315305838223 -0.000230467716952 -0.0140378739427
-0.0326341505356 -0.000984684659066 0.0223811136721
-0.0307763474112 -0.00221218426514 -0.0320694168437
-0.0322265304226 -0.00364176900987 0.0169926988428
-0.0313499222795 -0.00370171743254 -0.0101261395855
-0.0301518874735 -0.00415857076149 -0.0461588468599
-0.0307172516204 -0.00206063299393 -0.0343249833591
-0.0300907605747 -0.00368124029189 -0.0493724614736
-0.0323165627057 -0.0017910349992 0.0147113661742
-0.0327382567323 -0.00177994031309 0.0278056725255
-0.0325201455614 0.000199455290809 0.0155803002888
-0.0328532092614 -0.00294498622492 0.0345835311199
-0.0320452128563 -0.0012175785571 0.00469075112279
-0.0329611278742 -0.00302584029556 0.0381644692342
-0.0317977259393 0.000388752318979 -0.00742419689525
-0.0317732546978 -0.0027023605163 0.000304656769317
-0.0317913774494 -0.00107625968192 -0.003597774222
-0.0323874806194 -8.151285723e-05 0.012222991805
-0.0316027243041 -0.00219656017674 -0.00639222536319
-0.0318302701755 -0.00324406455791 0.00356712546162
-0.0310116802636 -0.00242880131685 -0.0241499391353
-0.0312919882771 -0.00277954403183 -0.0144622482627
-0.0320484216556 -0.00212450896192 0.00728172712204
-0.0324536700508 -0.00240985323208 0.0206784224679
-0.0299344062658 -0.004282990929 -0.0525859691198
-0.0307822047039 -0.00347067035841 -0.0284303758626
-0.0312831626922 -0.00212426665126 -0.0165368143741
-0.0305443736371 -0.00322416337755 -0.0365097078308
-0.032411888066 -0.00165126320038 0.0172943498735
-0.0330946310986 -0.00287927493472 0.0419170384035
-0.0310925679711 -0.00273784455169 -0.0207835321796
-0.0315829930565 -0.00323593512584 -0.00415144282639
-0.0326418426498 -0.0021189196503 0.0257359755825
-0.0315162705348 -0.00153939791502 -0.0108880639058
-0.0328947104333 -0.00151642343808 0.0319513151525
-0.0325669479296 0.000322746925174 0.058684384453
-0.0326158421664 -0.000206314783234 0.0659629343909
-0.0329944288656 -0.00238136710391 0.0568556020819
-0.0325660115201 0.00154379864979 0.0172884136558
-0.032561850663 0.000277239790848 0.0613551991308
-0.0326317259061 0.0010241595249 0.0205489073297
-0.0326862742329 0.000522227964784 0.0256603666112
-0.0325596225276 0.00092582726859 0.0397472651983
-0.03292298346 -0.00201465656948 0.0600651184948
-0.0330298563076 -0.00229673588214 0.0461853190785
-0.0328443320585 -0.00123828473449 0.0509011458582
-0.0326802048323 -4.24674125124e-05 0.0462338348667
-0.0328766245093 -0.00122737325572 0.0434315910458
-0.0330124150043 -0.00239514633631 0.0533717608669
-0.0329418419824 -0.00155582406025 0.0402874312951
-0.0330016726684 -0.0021923880559 0.0488248306134
-0.0327147400347 -0.000505579194376 0.0544215186115
-0.0328433331879 -0.000745151508357 0.0343194202462
-0.0326639682248 -0.000588321986214 0.0684001136385
-0.032570917892 0.000955378954136 0.0362577343707
-0.0328388647664 -0.000807281697389 0.0374183715136
-0.0326557509365 0.000599014051194 0.0297531697445
0.0265066730772 0.0105455098098 0.0117155145638
0.0273404020649 0.0110317570565 0.0340807271173
0.0250171049694 0.0118870677206 0.0129433952081
0.0253486039125 0.0111114959781 0.00378159503952
0.0238814525068 0.0132664103521 0.020523108269
0.0266565633294 0.00980013040662 0.000218213650268
0.023994809486 0.0115967927811 -0.00877924215244
0.0242114898957 0.0118441746894 -0.000711810953037
0.0247940835364 0.010465514918 -0.0171044721614
0.0221806299615 0.0128034286755 -0.0152455945432
0.0277582225088 0.0109545859601 0.0393102858167
0.0238845006074 0.0129570659277 0.0148074925144
0.0231527424668 0.0108254148448 -0.036590576029
0.0236965970804 0.0109158790332 -0.0262260935723
0.0217287351369 0.0113030710844 -0.0504142382262
0.0257234956326 0.0115428665662 0.0178021560883
0.0266145979882 0.0115156986555 0.0315160616305
0.0247102669012 0.0134667938564 0.0374831709294
0.0222012023214 0.0117638661643 -0.0342882854019
0.0282856013962 0.00956603105219 0.0218521277604
0.0276995170168 0.0101928509997 0.024179463285
0.0241672046494 0.0117452151897 -0.00326250161341
0.0284195680291 0.00969071286792 0.0263132515336
0.0216379762678 0.0119605094392 -0.0396119974889
0.0293815853783 0.00931489380476 0.0346621231832
0.026282090059 0.0121049299936 0.0371895336656
0.0259485213533 0.0102749607695 -0.00223278233494
0.0295902026153 0.00880194332907 0.028433013599
0.0244374327907 0.01224573015 0.0103762669483
0.021714619376 0.011699859619 -0.0432458247461
0.0241970532123 0.0121723857005 0.00517362252418
0.0274179951873 0.0100271592742 0.016599494638
0.024966559968 0.0101627047257 -0.0199946054788
0.0268410187937 0.00979303321389 0.00302949296578
0.0248666512373 0.0100173752745 -0.0242969793032
0.0260484989601 0.00997499240879 -0.00622689254218
0.0238310297167 0.0113875524968 -0.0152917660056
0.025560786377 0.0101944731503 -0.00992001775014
0.0240700726055 0.0141261155193 0.0395526542866
0.0226967330077 0.0116584959182 -0.028344089169
0.0286961743648 0.00975734625992 0.0319689475197
0.0246791187229 0.0131474460233 0.0310354520904
0.021081255458 0.0115519186294 -0.0561097004511
0.026504792386 0.0103325502376 0.00771726000523
0.0247505432348 0.0118628094442 0.00823759897709
0.0253513136949 0.0117428170886 0.0155887386301
0.0232684763615 0.0105376186767 -0.040106434538
0.0262692881085 0.0113346434092 0.0226318873952
0.0255068822383 0.0126063069861 0.0341613741811
0.0244663923954 0.0129574141357 0.0240997677345
0.0263118295877 0.011155626032 0.0199749901204
0.0245626396975 0.0129860826035 0.0261698772053
0.0245512301097 0.0131446163214 0.0289418868575
0.0241894438485 0.011977626766 0.00142309697139
0.0240627281226 0.011363713601 -0.0120385485446
0.0262199684652 0.0115270301254 0.0254297405945
0.0221454307912 0.0112031521582 -0.045626506981
0.0239420620811 0.0103072792998 -0.0336494968147
0.0241132467912 0.010779188264 -0.0221242940616
0.0223509933948 0.0122183515223 -0.0234291484563
0.0238081218441 0.0105932159378 -0.0304588238732
0.0300453310686 0.00885083624565 0.0366069803589
0.0270220061271 0.0102434550893 0.0143107394985
0.0278143332661 0.0103317636858 0.0286001615926
0.0239612857672 0.0117711785016 -0.00606474540123
0.0237868656624 0.0148820621156 0.0723529900885
0.0236350244518 0.0150016682031 0.0753391778929
0.0221673671706 0.0156431726599 0.0620240307625
0.0248180850174 0.0142318484242 0.0653581286228
0.0228860480671 0.0153271424599 0.0683885239126
0.0244662199705 0.0143147723369 0.0563564482966
0.0212446167262 0.0163102399201 0.0752706174917
0.0226262581203 0.0152918039726 0.0538272877967
0.0257001699244 0.0138747245247 0.0756911151119
0.0190952329346 0.0174872179174 0.0752375839524
0.0225125242993 0.015494515138 0.0653364668319
0.0223893741894 0.0154588755383 0.056885698604
0.0238944075385 0.0147136808201 0.0633797452788
0.0203841487671 0.0166930677618 0.0680151380476
0.0216808077539 0.0160304691084 0.0719233849364
0.0237214034169 0.0147573008864 0.0591872869388
0.0280096153522 0.0109307047345 0.0454291409353
0.0291112275752 0.00981712131173 0.0405475845906
0.0265221408948 0.0121939888751 0.0441983232615
0.027129803525 0.0123215002397 0.0656464245596
0.0278798861789 0.0113652386977 0.055877867773
0.0275434887348 0.0112243866568 0.0417176912114
0.0273126980298 0.0120579557624 0.0622759312844
0.028974846935 0.0102134820244 0.0495646325317
0.0258766618137 0.0135005616633 0.0683453524649
0.0274013821488 0.011554439345 0.0484137729469
0.0249492533458 0.0136657122349 0.0473196201177
0.0258161920641 0.0133157798727 0.0606103198298
0.0246247613294 0.0138821457449 0.0451260586568
0.025800058001 0.0127383528601 0.0413589196083
0.0274528925208 0.0116540618012 0.0531222857085
0.0249312378654 0.0137491720392 0.0495229377012
0.0264031302407 0.0124970321532 0.0506728660458
0.0291593922283 0.00984965671931 0.042977535936
0.025399495327 0.0136022456186 0.0580711404703
0.0257052629687 0.0137604474648 0.0719240220351
0.0248354005569 0.0139772902404 0.0542187505898
0.0162415511049 0.0151947249385 -0.0319609357971
0.0173783956454 0.015938727505 0.00506419456694
0.017510916023 0.0160646881434 0.0105738803176
0.0182936377795 0.0170754655965 0.0512341345838
0.0166050187081 0.0157880471007 -0.00930835277009
0.0193037328664 0.0169701416686 0.0608133815738
0.0174939826748 0.0152472146928 -0.0145129958579
0.0176833970501 0.0170027658154 0.0412989025822
0.0202119098701 0.0158750129158 0.0389867989488
0.0176360360809 0.0148619187299 -0.0244382271328
0.0205004828173 0.0145458536029 0.00219780748674
0.0153618473157 0.0151089581834 -0.0457040925433
0.0197891316582 0.015224205932 0.0138345343251
0.0226516969542 0.0147113492072 0.0344591474519
0.0210730872428 0.016211691163 0.0601297534291
0.0218132360261 0.015474283376 0.0470606617687
0.016540488369 0.0151501561914 -0.0295336158932
0.0236468991781 0.0145934408005 0.0434670119345
0.0169768544657 0.0157578888219 -0.00551996840915
0.0184044629669 0.0168034381724 0.0443600014186
0.0172104176887 0.014559098175 -0.0390385515332
0.0201425659945 0.0153442535053 0.0219602138943
0.0218807763791 0.0145601403996 0.0201016107651
0.0219063704406 0.0148124299182 0.0281017290034
0.0191724658547 0.0161617700134 0.0345564215095
0.0206176438981 0.0154718858963 0.0318562014225
0.0227093810815 0.0146077240765 0.0320362892852
0.0221422921145 0.0149963274497 0.0366828665857
0.018724809569 0.0171198472827 0.0580414445756
0.0202654174849 0.0166456499295 0.0631115098609
0.0161632550698 0.0146956553159 -0.0481366220305
0.017821079931 0.0164567747201 0.0264290240643
0.0190872046756 0.0157019153199 0.019485742977
0.0162819708407 0.0150074364058 -0.03714784841
0.0199389238501 0.0162769588814 0.0477615314847
0.0199481810882 0.0156818369571 0.0297714254982
0.0172978871281 0.0164692944579 0.0201883794217
0.0181900462451 0.0156956663712 0.00794109918553
0.0206962431224 0.0161155114555 0.0524340048322
0.0171632507804 0.015231430994 -0.019179003582
0.0165929185139 0.0146805933509 -0.0431570429756
0.0209062363922 0.0148223932829 0.0157470953624
0.0208322605463 0.0157744390605 0.0437779343792
0.0168317201492 0.0159414495126 -0.00177175617859
0.0226779785345 0.0149250676922 0.0412943990964
0.0194704153557 0.0147329018694 -0.00514765492196
0.0204731940836 0.0148479683193 0.0110446253591
0.0187058357 0.0152218522713 5.26369690195e-05
0.0214138177076 0.0157395337853 0.0500761376177
0.0179404679814 0.016503140469 0.0293507402785
0.019983097329 0.0155448602966 0.0260456565423
0.0179234287377 0.0167952353489 0.0380224115511
0.0182861416129 0.0175686945435 0.0661463182697
0.0186337919928 0.0146687347164 -0.0176883895424
0.0186856419084 0.0151295610785 -0.00301100262828
0.0197831867188 0.0149282546202 0.00475463694461
0.0184386576861 0.0146421522669 -0.0209668271784
0.0184241140915 0.0163824386899 0.0317993161104
0.017846914424 0.0144141465671 -0.0347702605943
0.0224915205625 0.0138749215037 0.0121634712524
0.0226875018082 0.0142284018632 0.0223992724867
0.0193070844027 0.0132608281326 -0.041601988719
0.020392192984 0.0124615986524 -0.0454096388289
0.0184147276872 0.0133188493261 -0.0516193529452
0.0226544753163 0.0143927697863 0.0255880127835
0.018583949826 0.0124727324945 -0.0680440073373
0.0230266396996 0.0138272415573 0.0178878224161
0.0208950199911 0.012975594482 -0.0277694189135
0.0171199867166 0.0131009175686 -0.0727828905799
0.0195693414814 0.013441907203 -0.0343105131189
0.0193246365073 0.0139502807369 -0.0262517553428
0.0194713528393 0.0143777398845 -0.0150160122976
0.0180585017059 0.0137456774722 -0.0467608980071
0.0184583420344 0.0124309752163 -0.0705495007086
0.0198544851164 0.0143376158327 -0.0110488707735
0.0164929026815 0.0135763950915 -0.0702839703981
0.0210510867708 0.0135350219577 -0.0135196850256
0.0215607316001 0.0130203818753 -0.0183638120931
0.0210345286379 0.011949783551 -0.0485129180017
0.019123658031 0.0134667781655 -0.0394037664314
0.0217538023701 0.0135168497647 -0.00502736417201
0.0203193048208 0.012870438288 -0.0373609807225
0.0221371121851 0.0133933568923 -0.00288727770312
0.0219003459479 0.0133279972796 -0.00731708438761
0.0221220691603 0.0138036030395 0.00592412403848
0.0197097412728 0.0122813764996 -0.0579987949563
0.0163585096433 0.0143967858428 -0.0539831318936
0.0215969447024 0.013800812711 -0.000781202646493
0.0168410991487 0.0135830335962 -0.0657327750333
0.0172112938595 0.01359545496 -0.0607763593575
0.0217852412279 0.0127602119996 -0.021231937892
0.0209600291964 0.0128278411448 -0.030188938401
0.0216522409481 0.0133125103954 -0.0107960330003
0.0193620307495 0.0121811851219 -0.0645966045408
0.0191451594191 0.0138229137425 -0.0313172979089
0.0173074077025 0.0137548143605 -0.0560635783543
0.0178312428276 0.0133483975197 -0.0583534998876
0.0161252121477 0.0138850907385 -0.0681626653427
0.0198946831859 0.0120213914625 -0.0613634927222
0.0164974797109 0.0138923062736 -0.0632942507576
0.022505562085 0.0134246672315 0.00246152891143
0.0185087904482 0.0136258671978 -0.0436925607693
0.019989293093 0.0144232637013 -0.00746391342948
0.0192792543506 0.0129256732443 -0.049308166243
0.0197808466715 0.0137855161218 -0.0240948981002
0.021257018387 0.0144299437495 0.00872246777256
0.0199417626086 0.0123429772052 -0.0537115017653
-0.0254675399863 -0.00812391884026 -0.077000330503
-0.0225005512184 -0.0109275057035 -0.0781006899043
-0.0299777026077 -0.00766146989228 0.00277584623029
-0.0288790940425 -0.00697455742189 -0.0400530140008
-0.0292145324485 -0.00627417754117 -0.0444410556016
-0.0290615207683 -0.00608234859671 -0.052251407891
-0.0300806796857 -0.00851950724952 0.0220204141185
-0.0264969986071 -0.00850896651669 -0.0748912409053
-0.0296970424667 -0.0071303269394 -0.0149906243005
-0.0273565898392 -0.0102467120183 -0.0183471658664
-0.0275808710206 -0.00749571673811 -0.0650859406211
-0.0243112828635 -0.0116137046473 -0.0742955493238
-0.0285653585965 -0.00653488885267 -0.0569566748392
-0.028874489568 -0.00561153523925 -0.066333486604
-0.0279659026623 -0.00988970263641 -0.00875518543945
-0.0294925082457 -0.00821686354026 0.00034030012881
-0.0276478598459 -0.0091505333835 -0.031522463819
-0.0280406804933 -0.00898473890907 -0.0241033621678
-0.0276293227348 -0.00872495076022 -0.0401895815905
-0.0254717733961 -0.0111234679825 -0.0523860762873
-0.0259857572922 -0.0108967912334 -0.0428655805495
-0.0270226917707 -0.0101254546175 -0.0296846677931
-0.0282724855777 -0.00682534494546 -0.0592863452363
-0.027431183814 -0.0088105650407 -0.043893640714
-0.0247867195759 -0.0112472937845 -0.0684967688548
-0.0284147397117 -0.00892065974732 -0.0152386538421
-0.0278555449569 -0.00872177535361 -0.0341456741013
-0.0269238715747 -0.0087226741345 -0.0592706066645
-0.025243540477 -0.0110903163357 -0.0591813559034
-0.0258593986438 -0.0106924793858 -0.0501962181814
-0.02726932474 -0.0101890251257 -0.0218091096493
-0.029792643041 -0.00646932025548 -0.0250953740234
-0.0275541700135 -0.00903640503289 -0.0362408898812
-0.0257370875968 -0.00998519398323 -0.0670696232905
-0.0294394988727 -0.00777818121868 -0.00950846914643
-0.0288720470209 -0.00749554695784 -0.0302454647114
-0.0292638522188 -0.00706958565376 -0.0278463331978
-0.0277623555521 -0.00692515218851 -0.0711374493508
-0.0260771047767 -0.0100203512576 -0.0572192408265
-0.0287706797455 -0.0063670146868 -0.0546373521412
-0.0279871827049 -0.00676862319312 -0.068074024424
-0.0263976289417 -0.00880130901401 -0.0719628211988
-0.0293084534658 -0.00588158612177 -0.0494402763758
-0.0282780205603 -0.00771568548385 -0.042051460356
-0.026954267267 -0.0104200875008 -0.0258772083459
-0.025307449283 -0.0101397074185 -0.0756987698087
-0.0278534372975 -0.00664136367248 -0.0741253774709
-0.0276058596893 -0.00941190601367 -0.0276401756202
-0.0287904951882 -0.00894921802728 -0.00455046991939
-0.0290982159162 -0.00929129605033 0.0103181277497
-0.0286245927477 -0.0074548369068 -0.0377044974394
-0.0242416296737 -0.0118423474669 -0.0717875878828
-0.0268306644799 -0.00913525341645 -0.0538685554987
-0.0285409418524 -0.00841372840164 -0.0215609028762
-0.027824594356 -0.00788406251356 -0.0510565074146
-0.0285417509182 -0.00888397754222 -0.0125150503573
-0.0286739565823 -0.0090057041272 -0.00661142520086
-0.0291749140096 -0.0090163475837 0.00711168112827
-0.0270058299309 -0.00846809275076 -0.0619442579573
-0.0286397123569 -0.00693455184877 -0.0472806806753
-0.0263076948026 -0.010623834281 -0.0394157682676
-0.0259214897945 -0.00989582477272 -0.0638083206107
-0.0267464649209 -0.009580437701 -0.0475977408588
-0.029904197689 -0.00848053955542 0.0165100780548
-0.0291123466286 -0.0077463035235 -0.0189487431773
-0.0260451659436 -0.0094465692475 -0.0690919447743
-0.028388226752 -0.00654630096259 -0.0615177659248
-0.0288266316396 -0.0102100935395 0.053935054016
-0.0291312230787 -0.00999825623887 0.0483499206572
-0.0279800573232 -0.0112948843954 0.040137893441
-0.0275445228885 -0.0115983766506 0.048089378901
-0.0271110178756 -0.0118598978316 0.0584012056864
-0.0294102996255 -0.00977345193946 0.0450480878121
-0.0267025833956 -0.0125190649793 0.0437170841643
-0.0291182751021 -0.0101182052657 0.0420292440511
-0.0272867798131 -0.0117532735335 0.0542553418308
-0.0269027067607 -0.0120223285107 0.0611832232386
-0.0281414382166 -0.0109372327284 0.0516856255908
-0.0234005101351 -0.0142604167724 0.0507596127326
-0.022886734708 -0.0144006157914 0.0590218638421
-0.0257025873133 -0.0126825688659 0.069874825072
-0.024801584743 -0.0136306764154 0.0428534635508
-0.0222952077181 -0.0149938394522 0.0430095388262
-0.0239063821986 -0.0137721528078 0.0633266870608
-0.0228374188239 -0.0144992650152 0.0547790880372
-0.0235383948305 -0.0140088827638 0.0611867155003
-0.021307297056 -0.0155666475552 0.0409722728809
-0.0262700958588 -0.0127110394996 0.0499113640584
-0.0251048258708 -0.0132444212269 0.0559177372359
-0.0252843872387 -0.0133113237397 0.0461790024769
-0.0263959332247 -0.0123416219682 0.0676948403218
-0.0241087279992 -0.0138398676193 0.0528060067105
-0.0243198483592 -0.0138043392794 0.0481055692904
-0.0259632466587 -0.013041103717 0.0402848622267
-0.0231673584182 -0.0145620080563 0.0404422634203
-0.0223689922542 -0.0148885822069 0.0468547456248
-0.0263123100834 -0.0122683824012 0.0747178201659
-0.0250471526565 -0.0131193489091 0.0651687483175
-0.0250107994061 -0.0133925212136 0.0298473509737
-0.0216406939829 -0.0149314106972 0.0118531320171
-0.0215163663077 -0.0152310867517 0.0258770427023
-0.0218689033212 -0.0138834433306 -0.0439948923665
-0.020287555828 -0.0156233513423 0.00910630561782
-0.0207113279324 -0.0146915429585 -0.0332740303187
-0.0213877622039 -0.0144745616721 -0.0241054563324
-0.0225997047127 -0.0142420483482 0.00176918126475
-0.0223339613951 -0.014344885023 -0.000768939671017
-0.0198710447087 -0.0157039844111 0.000257727108224
-0.0198238309002 -0.0162211449364 0.0299732467519
-0.0202015447444 -0.0156132544536 0.00566167061523
-0.0205559663913 -0.014163498902 -0.0703225970471
-0.0208633365856 -0.0143210716743 -0.0506666276585
-0.0202654744249 -0.0157121301641 0.0137469178611
-0.0225331123383 -0.0143421394644 0.00562715908195
-0.0228993849961 -0.0145078411538 0.0277155243146
-0.0229373567882 -0.0146114583928 0.0352321540685
-0.0223692522785 -0.0140763665756 -0.015842640983
-0.0226485072483 -0.0144551439706 0.0162625376131
-0.0226411691801 -0.0141053614492 -0.00512961623312
-0.020370159776 -0.0149185552193 -0.0307888873321
-0.0245697980941 -0.0134171845698 0.0168074789436
-0.0252268000674 -0.01317275054 0.0236757599295
-0.023924967966 -0.0136194884662 0.00779277566268
-0.0225668819013 -0.0137056259855 -0.0317482906224
-0.0207419985561 -0.0155289329311 0.0183711873131
-0.0215822186804 -0.0147093545793 -0.00350076229038
-0.0226134522898 -0.0138693079636 -0.0203163880432
-0.0210674251526 -0.0144596301425 -0.0355635765348
-0.0197665592626 -0.0161570591806 0.0242110353772
-0.0228839612469 -0.0142302611913 0.0104228283723
-0.0202145818328 -0.0153304250611 -0.0110106458822
-0.0230232256596 -0.0144923771356 0.0308610654776
-0.0250236434558 -0.0132385733851 0.0209617779241
-0.0201949646658 -0.0150531553731 -0.0284227554413
-0.0249084568153 -0.0135670236328 0.0370267840828
-0.0233826490527 -0.013660340482 -0.00760667527599
-0.0218618773928 -0.0143151101224 -0.0181247282386
-0.0224666066229 -0.0137971439673 -0.0295185731645
-0.0251012015772 -0.0132852305504 0.0263385806063
-0.0210673248603 -0.0151013482393 0.00323599962549
-0.0216482246553 -0.0152693420014 0.0325350226371
-0.0201905311901 -0.0154947288593 -0.00186813897328
-0.0232045800318 -0.013505177332 -0.0228564086303
-0.0233672550417 -0.0141555543956 0.0218302716632
-0.0242388743209 -0.0133715694892 0.00314517373487
-0.0225771389518 -0.0148420539487 0.0373062730958
-0.0203573301353 -0.015294230708 -0.0084955941359
-0.020651214035 -0.0158754507409 0.0363327489451
-0.0213696605927 -0.0139419260956 -0.0569088816539
-0.0215112529977 -0.0145977468232 -0.0125877198715
-0.0217691746386 -0.0147926009431 0.00769319478649
-0.0203630933741 -0.0151033017926 -0.0198506250263
-0.0241166381182 -0.0133628442736 -0.00141015436025
-0.0198274791 -0.0162874808578 0.0341046024157
-0.0212186307049 -0.0141726878579 -0.047931873739
-0.0204824641248 -0.015829796238 0.028011763159
-0.0231647262365 -0.0143031816743 0.0240834592145
-0.0208748197932 -0.0140252188924 -0.0681776328117
-0.0237799383382 -0.0141146207632 0.0329532344436
-0.020944918294 -0.0154830966169 0.0222858932948
-0.0220847051886 -0.014333639135 -0.00966205309725
-0.0242052518025 -0.012386088572 -0.0502121688555
-0.024473936635 -0.0124523979325 -0.0384347494262
-0.0230668930846 -0.0133242250295 -0.0369070458784
-0.0234650816633 -0.0129265939418 -0.0451632190001
-0.0225343540748 -0.0129519917416 -0.0727348716577
-0.0220848363211 -0.0133591179844 -0.0655795999663
-0.0253182947846 -0.0124394523542 -0.0128982859444
-0.0222639540988 -0.0134579607675 -0.054895500228
-0.0233325159779 -0.0125844648591 -0.0670156963363
-0.0235744094271 -0.0132178825681 -0.0266678584872
-0.0259058956562 -0.0126113469873 0.0142519326073
-0.0232586687848 -0.0125692542239 -0.0700964065121
-0.0250981734837 -0.0127581247496 -0.00320881528839
-0.023761905828 -0.012791089256 -0.0429755347725
-0.02269952384 -0.0134678459156 -0.0408635574345
-0.0238849067816 -0.0126206905467 -0.047992162971
-0.0236240323819 -0.0126736233812 -0.0533449936723
-0.0242305593705 -0.0126735402286 -0.034523600801
-0.0244755400434 -0.0126397075804 -0.0286738303451
-0.0232025416467 -0.0128111444803 -0.0592976026979
-0.0256208914892 -0.0125117524063 0.000242298082261
-0.0252391354746 -0.012581723909 -0.00797914251427
-0.024519531968 -0.0125538888299 -0.0317576969585
-0.0237545569037 -0.0123782872718 -0.0646055362384
-0.0221285259731 -0.0131318878033 -0.0760043869188
-0.0215937222817 -0.0137557089292 -0.0602616228762
-0.0251665062795 -0.0129825200508 0.0105460077674
-0.0216271971131 -0.0136938467887 -0.0624298835127
-0.0257216782959 -0.0114848844303 -0.0332078202484
-0.0264671216065 -0.0125665075264 0.0313271912692
-0.0299783836645 -0.0090563745928 0.0301882845861
-0.0265236570688 -0.0121580855976 0.0188307910084
-0.025535062872 -0.0123196144831 -0.010163894506
-0.0260171508689 -0.0113487842584 -0.0276558986787
-0.0245335858874 -0.0119877496037 -0.0571061358724
-0.0262477315051 -0.011985325045 0.00301363352536
-0.0270832512666 -0.011683223514 0.0216473873508
-0.0264576109097 -0.0121633158516 0.0166965170265
-0.024316741029 -0.0120768280099 -0.0615637533659
-0.0260079177784 -0.0117231789808 -0.0147046612981
-0.027027603766 -0.0107851672389 -0.0121509735874
-0.0255842552104 -0.0120825353959 -0.0168426211995
-0.0275238352563 -0.0106534849151 0.000608831439942
-0.0280649361124 -0.011158213989 0.0375108649577
-0.0288571813007 -0.0102807454637 0.0342229559434
-0.0265857895205 -0.0125181166436 0.033779275658
-0.0269551469105 -0.011919705933 0.0255333391939
-0.0259232598113 -0.0123842310103 0.00576191690635
-0.0261557008235 -0.0118194615317 -0.00610004531213
-0.0279529826688 -0.0101726981779 -0.00136631996991
-0.0279921199948 -0.0102484649636 0.00269488354367
-0.0300639376516 -0.00918359026386 0.0377040830395
-0.0259843772768 -0.0116042113931 -0.0197499013026
-0.0259068334816 -0.0116072294357 -0.0223664474666
-0.0269918083789 -0.0110674255682 -0.003399712525
-0.0283989772866 -0.0101585192188 0.013795531407
-0.0258949205187 -0.0124915445073 0.00857175053488
-0.0257178918199 -0.0111566864947 -0.0449782668392
-0.0280217401572 -0.0109309672512 0.0279358365746
-0.0283727635762 -0.0102931721971 0.0176494426232
-0.0273483918849 -0.0109934390458 0.0065010673212
-0.0281979696694 -0.0105230754762 0.019662235311
-0.0259706038734 -0.0111246552183 -0.0372380759246
-0.0284247806524 -0.0104252078964 0.0241582396599
-0.0255438874649 -0.011895631204 -0.0248878226105
-0.0296976004511 -0.00921461380962 0.0259373162892
-0.0281610359573 -0.0108508909149 0.0299889085591
0.0112060752911 0.0180322618015 0.077474054563
0.00894450271308 0.0170378867559 0.0790045437135
0.00857505074788 0.019236799656 0.0764395754862
0.0118963047053 0.016723964382 0.0789283664147
0.017400334312 0.0171915246306 0.0773600927537
0.0138924537162 0.015263873771 0.0796484485398
0.0149743278811 0.016622853929 0.0783594424955
0.0253803660808 0.0139164764375 0.0779986916147
0.0196618082493 0.016271875323 0.0775346027546
0.0102461744686 0.0157755987602 0.0801079509893
0.00801301588249 0.00241407623228 0.0807684812959
0.0163262888055 0.0046250108924 0.0800305011274
0.0153292124346 0.00758947067268 0.0800814466607
0.0136368553544 0.00545176696424 0.080251309338
0.0189281424684 0.00847721638282 0.0797627721315
0.00775806883658 0.0139697855819 0.08065591168
0.0101244844678 -0.000318368807001 0.0806193583248
0.0266181242441 0.00344570121453 0.0791624364368
0.0161150489655 0.000522362339837 0.0800963206103
0.00796959670341 -0.00056629456035 0.080806868234
0.0146943854919 0.00267291420964 0.080193025326
0.0196930880331 -0.000588801562776 0.0798026867565
0.0234486404662 0.00472158587588 0.0794191501729
0.00900804937891 0.00999444407632 0.0805950561729
0.00725015266875 -0.00318070093998 0.080898918713
0.00473704324289 -0.0033333912863 0.0811160125233
0.00732152720307 0.00804908131906 0.0807621816698
0.0133140627085 0.0126568979161 0.0801951573518
0.0249662647114 0.00670114336936 0.0792660977399
0.0143468677517 -0.00266935715397 0.0802849397649
0.020092656397 0.0047915941939 0.0797058692805
0.0137782334766 -5.87824905044e-05 0.0803032936072
0.010898922793 0.00290283514093 0.0805155379471
0.00819196468973 -0.00507758730969 0.0808402903804
0.0124329842731 -0.00364987907671 0.0804603223134
0.0081318608461 0.00590495036255 0.080717694002
0.0106894182197 0.0112887484206 0.0804359451402
0.0113591842706 0.00814195451148 0.0804151637061
0.0164278031512 0.00947059299616 0.0799654410818
0.0102737681696 0.00594101364983 0.0805337605564
0.0114868837731 0.0138868220416 0.0803373999253
0.0213720781522 0.00137907801349 0.0796359446803
0.0304217905146 0.0038267142475 0.0788321147307
0.0191611613579 0.00178858463676 0.0798206079573
0.0099449958975 -0.00336659979489 0.0806701927244
0.0140206436677 0.00963630142218 0.0801697538017
0.0062516318679 0.00358487457219 0.0809057744389
0.00321451197797 0.0114696477062 0.0809964220109
0.000495689007151 0.00662316546825 0.0812503079328
0.00233778472615 0.00182513404429 0.0812050501713
0.00102651688726 0.0041020924257 0.0812551223951
0.00326381776461 0.00369523413227 0.081115135467
0.00300543966523 -0.00537029529902 0.0812742289024
0.00224004044319 -0.001688069762 0.081266548235
0.00505774912233 0.00828344650547 0.0809258085458
0.0032928409926 0.00641921845791 0.0810705119112
0.00476434728415 0.00189356402573 0.0810452266525
0.00590962721061 0.0128207556171 0.0807989108954
-0.00242996257191 -0.0171839417089 -0.0774869277828
0.002113711444 -0.0172268491842 -0.0774577688484
-0.0038758317249 -0.0161879529896 -0.0792122272295
-0.00821270174727 -0.0174354219393 -0.0769893384668
-0.000287178599675 -0.0167830913221 -0.0782087619976
-0.00471082569828 -0.017274123704 -0.0773064021097
-0.0124133458664 -0.016140113814 -0.0771965678759
-0.00796692764153 -0.0158243597154 -0.0794638784891
-0.0105830968874 -0.0175035609773 -0.0761258666613
0.00831840130678 -0.0170415705467 -0.0775175841103
0.0130607588263 -0.0117216722261 -0.0799404203232
0.00688147680903 -0.013081886661 -0.0800262135502
0.00744300671904 -0.0152172170956 -0.0787036868619
0.0027672118487 -0.0147847930147 -0.0796193241318
-0.00289041925077 -0.0143539714987 -0.0806734490217
0.00494581671419 -0.0148060029812 -0.0792976186809
0.0155333922412 -0.00922880309175 -0.0810401891949
-1.6625660169e-05 -0.0149943724328 -0.0798926499852
0.010759007607 -0.0148167003472 -0.0784659220045
0.0106807356517 -0.0107608730961 -0.0808375800231
-0.00941540838155 -0.0143242724944 -0.0803808744752
-0.0197201737747 -0.00984210233871 -0.0798979949323
-0.0152791041667 -0.0143732876005 -0.0782702601859
-0.0124157908692 -0.0125569002992 -0.0805667838865
-0.0149082406003 -0.0119619710819 -0.0801045077705
-0.0193737186383 -0.0116635261217 -0.0787343091891
-0.0172598186464 -0.0112960604653 -0.0797422354897
-0.0200423332334 -0.0137604135417 -0.0770167045695
-0.0172623742535 -0.0136920003115 -0.078049244106
-0.0070581744748 0.00137793719654 -0.0812339916493
0.00620299426312 -0.00574295106107 -0.0811794134374
-0.00252298509412 -0.012111041346 -0.0808058657024
-0.00888920131867 -0.000365914260043 -0.0811405093017
-0.0119399780117 -0.00212313729317 -0.0810272896326
0.00215388798215 -0.0123802273752 -0.0808696736685
-0.000313408381691 -0.0124349739909 -0.0808287231949
0.0038864077563 -0.00734984892313 -0.08108334436
0.0109562202358 -0.00796610981987 -0.0811720451782
-0.002753472326 -0.0083543558697 -0.0809413880214
-0.000106928925914 -0.00118429270772 -0.0812487377913
0.000357225189547 -0.0060964280437 -0.0810741004963
-0.00321150334521 -0.0011266776276 -0.0812018962208
-0.0046469783219 -0.00981330900902 -0.0808574734881
0.00867664051269 -0.00756281010289 -0.0811510233452
0.00194354235995 -0.00329238486706 -0.0812029949829
-0.00541927666049 -0.0137221250015 -0.0807004965119
-0.00802039674427 -0.00433962411139 -0.0810070174709
0.0132076675027 -0.00684034531471 -0.0812492641091
-0.00382614454814 0.000810320928746 -0.0812639519793
0.0180158285017 -0.00795326730877 -0.0812838888048
-0.0123090534405 0.000234829061047 -0.0811088131284
0.00428363407334 -0.0109757736659 -0.0809552961615
0.00642993449756 -0.0081180774049 -0.081095012052
-0.0103985950311 0.00131347051706 -0.0811789072633
-0.0103838245998 -0.00474427513276 -0.0809547441043
-0.0131404192163 0.00423564733465 -0.0812438997432
0.0100236319047 -0.00507649799538 -0.0812643727155
0.00733268042188 -0.0107739008955 -0.0810108739261
-0.00181385745576 -0.00507823205699 -0.0810775677551
-0.00820555807255 -0.0113741897724 -0.0807435161174
-0.00512145227402 -0.00579169514044 -0.0809989605302
-0.00910729301591 -0.00734634933623 -0.0808784936108
0.00516499369875 -0.00361623015505 -0.0812418184038
-0.00592292729047 -0.00246347895064 -0.0811096035841
0.00108901441289 -0.00975841251897 -0.0809499943947
-0.00710309824525 -0.00924445124302 -0.080839799411
-0.000549414549767 -0.00834078264253 -0.0809766606303
-0.0190019993298 -0.00409201194971 -0.0808091678231
-0.0193537517407 0.000294329969595 -0.0809743333424
