0.0809345753477 0.0842449529628 -0.00452474305688
0.0896873811458 0.0775072862069 -0.0055357704949
0.082721440168 0.0807456910545 -0.00883559977107
0.0778901274461 0.0827338877916 -0.0113848442764
0.0861287965201 0.0784644325787 -0.00792620229354
0.0872559845322 0.0802211226248 -0.0028187267521
0.088898085036 0.0790878994657 0.00150434536654
0.0836647805747 0.0829254565167 -0.00161511770119
0.0849272625259 0.0820869603104 0.00325285811568
0.00941979840115 0.0481336608786 -0.0171250923403
0.0128159775632 0.0476426206654 -0.0166141990051
0.00590698187374 0.0489429124106 -0.0180370497963
0.0178699426323 0.0464447890547 -0.0152594554419
0.00765336014931 0.0461645418892 -0.0145597197541
0.0105564275395 0.0445157986955 -0.0125588838284
0.0364256660039 0.0468848988487 -0.0129453613344
0.032882181371 0.0450939690093 -0.0115258352657
0.0528893119291 0.0487760564108 -0.0123708279611
0.0244604964228 0.0468473866925 -0.0148537034079
0.0308368912495 0.0466937804604 -0.0136431447388
0.0407034672833 0.0468918709745 -0.0122559082314
0.0148753198931 0.0453618285978 -0.0137185874579
0.0273498491586 0.0448827877367 -0.0117711310349
0.0215036144845 0.0455109603018 -0.0133859970798
0.0663724425104 0.0527523389252 -0.0145444688746
0.0323962256963 0.0522005019995 -0.0190541983505
0.0372584108959 0.051002245238 -0.0171350325591
0.0571141732927 0.0514178568896 -0.0145924056658
0.0444377304824 0.0496790315228 -0.014746154021
0.0531314714473 0.0519536158857 -0.0157198707925
0.0409421929152 0.0494316786522 -0.0150200563761
0.033596999037 0.0487561147417 -0.0154402274764
0.04201311319 0.0523754212356 -0.0177964029657
0.0605384055816 0.0525788189503 -0.0152402790709
0.0456115227708 0.052288491992 -0.0171737952573
0.0296790960977 0.0492333238828 -0.0164996494339
0.0482510871584 0.0508385860056 -0.0153346712545
0.0394995731258 0.0538431577508 -0.0196345407966
0.0277889477127 0.052867397948 -0.0201166886469
0.0265299222525 0.0502595629539 -0.0179581297748
0.0150054228852 0.0509208365779 -0.0196043998253
0.0234201717728 0.0489948332035 -0.0171431706274
0.0186708513424 0.0495355189458 -0.0180555922313
0.0283187748189 0.0856143798777 0.0190924261362
0.0317899819145 0.0878445670997 0.0162840483232
0.0528069889091 0.085856612973 0.0152175772052
0.0319136670571 0.0847516160235 0.0194478011857
0.0538239330887 0.0830552635898 0.0179490740317
0.0498448914379 0.0840768308854 0.0174871958691
0.0566405336172 0.0841579690227 0.0163975817196
0.0605541212545 0.0843701542463 0.0155998513483
0.0241938113231 0.0850718930907 0.0202612702724
0.0440890521714 0.0869942529231 0.0153379058067
0.0406988710974 0.088089199171 0.014713349924
0.038209634307 0.0859148400913 0.0173189040933
0.0034239690993 0.08707426174 0.0190170149627
0.0103294625154 0.084272843726 0.0223432898416
0.00807345010359 0.0861865599221 0.0202586061067
0.00952397100704 0.0884629302664 0.017731714495
0.0238517685274 0.0881675535511 0.0168855490827
0.020662407158 0.0864925698447 0.0192675101425
0.0141229690867 0.0861465255454 0.020431447429
0.0285048142972 0.0890109352734 0.0153380640731
0.01315685722 0.0886234509849 0.0175582668399
0.0851056530986 0.0734792086586 0.0143013440475
0.0793615441147 0.0756212068917 0.0178897683045
0.0826104413445 0.072108458877 0.0167274428085
0.0783944341924 0.0709144841735 0.0204037677547
0.0891920784699 0.072682506735 0.0114744464966
0.0808914043107 0.0783112729827 0.0152798225235
0.0780869618493 0.0794655791008 0.0170431594243
0.0325763539221 0.08188556037 0.0221109433768
0.0291144900967 0.0817393631976 0.022735018679
0.048083037283 0.0814626103352 0.0203103360034
0.051660828065 0.0808750042903 0.0203471728515
0.0370983786112 0.0805790677899 0.0226778905037
0.0562440050625 0.0795720547683 0.0209022093859
0.0600761000936 0.0803238286096 0.0196668828126
0.0254119357469 0.0826682388184 0.022400822206
0.0443062788373 0.0824095607923 0.0199579759684
0.0644494648575 0.0819503444321 0.017496289836
0.0365289107897 0.0831292361404 0.0203930421078
0.0681342142006 0.0806774420237 0.0181757609425
0.074586664599 0.0804159397172 0.0174959243959
0.0554076913587 0.0716101050584 0.0235394475148
0.0289022909673 0.0709887912141 0.0264854496734
0.0409429069056 0.0728966021003 0.0250447518836
0.0470270317701 0.0735013011803 0.0243394054227
0.0359736482331 0.0712433850866 0.0256938909537
0.0624074656871 0.07061275101 0.0228346165437
0.0699650868213 0.0714655920171 0.0219172656109
0.0746125587565 0.0713446665419 0.0213025580567
0.0758428765981 0.0772638791778 0.0192677948554
0.058591641247 0.0733972023497 0.0229070751409
0.069277160812 0.0752796472502 0.0208141270943
0.0626145783808 0.0741753977534 0.0220972549002
0.0533363386484 0.0756887712612 0.0229243504762
0.0601247158285 0.0769081825508 0.0215873289715
0.0436037798488 0.0753544872883 0.0243964599078
0.0658299385616 0.072306019069 0.0222336880746
0.0728188247266 0.0764660148503 0.0199435068878
0.0403882041492 0.0783525161839 0.0236280819208
0.065669770125 0.0784800926675 0.0202574676167
0.0446042784913 0.0793760628749 0.0226391765592
0.0362849466001 0.0761863782109 0.0250887478889
0.0492774736683 0.0790437001727 0.0221677070666
0.00453206766961 0.0746406262593 0.0264335509532
0.00404093130065 0.0781290587884 0.0254300977685
0.00972107931935 0.0729697853987 0.0272861797536
0.00845619485166 0.0686363716202 0.0278536229154
0.00611314495272 0.0712787160344 0.0273315623704
0.00770833406602 0.075802934033 0.0267546581865
0.0199598718034 0.0824076265575 0.0230587953075
0.0238744166781 0.0798393080286 0.024282620965
0.00728856093802 0.0790999596277 0.025588999567
0.0145947532211 0.0820280290878 0.0235598253654
0.00764793573795 0.0822322615553 0.0237055911604
0.00405072829192 0.0825504201515 0.0235620948596
0.0303921569607 0.0745787627346 0.0259877019432
0.0171023321333 0.0714487867529 0.0275981848932
0.0225219411618 0.072608551459 0.0269755492459
0.0178099706301 0.0752424678857 0.026451428744
0.0120133320278 0.0763797969688 0.0264218147753
0.0262680908215 0.0750885823788 0.0260541987574
0.0196756583068 0.0787672046193 0.0250930276965
0.0310308064492 0.0785123020047 0.0244913059984
0.0275518662766 0.0790642647244 0.0244803842485
0.0160137540199 0.0786134048622 0.0253843298574
0.092026883966 0.0710078220298 0.000650419029624
0.0921162257045 0.0682359430519 0.00352400267778
0.0918359449746 0.066489907673 0.000471233470339
0.0918021767329 0.0618849339908 0.00261269079439
0.0921032034097 0.0750866616573 -0.00057580881037
0.0914539444549 0.0723296908276 0.00811162133961
0.0917835736165 0.067510900419 0.00754778919678
0.0918848276843 0.0714082175589 0.00430410564832
0.0920042865809 0.0639307840421 0.00546880802856
0.0897615332972 0.0586508759513 0.00549434590057
0.0905055582388 0.0693781663962 0.0108675135987
0.0903233012801 0.0652062257185 0.00992801248459
0.0890126355823 0.0600937306883 0.00986043260863
0.0294366603988 0.0904988758716 -0.0101495106249
0.0329947419547 0.0898041843055 -0.0110492985339
0.0263309051262 0.0899673589425 -0.0116421264548
0.0219981874292 0.0901145006601 -0.01194539665
0.00932364780877 0.0893274007705 -0.0143664264474
0.0099360120594 0.086351172951 -0.0173443008614
0.0131944514042 0.0891976096101 -0.0143797562159
0.0243544477229 0.0882291565227 -0.0142650495841
0.0188341053194 0.0895423331723 -0.0133846439633
0.0153690187534 0.0870333633818 -0.0165769335752
0.0237530348231 0.0857649505923 -0.0170984143857
0.00954507366908 0.0911609946031 -0.0109969968484
0.0235212817782 0.0917007143145 -0.00817292046589
0.0199303579436 0.0915131338306 -0.00901774076382
0.0157389207798 0.090492292864 -0.0119586100106
0.00938972454893 0.0927852447862 -0.00705433119042
0.0161242907168 0.0925984173875 -0.00678292219492
0.013069001949 0.0919623152057 -0.00866329388878
-0.0866067886853 0.0650792858828 0.0210558042537
-0.0847541740721 0.0620981907745 0.0221674305935
-0.0321960002184 0.0621257767249 0.0261276057742
-0.0321960002184 0.0704356182208 0.00870633841631
-0.0321960002184 0.0749890749715 0.00285558820284
-0.0321960002184 0.0737985355179 0.00755313415051
-0.0503085989401 0.042695248968 0.00371844389298
-0.0645012849412 0.0423822248558 0.0146093462827
-0.0516620563954 0.042716620261 0.00834127648769
-0.0348894498843 0.0432570270493 0.00739999946346
-0.0366456827957 0.0431434357395 0.00350958704929
-0.0467442766769 0.0428219159868 0.00434592850375
-0.0469321219864 0.0427692611961 0.00109548993862
-0.0581755847505 0.0425434932306 0.0112774144999
-0.0433520597139 0.0430322839111 0.0112280104561
-0.041465925663 0.0430113842704 0.00540734319157
-0.0407529077014 0.042870596981 -0.00609170774403
-0.0714295979318 0.0422904273298 0.00532475767853
-0.0738117193067 0.0422914223669 -0.00348308535792
-0.0756794112486 0.0422920612872 0.00234777907973
-0.0708396268103 0.0422901654593 0.00889795184742
-0.0675835297481 0.0422891581441 -0.0108776411854
-0.07051762138 0.0422902072152 -0.00580678453044
-0.0704681258569 0.042290104245 0.00179768798904
-0.0695594403493 0.0422898021836 -0.00183202667098
-0.0643956112197 0.0423589815384 0.00386206152584
-0.0570025394287 0.0425166105285 -0.00227861815965
-0.0664555162445 0.0423177567486 0.00976179616418
-0.0388509107828 0.0429085381063 -0.00971786764627
-0.0634849517119 0.0423810129746 0.00717055464189
-0.0649407619879 0.0423429201088 -0.00258378058693
-0.0496624972739 0.0426741715497 -0.00672342605969
-0.0565071478527 0.042529650178 0.00116062373544
-0.0591349570876 0.0424764704011 0.00777050052252
-0.0572509087432 0.0425059099138 -0.0104739276379
-0.0490200230532 0.0649096331012 -0.0230210382645
-0.064075014937 0.0641492677377 -0.0222470697732
-0.0530011342523 0.0652873522084 -0.0228163716229
-0.0608792823932 0.0638326381636 -0.022411360549
-0.0321960002184 0.0649442904447 0.00950909699893
-0.0321960002184 0.0602937125781 0.00451843200278
-0.0321960002184 0.0712369062128 -0.0147812853231
-0.0321960002184 0.0612881655996 -0.00621438966301
-0.0321960002184 0.0632778031067 -0.0149560175399
-0.0321960002184 0.0640250844337 -0.00826433508861
-0.0321960002184 0.0696646613949 -0.0185156826922
-0.0321960002184 0.0591486428738 0.000718449502283
-0.0321960002184 0.0672188633026 -0.000947463524481
-0.0321960002184 0.0670606144545 0.00396503846356
-0.0321960002184 0.0596172501621 -0.00302722717286
-0.0321960002184 0.0631688362455 0.000406777364114
-0.0321960002184 0.0584558599402 -0.0127219379236
-0.040302982193 0.0451440203672 -0.0141049871883
-0.0431713045677 0.0509670128643 -0.018244370338
-0.0508942892322 0.0453657365213 -0.0145589669772
-0.0445874337057 0.0453339674896 -0.0143585069809
-0.0393543393636 0.0494438102836 -0.0170748671931
-0.0591604346307 0.0450764336675 -0.0145910552646
-0.0367820121471 0.0454851151999 -0.0142431590684
-0.0461693778222 0.0484297478872 -0.0165608122016
-0.0340313644853 0.0524301544324 -0.0190056733823
-0.0352056540735 0.0491917229344 -0.0167818779301
-0.0373595536207 0.0536079615435 -0.0199206365509
-0.0321960002184 0.0785704617145 -0.0169389027959
-0.0321960002184 0.0790825070767 0.00334887125476
-0.0321960002184 0.0783222605094 0.0143461384344
-0.0321960002184 0.0814109051328 0.00632192550852
-0.0321960002184 0.0807146999874 0.000157742777207
-0.0321960002184 0.0810666648634 0.0174780933723
-0.0321960002184 0.0842654514836 0.0121733549686
-0.0325985587803 0.0502362297033 0.0147011857496
-0.0328414812931 0.0474344812191 0.00621154776456
-0.0331609660169 0.0459253447094 0.0115212521015
-0.0409366303377 0.0466742798849 0.0182647029839
-0.0432730224265 0.0486933410538 0.0199394476527
-0.0349146377464 0.0483603512651 0.0193045870714
-0.0441090544299 0.0438380536255 0.0162024892314
-0.036930792057 0.0508398116609 0.0213228468933
-0.0466881070396 0.0465908862019 0.0184585934475
-0.0365006256349 0.0459914969626 0.0175343510663
-0.057633416348 0.0448760927191 0.0176178486735
-0.052100891461 0.0461541374486 0.0183625453196
-0.0321960002184 0.0565500182591 0.0118664657941
-0.0321960002184 0.0599585119391 0.011149144515
-0.0321960002184 0.0584232799738 0.016492041367
-0.0321960002184 0.0600228927476 0.0233223714479
-0.0321960002184 0.0575873288296 -0.0062012163721
-0.0321960002184 0.0548612803733 0.019180904858
-0.0321960002184 0.0553305773357 -2.31561141721e-05
-0.0322694286181 0.0543253056024 -0.00552886537366
-0.0323112230533 0.0539412033152 -0.0103503541606
-0.0323726677998 0.0522901703649 0.0112919222463
-0.0324174485696 0.0522103919336 -0.00264845194589
-0.0326065349571 0.0497741994701 -0.00599010616904
-0.0325494902071 0.0502087768279 0.0029624639748
-0.0329515804015 0.0453813977303 -0.0134835896659
-0.0357750871265 0.0716507135896 0.0255657783868
-0.0408143998598 0.0742230093815 0.0257259943953
-0.0427799759672 0.0713751464764 0.0261950897973
-0.0336172946601 0.075923417699 0.0249297797591
-0.0348424582749 0.0682277875135 0.0258472541659
-0.0433792695914 0.0769315588636 0.024673883767
-0.0558877770187 0.0754114319677 0.0248914514433
-0.0687206537733 0.0755034018296 0.0244111426357
-0.0505529409551 0.076740032074 0.0245088754389
-0.0670117990063 0.0790494741837 0.0221421934908
-0.0464348407687 0.0787786791576 0.0233327362716
-0.0612803753641 0.0805151035835 0.0212680391865
-0.049286912998 0.0800993044412 0.0221637954571
-0.0772264143916 0.0799355782809 0.0209630621243
-0.0371420905852 0.0779325665089 0.0244367322089
-0.0631390364363 0.0781267650047 0.02304833933
-0.0562867124093 0.0793616735516 0.02240801863
-0.0696257030634 0.0809326497339 0.020544425786
-0.0735402044728 0.0809913530302 0.0203123162413
-0.0775323335488 0.0772860759649 0.0230215541185
-0.0424434458535 0.083759724362 0.0182439544692
-0.0350294687602 0.0860501131348 0.0157686877052
-0.0525399294459 0.0841007266114 0.0178115124905
-0.0573690867394 0.08185489075 0.0202525573293
-0.0342358283378 0.0797159331359 0.022735689614
-0.0629186397234 0.084447266084 0.0173713735245
-0.038473280535 0.0839955253833 0.0180074198124
-0.0590265584421 0.084867878009 0.0169312508188
-0.0462028807207 0.081403118383 0.0208128611659
-0.0705572836871 0.0835116169019 0.018356240801
-0.0482575621229 0.0850276204201 0.0168171165059
-0.0657180672275 0.0825286057674 0.0194643725999
-0.0537345748802 0.0811537375543 0.0210439988206
-0.0415493039129 0.0815386624796 0.0206904278841
-0.0821247496446 0.0806649566299 -0.0159137586582
-0.0653126069858 0.0681185642719 -0.0221717782538
-0.0720078371757 0.0663866585247 -0.0218284038754
-0.0803567639721 0.0619746343949 -0.0214100024947
-0.0493824324061 0.069389969366 -0.023001158788
-0.0759147291597 0.0711620967821 -0.0216028961722
-0.0531558323699 0.0690299257177 -0.0228049582246
-0.0758039435773 0.0666725966174 -0.0216282068336
-0.0793374531511 0.0659759300839 -0.0214460414181
-0.0570820339096 0.0694778671873 -0.0225972390531
-0.0616714955081 0.0694914230947 -0.0223566454328
-0.0784248522922 0.0789156478451 -0.0184424922483
-0.0894989120427 0.0538057949136 0.0114452656702
-0.0895166640894 0.0564780709938 0.0152389738853
-0.0876501723707 0.0523850965538 0.014891538748
-0.0918007413561 0.0689977310258 0.008507493109
-0.0915812094753 0.0740156807902 0.00932811758839
-0.0919397431235 0.0630052720691 0.00838021996193
-0.0912120541899 0.0719405913681 0.0121731234218
-0.0921260029547 0.0732237154066 0.00566663809397
-0.0805442871897 0.057088824875 -0.0194680303562
-0.0895527168314 0.0527337207618 -0.00541084906989
-0.0867120488235 0.0508064733458 -0.00990180248754
-0.0873189926101 0.0491624144281 -0.00623335590891
-0.0861734755295 0.0530369275893 -0.0141737081291
-0.0747149553311 0.0422923416101 0.00926196339262
-0.0740002845025 0.0475329412238 0.0183329930984
-0.0741314628166 0.0441030836379 0.0158278389388
-0.0754356292011 0.0517630730732 0.0210215405039
-0.0701150209113 0.0445971577206 0.0171927036791
-0.0805497327482 0.0873321918998 0.0103946190027
-0.079317355975 0.0885203498864 0.00662910328658
-0.0831876503668 0.088330857215 0.00458773229462
-0.0829543093767 0.0532802642962 -0.0163774698911
-0.0794781296063 0.0541246963523 -0.0182130881797
-0.07828817475 0.048702352089 -0.0146467514443
-0.0692051830182 0.0443649050782 -0.0138476884981
-0.0755723764071 0.0465622573842 -0.0139570796252
-0.0754232890811 0.0496975085664 -0.0161682772064
-0.0731611324348 0.0435617708022 -0.0124093274701
-0.0814196732476 0.0433945837611 -0.00328634943624
-0.0779588342243 0.0430703788019 -0.00818398605324
-0.0844964188618 0.0455885260453 -0.00503306487936
-0.0848174541153 0.0482483821502 -0.00894586456059
-0.0814905949535 0.0479519746051 -0.012174583728
-0.0804245026752 0.0453897107208 -0.00953789458953
-0.0843418064779 0.0503971004396 -0.0126678496747
-0.0414278942191 0.0703254003518 -0.0230979993939
-0.0458779069557 0.0691898949149 -0.0230979993939
-0.0382360698451 0.0719103788975 -0.0230434368728
-0.0723260941192 0.0718415443975 -0.0217282408607
-0.0826862159923 0.0827160306162 0.0158459506163
-0.080835285041 0.0856201748957 0.0140524121061
-0.0833803396702 0.0798291341722 0.018316646633
-0.0796544967688 0.0826229990899 0.0177588772963
-0.081066641271 0.0781655921718 0.0209998583978
-0.0452379715622 0.0534303864603 0.0234547198096
-0.047912176176 0.0494714824609 0.0207173288191
-0.0417906533977 0.0522118072437 0.0225221831421
-0.0559559616496 0.0476045205221 0.019569277051
-0.0365201977795 0.0547128540205 0.0241052207266
-0.0394057437253 0.0574670870467 0.0251618792235
-0.0614065376284 0.0491743928747 0.0203298652417
-0.0654000500953 0.0489394649389 0.0199873148126
-0.050638209315 0.0547563082176 0.0240680306211
-0.0602569375391 0.0525579867813 0.0223144744718
-0.0577932113034 0.0500742691605 0.0210307234807
-0.0558233353188 0.0528984377925 0.0227400671231
-0.0773606563439 0.0562237462577 0.0235045947064
-0.0722290820982 0.0540228456006 0.0225212757552
-0.0707692662496 0.049760624779 0.0201734546705
-0.0637631149014 0.0453858173911 0.0180517708279
-0.0673322635053 0.0535600075496 0.022514221416
-0.0513630985037 0.0517804312461 0.0223375358536
-0.0596369621136 0.0557240204787 0.0241476345762
-0.0636636786636 0.055681250728 0.0239126395375
-0.0327382331178 0.0894997970671 -0.00281780430809
-0.0327536743538 0.089148351825 -0.00666199630658
-0.0472467584755 0.0877586670141 -0.00963513688679
-0.0391089250048 0.0896231052612 -0.00571374796341
-0.0391743619786 0.0882937188837 -0.00879483244705
-0.0516922563607 0.089079366927 -0.00635007856034
-0.0611537252108 0.0880067918834 -0.00836848461633
-0.0443222948025 0.0890404156119 -0.00680662957053
-0.0560427316834 0.0613441790854 -0.0223777872602
-0.0514460321549 0.0599619896406 -0.0223603882518
-0.0463476141717 0.0584376377963 -0.0223424552881
-0.0692200121107 0.0619309521748 -0.0218980271142
-0.0620856799037 0.0604470797131 -0.0219747940455
-0.0466179235206 0.0514334467377 -0.0185495523047
-0.0525003224227 0.0489651249407 -0.0170131638765
-0.0405560160129 0.0528897412766 -0.0194864602125
-0.0422487695316 0.0569482907025 -0.0218791354745
-0.055643520896 0.0468116395908 -0.0156961126855
-0.0529360099598 0.0524141867423 -0.0190583057528
-0.0451071812116 0.0542835220139 -0.0202615031395
-0.0667897341725 0.0465175083111 -0.015183590024
-0.057196571683 0.050758345322 -0.017955214793
-0.0513961854287 0.0555505474507 -0.0208403753623
-0.0554847979855 0.0552864609128 -0.0204968128665
-0.0700719830689 0.0487858034015 -0.0162540422583
-0.062483598635 0.0546437122304 -0.019805206578
-0.0664099653794 0.0560571612377 -0.0203801224671
-0.0705253546354 0.0532133012374 -0.0186349986816
-0.0636304350353 0.0450717829877 -0.0145535914775
-0.062281694222 0.0485574739382 -0.0165116041555
-0.0599987956044 0.0573379012202 -0.0212826572974
-0.0690315058544 0.0580425236741 -0.020942940463
-0.0730109414967 0.0603940043534 -0.0214124127004
-0.0777214834873 0.0590898475183 -0.0207281795191
-0.066010568128 0.0598023673716 -0.0216618760322
-0.0747477710589 0.0562767382621 -0.0200570525578
-0.0728896589976 0.0891224144367 -0.00212053798925
-0.0802564562238 0.0885347356036 0.00148084153525
-0.0770182397929 0.0885709777515 -0.00390635774675
-0.0751108139712 0.0890162344343 0.000181672452467
-0.0503014002481 0.0902477469947 0.0038214604817
-0.0462071475806 0.0904226059721 0.00333165573658
-0.0655800715232 0.0896543659103 0.00507469110438
-0.0763913790128 0.0890211308812 0.00415227476149
-0.0713197368093 0.0895146603935 0.00406225235302
-0.0743529178269 0.089168328234 0.00708517619838
-0.053693736765 0.0902394309041 0.00161845728541
-0.0440794702528 0.0902824816316 0.000113456873106
-0.06034956053 0.0900536474009 0.00111001781373
-0.0399324878957 0.0905852591375 0.00228912142582
-0.0410664854169 0.0901259953655 -0.00204764824762
-0.0354626580945 0.0905516620261 0.00105655618742
-0.0486575763446 0.0901205315081 -0.000575809224025
-0.0661632731501 0.0898530864639 0.000693692977924
-0.0647783077935 0.0893765911248 -0.00259885579951
-0.0651417834291 0.0887881397676 -0.00624895729062
-0.0529688660568 0.0899021115561 -0.00164319556012
-0.0585984030663 0.0891487552962 -0.00528014269148
-0.0464469665956 0.0898131798775 -0.00351427277318
-0.0356787572855 0.0899261604713 -0.00495978313264
-0.069430835287 0.089105387412 -0.00338132130941
-0.0568229842835 0.0896900126359 -0.00221189289266
-0.0896296519523 0.0617290987442 0.0164104657009
-0.0885943507855 0.0580488067537 0.0178720329776
-0.0915427907053 0.0591361737456 0.0110507162632
-0.0909660738616 0.0668397501132 0.0132675038467
-0.0913567885115 0.0624154843491 0.0117819650139
-0.0894523018625 0.069468254402 0.0187255186265
-0.0903670124019 0.0710043777535 0.0154915134305
-0.0877187975465 0.0784384660849 -0.013188030325
-0.0887303922946 0.0734736431166 -0.0144641017294
-0.0900198992299 0.0771245605945 -0.0102708733938
-0.0910554831901 0.0748669263243 -0.00688170454648
-0.0918151707443 0.0755937282601 -0.00283095794
-0.0903156267445 0.0714851035432 -0.0123861028729
-0.0900176022644 0.0819161601381 0.000581967762759
-0.089149113847 0.0830636421354 -0.00293613017074
-0.0923690433326 0.0769488415665 0.00152628090222
-0.0911130471031 0.0790004408365 -0.00175298505363
-0.0850750075859 0.0859330905893 0.008838755951
-0.0908650593526 0.0767467399474 0.0111297207115
-0.0899235014417 0.0800040700472 0.00919667305697
-0.0905429380649 0.0799018091152 0.00554818462872
-0.0891138836172 0.0834113079015 0.00420692583905
-0.0861004339491 0.0868388566285 0.0038876572074
-0.0878191060344 0.0845929606082 0.00730277160445
-0.0856954649453 0.076022086662 0.0207237033099
-0.0864584971125 0.0803532720862 0.0154833931795
-0.0854706986905 0.082979122692 0.0134458228082
-0.0884851534668 0.0810603887668 0.0125672881736
-0.0893435047773 0.0762222361699 0.0153120310771
-0.0816584601961 0.087306575964 -0.00585922679463
-0.0815726081606 0.0879589814182 -0.00235735190944
-0.0824479054535 0.0838240815861 -0.0123755435463
-0.0819333789768 0.0861341205363 -0.00915981823868
-0.0854920732329 0.0861151629796 -0.004701143181
-0.0853943943454 0.0867710073071 -0.00106323564492
-0.0864082069869 0.0820526741768 -0.0113650530652
-0.0854000599048 0.0849854840117 -0.00895814562515
-0.0884377195725 0.0854898847472 0.00116104142609
-0.0891102718275 0.0817445953244 -0.00644945814988
-0.0383859840984 0.0664589455655 0.0262909997255
-0.0429529485945 0.0672143929548 0.0262909997255
-0.0418526011496 0.0617793902615 0.0262909997255
-0.045819716196 0.0631685259772 0.0262909997255
-0.051709738195 0.0672841204755 0.0260031870274
-0.0594240173589 0.0625632520389 0.0256258944873
-0.0588561736728 0.0666064182518 0.0256536667758
-0.0539643374685 0.0625894613831 0.0258929183336
-0.0485232442623 0.0711709628464 0.0261590331362
-0.0483947128584 0.0610010333057 0.026165319393
-0.0476921635874 0.0673217455396 0.0261996799072
-0.0776441860641 0.0611305603939 0.024734776395
-0.0625465394899 0.0636812134337 0.0254731771327
-0.0672011368886 0.0631937552321 0.0252455285296
-0.06936241851 0.0603169878572 0.025043318269
-0.0645220463329 0.0588944112231 0.0249894285049
-0.0735937847041 0.059677252604 0.0246709115491
-0.060933425947 0.058746258416 0.0251514084763
-0.0362370835516 0.0600155487562 0.0258559147503
-0.0564119131697 0.0584699763736 0.0252579834458
-0.0449817971189 0.0569497714035 0.0252039298144
-0.0538038610001 0.0558440309837 0.0244532384871
-0.0679146704995 0.0564377815156 0.0240738877173
-0.0493125749667 0.0577457747142 0.0253009055744
-0.0800220630189 0.0674210478904 0.0246184783952
-0.0632052064624 0.0691621554528 0.0254409628286
-0.0693098819266 0.0663178512511 0.0251423933235
-0.0804734908953 0.063733826346 0.02459639981
-0.0554587405694 0.0713120908943 0.025819829568
-0.0766718725685 0.0652842633292 0.024782330628
-0.0727468790725 0.0638618589484 0.0249742955199
-0.0665052246394 0.0689397391176 0.0252795644382
-0.0712431840632 0.0722435515867 0.0250478387373
-0.0597985233889 0.0715343980612 0.0256075780214
-0.0759944076301 0.0715128477348 0.0248154643093
-0.0742512922512 0.0746680047471 0.0243342780405
-0.0630226944711 0.073847978546 0.0251391554622
-0.0511777172038 0.0731434233235 0.0259506870495
-0.0792013113348 0.0744464929462 0.0241157896692
-0.0822359071045 0.0751924688777 0.0226772583363
-0.0817530267774 0.0710512959219 0.0239683385438
-0.0868337904943 0.0697478800611 0.0209196404995
-0.0897012672573 0.0503907072488 0.00367599650606
-0.0911958271391 0.0539002165755 0.00251849683005
-0.0912845326992 0.055363791527 0.00683682298095
-0.08885579652 0.0507120452079 0.00870312805304
-0.0846509953136 0.0449678337523 0.000436526588108
-0.0907785455015 0.0524584397505 -0.00118479390825
-0.0882970685361 0.0477683224493 0.0024150795431
-0.0885584850729 0.049073892874 -0.00200950619874
-0.0764237998865 0.0427638803021 0.012467827989
-0.0806905688101 0.0430259035816 0.00281762808651
-0.0832072651293 0.0446819588288 0.00466484072234
-0.0804908720098 0.0437925829109 0.00718046000891
-0.0825962510417 0.0454961573462 0.0099907484951
-0.0873768718407 0.0471537820858 0.00619471835128
-0.0828503482845 0.0595965470194 -0.0192880434716
-0.0894538275903 0.0585440213956 -0.01222299244
-0.0879379769969 0.0579494325343 -0.0152794300438
-0.0892581783745 0.0560790018189 -0.0100279182832
-0.0321960002184 0.0876794392706 1.38693547354e-05
-0.0419780255601 0.0894267084752 0.0083069971513
-0.0389860990996 0.0900775439405 0.00590747765844
-0.0626266876164 0.0893829494846 0.00724019181224
-0.0583605610985 0.089783739453 0.00590812043665
-0.053047710939 0.0896580046224 0.00672550581423
-0.0509550458478 0.0887920684745 0.00996534039356
-0.0328883632446 0.0891008076389 0.010125892272
-0.0638166817245 0.0879743658613 0.0116416206271
-0.0475705715277 0.0889706390663 0.00963385349845
-0.0595084007626 0.088571122403 0.0101132716165
-0.0556774075451 0.0889171059203 0.00930724959221
-0.0684956112985 0.0886505501142 0.00933560964195
-0.0746546577075 0.0842862670861 0.017427589682
-0.0502509584498 0.0866909235916 0.014490758789
-0.0414960119712 0.0860823742092 0.0156772274377
-0.0553205957725 0.0867149716948 0.0143036446602
-0.0655765652253 0.0857098118041 0.0155296211119
-0.0755136055466 0.0862964597282 0.0143414072076
-0.0762562875157 0.0879541705072 0.0104881063517
-0.0391220314734 0.0883495189405 0.0115106617925
-0.0342646733287 0.0877032199868 0.0129007241766
-0.0440914444516 0.0873278210773 0.0134530231901
-0.0686181524486 0.0873116655662 0.0129906226563
-0.0703501910488 0.0806858594258 -0.0177513974531
-0.0657489784093 0.0808721448475 -0.017853830133
-0.073423849159 0.0817699395582 -0.0166872814731
-0.0772605766751 0.0818774272895 -0.0163853309761
-0.0592652868871 0.0784529583121 -0.0202075891096
-0.0557380864891 0.0785339159453 -0.0203370657127
-0.0732214445799 0.0786708319088 -0.0191991781591
-0.0526936608445 0.077343179161 -0.0210965050023
-0.0634314098907 0.0766281507451 -0.0206682329333
-0.0696621889735 0.077531090953 -0.0198922178892
-0.078543308325 0.0745439069316 -0.0204969718529
-0.0736739555522 0.0753752880414 -0.0204881929851
-0.048040086018 0.0777761511361 -0.0212328417615
-0.0355357970662 0.0750852590452 -0.0223791551627
-0.0531436626324 0.0726002979555 -0.0223401762028
-0.0579866796425 0.0741037061781 -0.0217823621799
-0.0666209904282 0.0723349222584 -0.0218634586073
-0.05022513319 0.0741747174509 -0.0220766818778
-0.0448349233848 0.0756568577299 -0.0219346899895
-0.0393395312955 0.0749592624231 -0.0223238773256
-0.0617496146629 0.0732167707583 -0.0218457672921
-0.0880593196642 0.0698479768677 -0.0171406978329
-0.0855315272713 0.0682000062781 -0.018952304233
-0.0807822352709 0.0701523165531 -0.0210519498307
-0.0831295464077 0.0648337849988 -0.0201793855568
-0.0858231880461 0.0775086019312 -0.0162081358663
-0.0836784798357 0.0750131091449 -0.0182635735426
-0.0874859322367 0.0659326751593 -0.0174318988487
-0.086357498657 0.0616140217942 -0.0174983183576
-0.0898132839544 0.067595319029 -0.0148896114631
-0.0429940258042 0.0874381944875 -0.0105403178381
-0.0516427542374 0.0874133065428 -0.0101175111413
-0.036185175646 0.0872984830231 -0.0111990011363
-0.0748223139445 0.0880408794595 -0.00753915706486
-0.071463801905 0.0860289744081 -0.0113736451402
-0.0558093551791 0.0857904560648 -0.0128059382427
-0.0676732422885 0.0863070458928 -0.0111163352124
-0.0762757169487 0.0856734659106 -0.0117048043864
-0.0638903882519 0.0859633613958 -0.0119770210801
-0.0343042158637 0.0836146808767 -0.0158202410883
-0.0376192984505 0.082472443721 -0.0169616744374
-0.0358508102154 0.0787820534112 -0.0206494677729
-0.0418337185771 0.0793443110252 -0.0200876058268
-0.0487446365811 0.0838068175917 -0.0153824968595
-0.0727771129851 0.084197149727 -0.0144945541454
-0.0599744069285 0.0831499573163 -0.0158283760555
-0.0454825590829 0.085251008593 -0.013967424009
-0.0384263615986 0.0858818756757 -0.0134635279273
-0.0637010636956 0.0837135769032 -0.0151746811476
-0.0511440679134 0.0815864834334 -0.0176111350748
-0.0619612950512 0.0812146795581 -0.0177730118174
-0.0460582246362 0.0820138082587 -0.0172760289339
-0.0570708169857 0.0809367121289 -0.0181573358304
-0.0678072584431 0.083208572516 -0.0156093365234
-0.0526676634454 0.0837816063223 -0.015328761285
-0.0422038071888 0.0823238657615 -0.0170362155578
-0.0420981757735 0.0846736472197 -0.0146282690402
-0.0348823817411 0.0693713114958 -0.0230979993939
-0.0398747003021 0.0649072788449 -0.0230979993939
-0.0364714517149 0.0661357623011 -0.0230979993939
-0.044629595562 0.0645766229488 -0.0230979993939
-0.03338099777 0.0630364103412 -0.0230979993939
-0.0399281117627 0.0605261780651 -0.0228267372535
-0.0372173387125 0.0581541858734 -0.0222384047548
-0.091707455134 0.0620844602824 -0.00543884988015
-0.0926071217055 0.0676956448891 0.0005460359731
-0.092601482612 0.0591323933055 -0.00026443843918
-0.0913859023091 0.0699979821883 -0.00667889450669
-0.0924752718658 0.0737209459026 0.000289577436987
-0.092054009425 0.0702413557922 -0.00259004295998
-0.0914823865268 0.0667475959476 -0.00638619735485
-0.0920650470904 0.0653050788956 -0.00297026653597
-0.0925121362494 0.062759852931 -0.000479510330544
-0.090803851438 0.0675069417422 -0.0104476406944
-0.0923617523839 0.0628635121913 0.00383969793806
-0.092031269335 0.0591336181734 0.00746004028421
-0.0923582603857 0.0694446986719 0.00447802409523
-0.0923367772317 0.0590427103719 0.00379253477394
-0.0915139421787 0.0564757828065 -0.00407328515168
-0.0908402001862 0.0580601575123 -0.0075597224748
-0.0902109071458 0.062241206261 -0.0117713627324
-0.0893912299786 0.0622950078925 -0.015214544747
-0.0909953626235 0.064097200244 -0.00908402689013
-0.0816652077154 0.0575104024519 0.0230970316559
-0.0832098267799 0.0477679840736 0.0137628406885
-0.0792027847957 0.0446879981078 0.0135836333043
-0.0797408931521 0.0477147955283 0.0161280108279
-0.0847250609649 0.0517795136008 0.0165762845579
-0.0864578880376 0.048144695469 0.0118635556964
-0.0835151260776 0.0542883700589 0.0198388202686
-0.0811285068942 0.0512384124688 0.018559783232
-0.079335974631 0.053281031541 0.0209449927349
-0.0777896724715 0.0496955789242 0.0188193187937
-0.0873795672789 0.0611845178877 0.0199751446738
-0.0856717132474 0.0574059228262 0.0211972671089
-0.00216485465449 0.079269652349 -0.0234177780139
-0.000473993189884 0.0624634009761 -0.0231379307334
-0.00139666209288 0.0680767242011 -0.0233493915878
0.00271699996665 0.0555047466614 -0.0163308972018
0.00271699996665 0.0865376782486 -0.0103042051301
0.00271699996665 0.0803568327752 0.00125002708553
0.00271699996665 0.0785885850622 0.00518713183641
0.00271699996665 0.0696619343966 0.00161207331611
0.00271699996665 0.0729949009305 -0.000537485474111
0.00271699996665 0.0736778505006 -0.00761779633923
0.00271699996665 0.0767155309153 -0.0134601378416
0.00271699996665 0.0747790562161 0.00281108296246
0.00271699996665 0.068211703645 -0.00230905742782
0.00271699996665 0.0714918095889 -0.0175117081114
0.00271699996665 0.0687155142491 -0.0101892175511
0.00271699996665 0.0786578003997 -0.00666132469483
0.00271699996665 0.0746483202667 0.011415773551
0.00271699996665 0.083659578997 -0.000335390919551
0.00271699996665 0.0652158277674 -0.0102217729753
0.00271699996665 0.0689493314129 -0.0153108427899
0.00271699996665 0.0736526697325 -0.0111133223581
0.00271699996665 0.0803548678938 0.016713087565
0.00271699996665 0.08290163825 0.0126550224432
0.00271699996665 0.0644694689772 0.0164914765189
0.00271699996665 0.0581600766018 0.0154179846906
0.00271699996665 0.0642501999333 0.00751030924026
0.00271699996665 0.0509707772713 -0.00964145761141
0.00271699996665 0.0513106719176 -0.0138359498611
0.00271699996665 0.0513349972277 0.0149744723015
0.00271699996665 0.0656632722509 0.00403587558276
0.00271699996665 0.0520564025811 -0.0065875829705
0.00271699996665 0.0787719953469 0.0216141257696
0.00271699996665 0.0706673307643 0.0157723201338
0.00271699996665 0.0595553012104 0.0120603247918
0.00271699996665 0.0480634897741 -0.00734627343687
0.00271699996665 0.0541066117369 0.0101658505477
0.00271699996665 0.0455506196337 0.00695839310616
0.00271699996665 0.0512843741827 -0.0172375711971
0.00271699996665 0.0577016704386 -0.0104915726165
0.00271699996665 0.0571879148169 0.00067220644183
0.00271699996665 0.0686016472713 0.00562676588771
0.00271699996665 0.0564694627369 -0.00607065190183
0.00271699996665 0.0876734038512 -0.00282545464899
-0.0321939997375 0.0664959793026 -0.0108513845645
-0.0321939997375 0.0640042058503 -0.00319591954865
-0.0321939997375 0.0669431293922 -0.0160168667487
-0.0321939997375 0.0723605293544 -0.0221244962184
-0.0321939997375 0.0705191437124 -0.00457112589133
-0.0321939997375 0.0637233274775 -0.0196957863039
-0.0321939997375 0.0600823669907 -0.0166789796231
-0.0321939997375 0.0707557350007 0.0168103265671
-0.0321939997375 0.06878628459 -0.00803827959703
-0.0321939997375 0.0608530460744 -0.0100132410819
-0.0302941016054 0.0585711776887 -0.0227567579581
-0.0311661081858 0.0430093236029 -0.0107362202754
-0.0305214289099 0.0431329715004 0.00511091639234
-0.0237442146124 0.042406197517 0.0156992168309
-0.0291382505875 0.0429057979808 0.00120263735011
-0.0276765969312 0.0449617358859 0.022034176809
-0.00355742402538 0.0422939993441 -0.00523595301274
-0.00110531735065 0.0422939993441 0.00109133846629
-0.0175716341519 0.0422939993441 0.012334501256
-0.00084518945582 0.0422939993441 -0.00264803391545
0.00161183092863 0.0422939993441 0.0114446893607
-0.0141149985712 0.0422939993441 0.0127775796583
-0.0036423217237 0.0422939993441 0.00675874478768
-0.000476729603625 0.0422939993441 0.00504610357424
-0.00266123632908 0.0422939993441 0.0132472168434
-0.00395964544698 0.0422939993441 0.00327917889902
-0.0234704748205 0.0480959094211 0.0257838796178
-0.0146470282567 0.0471507207744 0.0253085632465
-0.0299448098498 0.0652468245945 0.0262909997255
-0.0193995770621 0.0640962254861 0.0262909997255
-0.00882699336186 0.0802122862607 0.0262909997255
-0.0244987544571 0.0582893571804 0.0262909997255
-0.0110147022738 0.0738592668197 0.0262909997255
-0.0287135101907 0.0697480308773 0.0262909997255
-0.0286670413784 0.0619969416598 0.0262909997255
-0.0157938859476 0.0772975140575 0.0262909997255
-0.0246033345325 0.0669277342622 0.0262909997255
-0.0244440065016 0.0744493038196 0.0262909997255
-0.0238896744716 0.0541794526841 0.0262909997255
-0.0180305665721 0.0703143914342 0.0262909997255
-0.00604402968741 0.082391171519 0.0262909997255
-0.0219470202177 0.0695678160215 0.0262909997255
-0.0236128006777 0.0615345349898 0.0262909997255
-0.0196139267558 0.077288510551 0.0262909997255
-0.0119564242181 0.0775941576478 0.0262909997255
-0.0157938164094 0.0558447738618 -0.0234744713748
-0.0214589945709 0.0532022007714 -0.0233416524134
-0.0110854038342 0.060342310938 -0.0237005230988
-0.0076834362423 0.056052963211 -0.0234849352265
-0.00879698172381 0.0627386418253 -0.0238209656253
-0.0191863870828 0.0504994073263 -0.0232058067033
-0.0108922487046 0.0503150416807 -0.0231965402601
-0.0111129893764 0.0549687457087 -0.0234304411264
-0.00495010057864 0.0526153280621 -0.023312155472
-0.0155714636221 0.0509452542705 -0.023228215517
-0.00392306242538 0.0492444167889 -0.0231427293412
-0.0235220971399 0.0675279399042 -0.0233664553913
-0.030059272409 0.0626165496943 -0.0231055129181
-0.0195379202368 0.0653103879237 -0.0234937269447
-0.0257333372535 0.0596526846421 -0.023240311929
-0.0238789998977 0.0633806372393 -0.0233285629995
-0.0228207567063 0.0571303450625 -0.0233278585719
-0.0138637921312 0.0654646321182 -0.0236951739943
-0.0274467789504 0.0709889741689 -0.0232488660515
-0.0249082935658 0.0517682154968 -0.0232214055516
-0.0282965122528 0.0554090295015 -0.0231238690994
-0.0207661576817 0.0616187011311 -0.0234278214488
-0.0172540301062 0.0624945455329 -0.0235572684453
-0.0286614666018 0.0677199394051 -0.0231860157042
-0.0192491578655 0.0576326411312 -0.023457130086
-0.0320137365316 0.0516727156807 -0.0159579998734
-0.0317613594872 0.0457939078221 -0.00642060054318
-0.0320918886841 0.0544542975665 0.00752915878523
-0.0321920647968 0.055894219679 -0.0208382269655
-0.0318367699281 0.0475387928786 -0.00959243979807
-0.0320682570492 0.0537290401658 0.00361378757132
-0.0320933786058 0.0547702900833 0.0152110492515
-0.0321939997375 0.0654025214002 0.0134958868389
-0.0321939997375 0.0563490163443 -0.0158384060094
-0.0321939997375 0.0655803702871 0.0211954039224
-0.0321939997375 0.0616357798799 0.014450219039
-0.0321939997375 0.0693960142994 0.0214104919281
-0.0321939997375 0.0634546902959 0.00602554268596
-0.0321939997375 0.0625095822504 0.0192522447425
-0.0321939997375 0.0672617343515 0.0177881052251
-0.0316372724205 0.0469228764562 0.0155910150098
-0.0316933636016 0.0459091537689 0.00272675884827
-0.03182513508 0.0476694607066 -6.035139222e-05
-0.0318186507421 0.0490677011033 0.0099121443502
-0.028540914315 0.0524494266737 0.026104712321
-0.0307116177712 0.0577174014838 0.0258446720581
-0.00116561257989 0.0869206664761 -0.0222809877439
0.000904960526039 0.0886500499193 -0.0150250105296
0.00271699996665 0.0623183363488 0.0194524712467
0.00271699996665 0.0635639214312 0.0232504927822
0.00271699996665 0.0658439593303 0.0204757070119
0.00271699996665 0.0583843220366 0.0193499261593
-0.0270891947932 0.0916770026088 0.000637875190095
-0.0193442476621 0.0916770026088 0.00224317439938
-0.0232623552434 0.0916770026088 -0.000162758673511
-0.0214338776076 0.0916770026088 -0.00347182409554
-0.0221011851711 0.0423198111395 0.00344273985049
-0.0271738914618 0.0427193487202 -0.00703111379368
-0.0168666593192 0.0422939993441 0.00552302953577
-0.0114902545329 0.0422939993441 0.000448829296424
-0.0176918360267 0.0422939993441 -0.0125062958825
-0.0168890969219 0.0422939993441 0.00908786582859
-0.0155990607851 0.0422939993441 -0.000654573594264
-0.0111278720633 0.0422939993441 -0.0030868064042
-0.0117584674304 0.0422939993441 -0.00711920079714
-0.00621766622678 0.0887133566262 -0.0191332812575
-0.0181023797089 0.0901189307296 -0.0121820753263
-0.013218211368 0.0882729816756 -0.0205943768306
-0.0189181220873 0.0887871872886 -0.0179610265434
-0.0151499705538 0.0896510565691 -0.0144288456748
-0.0216933401963 0.0897450034253 -0.0135799926691
-0.0122961666626 0.0891284752294 -0.0169086609698
-0.0241890882172 0.088985429433 -0.0167403688335
-0.00992196791396 0.0884910397938 -0.0198595197622
-0.0189209709065 0.0912824975436 -0.00703055991357
-0.0240016733123 0.0909890487927 -0.00642392284798
-0.0271416820751 0.0883667924158 -0.0190864654638
-0.0268393598709 0.0903750939096 -0.00786031096525
-0.0259790779715 0.0896745951877 -0.0124780058796
-0.0285888716652 0.0908388962151 -0.00394523543016
-0.0312721079266 0.0810155594332 0.0235714623004
-0.0321939997375 0.0732873086466 0.0114140425419
-0.0321939997375 0.0713009197217 0.0256083647805
-0.0321939997375 0.0732880147522 -0.000376035556191
-0.0321939997375 0.0767766255917 0.0205966241869
-0.0321939997375 0.0739019941201 -0.00609007916121
-0.0321939997375 0.0762935064992 0.0172271580416
-0.0321939997375 0.0725936459938 0.0198720965031
-0.0321939997375 0.074370716001 -0.0192382389067
-0.0321939997375 0.0762097172074 -0.00293407873764
-0.0321939997375 0.0773664512061 0.00651520809151
-0.0321939997375 0.0801532852581 0.00960139643015
-0.0321939997375 0.0750865487397 -0.0107418392503
-0.0321939997375 0.0831340039681 -0.00412184611091
-0.0321939997375 0.0839026542938 -0.00968084687104
-0.0321939997375 0.080977343579 -0.011582175197
-0.0321939997375 0.0774555670421 -0.00626295392832
-0.0316268561115 0.0828194426047 -0.0176176732737
-0.0313530099186 0.0859595675725 -0.0161971090513
-0.0306680682547 0.0811721246541 -0.0221267528685
-0.0302350914677 0.0844138399999 -0.0211732675451
-0.0302386603561 0.0879030273014 -0.012790923472
-0.0299544006242 0.088992042505 -0.0092819638973
-0.0185911987368 0.0485576743909 0.0260155588455
-0.00897809476745 0.0527426682031 0.0262909997255
-0.00421682591763 0.0646918847975 0.0262909997255
-0.00642828246004 0.0596931207576 0.0262909997255
-0.00419505584478 0.0717889008993 0.0262909997255
-0.0110987258545 0.0699718392254 0.0262909997255
-0.0204853912108 0.0530681815963 0.0262909997255
-0.0204943542025 0.05883259604 0.0262909997255
-0.00395013494936 0.0552201323865 0.0262909997255
-0.0106710717169 0.0642712275615 0.0262909997255
-0.0106999165284 0.0567943998365 0.0262909997255
-0.0143646519931 0.0586440838895 0.0262909997255
-0.014403650682 0.0663451594493 0.0262909997255
-0.0178038739289 0.0568392319938 0.0262909997255
-0.0111080986858 0.0611298060183 0.0262909997255
-0.00614366515435 0.0684207505146 0.0262909997255
-0.0127182481848 0.0503556004092 0.0262909997255
-0.00745238583271 0.0766269237853 0.0262909997255
-0.00798888374099 0.072427084858 0.0262909997255
-0.0313416295613 0.0764638841804 -0.0229309001532
-0.0280361014874 0.0746933878526 -0.0232018632607
-0.0174371341689 0.0689267449045 -0.0235833607748
-0.0124218546194 0.0691115470228 -0.0237342883554
-0.0197263259667 0.0775780029138 -0.0234257456373
-0.0231883115387 0.0709663515512 -0.0233874192843
-0.0230404445573 0.0761701520871 -0.0233390708738
-0.0157817062292 0.072897014643 -0.0235934730778
-0.0198373937566 0.0729580251161 -0.023469285509
-0.0230059805546 0.0803787652198 -0.0232973751723
-0.0275335309398 0.0806044448249 -0.0231571384776
-0.00478303314129 0.0868714890528 -0.0226806760802
-0.0177292813347 0.0871973269591 -0.0217624816993
-0.0230684117987 0.087976874207 -0.0203493044932
-0.0292105345555 0.0800812845009 0.0261728582622
-0.0236820054227 0.0819078751834 0.0262909997255
-0.0193633395847 0.0829140528205 0.0262909997255
-0.0108991191583 0.0842306888874 0.0262909997255
-0.0306093591774 0.0748522236143 0.0262909997255
-0.0164382251198 0.0807649534941 0.0262909997255
-0.0152201657589 0.0840124072354 0.0262909997255
-0.0256360119936 0.0779961723832 0.0262909997255
-0.0237052014101 0.0859328449022 0.0260700258269
-0.00703699552156 0.0866505351296 0.0253519140281
-0.00234271566756 0.0862403940189 0.0257622960558
-0.0199402755984 0.0873243503888 0.0246707958488
-0.016392025223 0.0869967160417 0.0250020585345
-0.0287644859685 0.0893836912083 0.0125967367185
-0.0292046895129 0.0900801648572 0.00900726490381
0.00135519846647 0.0840036211014 -0.0216525921255
-0.00174271307921 0.0878918738826 0.0221436552163
-0.00515053481153 0.0888802834739 0.018077057276
-0.00694281431203 0.089519531562 0.0153063381548
-0.00207873692497 0.0467340492398 0.0248115237503
-0.00578329238852 0.0470202541323 0.0252156274414
-0.00896129101739 0.0457243226433 0.024025349719
-0.0201753929901 0.0459785888293 0.0246383007303
-0.0209071374108 0.0428770009288 0.0174403592194
-0.024581502795 0.0452466414329 0.0233903287281
-0.0177540542489 0.0446520722824 0.0217081345561
-0.0235368482783 0.0439681122445 0.0202101076564
-0.00425629183851 0.0446316078778 0.020884126563
-0.0088667977111 0.0441204503825 0.0199041209663
0.000347704744855 0.0445874418285 0.0201320507024
-0.00483341679823 0.0430300667455 0.0159633345814
-0.0123462942992 0.0429051205446 0.0165757702675
0.00175795189591 0.044207171966 0.0170181508781
0.000794958546203 0.0484845648538 0.0242895315841
-0.0307166401915 0.0460921947553 -0.016591069936
-0.0283743240082 0.0475061561942 -0.0221416512937
-0.0303421545427 0.0520107436919 -0.0218391974804
-0.0131926169573 0.0479356684139 -0.0229325834627
-0.00823799138135 0.0480426725394 -0.0229863370646
-0.0247061091743 0.0474893526751 -0.0227083764202
-0.024178772999 0.0426376194464 -0.0129437314079
0.00133076799094 0.0439599871101 -0.0132046040147
-0.0113180533796 0.0436318730003 -0.0151994970556
-0.00430841307435 0.0449183881367 -0.0176359598331
-0.00690772710212 0.0424509995955 -0.0116088837166
-0.0191564491246 0.0470583933303 -0.0224704865176
-0.0246659761107 0.0451421019269 -0.0191132115164
-0.0116252122628 0.0450252520102 -0.0184579067101
-0.0153947903556 0.0456286007205 -0.0198677998372
-0.017268278695 0.0441221212156 -0.0166979112961
-0.00281317633555 0.0461257549619 -0.0205424304486
-0.0074744538417 0.0453336452197 -0.0189898443196
-0.0230272505716 0.0438647317008 -0.016325199248
-0.0213123517606 0.0455735861731 -0.0199336580133
-0.0012245805751 0.0825666824627 0.0262909997255
-0.00178984921002 0.0786352133057 0.0262909997255
-0.00221169192457 0.0751609448001 0.0262909997255
-0.0292429887663 0.087679897121 0.0189284287249
-0.030079814983 0.0911444523007 0.00205811874334
-0.0310940372533 0.0838182130663 0.0198489966697
-0.0292236975206 0.0864023490635 0.0229934596793
-0.0316271880631 0.0846571309483 0.0159296189643
-0.032087144333 0.0844994977866 0.0031166467966
-0.0319702290008 0.0849381476705 0.00645415301004
-0.0315356975506 0.0889659839882 0.0058355365316
-0.0136874920729 0.0906478248379 0.0113827861839
-0.0106037532459 0.0901776308338 0.013041329415
-0.0187030366559 0.0916770026088 0.00586851756649
-0.0102812397421 0.089119585113 0.0177764441578
-0.0168805256071 0.0903131588901 0.0130008262898
-0.0184073425025 0.0912053791651 0.00943440271597
-0.023017883926 0.0878977967271 0.0226452307118
-0.0180275397434 0.0886020352771 0.019836484554
-0.0140915318454 0.0887705355138 0.0191672217268
-0.023363309326 0.0889174315028 0.0185709159627
-0.013539850244 0.0896227019101 0.0157629369225
-0.0101128132207 0.0875878904736 0.0238965223041
-0.0218492609042 0.0915526315648 0.00674574250547
-0.0259700742838 0.0881697608885 0.0210041521292
-0.0228454221488 0.0898520234067 0.0145403587112
-0.0275516724803 0.0912020431286 0.00514898705864
-0.0258099519378 0.0891650586127 0.0161958172889
-0.0220756326649 0.0907448437772 0.0105920164833
-0.00282830354996 0.0910864347096 0.000992985088782
0.000511273503602 0.0909265793478 -0.000314620010733
-0.0107136770732 0.0914638834757 0.00499029725852
-0.0121188619957 0.0911549356489 0.0083582774404
-0.00627300338466 0.0906064123339 0.0086703751992
-0.00395522341214 0.0910666830214 0.00449602274198
-0.00259873205559 0.0896722861292 0.0126041173676
0.00100967154271 0.0906309253562 0.0045701779284
-0.00123346293199 0.0890253607039 0.0159672140346
-0.00279912991869 0.0903605568006 0.00834785571391
0.000925470725708 0.089494383672 0.0118233980934
0.00143806342099 0.0539164726559 0.0250096865878
0.00175324250675 0.0722385067323 0.0246002351342
0.00115636510246 0.0803939923934 0.0249453146004
-0.00185742510526 0.0676741900192 0.0262789834034
0.000357948711648 0.0615807660518 0.0257334784822
0.000559250406047 0.0581120933051 0.0256392499782
-0.00141473280441 0.051986776784 0.0259482839877
-0.00406371958039 0.0652598243968 -0.0238518367191
-0.00190327361403 0.0537937738736 -0.0233444210897
