0.0057407448086 0.0401631604032 -0.00949822928656
0.00756640454497 0.0237049088153 -0.0089639020142
0.00646902158217 0.0414741799438 -0.00950280203937
0.00583620932753 0.0378585411143 -0.00943037330346
0.00803671510859 0.0155255869818 -0.00871735665474
0.00685688437077 0.0359803430856 -0.00933407467823
0.00828387698453 0.0101256176287 -0.00855734195143
0.00726491766577 0.034688802596 -0.0092806314507
0.00790910450355 0.0249018936238 -0.00898208819591
0.00812386744529 0.0199345945276 -0.00883544226587
0.00583570938092 0.0353082464483 -0.00935989900233
0.00694611545045 0.0396208250217 -0.00943082607731
0.00697936127791 0.0271198080003 -0.00908382347807
0.00845118567119 0.00863142486353 -0.00850876410989
0.00389145920748 0.0412349795325 -0.00947363055657
-0.000478153061208 0.0431788313632 -0.00934975739301
-0.0036411505952 0.0432410655515 -0.00927898378819
0.00242662423672 0.0434367444884 -0.00941032688114
0.00137126606749 0.0420234708391 -0.00940685927474
0.00532701534616 0.0426711664026 -0.00948517827898
0.00409166654489 0.0432380406288 -0.00944991431344
0.01036907224 0.0448262973751 0.0040573013902
0.00806355325259 0.0441524353858 0.00531567185587
0.00860536136928 0.0474860674351 0.00426985764721
0.00861102964648 0.0454444135353 0.00474945303061
0.00769077163032 0.0494981941539 0.00423057700674
0.00572712002634 0.0462480723349 0.00518600203945
0.00100651729846 0.0488387989698 0.00487134803397
0.00595336123309 0.0500668426407 0.00455524488612
-0.00114392855609 0.0492590213814 0.00485248911545
0.00549562008581 0.0485276021861 0.00481800345937
0.00496537003855 0.0471581833395 0.00505463086713
0.00307672258674 0.0503402381614 0.00457731085182
0.00471623421513 0.0455892435271 0.00531740652673
0.00690251135649 0.0472027148483 0.00500232164769
0.00439906995669 0.0506053304072 0.00450316116958
0.00192330748037 0.0506165102714 0.00455886151625
0.00288236551903 0.0468950977381 0.00514612795718
-0.00210168431852 0.050915492624 0.00460342179432
0.00313809515422 0.0491157458579 0.00477645177568
0.00500600207922 0.0516090290561 0.0043246553813
0.000797679837749 0.0500523952411 0.00467741861505
0.00719832077167 0.0456931716067 0.00524270498644
0.00160596364807 0.0478550509248 0.00501855226678
0.00676474640766 0.0487564615352 0.00475102533155
0.00428284786686 0.0486587623077 0.0048247022409
0.00626973440201 0.0522654333403 0.00388199820229
-0.00332017128724 0.0515771041201 0.00443108382614
0.00419412761057 0.052424376586 0.00379456124167
0.00270452304581 0.051936189809 0.0041352646301
0.000510186828476 0.0520011735118 0.00411186080026
0.00840441819197 0.0537570676021 0.00051065108222
0.00633092443884 0.0548720613779 -0.000495329715099
0.00724484961953 0.0542525823037 0.000259372132806
0.00669661264727 0.0538178532692 0.00176725550802
0.01092931472 0.0514581733141 -0.00284332250863
0.0107479432151 0.0515983972253 -0.00132394359615
0.0103532252597 0.0521164179513 -0.000277037119454
0.011488237876 0.0503617650232 -0.000473209377298
0.0107729054282 0.0518009694021 -0.00388851725923
0.00710531729667 0.0528159503584 0.00296813756509
0.00806467823045 0.052854065747 0.00239907685732
0.00961392786132 0.0529380785471 0.00146093799631
0.00919477832297 0.0508903308286 0.00258915153299
0.00994280503276 0.0488480606765 0.00283310420909
0.00896104773757 0.0521172214736 0.00228218644261
0.0100183689588 0.0471747718736 0.00343267114111
0.00780399494125 0.0518669784755 0.00324094936478
0.00857299280617 0.0499522306106 0.00341932526242
0.00776951781066 0.0508327827113 0.00367190588415
-0.00840451067323 0.0270752111025 0.0047713094861
-0.00787889180259 0.0259143332886 0.00498376706557
-0.00722464161831 0.0424127424794 0.00543366096646
-0.00829370380615 0.0343566752702 0.00489388052748
-0.00820499957255 0.0229991317911 0.00481438090117
-0.0087159865661 0.0207762590544 0.00457320087041
-0.00891642347402 0.0294484276761 0.00457723420538
-0.00881455298245 0.0090240980856 0.00440965269176
-0.00765306779487 0.0381150305402 0.00520629365346
-0.00739675313805 0.0360843608737 0.0052947609949
-0.00843367239506 0.0177918006393 0.0046629134835
-0.00830624432042 0.037072050893 0.00491658846954
-0.00825454243967 0.0218160989131 0.00478099808107
-0.00766015620672 0.0400661757574 0.00522343156735
-0.00896304147815 0.0281799223773 0.00454421704165
-0.00831889629363 0.0140827085146 0.00467359326909
-0.00799614772867 0.0243372740375 0.0049173965037
-0.00789429071921 0.02849779305 0.00500389104702
-0.00889917572436 0.010992880475 0.00439386338383
-0.00893904290399 0.0331358436101 0.00460568408008
-0.00771407714807 0.0328406615961 0.00512573077136
-0.00778426334015 0.0304811245416 0.00507137358174
-0.00830661714548 0.042771521543 0.0049753326893
-0.00888773034939 0.0388548458398 0.00468670137443
-0.00860722262191 0.0154363575793 0.0045644590409
-0.00960828101835 0.0259024644617 0.00424446508331
-0.00937416037232 0.0365183709654 0.00445455595094
-0.00896769063527 0.00501457444913 0.00430277249966
-0.00940716218347 0.00176918387157 0.00408096837967
-0.00953301942252 0.0160437765679 0.00417472073034
-0.0100210447764 0.0185649954178 0.0039917711126
-0.00981990298837 0.00382009626745 0.00392539947893
-0.00966894078233 0.00796193024423 0.00403290310431
-0.0101862254925 0.00532221812513 0.00378403553345
-0.0093344986322 0.035141143037 0.00445729743882
-0.0104322377858 0.00252480757558 0.00364972730895
-0.00946590133455 0.0319795717339 0.0043683115102
-0.00997017247733 0.0112442523461 0.00393783340079
-0.00979090957563 0.00067559468213 0.00390529051845
-0.00972593241829 0.0143010678275 0.00407406588202
-0.0090894839052 0.0190140237836 0.0043954193814
-0.00969932323823 0.00677611516187 0.00400762347828
-0.00918362918877 0.0132022548662 0.0042949772834
-0.00939180180413 0.0225141056293 0.00430213698722
-0.00970885403329 0.00999292811454 0.00403681661314
-0.00942754946834 0.0305074626634 0.00436951048776
-0.00679906143164 0.0477369936467 0.00473131586782
-0.00849081240218 0.0441514413741 0.00488703563577
-0.00747894752316 0.0463020729421 0.00479230301628
-0.00732392237414 0.0444089406178 0.00536318151774
-0.0078864226451 0.0508684939309 0.00311321742834
-0.0063733667743 0.0507456507906 0.00402679538456
-0.00852519312439 0.0453649262464 0.0045395768203
-0.00701474873206 0.0493421534438 0.00411430309189
-0.00862324975089 0.0484469869183 0.00347767343882
-0.00716644651208 0.0536741411743 0.000654504422538
-0.00809743290499 0.052847903203 0.000809863073736
-0.00800668332593 0.0525363971193 0.00209631937647
-0.00789837874075 0.0533274509587 -0.000228956454772
-0.00722909106972 0.0522565388381 0.00283790968745
-0.0059257113413 0.0517735291303 0.00384515429255
-0.00667127949881 0.0534597647489 0.00225253269967
-0.00576746521121 0.0529424922544 0.00308244359005
-0.0088344219932 0.0495780680574 0.00296052303489
-0.00916830466833 0.046744644028 0.00365310282416
-0.00992258006523 0.0455693039877 0.00336108033725
-0.0102486843953 0.0467300777593 0.0026418732533
-0.00966887069812 0.0443666776452 0.00402704920305
-0.00954976815168 0.0477104062124 0.00295110065323
-0.013315156553 0.00311277177874 0.000225194725803
-0.0120517833401 0.00385129688333 0.00216014667358
-0.0121477964316 0.00644921030538 0.00214937970867
-0.0126947599282 0.00404988481036 0.00120487713502
-0.0120802520436 0.00771137846169 0.00231561363297
-0.0112729366037 0.00067437025734 0.00316649612247
-0.0119617667774 -0.000210064127651 0.00208676177102
-0.0126332885736 0.000667531852001 0.00112349685334
-0.0123728321207 0.0089045554278 0.00193755690791
-0.0113745510242 0.00185348082322 0.00307446320321
-0.0121551430935 0.00257252450319 0.00193928125807
-0.0120179702753 0.00143690517902 0.00208694045913
-0.0136053740527 0.000634108491176 -0.000337862682473
-0.0133612866166 0.00193674383522 9.55389451527e-05
-0.012220166604 0.00511350979924 0.00197212371563
-0.0109657397008 0.0228909596099 0.00323600889207
-0.0114457929905 0.00923722975827 0.00294296193598
-0.0104640906866 0.0273169341858 0.00364281991676
-0.0105181760175 0.0150579539925 0.00371936464376
-0.0117092565333 0.0148550846968 0.00264813922559
-0.0103082291581 0.0291833437729 0.0037641948948
-0.0108837229998 0.0102659606496 0.00343893755058
-0.0109408694726 0.0199870924352 0.00328809611949
-0.0111646636251 0.00546292144795 0.00323486326678
-0.0110345229193 0.0184768660546 0.00321913763378
-0.011095248741 0.00729075243765 0.00327873426929
-0.0103862016029 0.0216145724015 0.00377128261348
-0.0106972092383 0.0130450645647 0.00357860630627
-0.0106790612246 0.017267825077 0.00355180484626
-0.0103147356798 0.0325402550187 0.00372402552566
-0.0121420835592 0.0108082358614 0.00229947011004
-0.00936430922631 0.0410156711961 0.00449385230081
-0.0115472330774 0.0162305515229 0.00278008403272
-0.0110451269759 0.00400743477758 0.0033574538241
-0.0105734815735 0.0243015415296 0.00357506239368
-0.0119859905672 0.0130398296683 0.00241732163009
-0.0109558759461 0.0378412659318 0.00298455743617
-0.0114233834949 0.0296098178938 0.00268223383799
-0.010231470737 0.041631539828 0.00363121486056
-0.0113030675819 0.0277793527326 0.00283853944259
-0.0098543911266 0.03828605113 0.00407355105928
-0.0106665090407 0.0314175078483 0.00340066524233
-0.0116457340158 0.0307329297248 0.00243829332566
-0.0109507538944 0.0399648941194 0.00294744635843
-0.010812339065 0.0348983771111 0.00318612123925
-0.0102550654997 0.0370399408908 0.00369897586292
-0.0102817949516 0.043068051687 0.0035525005741
-0.0117451144828 0.0195880570484 0.00256079394265
-0.010291998307 0.033800422107 0.00372656465434
-0.0115555880785 0.0265818535023 0.00261066094132
-0.0117902778692 0.0210098190603 0.00248751660263
-0.0114863656702 0.0254205305191 0.00270274026061
-0.011455372656 0.0242198860262 0.00275749852145
-0.00976094897205 0.0398205031204 0.0041361798696
-0.0100585050209 0.0509223650739 -0.00236996296619
-0.010797931729 0.0485195884776 -0.00293482806867
-0.0112442273228 0.0470693452062 -0.00197503975827
-0.0119534493935 0.0447647189675 -0.00173359363555
-0.0115814489631 0.0459735391499 -0.00162665343196
-0.0114706524915 0.046333573709 -0.00310476237767
-0.0105492771013 0.0493275948877 -0.00150666106951
-0.0104363274141 0.0496946263488 -0.00265793535598
-0.0118252972374 0.0451811510467 -0.00290338194435
-0.0126984878741 0.0343241893413 -0.00165986971691
-0.012561282631 0.0366147050622 -0.000546364532374
-0.0124606949045 0.0382939249222 -0.00226605760172
-0.0121621109568 0.0432785101404 -0.0011878315371
-0.0125838116593 0.0362386035937 -0.0022598920082
-0.0122781561127 0.0413412426716 -0.000848953529633
-0.0128561066005 0.031692889233 -0.000857485815088
-0.0127366957954 0.0336863431301 -0.00064519080965
-0.012479338869 0.0379826810303 -0.000998322659044
-0.0123917523562 0.039444857549 -0.00194060471282
-0.0128053173846 0.0325407686205 -0.00161121671964
-0.0122094812117 0.042487707171 -0.000263766340785
-0.0121035617655 0.0442559352021 -0.000594613707819
-0.0122393896575 0.0419884130933 -0.0020240314117
-0.0123165757202 0.0406998625536 -0.00225590217784
-0.0121775635612 0.0430205430801 -0.00278120572001
-0.0109064378089 0.0480826439528 -0.000782371063009
-0.00942059431822 0.05244498406 -0.00172401085458
-0.0103823806959 0.0491621390911 -0.000397596323531
-0.0109438841961 0.0473857573594 0.000157880330345
-0.00991505722168 0.0508685415445 -0.00121588055609
-0.00905452048635 0.0521350891017 0.000206153629478
-0.00906058821424 0.0515329479907 0.00112242829137
-0.00963558378592 0.0502391763402 0.000871003003051
-0.0113361040616 0.0462996483586 0.000304287597108
-0.0110140161792 0.0460041360069 0.00155450243168
-0.00949853087361 0.0497140943292 0.00204923143209
-0.00899451046254 0.0507548712919 0.00237178296846
-0.0118853368082 0.0444951282799 0.000759379068797
-0.010292293495 0.0479197636888 0.00166831134515
-0.0109416638131 0.0450930615891 0.0024686805089
0.00688971893949 0.0385744394474 0.00555761662556
0.00803626570986 0.0295307481609 0.00507826665795
0.00816441719813 0.0280274372678 0.00500912854506
0.00763378816193 0.0370620775854 0.00538418774862
0.007885227939 0.034837411984 0.0052714392353
0.00757842712759 0.0402897799701 0.00549551782791
0.00806275024447 0.0212711205512 0.0048128251714
0.00838861332635 0.0193210539833 0.00469618559433
0.00868664443865 0.0102693757344 0.00435986489833
0.00798224640455 0.0259884876444 0.00497546800136
0.00760359927021 0.0415092179732 0.00552979630103
0.0081499986374 0.0165741815785 0.00464968888824
0.00815125321487 0.0177874131569 0.00468781002052
-0.000489332298385 0.0417422145618 0.00578266214242
0.00481255314157 0.0412385903527 0.00563451353072
0.0039934148174 0.042221597639 0.00566205245941
-0.00329758819338 0.0426376946081 0.00586436198668
0.00577354828944 0.0421822605874 0.00561297742232
0.00711952446779 0.0429863397116 0.00558015470295
0.00604703147779 0.0410392082952 0.00559959711
0.00273680724511 0.0421692476746 0.00569628326919
0.00543052447798 0.0401007644414 0.00561170226139
0.000957234022108 0.0420391956255 0.00574447276345
0.00498745768758 0.0431221581494 0.00563938757993
0.00191358559099 0.0407224229642 0.0057114521201
-0.00949854884131 0.051222649031 -0.00371736927507
-0.011088929902 0.0473967197498 -0.00338372631953
-0.0106057463212 0.0473036326673 -0.00454082091356
-0.00892356573791 0.0507993295047 -0.00535712138535
-0.0101437446494 0.0490395929233 -0.00411256645789
-0.00957321177287 0.0482167285271 -0.00603973127868
-0.0100266721477 0.0465814913847 -0.0062793615869
-0.0105650409536 0.0448656479129 -0.00640569241136
-0.0116744546328 0.0445584961746 -0.00440222579214
-0.0108050515748 0.0458569648905 -0.00523060674476
-0.00677621802796 0.0520677535213 -0.00666276384873
-0.00717916504833 0.0524177938632 -0.00564146486907
-0.00859828716179 0.0523322067266 -0.00404565020249
-0.00787051270261 0.0514211636909 -0.00631345269747
-0.00574575266905 0.0531660446392 -0.00624885685905
-0.00686661659562 0.051077876621 -0.00733293508186
-0.00559245587224 0.0521581403435 -0.0073016313861
-0.00652782945742 0.0445883133698 -0.00915646710563
-0.00370295982247 0.0460305047726 -0.0089980522065
-0.00215080670059 0.0487698475679 -0.00863499375325
-0.00440972711122 0.0504648938518 -0.00835786510962
-0.00481480084943 0.0445331204383 -0.00919221439708
0.000531703484402 0.0440404734331 -0.00934920592423
0.00154705644998 0.0461819248841 -0.00906216108265
-0.0049338743071 0.0487483214332 -0.00859268123335
-0.003281638843 0.0444276988122 -0.00923215080415
-0.00206643058706 0.0449178462104 -0.00918247025751
0.000474340392836 0.0476321656097 -0.00883907396583
-0.00075255953358 0.0455343635204 -0.00911648236633
0.00160806258689 0.0447446234805 -0.00926692280324
-0.00292440117268 0.049663349093 -0.00849571169015
-0.00480894533441 0.0462038270562 -0.00895545249358
-0.00253772911982 0.04694955317 -0.00888675139933
-0.000946114186661 0.0488292342386 -0.00864621107516
0.00436344508221 0.0444611024963 -0.00935203081515
-0.000291364936439 0.046522291469 -0.00898394058975
0.00282756592071 0.0461173386271 -0.00909218996531
0.00325611039972 0.0444957639936 -0.00932906715582
0.00564133869152 0.0440186656555 -0.00943558522388
-0.00392917707317 0.0471949737011 -0.00882927719498
-0.00140267057936 0.047679731028 -0.00880173510285
-0.00384511061206 0.0483165241271 -0.00867164442954
0.00189921387367 0.0474382376884 -0.00888533136255
0.000833677233601 0.0490431959702 -0.00861762404836
0.0037910212724 0.0506594165995 -0.00834841895354
0.00548976005045 0.0471499219582 -0.0089337436192
0.00100269982271 0.0501708053828 -0.00842962530418
0.00680632368739 0.0446221334222 -0.0093553450093
-0.000754249351207 0.0499142770535 -0.00847223218919
0.00290910570416 0.0484513783035 -0.00871649829708
0.00268647676165 0.0500681232975 -0.00844690533297
0.00452678343307 0.04814507786 -0.00876772288586
0.0068565126925 0.0460080182822 -0.00912427084959
0.00410976703114 0.046531443496 -0.00903673675894
0.00526846671213 0.049809641699 -0.00849024783615
0.00527542561215 0.0511511211993 -0.00826657362837
0.00266996642965 0.0512215010866 -0.00825459250672
-0.00429822323215 0.0524446138895 -0.00750053996116
-0.000107803569272 0.0514509972432 -0.00816400378756
-0.00219467348034 0.0514639869418 -0.00815513823802
-0.00361533702884 0.0514247059467 -0.00818121731294
-0.0010191614296 0.0519735148474 -0.00781522720684
-0.00233332124765 0.0525004491682 -0.00746346517274
0.00102987136848 0.0517271804067 -0.00797980659441
-0.00572954507757 0.0508032516514 -0.00787093321337
-0.00608640102626 0.047855994751 -0.00849194618775
-0.00697218824033 0.0486887966185 -0.00794492608912
-0.00547996494057 0.0497617304047 -0.00823186712146
-0.00671849231142 0.0497302449957 -0.00777353392314
-0.00839985120006 0.0257196333315 -0.00847609798142
-0.00805532636573 0.0373054685018 -0.00859219294995
-0.00964300630891 0.0126859750702 -0.00796463703702
-0.00878629704491 0.0278575131911 -0.00829719526169
-0.00920091722629 0.0218437077418 -0.00813197328906
-0.00911866704154 0.0309797635196 -0.00813919774979
-0.00958504882241 0.020732203862 -0.00796455343042
-0.00780535106415 0.0335669237035 -0.0087154951457
-0.0089126547715 0.0155687864466 -0.00828047799302
-0.00757337358344 0.0390860036983 -0.00880100554967
-0.00935720225334 0.0395018282257 -0.00800560036973
-0.00907993579244 0.0297240993075 -0.00816047812719
-0.0088781943146 0.0191891106292 -0.00828417206599
-0.00864119058387 0.0423514467073 -0.00831516473946
-0.00815119891915 0.0304368764972 -0.00857161050099
-0.00881346325121 0.0384366315319 -0.00825107117752
-0.00714689929167 0.0427935202545 -0.00897892326749
-0.00918939618708 0.0108783351691 -0.00817237547011
-0.00845768680536 0.0320466873068 -0.00842999959926
-0.00939443506997 0.00853182293593 -0.00808865115069
-0.0084058817832 0.040964473252 -0.00842437359492
-0.00924550043769 0.0239451956148 -0.00810536706174
-0.00877667243166 0.0332411832643 -0.00828416134761
-0.00889696477504 0.0347311616957 -0.00822582047578
-0.00897329671782 0.0167010990388 -0.00824984091502
-0.00829419941282 0.0357731576758 -0.00849078828586
-0.007278171057 0.0402239402998 -0.00892875379235
-0.00905623383914 0.0365217554888 -0.00814916217431
-0.00888717288324 0.0454450127095 -0.00787149468331
-0.00815118365568 0.0468814322503 -0.00788350414134
-0.00765193521884 0.0456092321326 -0.00841463806578
-0.00766115378088 0.0442685750332 -0.00872239504829
-0.00855916571017 0.0495424020533 -0.00703378517784
-0.0095072813336 0.0462593388909 -0.00721560798803
-0.00884444362605 0.048132233532 -0.00722086539889
0.0127256902249 0.00215374821326 -0.00546852246199
0.0131208042543 0.00561345776294 -0.00457254486349
0.0130323209425 0.000414550414033 -0.00456878109249
0.0132360677361 0.00775707166921 -0.00436357947721
0.0133000482391 0.00171726815413 -0.00391354671201
0.0135089935924 0.00976433351788 -0.00372700617446
0.0133393286961 0.0146483851393 -0.00440605010373
0.0126812884958 0.00101253389612 -0.00553444480952
0.0133072027271 0.0123337850794 -0.00438495386187
0.0135325715533 0.0158701692498 -0.0039461147709
0.0135471098271 0.0134833816584 -0.00379698624406
0.0133687572989 0.0107682749646 -0.00414813393494
0.0130733296598 0.00279324568022 -0.00456910216769
0.0129665486284 0.0154923358867 -0.0050863828779
0.0126298769478 0.0141878960688 -0.00566112269047
0.0129497645566 0.0278565055983 -0.00514153552176
0.0123486830254 0.038501023893 -0.00619531584807
0.0124772201129 0.0298688224345 -0.0059564208348
0.0127075653767 0.00855931704928 -0.005515856614
0.0128154439894 0.00704740509024 -0.00532757990484
0.0124549868622 0.0320823219129 -0.00599927876367
0.0130806132123 0.0225706620994 -0.00490581002031
0.0129427844203 0.0251965406708 -0.0051478378459
0.0130182494943 0.0290510341931 -0.00502660444264
0.0124946843366 0.0178959096418 -0.00590093566481
0.012517181649 0.03558882996 -0.00590006705368
0.0132142403068 0.0263138439362 -0.0046845691288
0.0130733418596 0.0189862732359 -0.00491064093686
0.0125565349193 0.0111034388293 -0.00578035604373
0.0129876500722 0.00981289612436 -0.00503807673394
0.0134300405081 0.0176831190997 -0.00429598757124
0.0125486168913 0.0219820447486 -0.00581713266744
0.0130088955386 0.0303040568355 -0.00504532161988
0.0130021536586 0.0237894798462 -0.00504299686203
0.0124027290694 0.0338032941506 -0.00609259017972
0.0126199067386 0.0052233085915 -0.00565911211107
0.0134787224915 0.020540756175 -0.00421857204769
0.0129790155147 0.036218185514 -0.00493251465465
0.0128705138893 0.0331022327778 -0.00527848418474
0.013257712648 0.0395727338178 -0.00418824231721
0.0133002625238 0.0315087347358 -0.00434095687284
0.01259579289 0.0414876785348 -0.00564902060592
0.0130804628887 0.0437018872713 -0.0044670995694
0.0127535274536 0.0375616121485 -0.0054086772717
0.0132415730895 0.0372343010413 -0.00429793417412
0.0129887673206 0.0387006324002 -0.00483302114778
0.0128126889483 0.0345997373359 -0.00536478502837
0.0126805748523 0.0426084217887 -0.00541949303973
0.0128176018344 0.0401738014249 -0.00518039021414
-0.00773617350955 0.0225255566211 -0.00868518780395
-0.00673301270752 0.0347203626104 -0.00906682409886
-0.00770018044681 0.0290501236602 -0.008768735907
-0.00881575919821 0.0133606073963 -0.0083199096152
-0.00747158772192 0.0273184753225 -0.00880393736654
-0.00651263690427 0.038631820884 -0.00916480660853
-0.00673735130798 0.0414887282945 -0.00914345309738
-0.00255841331068 0.0403233617275 -0.00930516369741
0.0019725514462 0.041108394585 -0.0094307886422
-0.00169222222119 0.0412118349335 -0.00933014679737
-0.00519323389903 0.0393559432041 -0.00923144177967
-0.000982812231158 0.0390905657737 -0.00934687624311
-0.00502762050366 0.0426593912121 -0.00924032302593
0.00332012173809 0.0400515143689 -0.00946646101137
-5.57543025718e-05 0.0415255384654 -0.00937555881423
-0.00340448738032 0.0384929741315 -0.00927950001748
-0.000491401107852 0.0404018221543 -0.00936210708374
0.00234669883806 0.0394944576668 -0.00943896326124
-0.00621274444391 0.0398335459634 -0.00920403192833
-0.0040138141734 0.0399062872694 -0.0092645954285
-0.0022762738149 0.0426864143706 -0.00931601749951
-0.00386927293555 0.041299113346 -0.00927039456498
0.00109048965619 0.0402706120373 -0.00940543551272
-0.00587506833392 0.0435141075447 -0.00921813868049
-0.00553026581483 0.0416313518878 -0.00922515423203
-0.00199787789038 0.0327102831712 -0.00913887433828
-0.00188408477888 0.0296876427041 -0.00904769239938
0.00260959644864 0.0371287020786 -0.00937201202439
0.0035258274869 0.0338880535167 -0.00929086590205
0.00205167051156 0.00907306443405 -0.00849191506451
0.00400321999005 0.0284614268882 -0.00913287670447
0.00370066046575 0.0297437550189 -0.00916624116334
0.00112958561335 0.0325583965076 -0.00919958765645
0.00242856123094 0.0251317671879 -0.0089968753022
0.00264741716656 0.0218281774898 -0.00889919444986
0.00268429161464 0.0323478103576 -0.00922558783037
0.000592499708716 0.0389615999507 -0.00938655700887
0.00246067734762 0.0236200486611 -0.00895075369044
-0.00143753240033 0.0368230797865 -0.00927790114555
-0.000742347517141 0.0200321351323 -0.0087726990654
-0.00313995507197 0.0333819406281 -0.00913577669502
-0.000645927804354 0.0168729211977 -0.00867692627907
0.00144606846578 0.013359471633 -0.00861192853109
0.00280469260089 0.00734394450555 -0.00845414270675
0.00254660158226 0.0264970769906 -0.00904160572351
0.0025838514563 0.0125339234735 -0.0086101728614
-0.00378431271115 0.0323592231965 -0.00909064221374
0.00162294896397 0.0162708830378 -0.00870574731246
-0.0030904738995 0.0293960745989 -0.00901343414704
0.000310242560553 0.0279521541339 -0.00903986959618
0.00167980973496 0.0305893660604 -0.00915014739685
0.000644099010942 0.0199448458184 -0.00879899638331
0.00149121560718 0.024255563046 -0.00895014774966
0.00220479664854 0.0295381865199 -0.00912859019896
0.00118325461523 0.021031253146 -0.00884390187471
0.00363080407211 0.0137519215091 -0.00866977278358
0.00361684184508 0.0273628936585 -0.00909079140105
4.40269922364e-05 0.0243914911287 -0.00892408548801
0.00453799216312 0.0347410544604 -0.00933844016188
0.0018078972014 0.0174736354623 -0.00874684543449
-0.0054250289934 0.0377403032235 -0.00922288921264
0.00257447564284 0.0358760076345 -0.00933250183614
0.00144834273077 0.0081176933349 -0.00844972339531
0.000716823279147 0.0348432847302 -0.00926168008312
-0.000753780919368 0.0226425559388 -0.00885326223955
0.00328074993423 0.00859090570485 -0.00850269816421
0.000604360593749 0.0175896805225 -0.00872526400279
-0.00260648996527 0.0364473451535 -0.00924182055083
0.00458147764235 0.0378000624746 -0.00943403748972
0.00291958199687 0.0181523275901 -0.00879110576928
0.00435405668731 0.0210263402147 -0.00891007106126
0.00354429251819 0.00337037877254 -0.00834661558905
0.00272208833887 0.0157553113611 -0.00871277829873
-0.000175759958079 0.0332652984019 -0.00919416599977
0.00435335719126 0.0262314109199 -0.00907117289756
-0.000542718660413 0.0256058094138 -0.00894940068145
0.000326532138393 0.036196150013 -0.00929539291587
-0.000554355346537 0.0213922051242 -0.00881873042401
0.000437957095613 0.0150041476231 -0.00864175152327
0.00382707245128 0.0312294803563 -0.00921487400035
0.00273235417505 0.0102088105236 -0.0085413080107
0.00380288106544 0.0234447873065 -0.00897340255035
0.00203741234242 0.0344182390408 -0.00927614508339
0.00414548789255 0.0222927388745 -0.00894490837598
-0.000877758239663 0.0347054323355 -0.00922406038301
-0.00171063325599 0.0260251967253 -0.00893795390912
-0.000459821028403 0.0378149332193 -0.00932905277726
-0.00199880462104 0.0244198277952 -0.00888223425587
-0.000632267555901 0.0292431927903 -0.00906011831771
3.90543270379e-05 0.0134082895485 -0.00858401018196
0.00295549750191 0.00553571021508 -0.00840132534282
-0.00013962404202 0.0266341831108 -0.00898966392988
-0.000118645346564 0.03192203905 -0.00915378170606
0.00397803196969 0.0150956022746 -0.00871862744698
0.0049894970874 0.0392383158545 -0.00948709106101
0.00453832509528 0.0244598487056 -0.00902020523359
-0.00315542663278 0.0312792196246 -0.00907036598391
0.000377924086123 0.0307267221245 -0.00912716852844
-0.0019842068738 0.0344722421705 -0.00919369952625
-0.00123010430855 0.0308648462108 -0.00909781007775
-0.00430721369836 0.0342907694946 -0.00913949369555
0.00430873115443 0.032651979668 -0.00926898018059
0.00392664496821 0.0168734661674 -0.00877258418189
0.001527630205 0.010220660486 -0.00851647651463
-0.00177796689297 0.038200057696 -0.00931340316823
-0.00412740358997 0.0300030321881 -0.00901053309039
0.00117598423492 0.0262983860246 -0.00900678732993
-0.00218469006136 0.0221643562763 -0.00880853092543
0.00415388924558 0.019725916271 -0.00886563131071
0.000682746681531 0.0229177238668 -0.00889182647678
0.00310268418131 0.0203330276455 -0.00886243642713
-0.0023248373675 0.0283162630721 -0.00899602416716
0.00161154967529 0.0194011126428 -0.00880240123272
0.000699449006002 0.0294768395747 -0.00909520506681
0.00366102043458 0.0365410369604 -0.00937581342158
-0.00417011756669 0.0357662399652 -0.00918803257813
0.00370156235082 0.0389179770434 -0.00945023661964
0.000959768753858 0.012124721516 -0.00856353682037
0.00379347639314 0.00963918875788 -0.00854587076791
0.00194575557979 0.0383031429227 -0.0093944803193
0.00327042094779 0.0114093097726 -0.00858972230086
0.00618929200038 0.0121826104178 -0.00863141596905
0.00438077173244 0.00824269474531 -0.00850618925382
0.00793295512113 0.00270480307416 -0.00833017229281
0.00509366731399 0.0112427537971 -0.00860154346233
0.00549233273499 0.0174959200113 -0.00880029478847
0.00530740721045 0.0278264576704 -0.00912864173931
0.00638497950263 0.0165104975415 -0.00876897401177
0.00520040293181 0.0318009942894 -0.00925496885053
0.00759240426736 0.00393632994476 -0.008369315279
0.00853636332916 0.0052287568274 -0.00841039391789
0.00539442327318 0.0016597180513 -0.00829695519493
0.00736391956765 0.0108509352743 -0.00858908985909
0.00531530071305 0.00308698990364 -0.00834231976125
0.0056899716062 0.00422975659317 -0.00837864158402
0.00373064820369 0.00224986081164 -0.00831571235766
0.00391817914339 0.00613023332492 -0.00843904654653
0.00494045303299 0.0142593452057 -0.0086974231371
0.00571291746587 0.0330661614879 -0.00929518106462
0.0060828062517 0.0106938433457 -0.00858409683187
0.00599678702363 0.00558208340207 -0.0084216240888
0.00627096233941 0.000618944070229 -0.00826387511967
0.00386469277121 0.00477582876616 -0.00839599800233
0.00679595888758 0.0195448068196 -0.00886541683326
0.00777371769832 0.000752220702898 -0.0082681111989
0.00681826753291 0.00196903398389 -0.00830678652672
0.00520586971383 0.0162584905687 -0.00876096419429
0.00514540109345 0.00682840918971 -0.00846123744539
0.00685036348348 0.00800626638679 -0.00849867458874
0.00474943338251 0.0123295271604 -0.00863608558704
0.00645257316086 0.0243715643324 -0.00901883102757
0.00489129721404 0.0296320513604 -0.00918603092874
0.00555737638378 0.0189128304943 -0.00884533002788
0.00636739935524 0.0152388738157 -0.00872855658271
0.00621525466989 0.0141148000449 -0.00869282889773
0.00607470240842 0.00912656144895 -0.00853428217083
0.0075338308431 0.00658461956483 -0.00845348880901
0.00564290297944 0.00795638029766 -0.00849708900377
0.00746370259083 0.0133777811864 -0.00866940340887
0.00530409564448 0.023017445825 -0.00897579157525
0.00542437803028 0.0207682006435 -0.00890430131779
0.00707115519343 0.00505181002169 -0.00840476982106
0.00759991862318 0.01208015963 -0.00862815966189
0.00533041849104 0.0368388139233 -0.00941509146663
-0.00609019025689 0.0112165575359 -0.00836856183507
-0.00646248135842 0.0239687617828 -0.00876414952428
-0.00362741822191 0.00367406202276 -0.00818800354325
-0.00395283993267 0.0152154783227 -0.00854630567095
-0.00552788950575 0.0187512319118 -0.00862092965253
0.0022432001705 0.00360098967817 -0.00832552475355
-0.00756868096371 0.0127971293102 -0.00838347427156
-0.00868156180607 0.00761122774248 -0.00819248650261
-0.00115092052711 0.0145952942685 -0.00859337762851
-0.000410358198297 0.00676143742961 -0.00836255513043
-0.00236151242265 0.00516179802634 -0.00826534339438
-0.0075138486549 0.0246878138143 -0.00876191167067
-0.0092782415129 0.00296474829041 -0.00803090330397
-0.00242450035643 0.0164445063392 -0.00862169140471
-0.00657228669529 0.0219189872201 -0.0086965222059
-0.00227115837438 0.00301097067027 -0.00819927885154
-0.00580012500146 0.0253000082611 -0.00882214945243
0.00178869335454 0.00233872458899 -0.0082746636761
-0.00170128408035 0.00663721040201 -0.00832786507541
-0.00748665249981 0.00767878090895 -0.00822309193326
-0.00129671665781 0.00767116756061 -0.0083702954547
-0.00530218490503 0.0199730170094 -0.00866505674966
-0.00627768819016 0.00799767884085 -0.00826200394026
-0.00644916732317 0.0324503133453 -0.00903347207594
0.00168585700972 0.0062276747564 -0.00839555811865
-0.00184814528346 0.0200790598995 -0.00875069568731
-0.00696186254621 0.000174146394495 -0.00799757150286
-0.00106306601745 0.00306693001991 -0.00822983058831
-0.00306234316217 0.0192460952531 -0.00869535460219
-0.00360767975983 0.0271765435932 -0.00893389094738
-0.00550392498164 0.00555496081228 -0.00820296052283
-0.00563234974066 0.0279738854715 -0.00891095199333
-0.00309526513123 0.0129002121665 -0.0084933009869
-0.00915199771304 0.00582130116192 -0.00812451039928
0.00164919242524 0.00110755517547 -0.00823229232247
-0.00543697170784 0.00701918672493 -0.00825099552702
-0.00551807659731 0.00178062777392 -0.00808291467144
-0.00623980994148 0.0369517307469 -0.00918122834652
-0.00505044324969 0.0116827421634 -0.00840811448961
-0.00622487447814 0.0172271794035 -0.00855598972793
-0.00764242147108 0.0109041722959 -0.00832167973055
-0.00276417205067 0.0208843684626 -0.00875441741895
-0.0039209122602 0.0256606968455 -0.0088783523095
-0.00298589164171 0.00209428009563 -0.00815317957529
-0.00684338823882 0.00326155807638 -0.00809831556903
-0.0047260413887 0.00434243398105 -0.00818303265311
-0.00784830761281 0.0184404837611 -0.00855580116983
-0.0017273366669 0.00156106657762 -0.00816624681679
-0.0060381927924 0.0124110577266 -0.00840768582539
0.000992019067145 0.00507542652345 -0.00834248549922
-0.00236018405652 0.0103991621495 -0.00843148606812
-0.00297812266832 0.0232235236527 -0.00882351098311
-0.000474815536092 -7.00651244915e-05 -0.00814434817314
-0.00384430199878 0.0165169072937 -0.008590167872
0.000205664867768 0.00285815899747 -0.00825343041229
-0.0025146262002 0.0180066994426 -0.00866909194573
-0.00794295221313 0.0173196287424 -0.00851799708931
-0.00673830711369 0.0282321088932 -0.00889279791196
-0.00553543505604 0.000122710387346 -0.00802991779948
-0.00496001289595 0.016025458675 -0.00854800446257
-0.00414018432516 0.0228849977843 -0.00878509367265
-0.000251259836543 0.0088307665848 -0.00843197681826
-0.00807395324543 0.00292542240187 -0.00805834230949
-0.00619175071472 0.0159685919166 -0.00851686070829
-0.00229481675699 0.00857676884679 -0.00837524312751
-0.00680470003163 0.00643288891892 -0.00819982074585
-0.00346619648203 0.00577127065943 -0.00825836005069
-0.00375134437838 0.0110188566553 -0.00841800302895
-0.00864117536765 0.0118870735404 -0.0083290635165
-0.00279498102376 0.00709516185336 -0.00831633771954
-0.000598191979164 0.010253239142 -0.00846882875211
-0.00656858345772 0.0265572804991 -0.00884372099917
-0.00407061732673 0.00235797838336 -0.00813570487897
-0.00599656392303 0.0355716546195 -0.00914325126492
-0.00458828670116 0.0177676254546 -0.0086121145138
-0.00870909613303 0.00166306113225 -0.00800317540933
-0.00702439862095 0.0205855354338 -0.00864346037979
-0.00334326212497 0.000477324133831 -0.00809338273181
-0.00147391958718 0.0185154189667 -0.00871001651764
-0.00655819314675 0.031282303323 -0.00899382983978
-0.00786581978836 0.00542942461549 -0.00814271834137
-0.00517290171979 0.0265700223103 -0.00887737042629
-0.00500559128062 0.0240236170465 -0.00880059263387
0.000757895959046 0.00708505579854 -0.00840064713277
-0.00759055135891 0.0142478154222 -0.00842896405011
-0.0055467270821 0.0293410497908 -0.00895635324721
-0.00431417959508 0.00837357353678 -0.00832069701949
-0.00201647848515 0.0122988925607 -0.00849992603696
-0.00513010404969 0.031061413022 -0.00902084121337
-0.00166477959517 0.0135413776768 -0.00854771086551
-0.000907215844478 0.0113477968027 -0.00849618334189
-0.000574283738929 0.00430860570854 -0.00828085508686
-0.00562251107299 0.0340136550188 -0.00910274690153
-0.00853569833561 0.0098962411462 -0.00826843369038
-0.000184795439623 0.00118994729467 -0.00819121971096
-0.00630693440794 0.0047105052437 -0.00815704954217
-0.0049659437819 0.0211195667768 -0.00870943063576
-0.00503657861017 0.0323792032776 -0.00906486473829
-0.00877776769472 0.00414445906218 -0.00808024098402
-0.00531756979761 0.0134352808912 -0.00845733595657
-0.00643206752796 0.00962624828054 -0.00830997918284
0.00322447846029 0.00073091876026 -0.00825787021745
-0.00334659696933 0.00971779919863 -0.00838637912751
-0.00582771953412 0.0145793509026 -0.00848147006486
-0.00424195709039 0.00697586326087 -0.00827808684389
-0.00565451362911 0.00305047937064 -0.00811994001554
-0.00668848328728 0.00187171450622 -0.00805792440354
-0.00659834464593 0.0192059898321 -0.00860985463138
-0.0126136030045 0.0291784622483 -0.00413807821626
-0.0123567669875 0.0274187837118 -0.00481722405784
-0.0116156896663 0.0396910436634 -0.00514533864214
-0.0126631840789 0.0251153640935 -0.00442099540768
-0.0120123971408 0.028577482487 -0.00539700368409
-0.0112141842424 0.0436408990869 -0.00557691894079
-0.0128497537399 0.0201267399677 -0.00451696866026
-0.01177364573 0.0433186578481 -0.00448829863051
-0.012104251667 0.0384351406814 -0.00428631550889
-0.0112977339745 0.0361000446614 -0.00611893467846
-0.0115571446731 0.033324734167 -0.00586109373534
-0.0117503772988 0.0413369584131 -0.0047211874589
-0.0116575404263 0.0345242860893 -0.00554750067057
-0.0120412849656 0.0310799993837 -0.00510390024697
-0.0122243039071 0.0353146614684 -0.00433964986232
-0.0128275039854 0.0221975998646 -0.00436673185045
-0.0112170885897 0.0406363211724 -0.00585365008246
-0.0113767561309 0.0386564316581 -0.00572049684706
-0.0111713191435 0.0417465397639 -0.00584078794208
-0.0107382338426 0.0430212803839 -0.00658708627534
-0.0133877122025 0.00118853370173 -0.00411686954937
-0.0130706471518 0.00449815257824 -0.00475979525936
-0.0133106894024 0.00324982662842 -0.00423339563868
-0.0130851636066 0.00984931491417 -0.00455680158022
-0.0133562331765 0.00807053462826 -0.00397400231916
-0.0128841525865 0.00115652377651 -0.00530475443628
-0.012972337131 0.0061048814815 -0.00494083192208
-0.0120577654807 0.0246289636043 -0.00553583511228
-0.0125585592 0.0165223796051 -0.00516791237967
-0.0121855862689 0.0189499884406 -0.00561464645342
-0.0125193100825 0.00716906392655 -0.00567466614882
-0.0121864865659 0.0203519374299 -0.0055462099669
-0.0127511157203 0.00336873487638 -0.00550665911376
-0.0120744127903 0.0215120149421 -0.00565984501063
-0.0129833778772 0.012903169834 -0.00469994685399
-0.0120735416586 0.0151111916677 -0.00596741404534
-0.0123149478894 0.0228940825128 -0.00523070620265
-0.01216332702 0.0118240525767 -0.00598918794076
-0.0129073895828 0.0115214976524 -0.00488073495459
-0.0115925143283 0.0321473436575 -0.00587826074427
-0.0128325537198 0.0151027920302 -0.00482232530131
-0.0108667675124 0.039743665904 -0.00661009364428
-0.0121203945673 0.0134222808661 -0.00597751204534
-0.012472783464 0.0177315747788 -0.00523950869356
-0.0115705624645 0.0301046410642 -0.00600912551925
-0.01282277127 0.00860143274449 -0.00514815342999
-0.0117353842897 0.0263902410419 -0.00593809817156
0.0120624218052 0.0457896682106 0.00172233460649
0.012577233474 0.0451148815833 0.00100989734091
0.01188706595 0.0275926946865 0.00281735010854
0.0111845026751 0.0409249109142 0.00373056673482
0.011716498981 0.033190190501 0.00307660508197
0.011945448985 0.0306146421148 0.00280714474166
0.0118536416023 0.0227517512203 0.00277371600716
0.0117064677722 0.0319776885416 0.00306733232854
0.0119079291861 0.00664233967216 0.0024633247423
0.0112822562465 0.0395123646439 0.00361054053481
0.0112310926113 0.0435512884378 0.0037258398583
0.0118515358358 0.0357571751932 0.0029826614005
0.0118472764195 0.0292586940477 0.00288355779829
0.0111667904908 0.0422089816221 0.00376866633545
0.0109935199351 0.0489814481596 0.00168099073706
0.011653184778 0.0496170981192 0.000343129529533
0.0115498118962 0.0476793664048 0.00156928732921
0.010327297712 0.0516454954319 0.00120387640105
0.0107465804538 0.0502694529065 0.00133793194964
0.0107187397523 0.0479335198183 0.00254328001163
0.0114469803199 0.0451241160509 0.0030204833893
0.0110288804437 0.0462183593295 0.00296843415548
0.0134613642452 0.00665723362705 -0.000278522459139
0.0134342670647 0.00180487993423 -0.00126704924761
0.0135650278678 0.00598643303146 -0.00143238037762
0.0135246113352 0.000710726009738 -0.00240340404035
0.0135081122263 0.00445913718512 -0.00128528587867
0.013397560073 0.00338092315697 -0.000514999942451
0.0135414109571 0.00981541322054 -0.000226179930205
0.0126435631801 0.00555750762022 0.00124798744972
0.0132946374413 0.00461525936605 0.000121032529618
0.0130329609669 0.000985885678884 0.000489281736565
0.0131026917454 0.00239865903502 0.000400567915532
0.0131837683509 0.0085893620679 0.000393520195396
0.0121220821695 0.00334841535993 0.00208800232948
0.0135700004175 0.00928831745914 -0.00210422833121
0.0135700004175 0.0155052898149 -0.00254865944071
0.0135700004175 0.00775769732274 -0.00132135381254
0.0135700004175 0.00220637045342 -0.00288431171588
0.0135700004175 0.0169356787598 -0.00342801606574
0.0135700004175 0.0195229010005 -0.0038155142815
0.0135700004175 0.00465098991616 -0.00287823037081
0.0135700004175 0.0121819246739 -0.00141974011325
0.0135700004175 0.0112096238564 -0.00253658119517
0.0135700004175 0.00344626315303 -0.00251974975561
0.0135700004175 0.0129112066627 -0.00264729285635
0.0135700004175 0.0110507031233 -0.00108607550777
0.0135700004175 0.00679995451912 -0.00310705146078
0.0135700004175 0.00813474695473 -0.00286312275594
0.0125442035758 0.0421193722584 0.00184191982622
0.0135221701029 0.0128253825733 -0.000118144658308
0.0128402873664 0.0376484266984 0.0012484333584
0.0123651984311 0.0386191926382 0.00220082350456
0.0129253961895 0.0243675355408 0.00107802228669
0.0127996491588 0.0351851173176 0.0013299384233
0.0130404995831 0.0308180510869 0.000847176023916
0.0127121721208 0.0403919530241 0.0015052220089
0.0132985111238 0.0278454609695 0.000329989351754
0.0129102672875 0.0389941426816 0.00110812460674
0.0133537851377 0.0185813598595 0.000219325592139
0.013407275585 0.0260057276939 0.000111979000017
0.0130625753494 0.0290472667708 0.000802948406895
0.0129013546156 0.0338730937233 0.00112607100556
0.0121976644137 0.0411903114227 0.00253663716978
0.0132685016249 0.0355404020624 0.000390029926734
0.0122921241324 0.0435342862826 0.00234723860496
0.0125929158369 0.032880947889 0.00174440993724
0.0129635719202 0.0431485217999 0.00100120113254
0.0134318761187 0.0172259031498 6.2798507147e-05
0.0128904587482 0.0170400682004 0.00102245869886
0.0127734277087 0.0272387663397 0.00138083795556
0.01260876297 0.022777471524 0.00158590507677
0.0125210473963 0.029972116116 0.00184736615226
0.012603279638 0.0137101655334 0.00145088629907
0.0120634846317 0.0149563234343 0.00237554425124
0.0127635460634 0.0182150289676 0.00125388484261
0.0121605903065 0.00966920141323 0.00212868094367
0.012118331103 0.0375485819723 0.00264292400285
0.0122050334006 0.0257221615295 0.00230949571457
0.0122096221023 0.0245794369145 0.00228362946504
0.0126124816185 0.0104985686117 0.00138438275595
0.0133466332003 0.0139697213371 0.000208958131953
0.0124158532307 0.034274245962 0.00209212216578
0.0120405200805 0.0164644005649 0.00243802398356
0.0123894829905 0.0196369936529 0.0019035285525
0.0129099502786 0.0150217536334 0.000957685630773
0.0133289765356 0.0114993456864 0.00019926544633
0.0124715965705 0.0316379710477 0.00195675321824
0.0121567749898 0.00466372279232 0.00205546716097
0.012497072304 0.008298251818 0.00154284437482
0.0130214717429 0.0201656817876 0.000852557517619
0.012475880587 0.00718748684005 0.00156070119318
0.0119745355818 0.0125739935378 0.00248675668753
0.0126355692423 0.0117398215997 0.00136542323552
0.0122224058753 0.0214085893265 0.00221176998942
0.0126238588318 0.046337568799 -0.000289963345389
0.0122587329911 0.0476475707166 0.000109047693498
0.0132030467428 0.0438933184884 0.000208958230411
0.013227522434 0.0443226597151 -0.00300871062328
0.0128696173225 0.0455788416235 -0.00114271169307
0.0129176625078 0.0454643284204 -0.00286031850181
0.0133517274901 0.043803340521 -0.00139576940915
0.0134544251114 0.0389308453621 -0.00293796272885
0.0135546546624 0.0324286991605 -0.00283400364473
0.013479344049 0.0418716964287 -0.00239155423619
0.0135060793069 0.0341287388524 -0.00305014372254
0.0133883514999 0.0408866463054 -0.00327269966063
0.0135335007248 0.0250696522547 -0.00385326980425
0.0135604230183 0.0266631467967 -0.0034438382391
0.0134016461861 0.0360337975104 -0.00371470596408
0.01356770149 0.0219882290239 -0.00391634065496
0.0135379144113 0.0357798071014 -0.00259263653721
0.0134124295222 0.0330164067671 -0.00396827384799
0.0134547621972 0.0296677124014 -0.00399318167437
0.0135031889253 0.0284582793634 -0.00372225832751
0.0135556307399 0.0379554440365 -0.00219447506378
0.013317812076 0.0428257705446 -0.00364706494581
0.0134953534064 0.0369182175272 -0.00282212355751
0.0135222305587 0.0406963995931 -0.00216353091142
0.0135700004175 0.0276546235946 -0.000938978256175
0.0135700004175 0.0264410148868 -0.00174630246968
0.0135700004175 0.0283010034326 -0.00216632359344
0.0135700004175 0.0205025883951 -0.00151350803474
0.0135700004175 0.0188920803246 -0.000954121666509
0.0135700004175 0.0303987262636 -0.00271831834113
0.0135700004175 0.0319671082837 -0.00112933157868
0.0135700004175 0.0233947171338 -0.00330077390934
0.0135700004175 0.0293706170823 -0.00102831195913
0.0135700004175 0.0162720074462 -0.00154203458255
0.0135700004175 0.0185754021842 -0.00237180568458
0.0135700004175 0.0218557097256 -0.00123690121575
0.0135700004175 0.0176657556676 -0.00159310595621
0.0135700004175 0.0394792129933 -0.00176054706372
0.0135700004175 0.0330012331333 -0.00190207296624
0.0135700004175 0.0349306362578 -0.00174542890598
0.0135700004175 0.0210840559367 -0.00273461048208
0.0135700004175 0.0226573859041 -0.00216902242636
0.0135700004175 0.0254567434031 -0.002618716846
0.0135700004175 0.024394720981 -0.00145881873814
0.0135700004175 0.0144252009118 -0.00106203598268
0.0133503652708 0.0386235221587 1.33614259718e-05
0.0135052691075 0.0207407899285 -0.000213273712261
0.0135245673551 0.037259594989 -0.000991235103412
0.0135092350018 0.0246880069768 -0.000395245383766
0.0133706994707 0.0326898235739 0.000127033658911
0.0134529994225 0.0306547866354 -0.000291961309406
0.0134714841705 0.0221405718911 -6.38431228072e-05
0.0135614626087 0.0359745753863 -0.00116416595985
0.0135040579556 0.0339850247847 -0.000735580261871
0.0134515254193 0.0234947085325 3.35014679258e-06
0.0132881588031 0.0407123211065 0.000308038539711
0.0134798040863 0.0402141538601 -0.000837236032899
0.0135127403725 0.042132173321 -0.00111419408852
0.0133324475214 0.0420479897384 -1.46522839695e-05
0.0099885652403 0.013308908967 -0.00797526717661
0.00997075177109 6.17301408037e-05 -0.00779340422038
0.0103716431345 0.0384409942446 -0.00814555916804
0.0104948966908 0.0237578875255 -0.00787244710258
0.0102371703678 0.0180931241403 -0.00791979817857
0.00992084644501 0.00914190307844 -0.0079491345673
0.0107821650931 0.00207141049366 -0.00741642861178
0.00954237666851 0.00445444558953 -0.00807096301738
0.00981247705756 0.00584333508013 -0.00795584429036
0.00931943244947 0.00319561860016 -0.0081643644662
0.0105211442143 0.0193685907071 -0.00779610570382
0.0106795515974 0.0031998364494 -0.00748401260037
0.0102735592373 0.00791152525068 -0.00775496779248
0.00988919872657 0.0105696962724 -0.0079855284732
0.010762378145 0.00656479405591 -0.00749103701239
0.0102589611079 0.0222989511448 -0.00796946580448
0.0105578032075 0.00499014022364 -0.0075707007898
0.00952121312053 0.00149785400972 -0.00803897203157
0.0105968757774 0.0123301489636 -0.00765685876665
0.0104709892226 0.0296904637277 -0.00796984282983
0.0108293309163 0.0150298822757 -0.00755671425628
0.0111260915112 0.0211266590574 -0.00730583516266
0.0111658587323 0.0261110707867 -0.00730259283711
0.0119989479411 0.0374614012301 -0.00655628417263
0.011437990058 0.036135611925 -0.00710485309106
0.011766861793 0.039452155322 -0.00680175355489
0.0110744619495 0.041375548703 -0.00750480937719
0.011142117604 0.0172869997017 -0.00726189939943
0.0110456687262 0.0101973035649 -0.00730620246027
0.0116913891304 0.0328438473089 -0.00682869117481
0.0106938776502 0.0308621573539 -0.00780691195837
0.0111916342385 0.0373143662865 -0.00735860410198
0.0111530942723 0.0224130568945 -0.00728834022184
0.0116823806161 0.0348600839666 -0.00685235240497
0.011560100328 0.029813202778 -0.00693725159526
0.0113187707939 0.0200325619011 -0.00710611699338
0.0106707832855 0.0271640151858 -0.0078029381288
0.0109015336734 0.0346480840849 -0.00762786061942
0.0111895071713 0.0434223001208 -0.00740524196308
0.010667018537 0.0328495539764 -0.00784812685023
0.010618209479 0.042568750625 -0.00796754264539
0.0106981648117 0.0249949808152 -0.00775987939252
0.0111816423881 0.0318873997697 -0.00732898989835
0.0120065782788 0.0408754456422 -0.0065735760961
0.0106778352765 0.0285720935337 -0.00780618397205
0.0115531532962 0.0185959276767 -0.00686240142877
0.0119672163699 0.0277713025584 -0.00651659553548
0.0116123796079 1.65057646212e-05 -0.00666512924741
0.0122131058991 0.0128996349272 -0.00616016401912
0.0119339872884 0.0246440120433 -0.00652657928121
0.0120938281856 0.00647851678348 -0.00623171318077
0.0115882881519 0.00315858254231 -0.00671257594637
0.0121806343346 0.0201029619241 -0.00624617834022
0.0119489927364 0.0311499849501 -0.00655993311558
0.0122451700854 0.0151115720569 -0.0061445412926
0.0120661440928 0.0232588498493 -0.0063841264841
0.0120539497391 0.016531245153 -0.00634631415322
0.012020997808 0.00990739917515 -0.00633003064449
0.0112933093127 0.00800084349385 -0.00704354759836
0.0123123508405 0.0258088125073 -0.00615687375997
0.0113199255922 0.00558825159666 -0.0069989983802
0.0117338539484 0.00201818770569 -0.00655853352751
