-0.002566260654259812 0.006289300882373592 -0.002364342093023873
0.0004838968729533443 0.0035477395082227255 -0.0023859412796598187
0.008790612198730823 -0.0007766129017875386 -0.002440840772980594
0.00228739678029228 -0.0033099224261584977 -0.002405251107855121
0.011042583384855944 0.00217011952874489 -0.0024505809382525997
0.007592581424710465 0.0005467827682371453 -0.002432049234554015
0.004068636899367328 -0.0028428601036560993 -0.0024152823777314706
0.011778888097289157 0.00488117347553665 -0.002451583480451316
-0.0025504422238087354 0.0016911828252706399 -0.0023701777294879768
0.018142050321523644 0.002332485731927515 -0.002491084783907788
0.021795776171638966 -0.0011738809771499321 -0.0025122777344620947
0.001788777867624848 -0.007231464797477161 -0.0024050396654865477
0.01451954592543176 -0.0067966438962382275 -0.0024744697319390337
0.014725238662936246 -0.0027236317095293977 -0.002474173309170505
0.018297612405354026 -0.0070137717790724665 -0.0024951949984722025
0.01936750273673084 0.0012022564819216385 -0.0024981768828247443
0.019873875814668006 -0.006819148637668159 -0.002503742394527478
0.009525276624499129 -0.007579985807525025 -0.0024474461079383087
0.016991189010808656 -0.0024855270512681607 -0.002486475115982714
0.014284908860668633 -0.0010019100462791935 -0.0024711660917038454
0.011021044647496167 -0.00642194165234574 -0.0024552175049218144
0.017036871247546572 -0.008209096295510244 -0.00248872117592114
0.01789575575588679 -0.00415217481202326 -0.0024920004733972874
0.013055152141131668 -0.003348251757584206 -0.002465263092888056
0.012671086399055467 -0.006423314018377831 -0.002464236509583103
0.0035540678881588305 -0.0082167619568824 -0.002415031767498062
0.019869915137181726 -0.001049762611842162 -0.002501708388538538
0.004203684312999571 -0.004331532158756051 -0.002417227167965044
0.014311712836081191 0.0012951137681362019 -0.0024705113919273654
0.011414085571602037 -0.004585871153757224 -0.0024567253028764864
0.008560513345930732 -0.006333528962488492 -0.002441738300580598
0.022046244104406185 -0.003309249824661748 0.005844499915838242
0.02055944085158145 -0.0005221010509156659 0.005844499915838242
0.004291595481528562 -0.005649774328747081 0.0058444999158382424
0.010209375240343634 -0.005311714925811804 0.005844499915838242
0.0019884838165075682 -0.0041322978882153 0.0058444999158382424
0.02309931479425558 -0.0020427491800721117 0.005844499915838242
0.01898405065485694 -0.0009445159877070493 0.005844499915838242
0.011555604689130236 -0.0024385112871163662 0.005844499915838242
0.01889295051679917 0.0006593023332637261 0.0058444999158382424
0.028799510561173587 -0.0019765366010536 0.005844499915838242
0.0034828442395555223 -0.0034765632349609095 0.005844499915838242
0.025931652681623105 -0.004026367748586018 0.005844499915838242
0.022733437664413686 -0.004998899209290426 0.005844499915838242
0.025297739922032762 0.001172666350429473 0.005844499915838242
0.02443665272135582 -0.005731472247477715 0.005844499915838242
0.028489106218628227 1.307600285051138e-06 0.005844499915838242
0.014696268823408753 -0.004092440817329763 0.005844499915838242
0.0006000447091805802 -0.005119573717709998 0.0058444999158382424
0.028482192683417912 0.0015683625773924026 0.005844499915838242
0.027916054490663172 -0.008120390862333486 0.0028593876365726007
0.023706008707869538 -0.009185345316740295 -9.115557592562478e-05
0.025876941136620486 -0.008195408905125316 0.0005032943899364455
0.029469766329961122 -0.006941309011701306 0.0032213032220451544
0.029142910098838317 0.0031622622134316763 0.0057694038304971895
-0.004442913593780115 0.004695263036839077 -0.0006425239192190111
-0.004433689036040543 -0.005942320405680295 -0.00140538125700549
-0.004843633733628178 0.0034481461388205462 0.004155200912152166
-0.004496106063118281 -0.001950409289983482 -0.00040202659587639054
-0.004373852565066522 -0.00743733318095231 -0.0022246231378557197
-0.00466530337607526 0.0013784255078703816 0.0018595514743326707
-0.004425325154288168 0.0030168138899613977 -0.000959118112923277
-0.0044574205966617965 -0.004447281337531845 -0.0010252860153551508
-0.004685243222905089 0.002959588005355637 0.0021987954795694748
0.016185073368563306 -0.007445417923998714 0.005812996567322986
0.012796649546254068 -0.007721655233180854 0.005808561423013231
0.005249576444377288 -0.007309195428552646 0.005830770416942318
0.022559815844627063 -0.00751512935812741 0.005802938266769641
0.017669721425532924 -0.008446214136270684 0.0057799142977656036
-0.0011173304766018163 -0.007375127422178892 0.005836584000429294
0.008985851561525666 -0.006901166189663734 0.005838890253465226
0.0023185312942391135 -0.007735980717420112 0.005821069390024454
0.011738616924580786 -0.0062351144889383845 0.005844499915838242
0.018111933867230024 -0.006185572555486109 0.0058444999158382424
0.007328156240244296 -0.005811006265222963 0.005844499915838242
-0.003495457816471827 -0.007565937814338855 0.004790876787991637
0.00993378240264399 0.006637540382346535 0.005795911793008817
0.0006125000629260092 0.005219304431303664 0.005841668050609789
0.022900018802949437 0.007663790478134152 0.005770207425273794
0.02073265287196443 0.005897319972092273 0.005838438561393693
-0.0028591205727282244 0.005207507407676438 0.005838008586724585
0.02083386686138391 0.00748716925582717 0.005774828095882622
0.024047092277515617 0.006047061917707917 0.005836381246951395
0.014898489637867832 0.004462328547097962 0.005844499915838242
0.022455609690411216 0.005630174730731463 0.005844499915838242
0.010704162377132965 0.00526365164857295 0.005844499915838242
0.019120900268614276 0.005503983309981166 0.005844499915838242
0.026898624590957536 0.00496769531430159 0.005844499915838242
0.028840480893521758 0.005120239138793045 0.004886719430311059
0.012388008711114774 0.007310512819341788 -0.00035073947630182966
0.007113382956581116 0.006494247222212135 -0.0022957106999454495
0.01916152504033476 0.007082235325537929 -0.0011674682565039718
0.017950638226179892 0.006763755284034688 -0.001954347248581317
0.010605565070133213 0.006782582922739993 -0.0016625471859239094
0.020217663843093186 0.008089424270864422 0.001412743327500645
0.0051922580382478024 0.00688112710354954 -0.0012276521193260955
0.01410640173558815 0.00764471107524162 0.0004601673218153691
0.006835536357036072 0.0071063499448921815 -0.0006972129814046209
0.017988168240917066 0.007577322903034669 0.00015681878286398412
0.021154407114631957 0.007681774075741537 0.0003233104117185061
0.016194256881748546 0.006841644071112384 -0.001694024389717671
0.008798840485996069 0.0065023596725798695 -0.0023303880007331536
0.0035175923799404163 0.006652157481197777 -0.0017667816419844546
0.021770631772846376 0.008244053678901549 0.0017628751719451514
0.008592865564586154 0.007053568049688637 -0.0008923777944030896
0.027697340828242357 0.005359445172043933 0.0005332826971952654
0.02947156442105424 -0.0006649286521509496 0.003751140504924631
0.029701054848544427 0.001440039913403667 0.002223424372602394
0.029773312231954396 -0.003148453291372146 0.0017378079079541572
0.029462018441811923 -0.0007604003955515199 0.0004087460734027753
0.01792897890692131 0.008512338949239877 0.00531515686821947
0.014495817349432984 0.008230277753419604 0.0048663472353440125
0.007748408396798251 0.00764695429096317 0.0044920756438694195
0.00955619871080213 0.007813909993240015 0.0044053350211566734
0.01090231337275586 0.007994330929666518 0.0033573763242230542
0.004947237338016439 0.00739251938069085 0.00455175899478953
0.01263724099422352 0.00812329281277923 0.0038221415814341368
0.004837017460800197 0.007443182913973739 0.0027481896945859624
-0.0003208158898652081 0.006977707668428529 0.001693763628770433
0.0013849945972419747 0.0071524178645014005 0.0013152597013366464
0.0067009610910561835 0.007619169968556947 0.002857040738895115
-0.003903695334518982 0.006666881656167934 0.0005230391962174619
0.012181773427600283 -0.009393653996767025 -0.0003543397984105862
0.002183298619328862 -0.008879068537240888 -0.0007835978150347678
-0.0033697693474389967 -0.008417712527491218 -0.0017609567451708943
-0.0005942165921335714 -0.008515839841782568 -0.001830029497105403
0.009037728168496201 -0.009183176873356663 -0.0006941558703214762
0.0007877358091507069 -0.008962930747566187 0.0002044006153120089
-0.003775744477179369 -0.008572867241420038 0.0014700034897472906
0.0019666927438656153 -0.009061884377865235 0.001096349829252898
0.003598395308951883 -0.009199615979499276 0.0018094033915257437
0.00956807659038924 -0.009706509682256772 0.002410183461265381
-0.0004486346268786225 -0.008855574073157381 0.0016724417168908698
0.006766740907954022 -0.00946878192217612 0.0020360994617465104
0.02510746270221801 -0.0002517959635337417 -0.0024554676209074732
0.023116780433511744 -0.003341433290536665 -0.0025004995813989266
0.02377893225313713 -0.0013221554501466788 -0.00249120360697794
0.008982072922504025 -0.009543357183321263 0.004356052729245722
0.003915943847914152 -0.008953460841095507 0.004622808864906985
0.00028896427774307556 -0.00871601442568081 0.0036351038103823985
0.014206389652446834 -0.010009650419583098 0.004986433440664531
0.006288382169174682 -0.009202485634849003 0.004671431297706294
0.011033801247737113 -0.009655876803666048 0.0050537708609122165
0.0023174693531654187 -0.008830649844023937 0.004303315421110241
0.012590891757813902 -0.009863646150367139 0.004803067994683933
-0.0025511602932480797 -0.008573803294578592 0.00258292294217108
0.020820111421267523 -0.010401519302668898 0.005655860451379321
0.005233654867548459 -0.009332370980464287 0.002815715425209651
0.015848759823610285 -0.010223452141628033 0.004161107634575401
0.0020973777772076378 -0.00904624650347184 0.0027563107365214923
0.0007935993233451549 -0.00847311206158136 0.005251419075936007
0.015575658043447644 -0.00955396426198768 0.005744413637431783
0.029552360470550123 -0.0047627867385630655 0.0010966571682103478
0.027790075717660935 -0.0014305752658478259 -0.001830430073074937
0.028510454120517132 -0.003918975144787684 -0.0007106046957478965
0.02885607935258851 -0.00039523793364336834 -0.0010067182040331454
0.02737813986841498 -0.0031386142952738714 -0.0018699201689265999
0.024305216720569373 0.00628513892534399 -0.0013811602496446131
0.026224235551665608 0.005898463544579667 -2.7898807766001205e-05
0.02607794635418134 0.006650013175636089 0.0015414498838065916
0.02408730740498722 0.007381771852731736 0.0009035597511880347
0.025978832979778023 0.007103666338229111 0.00458390886716058
0.023390557586800052 0.00841816808762364 0.004311841174883466
0.027841670639918506 0.006133384493179061 0.0027035981556559306
0.025026656710482674 0.007613912568247821 0.0025637556683099374
0.022797970852257002 0.007349822755436587 -0.00047679882469324854
-0.001981740270630272 0.006757337598483178 0.0019448716664566392
-0.001759213139461312 0.006467632825696115 0.0034568081595708457
0.0018893748459296734 0.007098035094147126 0.0038939470058313814
-0.003518080916374262 0.006394635153940731 0.002200989218154511
-0.0033861335299675915 0.005912755773385698 0.004501051753477386
-0.004475456309813839 0.0058588616848864565 0.003292718266213173
0.0035282834135198673 0.006797373116617057 0.005364186970553874
0.0018655059167579256 0.006016518073096785 0.005737294895746353
0.011734052316748882 0.007911752738531461 0.00522025158152019
-0.0007233973781542325 0.006347542218477728 0.004877903570189895
-0.004670690565623166 -0.004658438649943745 0.001761044323197366
-0.004936954242338811 -0.005059763312222868 0.005369660553449345
-0.004924045544896791 -0.0014371740488331652 0.005194711661902155
-0.004324691972972857 -0.007854875599392888 0.003432111301200861
0.026784448224357882 0.003255696330471239 -0.0016245550517675527
0.025669874646098642 0.005346992482498114 -0.0015797836568389773
0.02847021853591509 0.0033396395528131903 -0.00026907428510196266
0.027051965831702572 0.004789871128522167 -0.000742841662847559
0.02835446723882843 0.0013497036471698332 -0.001182431418156687
0.02659554291690233 0.0018472701023816013 -0.0023812312347902434
0.02441593298914436 -0.009882117312584445 0.005479037923202852
0.028293076881319556 -0.007985105962515244 0.004699227823933071
0.02691351099064189 -0.007772525991589173 0.005733735429212257
0.021218660877564938 -0.010329293919440555 0.0034332400797111237
0.022366064958893116 -0.010187252187179073 0.0016362208160578032
0.019364152273123512 -0.010363916253908464 0.003438628043243153
0.003595578507075017 -0.009094804564138928 -2.7875292256059536e-05
0.02063781866347751 -0.010223467225961073 0.001891660922300466
0.019184762622921073 -0.010100234929779765 0.0015923380994134078
0.017557929611108358 -0.009973690890638803 0.0013146271236124617
0.0081170583945415 -0.009429215036500365 0.0006570733678178879
0.014687235496837803 -0.009752538858331647 0.0008353651862342009
0.012681687111846533 -0.009720699173048093 0.0011168461965184678
0.010947934944236402 -0.009661947768309106 0.0012032856172991778
0.0065094372900135 -0.009294434949996747 0.0003337525266456872
0.012398798167668736 -0.009933164489992995 0.002743549103541251
0.01452595731154284 -0.01011206768535768 0.003239655580224176
0.01676497105112395 -0.010185525488826154 0.002575819623494369
-0.00048009125816088805 0.0069399637295454565 0.00010912555034668094
-0.0039198241722611295 0.006491781067622122 -0.0011547706581104605
0.017903812022212095 0.00837808884263801 0.00262108311109289
0.011412799064939111 0.007829290018930693 0.0011908375573334406
0.021574456769429165 0.008710747466151957 0.003525674884375792
0.016269157909470842 0.008165259016521719 0.001940554335781827
0.0005264920115321278 0.006885122638476213 -0.001030745647145462
-0.0009861375181187855 0.006628233326279541 -0.001672710426922855
0.009520751187790558 0.0076140648909125905 0.0005674994975612863
0.013860171576460288 0.008214708647783661 0.002576581305869571
0.007776525404035543 0.007655155602664709 0.0009944334785635296
0.004309562439846838 0.007351635042928449 0.00017086445680630509
0.009536163151120386 0.007905041654167813 0.0021793446309630433
0.006178844877671721 0.007564828818387333 0.0011694558993626599
0.0025635156053078 0.007188735466364733 -0.0001006396222579106
0.0034361232717598778 0.0073435095741394545 0.0014063187859190537
0.02760547142381308 -0.006570526370796579 2.4800095643577645e-05
0.02535469782648858 -0.0071628827994898985 -0.0011135371793472761
-0.0035250374197632445 -0.023336373937647398 0.009538511402556526
0.010505654075814374 -0.012159126275306213 0.01109368703768897
0.0042736990234638755 -0.012650438056642656 0.01120168614336705
0.013080737583239941 -0.011762336779760178 0.01032240564758699
0.007954830825988673 -0.012366255926842937 0.011160501522906586
0.014651984676370732 -0.012990090139159026 0.015363735242406902
0.012373056485886243 -0.012599828221849336 0.01326601990156754
-0.003205517351371146 -0.021547620334604903 0.007849781306430714
-0.0035686811514373763 -0.01579985054206357 0.008333794079556646
0.008391815234612025 -0.03058048074566204 0.013610939528043821
0.009866051641862201 -0.031271978703450776 0.013829626211431353
0.014625831412764573 -0.030658905164015347 0.015350839398614723
0.01214214936519084 -0.03152657978760048 0.014400150771391382
0.014511686755542713 -0.03224210189046694 0.01452966701128056
0.014299773454649799 -0.02733060207560053 0.010641219353101469
0.014352026116401698 -0.02061400009806225 0.010495361677747152
0.0127745008492653 -0.02460169486158675 0.010284298217485138
0.008552142897403326 -0.02906258673437786 0.009575159969623173
0.010026408089982636 -0.020423844485819208 0.009658382191171643
0.005410989735697393 -0.027118281446365737 0.008925438458337764
0.011039789196109751 -0.0240649849958385 0.00993795395776446
0.002218588021155566 -0.02918581017017727 0.008358981129811635
0.008356540580452775 -0.02061269890676105 0.009341361474248503
0.009345125635008692 -0.02713237169592845 0.00968298107706908
0.0018690021698776703 -0.02746088220630733 0.008251653862731825
0.014328895079484025 -0.02495594046729846 0.01059170060563284
0.006523341067991829 -0.025338595455192688 0.009098223731024958
0.006793814502440819 -0.02782728351938131 0.009208053421200266
0.010971441496091685 -0.01750610801253878 0.009772545277967231
0.011909580910250945 -0.029013275102242598 0.010220231957632952
0.012321634979994322 -0.026659353105987625 0.010244898860925646
0.01344698160607508 -0.016962773074999805 0.010236407655344077
0.013059530514461168 -0.02186388054570242 0.010275604902063643
0.00459734507205727 -0.029235367526212523 0.008817978389903624
0.009966003756631203 -0.030071369173226076 0.009870707457037095
0.009527106506731895 -0.023155889956663775 0.009625700000868893
0.006741668936628142 -0.02206143485713855 0.009064172070350119
0.012884152575881706 -0.030311267560737105 0.010437941606084883
0.00921371695597105 -0.01870178724224283 0.009461986229715103
0.013903842957411703 -0.028860122865781806 0.010600518681399097
0.01168594834325609 -0.014071294906096848 0.009830335104541748
0.010975003529345509 -0.022426920766978452 0.009887459479152526
0.005654963719257325 -0.023611426299223612 0.008890991003631058
0.011332317190943766 -0.019460293388948086 0.009887367372021926
0.013293769316386466 -0.01902677939136154 0.01025483092782425
0.0036672087998305507 -0.02431187795993924 0.00852466138664222
0.00862288242261064 -0.025153276670650662 0.009498027201221603
0.0030914454496130685 -0.02636285595303654 0.008461452493471766
0.007311526026270253 -0.023660896074118993 0.009210983132004451
0.006179749312983795 -0.030254807656847564 0.009223097631576794
0.00020969570745462687 -0.029338285811106864 0.008056433470428842
0.0029462316030822275 -0.019095807713570053 0.012233982507195552
0.000335466490714078 -0.015862623173616197 0.01146173208372845
0.011792994908714853 -0.015182835868558568 0.014645434258540382
-0.0018144269498392921 -0.021228506919446728 0.010936695056825891
0.008581506638003117 -0.014462967008272116 0.013740483461526906
0.0015815852902814121 -0.017901773494811625 0.011837177635288404
-0.0009330451164931711 -0.018359135557298997 0.011142694059945784
0.005122254702140934 -0.018804045146740188 0.012836387135989604
0.006938784619145929 -0.014074089588045229 0.013277302948385972
0.006053081157834338 -0.0172297794287211 0.013074054284744254
0.0040097471114788055 -0.016973993289729723 0.01250106575248786
0.013499155543907642 -0.014126467590939582 0.01510633220013642
-0.00010357995026942307 -0.014112423421415648 0.01131520012429138
0.001676694383550563 -0.01994672112705156 0.011891929065395788
0.010060052284326547 -0.015574566780371224 0.014167892255993563
0.002327623247529711 -0.015873201755212906 0.01201707115537264
-0.001816382072935806 -0.015017688232678251 0.010850364176455941
0.0034040783892005785 -0.014573391050420478 0.012299114343173448
0.006207613993567557 -0.015572947008391593 0.013094236195776066
0.005103871214555892 -0.014415591237542616 0.012770648986833288
0.0002554643774740886 -0.019584785487845306 0.011490848156105564
0.007718442950014972 -0.016190299559935617 0.013523815290193905
0.010200037606145896 -0.013718672254270956 0.014181270413513568
-0.0009232970375336966 -0.026843086534301917 0.011149417320032069
-0.002147074923169361 -0.025696437416353857 0.01078415636486831
-0.001698003523799561 -0.029917053957171653 0.009782038446853344
0.01955473389991299 -0.022543760595673513 0.0158227073507093
0.019746527027657522 -0.028700733821276997 0.01567340535520032
0.01963251749831301 -0.026793900732295726 0.015744770380979385
0.020716379975577532 -0.02674861648791913 0.01462363412045004
0.019918532947560103 -0.024048692904238403 0.015625566196275142
0.020253461276645693 -0.013386445804977474 0.01528118739545162
0.020170600235502115 -0.01632220359682521 0.01536824386972792
0.019799261246338327 -0.020015235261916675 0.015699385229181843
0.01987481937656541 -0.01796066475880434 0.015623882022861416
-0.000774054830231023 -0.0128348290154051 0.010465929023912978
0.009348587322649681 -0.01201756705145982 0.009945295754158532
0.006761604626903775 -0.012220120524114642 0.00995165120094065
0.0012355956955220782 -0.012673534323804674 0.009171242099259984
-0.002339977514568113 -0.022800726586959003 0.010745031097276867
-0.003050176588206885 -0.018871051260556854 0.010461326826938684
-0.0026762128968201345 -0.016422485802106587 0.010602224684357675
0.019819556982473303 -0.01950425765712456 0.011979015528375709
0.019886878013932737 -0.022203708713549777 0.012094534600858159
0.020387960018323388 -0.02604913194197981 0.013043371357906869
0.020302150236870313 -0.01721652565253022 0.013185770243463792
0.020218758090491326 -0.014209078921486892 0.013584513427612868
0.020510866016837298 -0.019153182824263995 0.013657813380667572
0.020686265098911385 -0.022830638237978693 0.013929416940151764
0.015562460159343289 -0.023093472295171245 0.0156610341716343
0.01598204297659928 -0.02151753495516295 0.015775109463980235
0.013442251530217199 -0.025699243558819553 0.01510735979454704
0.016327387478342094 -0.026172071966213965 0.015843713810622957
0.015104153516129173 -0.024950092867209214 0.015535856130860315
0.01613911869854277 -0.02879573562292076 0.015784384767376022
0.016493265762404213 -0.017004834309571518 0.01592511487969996
0.016072672634426716 -0.03034305655002362 0.015760805691264937
0.015628549469512237 -0.01865938053646806 0.01569678719590544
0.013515584032927562 -0.02267532738572684 0.015138974971006296
0.014649289360113976 -0.02714087642672132 0.015410139305816518
0.008422728466808183 -0.02890231802034981 0.013706979634039412
0.006490118747573024 -0.029076372733871734 0.01317978725503018
0.01396014592154668 -0.029175195771853058 0.015205795961238175
0.0035075878261630706 -0.02978499792232473 0.012359503531089402
0.004966949080932959 -0.029285734087393527 0.012763188390602847
0.012205293825853765 -0.029799110920043066 0.014720015180321913
0.012281736477395552 -0.027020585808437893 0.014782980657345292
0.01032801334691728 -0.027472686458539522 0.014245833004230978
0.009991073211170627 -0.02959500441371777 0.01412213399915359
0.008144448490392867 -0.02196340148342907 0.013675756988121703
0.0057062434436444195 -0.02061332100793563 0.013008439631222926
0.007037000331849439 -0.02380114509401931 0.013378229558247077
0.012380343799420435 -0.021232823828662144 0.014828094337807636
0.009613790102948452 -0.017166863180574345 0.014065149277454147
0.009436925038583408 -0.019592102804531348 0.014022479231679617
-0.00021611522315667975 -0.022588989845704992 0.011399484496666942
0.012547225563312099 -0.019342445205338676 0.01486926062566954
0.005067327818403491 -0.023937565793656544 0.012841935609294605
0.011497104958485079 -0.01728195940359279 0.014578488368862778
0.011395587312274198 -0.022780930614928554 0.01456333368870958
0.00507629532786914 -0.02211681370115679 0.012840239116121515
0.013325973006423329 -0.016778811891416553 0.015075588746872997
0.006661918018540857 -0.019027085485633782 0.013265190716141236
0.0028521634110775964 -0.022309624929034464 0.012234750193694341
0.012033193940957126 -0.02477809296524098 0.014741579491715473
0.014123807580715964 -0.01937369135532415 0.015298844884963067
0.004262352155895819 -0.020259058855345603 0.012614270339072827
0.009572890837474757 -0.023137750262812666 0.014067581970628656
0.010483048234832345 -0.021470216017689878 0.01431174783172514
0.0152289024580106 -0.015712949277127724 0.015591586555674657
0.0005409147912115728 -0.025537946579814296 0.011590428442704302
0.0024703794959211223 -0.025586109159467588 0.012118624141320323
0.003374952470772386 -0.027489099493900094 0.01234922894501742
0.0004992027193537023 -0.028386697751348618 0.011553209111018096
0.006596895195468699 -0.02646345561604844 0.013241257450171899
0.00516870203326591 -0.027547133318806857 0.01284015225096611
0.0017952867885906252 -0.023772943607982662 0.01195007875703755
0.010332821288463051 -0.025491558027196576 0.01427361972770345
0.00888884199669428 -0.026600460622477826 0.013867961096119933
-0.0008741711703085314 -0.024786610202350474 0.011209527604554584
0.0013677888602677225 -0.029786258968057984 0.01177851208540471
0.004257658113478882 -0.02575068728197383 0.012606809950750492
0.014107065968340821 -0.0324880776200528 0.012844476301973811
0.016238372028414105 -0.03215029440108046 0.014781264938998149
0.01811071232701909 -0.021626462586144105 0.016081843377185087
0.017971009727408827 -0.013732705964859024 0.01608119417252269
0.018334674722602258 -0.018729109999996225 0.016062358959403736
0.01851483655231977 -0.016887836037538122 0.01604733107722099
0.016677594445502743 -0.024248731139933578 0.015941058287981088
0.017957173933901643 -0.026749662231314798 0.016096938474432415
0.018355396345806865 -0.024826028195831375 0.016054212123980345
0.017855720745346294 -0.030849565541565455 0.015444244793180767
0.018195308301284314 -0.029451216075706964 0.016045499618078368
0.004705255248497028 -0.020667987068992488 0.008665276670549516
-0.0006156038478375119 -0.026113909177680254 0.007781117307244502
0.00948860824750686 -0.015540238895001798 0.009458407590338261
0.0025036965557833704 -0.019695109530801325 0.008275638572791741
-0.0014591825549061168 -0.024354484152436927 0.0076215853137244684
0.006830279746166179 -0.017014831405026264 0.009007480298894987
0.0017840279994762152 -0.023853612487465006 0.008181305099185462
-4.417419002952002e-05 -0.022235888440338115 0.007851768345764992
0.00905221794628365 -0.016928493567550898 0.009392842049207957
0.0004481253367237274 -0.024800173969192277 0.00795621516327041
0.0052206127426683135 -0.01776755785822831 0.00873340110636122
0.002492628545721643 -0.02234462750422676 0.008293268513422037
0.0062399814029928434 -0.02016217386543216 0.008928159160834141
0.0013076016549258805 -0.021311192058944845 0.008079777156267816
0.007693398722537811 -0.018728553611251687 0.009170069587478059
0.0033742408493518993 -0.01283432772244014 0.008421125836332902
-0.0009193032167194227 -0.01992004295838184 0.007697565471724168
-0.0015064818299629034 -0.018104846573143523 0.007598612447147981
0.0015982284435642044 -0.01649583596101269 0.008121827130157697
0.007784146321066864 -0.01563662536425585 0.009164295758872862
0.009251310145308875 -0.013837689676404398 0.00941154641596945
0.0035676026059102087 -0.01724220258293531 0.008453711714321743
0.002167272668547629 -0.0151107167353511 0.008217724095594982
-0.0014214515646220728 -0.014651913880087063 0.007612941991423296
0.0009905795100658332 -0.018765056235882836 0.00801942438848082
0.005130084535827162 -0.015302941063931996 0.008717025652063566
-0.0012073690045953439 -0.016338378665942094 0.007649019798662631
0.006069686028436853 -0.014077878322710475 0.008875369991405972
-0.0028843250384184187 -0.026409898940496633 0.007706036018607546
-0.00140683387246613 -0.027757034460006436 0.00773451255828044
-0.002563323707979435 -0.020114361104540457 0.0075158566153455085
0.007900148915944557 -0.03172463765860643 0.011911114011710508
0.006534726412008586 -0.03156691974019399 0.010980931470254949
0.009795084907493624 -0.03202239214425444 0.01166230524347982
0.0045899871298298745 -0.031150220960146118 0.010001067817732709
0.001179664756140546 -0.030723083985105686 0.009935493897502532
-0.0015257162450391217 -0.02887513914067679 0.010838064657093556
-0.003085653478221089 -0.027634677319559705 0.010420640450275107
0.006876400088486461 -0.031237681074035732 0.012887707006407453
0.00526820910367144 -0.030984187384027806 0.012512316619545003
0.00260436899708989 -0.030874407740320575 0.01129324148461057
0.019131545592138147 -0.013695755657453483 0.011754032715270988
0.01694574243012472 -0.019703908230865153 0.011099738978079962
0.015818695389555593 -0.014727366676936846 0.01078086057705215
0.016742687764337624 -0.016229203680420568 0.011048191709986572
0.016656650714615442 -0.017979438882867245 0.011018971283022701
0.017627448322028023 -0.014349425879808598 0.011311769665207852
0.018472633737865986 -0.021891016624822162 0.01154217666283211
0.017733215477705316 -0.025292075243337764 0.01131770681663799
0.017259755251496398 -0.023607950975027138 0.011182818705937023
0.018722577671514647 -0.023671580388183632 0.011611343898090317
0.014530635366758412 -0.013916591077240057 0.010405259272330164
0.0181026605135215 -0.018710246629207623 0.011441041890650053
0.019594105852340588 -0.015410096146162858 0.011885657468372965
0.018030038941865206 -0.016922009283925347 0.011423855428052673
0.019654519712070793 -0.024873651738150166 0.011902917911999577
0.019622756001596194 -0.01773129461577075 0.0118923465071459
0.0191232682217926 -0.02639856499973786 0.011726110023407928
0.014993778860692511 -0.017718940718892857 0.010565062470650043
0.01584455488701956 -0.02434885563152015 0.010886098198347743
0.014322147163227762 -0.01574400215591254 0.01038130264416146
0.015354379089920765 -0.02207269935838106 0.010734137124093412
0.01850838860061854 -0.029308882627262514 0.011553503442489068
0.015781177904656347 -0.028453431653767205 0.01096049908019789
0.017008494414274485 -0.030007318210649423 0.011252358152264932
0.016811882459144445 -0.027094082468862978 0.01114863994825568
0.01588351784719317 -0.025892163383161398 0.010927305182616176
0.011794460171183511 -0.03158722808453239 0.011001507876016524
0.012873439514587637 -0.0322894220451882 0.011967391998992055
0.008947874887566114 -0.03126232565659041 0.010370342266252134
0.015893581487992296 -0.03194625070776438 0.011773808977149438
0.019985983700286244 -0.029475873094475434 0.012817971764688484
0.01886280226685687 -0.03095366757395889 0.01276180217817175
0.007557251616784023 -0.030688988015679458 0.009550535371199173
0.014081516007203289 -0.03136220431016576 0.010908094140850262
0.017629915275380197 -0.03179634919849962 0.011785751531639934
0.019694229289931118 -0.030147387364236524 0.01470683299389134
0.017116162909644864 -0.03228305489296521 0.013197209284913391
-0.0034907560543666984 -0.024769123762533013 0.008391959227878807
-0.0034976976400572348 -0.026610236517975512 0.009132532320695008
-0.003593243784672227 -0.020502969634888697 0.009127413565337519
-0.003646974024632826 -0.01886393755130736 0.00878666662890043
-0.0036579904087156866 -0.013812582750264174 0.0085938968591157
-0.003382727955739827 -0.01421356050891816 0.010131144065740746
0.016049159289654075 -0.008497999981045723 -0.015282081187358763
0.015717853338855156 -0.008497999981045723 -0.009801304951698574
0.01565341903145447 -0.005266399279157548 -0.01586851287013959
0.016625228579454362 -0.005960671256143494 -0.01217787558046321
0.01720102567944558 -0.007312415972512988 -0.009957225188996176
0.01698532660443277 -0.005950925419432458 -0.01697373810504125
0.017073198721150942 -0.006554331807181801 -0.01450465013684202
0.015290346155403093 -0.004746841940481818 -0.009866809294474267
0.015196322851509772 -0.005239497631345078 -0.013171996838085441
0.015354036498069944 -0.0064381137289794485 -0.01456665778880585
0.014968870323861029 -0.005483175728604823 -0.011752618474717043
0.01490521639724171 -0.007675693379397852 -0.011112159319131065
0.015248480955935112 -0.007889593770757888 -0.013932593497291465
0.016386934851393243 -0.006323069660486619 -0.018576312477369246
0.01564192866829978 -0.007077456020234314 -0.016609264700882264
0.017305772784471523 -0.012279208788678482 -0.02023341646257567
0.017302031880798548 -0.011265798447843606 -0.021569154638809884
0.01732027981409464 -0.014612944715204206 -0.01741576512716483
0.017414155261831817 -0.015830164158650045 -0.019730533866399936
0.019712419101068763 -0.008401616277663906 -0.022246378070254723
0.02267311182294547 -0.007907036775882125 -0.019612035677884894
0.02136983684820542 -0.008241869680192445 -0.021395499228248883
0.021508195252233915 -0.008259216217375128 -0.009153208469310344
0.02185737242374538 -0.01302000138031121 -0.008965345286072755
0.018960997790911024 -0.009242097497152416 -0.009249552785683016
0.0221381448996677 -0.009934897116824253 -0.00904026412093867
0.02270442935363268 -0.011657253910954242 -0.008955490754649706
0.019749500015925233 -0.013497766048437292 -0.009076366110353312
0.0269837973009655 -0.013630759502799067 -0.014298261234210552
0.02692343252479928 -0.01178932620220294 -0.013783706320787154
0.027115015600273372 -0.014300882566085478 -0.016013074472312434
0.027022798683264834 -0.015443473829303448 -0.014519248524043179
0.025772947131074253 -0.015517985970864389 -0.01109104586847017
0.024497766740738263 -0.011772477634710494 -0.009318249936977462
0.026831596074717762 -0.015572393226086488 -0.01242337550444698
0.025112930867044088 -0.013382913378893413 -0.010164504418517732
0.02614352116267024 -0.013749586236325002 -0.011475839625790938
0.017235999926924706 -0.011207480188249727 -0.016717847262026787
0.017235999926924706 -0.009819585253164221 -0.019378088225064257
0.017235999926924706 -0.007975926743608707 -0.01883156350789143
0.017235999926924706 -0.012706932397177713 -0.015395513409508831
0.020761344550316016 -0.007641802820534852 -0.010731228122340876
0.01765162425600421 -0.007814027795342737 -0.012754874156000417
0.01922852187933064 -0.00773089842487989 -0.012996058299190717
0.01818166292484976 -0.007791191427809683 -0.014375261066771132
0.01833833556067877 -0.008202775891418504 -0.021034887610174777
0.021176002251667797 -0.007718744354428542 -0.01838968532687866
0.02009647406900778 -0.008042042555212469 -0.020298961424469172
0.021236644236842687 -0.007623861762507368 -0.012456921567175719
0.020779602636488988 -0.007664636749938697 -0.01568020868992701
0.020424540825245956 -0.007673231385705108 -0.01411567432050542
0.01884866256047428 -0.007763297631537784 -0.016323582349178124
0.022648248954829763 -0.007572561146883384 -0.015657317123689413
0.022306360902381472 -0.007597776769020617 -0.017136753129839963
0.020947579969590357 -0.0163934468335418 -0.008944500237703323
0.02395012922376868 -0.016072211577215636 -0.009337455341439807
0.02704671747642031 -0.012561371261993623 -0.015792973391307825
0.0269126562882 -0.009979038717744764 -0.014577085502702982
0.026939279112902628 -0.011771455511042982 -0.017720216270048557
0.01730495027479509 -0.013358228683800343 -0.01098853828430806
0.017257587709915152 -0.009843168392649222 -0.015944578854065368
0.017319984375920375 -0.011334191386094754 -0.012554809425859625
0.023071314457342812 -0.00761812334897882 -0.010003085350778323
0.02450317109325758 -0.007887536215765833 -0.014495013669856236
0.023869758773538873 -0.007746339431863354 -0.013155675547001542
0.02510942000803702 -0.008218961137652706 -0.010758201321297855
0.026463748081268154 -0.009897870042352534 -0.01201514877837606
0.025787729446320285 -0.01229132578768133 -0.010975161440109963
0.025300723798508798 -0.009847842060831183 -0.010287879348857387
0.0266952228920459 -0.008587936377623947 -0.015396204208180296
0.025949805345883783 -0.008342989422573142 -0.013814564544550937
0.026528692393820236 -0.00839900151705562 -0.017756649101646836
0.02534906073393311 -0.008089359205379041 -0.016165670169660914
0.026228067775205328 -0.013004126595826579 -0.018858475461997943
0.026334882728134824 -0.014897971283721119 -0.018399075312404367
0.025474709673877986 -0.015262711131535493 -0.0196458012470943
0.02611057806272047 -0.010751123184367061 -0.019390472149074276
0.022384469474856568 -0.010173651556635988 -0.02259679556707616
0.023190093434193745 -0.013392998660858833 -0.022191670484043923
0.022751645233303697 -0.015157138022548124 -0.022346594580490143
0.022532614204002103 -0.01198073303217541 -0.02249964300666234
0.023773160146593492 -0.007697268477279165 -0.018276692303292187
0.024894603919668443 -0.008138412244135406 -0.01921193912343251
0.023368639576979378 -0.008373857976395763 -0.021547909790878814
0.024971109033124127 -0.00994974652085205 -0.020818890854223095
0.02467778015970815 -0.012561649878171047 -0.021112219727639072
0.024334022363168655 -0.01427560305691675 -0.02145597752417857
0.02375584578514179 -0.011139242633585029 -0.021919172668990117
0.017866080987965834 -0.008883603918029438 -0.022919345247163547
0.01821268656795414 -0.013819782565936484 -0.022500314162163058
0.02070464184449117 -0.015033783336460932 -0.02271873380021125
0.01828184444180847 -0.011833211680121242 -0.02274193979081138
0.019922586039583468 -0.013241548213505889 -0.022814738516449197
0.021487817881339962 -0.00886235688159557 -0.022818782638208118
0.02175368106217985 -0.013344031102212852 -0.022776372746261497
0.019604818563129026 -0.009711396816380953 -0.022988636374713527
0.025294980703439447 -0.016127077476908298 -0.01536913455764852
0.02614351408304767 -0.01585146280573181 -0.016992826484571823
0.024852415157880347 -0.0162396183673377 -0.01392952176476081
0.01927166348953946 -0.016258552241705387 -0.01874659901151856
0.021093929568445417 -0.016232294935007982 -0.021108820605400678
0.01878151666285527 -0.016407995575150606 -0.015105236145242075
0.018941064501935053 -0.016169442780310385 -0.020299914867846172
0.01850479315459392 -0.01629853447712109 -0.01714167113837732
0.018491567410796248 -0.01606712902184778 -0.022014044614445144
0.022203766428231804 -0.016509381889589145 -0.01020864782128369
0.01911639221462491 -0.016466374774338086 -0.013075092441982916
0.021263838435569928 -0.016315926469091184 -0.018528739881101243
0.021298559640506004 -0.016408597929395866 -0.014689932233340143
0.020938523518524564 -0.016472192710062873 -0.012191192188802335
0.020635411017056765 -0.016369515695907465 -0.016537953424825776
0.022328773622203212 -0.016435224900372986 -0.013226541276266464
0.017781274510838253 -0.016513355155337747 -0.011606833845373758
0.019354728290462465 -0.01651158596832434 -0.011124062662065231
0.0239019481469349 -0.016219125209433163 -0.02119297802130374
0.02286879211502295 -0.016388071241462687 -0.014881513254364077
0.022740485385679042 -0.016271867045252245 -0.01970240343701614
0.023446462810487893 -0.016315236403257338 -0.017526832140245256
0.018182711634330096 -0.012755341112789873 -0.009246159129069322
0.023111367834835306 -0.005282093577707836 -0.016809592267492502
0.021934077807893602 -0.005070532287182242 -0.012059544401104953
0.023209958106748082 -0.00522028399911534 -0.015274115770482235
0.022325133552032753 -0.006260477799258549 -0.014480803330597838
0.0228058758093426 -0.007533249910920858 -0.01166967231432945
0.02206447526677639 -0.00606275345577268 -0.008970078884871365
0.02309065538543207 -0.00589468182439348 -0.012727051347849436
0.021733814066296056 -0.004991759802349249 -0.0101750674669541
0.015252094915762576 0.004190115095304188 -0.014338299165694906
0.015350091919526243 0.0031815608046083946 -0.011877609171740623
0.01638406432135008 0.0037250443930776367 -0.015228036181314655
0.016211756879746755 0.0046956733097351724 -0.011149538729556383
0.016379153637578983 0.0044836625294652765 -0.012638914718372436
0.016845238510472278 0.004120919249128342 -0.016697016630029777
0.016557387435329862 0.006027766959645869 -0.01720929155549589
0.01660236530358508 0.0058756426051265 -0.014578523511248165
0.014939364076950385 0.00594316619337599 -0.012287482436669207
0.01520187805647549 0.005963746429411931 -0.013921003834781003
0.01608058965088575 0.004718302290959092 -0.018487454607829953
0.015444163150037063 0.003977824447510644 -0.009092453606255747
0.022644042912486347 0.0033974999096244574 -0.012400594698136178
0.02286657086665851 0.004770234963818247 -0.017238068417310102
0.022188504965412373 0.0035074545787517957 -0.013984639830527728
0.02159082091318208 0.003880546025633481 -0.011294407376288913
0.022768170412592558 0.003567228614429053 -0.015731030190193302
0.022985488918463564 0.0059690000489354125 -0.01343110187604794
0.023411582476550962 0.005120035969498114 -0.01521770460703982
0.025566091293377703 0.013112016366625956 -0.010760285329168564
0.02463072272202926 0.014418778380794367 -0.009671161392700517
0.020446272061215735 0.014953554818518693 -0.018573100358650618
0.019124222568636547 0.014832966439864002 -0.013259177371190107
0.020063016353486778 0.014858215720370348 -0.01184285480297036
0.020770077575158363 0.014918433849236086 -0.014317404377839097
0.02174545589443132 0.014924922448883545 -0.011148833708636804
0.019863186056426743 0.01490572150373403 -0.016689401073993998
0.020619658096668936 0.014861354845709464 -0.00998610810783387
0.019318765191933686 0.014861776767069478 -0.014992212035925965
0.018004576963519488 0.007280465535303544 -0.014706535450147364
0.017915620465061243 0.0108854941785093 -0.020371829591918734
0.01794728313157698 0.01066549261911792 -0.01835535724607128
0.01797343891904246 0.010322260718831584 -0.01668959665443593
0.018038300082641155 0.0077265364400183854 -0.012558840874557591
0.017955452969795047 0.00885603275882354 -0.017835051957551386
0.017976862153980692 0.008171868238681516 -0.01647158410698201
0.018189444172987602 0.014754866255924117 -0.011452254306839079
0.018289322665507132 0.014719692051826692 -0.022157165067065894
0.019242110374029973 0.014890680608055474 -0.01948514352380013
0.02680789146353263 0.008804600631548523 -0.012787534424215475
0.02117030257474172 0.006903338437172761 -0.022235184688639067
0.022966182954332354 0.0067209856076033405 -0.021179649926841085
0.018494088811493697 0.0061604026351973155 -0.00983601766166197
0.01966397984602562 0.0061151438469098495 -0.011263551147721323
0.022095774098054355 0.005991873153992406 -0.010049820260376813
0.020501724783723106 0.006085918286904161 -0.012741760319877345
0.02070128479138926 0.0060540829852183545 -0.009531526758410213
0.022300589676888194 0.005994908211696168 -0.011869228085807102
0.02440750900811118 0.006534596447930837 -0.01913854539177732
0.026919636455844047 0.012973348571127285 -0.014669327319629237
0.02672373203985772 0.014641981565399274 -0.015620607135642485
0.026874803418589582 0.014543892719886074 -0.013610371429709594
0.026844741055815167 0.009205799462534962 -0.016222085908096102
0.02672931272315804 0.010846511789535091 -0.016936624385020978
0.027006988343784795 0.010700144613919774 -0.015058704909708896
0.026772772306353346 0.013046418676430919 -0.016549702872356076
0.026666943636105285 0.008240386874478901 -0.017468844376491804
0.024573284060657213 0.014436486927779033 -0.021075764424648123
0.024251599463317626 0.01245064733558776 -0.02135021715601529
0.019436024971885322 0.007018094434599653 -0.02272705210913641
0.018964609360742832 0.009559236911922397 -0.022949461969706896
0.01852211972785324 0.013102912835726874 -0.02279853354728939
0.020046202613964125 0.013460854763987081 -0.022531172070058586
0.0205039131708617 0.008755866163622467 -0.022844531860205724
0.020048240416346293 0.010986339763277387 -0.022737402310065297
0.023417627223592863 0.013764528702146837 -0.021898705890641156
0.02193299115543889 0.01007715808751559 -0.022419332284473913
0.022658972228482677 0.01140422403331068 -0.02217908913270844
0.022786000730735643 0.008397299596005128 -0.022234633048499194
0.023178893645153454 0.014970250427722931 -0.010204919859891061
0.024663498498937633 0.01497025042772293 -0.014593357381301662
0.022271508729375108 0.014970250427722931 -0.01747141791171623
0.022325996234870416 0.014970250427722931 -0.019246050161642766
0.02198835262434244 0.014970250427722931 -0.015401682154348593
0.02238920324559764 0.014970250427722933 -0.0137925697238527
0.02002034276420643 0.014970250427722931 -0.022234176443290805
0.02396414304599396 0.014970250427722931 -0.01854147238723418
0.020716594632200543 0.014970250427722931 -0.02068281599608368
0.02318010752969234 0.014970250427722931 -0.011877146742892888
0.02386337960311529 0.014970250427722931 -0.016161607631630034
0.025669176768524322 0.014961993582476334 -0.017166742715230752
0.02582937904152613 0.014645061411960725 -0.01904405020159863
0.0223805452339943 0.014853966305258414 -0.0214074287141883
0.02686380775208973 0.007100927492348053 -0.014858191770623865
0.026837354702132755 0.006923252967432483 -0.013159704369304638
0.024493482008613655 0.006271486075195506 -0.01505071511335152
0.025058091053906807 0.0064943759051954274 -0.012802090403803855
0.02389322825164703 0.006042376977519739 -0.017436003447472485
0.026344888329506586 0.006826074422914382 -0.016372384124807432
0.019995030228104605 0.008672858649588312 -0.009131636111898716
0.020091597348959114 0.013497838123141453 -0.009152423701050662
0.018048957509792865 0.009980441554663164 -0.012142621222396925
0.017997615736572402 0.011528264960574242 -0.015351239192144487
0.017974855940898097 0.01302350719240027 -0.01687174151971292
0.017928854875929993 0.013682932943600823 -0.019658376335357042
0.0180666406970708 0.007473447148769796 -0.0107981218197344
0.018017653389842354 0.009292647928438535 -0.013901116358051259
0.018054074073647126 0.012929012975621455 -0.01219915526141191
0.018077150709412647 0.009354331031687861 -0.010407826119897429
0.01800020893968327 0.014377452786257267 -0.015546700836637894
0.02478405266766575 0.007123774159384144 -0.020863927651969004
0.024352102924631042 0.009758564663544396 -0.02127149566314525
0.0258257168932768 0.008505250596249287 -0.019938625206380046
0.025442514606504173 0.012901045764094631 -0.020305026446006624
0.0256666351547269 0.011164048211071965 -0.020016479359147053
0.026278017545509767 0.007370669592217788 -0.018953161020896572
0.026315342954064912 0.01098218600393816 -0.018707994239033278
0.02434623229187407 0.009286335426151423 -0.009371151667639735
0.023557040427827122 0.013377037236444518 -0.009046455667110553
0.025446531088281592 0.0070024705747164 -0.010904854446810748
0.023929589458095094 0.006333250721685187 -0.010312513545804073
0.024885856044658004 0.007924512136600191 -0.00955740067051066
0.02505054720805644 0.010945892985233407 -0.00984409142781545
0.01804780728355666 0.006556729470429521 -0.0164915251632994
0.022110059705109895 0.0060494881724374675 -0.016229157573875403
0.019582690277679674 0.006181684901159374 -0.014136815943613702
0.019580852956100837 0.006224604568597717 -0.015982579524411726
0.021312592461217583 0.0060597578088030365 -0.014212607335918245
0.020978882967486533 0.006338933130251116 -0.019141777595535155
0.01879175661287693 0.0066862392582436436 -0.02089841378586896
0.022460772094494475 0.006143729957048928 -0.018392019872975552
0.019034893919765497 0.006496089477663316 -0.01903922883753849
0.026132749935863994 0.01466402279376594 -0.011791205253420756
0.026143339874667784 0.009564350476829287 -0.011241201109573785
0.02666557840422912 0.012592218894701405 -0.012695104866167595
0.026802873676597314 0.010717179307864705 -0.012877111039341976
0.0027380509706932702 -0.016858749091625214 -0.006863650133722937
0.00895951264802876 -0.016858749091625214 -0.005012390606439465
0.014380806980135191 -0.016858749091625214 -0.006030914946476986
0.010967276686327167 -0.016858749091625214 -0.007750389239567115
0.009204201745913965 -0.016858749091625214 -0.007482031628776002
0.0218470966187718 -0.016858749091625214 -0.005734176511512022
0.024139995011184114 -0.022995228699512066 -0.005130858318414203
0.02401838076073464 -0.019265809324685964 -0.004579926489566499
0.024191994798787062 -0.024557935851862132 -0.005234352966028706
0.024049331582029206 -0.020598559149743387 -0.005733421609289018
0.023880811756626995 -0.01714791835696854 -0.005776448210967311
0.024136348509964475 -0.02641447091458384 -0.0045048340191997
0.023988337613839044 -0.020932875985820436 -0.003811880460981876
0.022267755679819378 -0.020666207699793656 -0.007016532033853207
0.013659289962462046 -0.02833586831940087 -0.00782860825672473
0.008547854334093621 -0.02553337234411187 -0.008329020764232208
0.018575006628662585 -0.028955297604036284 -0.00735249986683037
0.006553262293129411 -0.025824836134634148 -0.008520860713555786
0.021180181818275343 -0.027057107130671217 -0.007105693932361536
0.01316156679713244 -0.023400987981031733 -0.007888886680392237
0.018919475093822146 -0.023532126228525525 -0.007332681180706545
0.016672074158334292 -0.025060236631647897 -0.0075458637857645314
0.02152673212266702 -0.02376082140636378 -0.007080404463849237
0.015237214313587707 -0.024191009533327496 -0.007686541862301872
0.012256863645794926 -0.026211384533449032 -0.007969265289217212
0.017237845246718272 -0.0206429166470704 -0.007502187874940759
0.02018144510623992 -0.029085827695451195 -0.0071970875021705625
