-0.0133988672223 0.0280380420795 -0.00492341201911
0.00702056187446 0.0283767647314 -0.0024190818737
-0.0125249105949 0.0283876655917 0.000228905185187
-0.0186875787208 0.0279987982761 -0.00484210409647
-0.0137607035817 0.0282253217495 -0.00205804102887
-0.0166918768535 0.0279838724192 -0.00532042241794
-0.000512412648932 0.0281866128736 -0.00432440238573
-0.00215015550576 0.0283462083563 -0.00171365600672
-0.00746347770259 0.0281106547394 -0.00458455218043
-0.00511056895928 0.0282636684527 -0.00258003119094
0.00245029325798 0.0282950015627 -0.00306917988722
-0.0102631897958 0.028077563934 -0.00472692182184
0.00273014278789 0.0283917552334 -0.00164817273749
0.0102793220108 0.0283159458523 -0.00374880550055
-0.017495791327 0.0281139874544 -0.00325945198283
0.00992470933705 0.0284534587031 -0.00163356343822
-0.0210834333625 0.0283834131827 0.00125252316427
-0.0100605036669 0.0284047625709 0.000173108248993
-0.00624533060919 0.0283588493569 -0.00100292929438
-0.0188352088649 0.0284546422853 0.00203912723601
-0.00667241182217 0.0284710601961 0.000740614950606
-0.0163937375915 0.0280678857569 -0.00409353797395
-0.0210021049139 0.0279409162506 -0.00541934981253
-0.0151309334341 0.0279466151383 -0.0060796774783
0.00455145405765 0.028298796596 -0.00327906788996
-0.00387574642894 0.02829263241 -0.00230091933588
-0.0209689850924 0.0280914301099 -0.00315765890435
0.00348504377676 0.0284700904762 -0.000564815022037
-0.00366355760763 0.0284277859606 -0.000293225542905
-0.0151369968197 0.0283629346628 0.000188544790959
-0.00321335141518 0.0280890865689 -0.00544936384868
-0.00949225884067 0.0280085506282 -0.00586384913898
0.00474229973092 0.0284356964629 -0.00124237197332
-0.00757996904135 0.0283376663958 -0.00115221789296
0.00205549682442 0.0284528585442 -0.000642561963539
-0.0101074241492 0.0281663002384 -0.00341084267598
-0.0199062739154 0.028336684219 0.000399449445493
-0.0166657941787 0.028178726263 -0.00239032417163
-0.0193549140085 0.0281355385744 -0.00269875090308
-0.00414471696964 0.0282162091076 -0.00341724697416
-0.00817959543195 0.0281735916148 -0.00354606782221
-0.0152844939318 0.0280521625139 -0.00447120746054
-0.016295863331 0.0282813391955 -0.000892556923439
-0.0170615650172 0.0278905290904 -0.0066786719392
-0.00853552149914 0.0283991806518 -0.000104722370572
-0.00557736537164 0.0281463286505 -0.00428719313347
-0.0132872554137 0.0281232871744 -0.00365427986539
0.00843414088915 0.0282716199466 -0.00418161699245
-0.00825989744029 0.0280413959445 -0.00552599288339
-0.0200567733128 0.0282133544462 -0.00143808377667
-0.0112385796054 0.028133355198 -0.00376306168974
-0.0141180518499 0.028412041033 0.000798323308757
-0.0178549490356 0.028411328819 0.00126249430063
-0.0195021803115 0.0278771488579 -0.00656994500359
-0.012228939576 0.0280863029154 -0.00434554973933
-0.0201196792162 0.0284619862077 0.00231291904315
0.00748081134625 0.0284606183498 -0.00121520322775
-0.0028841555586 0.0282535314121 -0.00301557594866
0.00146626135058 0.0282076106976 -0.00425974635133
0.0157491108631 0.0284465725931 -0.00247740740177
-0.00280412071653 0.0281681835316 -0.00431061035074
-0.00908225602714 0.0282947183859 -0.0016078616796
-0.0118472894848 0.0282570613421 -0.00182338045687
-0.0152879903939 0.0281623773518 -0.00281154193662
0.0127250708833 0.0283421289524 -0.00366544499155
-0.0145302547251 0.0282978516717 -0.000868348417476
0.0144318518439 0.0284519460447 -0.00222911304764
-0.0180368377009 0.0282024578578 -0.00185882344832
0.0141735021551 0.0283740930232 -0.00336831400915
0.00394908619334 0.0283653827749 -0.00220010093818
-0.0122069442572 0.0281714125802 -0.00306706775175
-0.0110011153907 0.0282174250223 -0.00252761615569
-0.01991098925 0.0280441676005 -0.00400362128009
-0.00159195532513 0.0282570611729 -0.00312665302043
0.0057485088046 0.0283352288507 -0.00288272548889
-0.000172720136552 0.0283775934793 -0.00149246773486
-0.0180714402243 0.0279185025362 -0.00612921062886
-0.00754566085373 0.0282650931089 -0.00224912707058
-0.00453648987683 -0.0228322103619 0.00857226852523
0.00109617869757 -0.0257658574519 0.00836842155544
0.0200229900231 -0.0265322663835 0.00861074269374
0.0102651591152 -0.0256755248647 0.00853289644931
0.0040221225319 -0.0225103241391 0.00875002592103
0.00298009618223 -0.0236660988796 0.00861449405336
0.00831096799317 -0.026366133415 0.00842936472227
-0.00538983922254 -0.0245119846586 0.00838648458228
0.00308477623267 -0.0251887119206 0.00846096287544
0.00563352139325 -0.0263270505244 0.00838801308821
-0.00552911843781 -0.0232398711563 0.0085138793853
0.00733842787159 -0.0229423418428 0.00876211690918
0.00025891522279 -0.0242130268728 0.00851262980924
0.0132150300293 -0.0241728937558 0.00873611314718
0.00830446631016 -0.0246383253601 0.00860548790205
0.0136421111679 -0.0265175219903 0.00850419723236
0.00384242717918 -0.0262962809556 0.00836082238503
-0.00248551352445 -0.0243772267124 0.00844940947786
0.00983911000056 -0.0223624470578 0.00886360993227
0.00397526185664 -0.024253441467 0.00857143762226
-0.0117163711211 -0.0256574810018 0.00816251695247
0.0143044043546 -0.0252705969436 0.0086425961281
-0.0103121236109 -0.0253351539138 0.00821917227864
-0.0155710316083 -0.02658123984 0.00800302309485
-0.0137837501864 -0.0259534189051 0.00809732426674
0.00658961206988 -0.021465795886 0.0089000419818
0.0119828938051 -0.0255760077011 0.00857213394277
-0.00386787852107 -0.0254748895336 0.00831404186228
-0.0066381639859 -0.0242351770309 0.00839358019321
0.0172320592144 -0.0261646087454 0.00860098342287
0.000949992599594 -0.0230195791749 0.00864606152424
0.0084040536842 -0.0232986397613 0.00874381973646
-0.00201619723137 -0.0233224046448 0.00856494648317
0.00667852009398 -0.0251058393993 0.00853026967966
-0.0128135254929 -0.0252460922684 0.0081858994053
0.0045311877802 -0.0253358658673 0.00847044596761
0.0161148899255 -0.025858709714 0.00861326719954
0.00431367768539 -0.0209277663722 0.00891638092305
-0.00683966568885 -0.0262520705911 0.00818444863381
-0.00819290885197 -0.0240908487732 0.00838197444488
-0.000106565223985 -0.0220269669912 0.00872941514412
-0.00334578429077 -0.0235368080353 0.00852056342571
-0.00940911824363 -0.0241929288218 0.00835096802226
-0.000789181848479 -0.0245959592187 0.00845582366087
0.012076130295 -0.0233454829668 0.00880122220506
0.0071225615282 -0.0262364485876 0.0084224686903
-0.00895578826509 -0.0255406170994 0.00822118264691
0.00244467293095 -0.0226004381932 0.00871412301771
-0.00274202999576 -0.0254643321765 0.00833418302903
-0.000293386092688 -0.0256003284869 0.00836177528511
0.0147384215683 -0.0264309978562 0.00853158669395
0.00583572258921 -0.02256654699 0.00877500153409
0.00915952981708 -0.0254213498779 0.00854009987781
0.00204699281966 -0.0248129980268 0.00848171190611
0.00555182754006 -0.0209401399706 0.00893608480667
0.00618161390263 -0.0237821293023 0.008656871435
0.00985024708752 -0.0239060601966 0.00870635279116
0.011139018788 -0.0242587398864 0.00869220326837
-0.00110888649119 -0.0225636978155 0.00865769696668
0.0034228374994 -0.0134408689209 0.00920702832913
0.00328458754618 -0.0173418986743 0.00906981021571
0.00284775077261 -0.0146934473482 0.00915521184683
0.00403979551863 -0.0187324486111 0.00903265711094
0.00123993823296 -0.0169020512373 0.00905516711636
0.00190498311014 -0.01233854394 0.00922304480413
-0.00122243926773 -0.016911188085 0.00901885767883
0.0011477883079 -0.0151813715168 0.0091134534474
0.000970119421457 -0.0182979741974 0.00900284489513
0.000324908176017 -0.0143371903539 0.00913068197591
0.00332757988529 -0.0121485450494 0.00925042378151
-9.03955626368e-05 -0.0166185421332 0.00904554703817
-0.00399169239119 -0.0215134967061 0.008675890386
0.00218246762691 -0.0196198273243 0.00896278165262
-0.00790119706994 -0.0211423106285 0.00859439039701
-0.00873633782922 -0.0220538356737 0.00851378037761
-0.00130882729712 -0.0212925901199 0.008762157556
0.000118179177535 -0.020674450297 0.00883997655249
-0.000162260757788 -0.018537227566 0.00896875660311
-0.0127143779614 -0.0241317183395 0.00827422056494
-0.00369733433518 -0.0201419434517 0.00877129517313
-0.00200712643369 -0.018485426421 0.00892242882682
-0.0102986209495 -0.0232155550276 0.00839764936283
-0.0181457291317 -0.0260192060814 0.00800770719982
-0.0142021074535 -0.0245666285276 0.00820645541783
-0.00323522597569 -0.019091272131 0.00885074516459
-0.00232886914908 -0.0199921467718 0.00881766556341
-0.00078257347817 -0.0199248377463 0.0088635585341
-0.00738216538859 -0.0224352369047 0.00852588332179
0.00260567444268 -0.0207547651117 0.00890177406159
-0.00651415025513 -0.020924655326 0.00864558910687
-0.00509986005026 -0.0201032857279 0.008736029193
-0.0160669645496 -0.0253128246579 0.00810868885027
0.00133839072431 -0.0211469936596 0.00884266199827
-0.00293622547598 -0.0210597356823 0.00873322889878
0.0110355817659 -0.0195232106844 0.00895537542904
0.0142303678151 -0.0235044269934 0.00880244167722
0.00961938384202 -0.0210716799004 0.00892010091271
0.0111947017921 -0.0153397464555 0.00908406349694
0.00875719357995 -0.0189470565403 0.00899404268439
0.00889755462833 -0.0107091857075 0.00924902374524
0.0123761296049 -0.0196675963366 0.00893867836015
0.0188568719117 -0.0252890330313 0.00870480313835
0.0170724820349 -0.0195474146662 0.00889965691831
0.00833419748446 -0.0210921424726 0.00893116591331
0.0155866642297 -0.018263520506 0.00895312384876
0.00907916402903 -0.0174961296035 0.00903624578098
0.00796975865811 -0.0197921890991 0.00897492232156
0.00739965961317 -0.0153282611162 0.00911897439025
0.00663141851721 -0.0198135582736 0.00898644308185
0.0149039002276 -0.0201845877916 0.00889958089339
0.0119655355895 -0.0211401299535 0.00889661004699
0.0104876314048 -0.0130468982858 0.00916182595467
0.00731273358533 -0.0165542041633 0.00908162990132
0.00903020475205 -0.0138611949916 0.00914976504758
0.0127198705682 -0.0162834207706 0.00904082164548
0.00922713011979 -0.0150071452667 0.00911232448007
0.0176104211421 -0.0211128724944 0.00884606163841
0.0158197568741 -0.0218272565088 0.00884014286592
0.0183965629951 -0.0238882945129 0.00875256760501
0.0171727151439 -0.0222445263601 0.00881484407312
0.0122594575162 -0.0176373156028 0.00900289747983
0.0142253310782 -0.0215548790401 0.00886313297444
0.0132038842976 -0.01821386543 0.00897636354819
0.0138583898375 -0.0197666636828 0.00892210074538
0.0173846758749 -0.0233474818881 0.00877860406594
0.0161980236326 -0.0242079043874 0.00876264292017
0.0111285443464 -0.0142328403019 0.00911909886847
0.0108996951119 -0.0213828861173 0.00889876293387
0.00993060048239 -0.00918402705134 0.00928706170466
0.00567051881922 -0.0190830019721 0.00901791774486
0.00649934523839 -0.0175293777637 0.00905870059938
0.00726824621786 -0.0140151856092 0.00916101731293
0.0152048237855 -0.0227947003289 0.00881564709531
0.00992892289107 -0.0188542787343 0.00898626024438
0.0140687640621 -0.0160469020376 0.0090358975487
0.0103016228958 -0.0172487751884 0.0090328099336
0.0129406993834 -0.0131737876658 0.00913554372596
0.0135442438747 -0.0143474766172 0.0090935380385
0.0202318043857 -0.0252510485369 0.00869346606723
0.0114386634453 -0.0123791210223 0.00917393970783
0.00978926586079 -0.0119071991967 0.00920363764422
0.0130355386649 -0.0218078509048 0.00886609665141
0.00828420184793 -0.0130183597779 0.00918277579823
0.0123423490952 -0.0146806071994 0.00909411837457
0.0102458551422 -0.01604320488 0.00907081989652
0.0144297634852 -0.0178082727796 0.00897781894477
0.0111391573586 -0.0111488854639 0.00921493616521
0.00598134644556 -0.0120824283464 0.00923195570234
0.00736826403521 -0.0100550685447 0.00928273763333
0.00466483834244 -0.0198312872317 0.00900367332522
0.00458196919118 -0.013976438077 0.00918540356911
0.00532351732931 -0.0176047667696 0.00906686109738
0.00572774964143 -0.0147943699177 0.00915028419174
0.00558384590785 -0.0108635227995 0.0092730521384
0.00609033992595 -0.00969444807886 0.00930485171657
0.0031221371714 -0.00941113647914 0.00933907802525
0.00468392832635 -0.00964109468473 0.00931856818037
0.00835222439974 -0.00915415678636 0.00930214957361
0.0040470520471 -0.0151646463564 0.00915325629083
0.00477244367781 -0.0121879612312 0.00923906513803
0.00676587353219 -0.0111218984033 0.00925492202821
0.00860143310331 -0.00776397884623 0.00934299266988
0.00412767978906 -0.0109774196784 0.00928202447619
0.00583435187357 -0.0161481911585 0.00910751233799
0.00426773580079 -0.0168766005663 0.00909843293286
-0.00261557325664 -0.0276955702793 0.00618982476249
-0.0109173704675 -0.0276035565058 0.00650459418557
0.01247854626 -0.0276477052852 0.00667151082757
-0.0142556342215 -0.0274913295926 0.00699967344409
-0.0178955312753 -0.0276350888433 0.00623584017458
-0.0185889136636 -0.0274300472006 0.00722889958103
0.0102938026984 -0.0276667335291 0.00654251696282
-0.021224538218 -0.0274860813818 0.00691124402
-0.0165714973464 -0.0276039054407 0.00641028033235
-0.0154411395406 -0.0274749673197 0.0070604091046
0.00362480696491 -0.02762094294 0.00665760015801
-0.0218136602261 -0.0274634081938 0.00213964467022
-0.0219518889879 -0.0274649304447 0.00573241167646
-0.0216583090366 -0.0274624534603 -0.000378935026786
-0.0207037364325 -0.0278338692523 -0.00358615749361
-0.0208107006835 -0.0277123519107 -0.00484995659816
-0.020637902605 -0.0279364359566 -0.00224403931917
-0.0194227797322 -0.0278883924125 0.0019378793472
-0.0184978643803 -0.0278630258319 0.00297680292725
-0.0185113522484 -0.027969680688 0.000120199095709
-0.0201595867497 -0.0279882202303 -0.00101834105918
-0.0196903782284 -0.027833551313 0.00329964017576
-0.0178647845669 -0.0279277729349 0.00149276904605
-0.0097784323766 -0.0279977784449 0.00277532508312
-0.0161303339387 -0.027912256401 0.00258412002749
-0.0179196301154 -0.028015485058 -0.000873545772033
-0.0209653053382 -0.027899593395 0.00103676249698
-0.0209099917365 -0.0277443693011 0.00520814511843
-0.0141981563679 -0.0279442417987 0.00248266409956
-0.0208917188093 -0.0277883056184 0.00404066586353
-0.0193277033981 -0.0280308074598 -0.00183240237172
-0.0088259897127 -0.0280568275524 0.00156819149233
-0.0173088553881 -0.0279839622591 0.000207428563693
-0.016719412541 -0.0279464608065 0.00143991745589
-0.0108570113069 -0.0280504369034 0.000946835360003
-0.0170414481921 -0.0280600032713 -0.00172117169696
-0.0179511380966 -0.0278226981553 0.00426818722188
-0.0152911155658 -0.0278826498618 0.00370296958489
-0.0205297157759 -0.0278551427955 0.00239502105843
-0.0141219200043 -0.0280398113951 -4.25858929695e-05
-0.0120730802936 -0.0280285231585 0.00105835286541
-0.0147295599164 -0.0279736209547 0.00148995750806
-0.0155435494654 -0.028028457683 -0.00029356290408
-0.0193989999198 -0.0277988442871 0.00434116112024
-0.0129516870847 -0.0279856985031 0.00186053698611
-0.0116427844351 -0.0279799579497 0.00252454779948
-0.0167279883026 -0.0278689867909 0.00350778598034
-0.0132109685559 -0.0279148068099 0.00365464327117
-0.00694076299474 -0.0277617116064 0.00553890421787
-0.00541113969345 -0.0278495947616 0.00470240546264
0.0149899949679 -0.0277430621196 0.00608091896729
-0.0122680732006 -0.0277233514918 0.00582771080779
-0.00993547912325 -0.0277167877989 0.00593026088292
-0.00057492808391 -0.0277174202369 0.00607737007
0.00456593923327 -0.0278078720071 0.0052748359948
-0.0102088075842 -0.0279057800968 0.00407302243164
-0.000820573687056 -0.0279132548542 0.00415350721207
-0.010995667072 -0.027790815207 0.00518717866076
0.00977432307356 -0.0278158871712 0.00528156444146
-0.0170195602205 -0.0277803325624 0.00519128324703
-0.00201443466764 -0.0278878412182 0.00438309321852
-0.00334509452521 -0.0278549271298 0.0046839684262
0.0192439326067 -0.027735684401 0.00622291743666
0.00115350444015 -0.0278145143744 0.00515382877134
-0.0075364761729 -0.0279626056808 0.0035597081337
0.00205609734448 -0.0277265493223 0.00603096577639
0.00862409532751 -0.0278329198323 0.00509574823896
0.0138067790458 -0.0277114986748 0.00637096818396
0.00616352492263 -0.0277590106542 0.00578000763476
-0.014865464928 -0.0277315581399 0.0057047173167
-0.00848411691286 -0.0277360780582 0.00576492203
-0.00635076458757 -0.0279136833847 0.00405873145734
-0.00466838127359 -0.0279386974437 0.00384106378232
0.00794876498809 -0.0277403183258 0.00599249454913
-0.0131784641125 -0.0277852399479 0.00520608465837
-0.019544652096 -0.0277214491764 0.00572718246651
-0.00476386488758 -0.0277523970743 0.00566587176924
-0.00827947846989 -0.0278433823643 0.00471632960679
0.00297829954557 -0.0278126308091 0.00520218096803
0.00625875802729 -0.0278983820121 0.00441525810598
-0.0121001750455 -0.0278716050194 0.00437707618891
0.0126486602321 -0.0278037523809 0.00544760284756
0.0209243557617 -0.0281946340016 0.000911499787174
-0.00449322295698 -0.0280544049951 0.00270176666101
0.0194916755025 -0.0281873203386 0.00149048414658
0.0161959899692 -0.0278133399041 0.0053862483375
0.0199106199799 -0.0278397170487 0.00513792882135
-0.00134399514154 -0.0280440309553 0.00283445043645
0.00150761419699 -0.0281454142189 0.00179321325658
0.000254906366224 -0.0280820798125 0.00244769321317
0.00434598192091 -0.0281765130338 0.0014887354923
0.0113452951642 -0.0278485718994 0.00498002956721
0.00587983816675 -0.0280653254868 0.00266607404354
0.0103390686559 -0.0282671499908 0.000584026047752
0.0165735009032 -0.028311661286 0.000164729972605
0.0147989347959 -0.028315634673 0.000109592865842
0.0200788377457 -0.028365853193 -0.000376788524563
0.0190070575345 -0.0280466905706 0.00296116098685
0.00691728462164 -0.0279945063335 0.00341642068765
0.0198449233322 -0.0279481298397 0.00400083339347
0.0139550894076 -0.0278259109085 0.00523743163165
0.0206735263526 -0.0277482345475 0.00610282386604
0.0136145711655 -0.0281573075683 0.0017604925233
0.0182102045439 -0.0281558708224 0.0018104653975
0.00261944618531 -0.0281056252521 0.00221880543776
0.0128434734932 -0.0279254468883 0.00418545524187
-0.00295197042496 -0.0280819216831 0.00242499045345
0.00790901482956 -0.0279344236282 0.00405385946324
0.00985372221243 -0.0281405426137 0.00190768703872
0.0147504894569 -0.0280612085191 0.00277662084735
0.0129128213079 -0.0280654109603 0.00271860299804
0.00420405417577 -0.0280565782607 0.00274504983923
0.00212614551794 -0.0279841808686 0.00348827733842
0.0117353828883 -0.0280445840119 0.00292800784212
0.0161438723764 -0.0282109547757 0.00121727032393
0.00997051498763 -0.0279873449027 0.00351469433851
0.0208858497322 -0.02804330781 0.00301089772262
0.00845652985272 -0.0280422670013 0.00292739197
0.0132174302979 -0.0282732748562 0.000541678211844
0.0161146231766 -0.027939296745 0.00406510259283
0.00849121684892 -0.0282128754776 0.00113900143528
0.0148183880994 -0.027951912425 0.00392299352553
0.0122443676641 -0.0281795911858 0.00151646320542
0.017368697262 -0.0280138111991 0.00329342173824
0.00430357304959 -0.027931600673 0.00405606701321
0.0179987048633 -0.0278646469901 0.0048620404907
0.0162652859181 -0.0284164994955 -0.00260709882099
0.0183901770293 -0.0284164994955 -0.00369653324366
0.0140909164641 -0.0284164994955 -0.00354719831751
0.0192948968186 -0.0284164994955 -0.00276766282266
0.0151611099286 -0.0284164994955 -0.00291158324687
0.0129898742747 -0.0284164994955 -0.00277172381342
0.0206772559097 -0.0284164994955 -0.00145395551165
0.0171869479147 -0.0284164994955 -0.00189486289198
0.0048314109926 -0.028263788114 -0.000387627950891
0.0067622836566 -0.0283500017912 -0.00225159300683
0.0125759653301 -0.0283535668225 -0.00103929677269
0.00492697619112 -0.0283177530286 -0.00180465839105
0.00318030198385 -0.028197504926 0.00100796905222
-0.000590484450665 -0.0281573673432 0.00122995977937
0.000459950743204 -0.0282257409626 -0.00035643503999
0.0117729206225 -0.0284131283586 -0.00280758523581
0.0185092033579 -0.0284065733566 -0.00111805735863
0.00807758139329 -0.028329307246 -0.00140417494973
0.00483908953912 -0.0283614709422 -0.00298979177056
0.00311981791949 -0.0282737096241 -0.00103698898161
0.0138405440849 -0.0284018228824 -0.00204127152684
0.000846248727852 -0.0281886155629 0.000720068462251
0.0142713426277 -0.0283654150407 -0.00097388878778
-0.00167555623339 -0.0281319569531 0.00166331291349
0.0101046789017 -0.0283115622435 -0.000475318575593
0.00932993144855 -0.0283750332452 -0.00234145680798
0.00683654782237 -0.0282324415838 0.000898860369203
0.0160323745578 -0.0283867408539 -0.00114635729309
0.0115033167842 -0.0283648584608 -0.00158150071279
0.003816127298 -0.0283134366262 -0.00193939543154
0.0022265639697 -0.028239041779 -0.000313729474646
0.0101048016505 -0.0284154333771 -0.00324414055673
0.00679699497639 -0.0283011911627 -0.000942662829304
0.00584087830778 -0.0283863989457 -0.00342901405179
0.0116304835857 -0.0261183312748 -0.00884837742305
0.0149843267171 -0.0264212205071 -0.00877005651033
0.0213003362109 -0.025531998961 -0.00886635002273
0.0170422514027 -0.0251063609328 -0.00897264950718
0.0201372358075 -0.0249009212061 -0.00898137072972
-0.015152777245 -0.026430837596 -0.00901764556987
0.00564433439024 -0.0261972159128 -0.0088846998175
0.00241862262121 -0.0266339870927 -0.00883842228995
-0.00442882132868 -0.0259664980948 -0.00900652669909
0.0126723780375 -0.0265903484692 -0.00876092541744
0.0190746602199 -0.0260900341116 -0.00879154982595
0.0161909212265 -0.0259199944354 -0.00884379488838
-0.0127437989691 -0.0266310778347 -0.00896428203787
0.00684721346916 -0.0262615233493 -0.00886401284131
-0.00299999380642 -0.0264462027366 -0.00891459128515
0.0103861582564 -0.0254249121685 -0.00897448208264
-0.00963501757939 -0.0261024860651 -0.00902686241376
0.0145130282462 -0.0248934703005 -0.00902912019432
0.0134903314388 -0.0256620608742 -0.00890920568177
0.00806675534519 -0.0258714820063 -0.00891907395617
0.0172103071337 -0.0264020697113 -0.00875484908697
-0.00622989697908 -0.0267801602302 -0.00877037707705
-0.0175757684237 -0.0267854526294 -0.0088587667881
-0.00737418313026 -0.0268252238394 -0.00873363648404
0.00436651812046 -0.0266920514161 -0.00877309361576
-0.011376362325 -0.0267749219605 -0.00881830240725
0.0211938565397 0.027285597452 -0.00443656197831
0.0215577818615 0.0271482836699 -0.00115816325098
0.0216749269695 0.0275932099692 0.00313670109725
0.0213009208227 0.0267734513918 -0.00659655658335
0.0216082170199 0.0247631036045 -0.00467616030884
0.0218204232907 0.0254437671529 -0.00131486989994
0.0221014899758 0.0242788680373 0.00143015585795
0.021614200732 0.0233762362495 -0.00574286664416
0.0218884305413 0.0241171233157 -0.00151373110152
0.0217213172021 0.0239899207688 -0.00382305037065
0.0214592847662 0.0265465884513 -0.00516733155019
0.0214331254952 0.0256879217603 -0.00622168313797
0.0215806574384 0.0259273996177 -0.00407789869815
0.0219447791602 0.0249507777511 -8.18403758592e-05
0.0216798846444 0.0257092507052 -0.00294928487091
0.0217776863907 0.0223292168814 -0.00445137164145
0.0217487675511 0.0216591001304 -0.00538636914631
0.0218356833394 0.0236062850792 -0.00263145402345
0.0218989039713 0.0261768199492 0.000325842329477
0.0221492401309 0.0251506915035 0.00278016174656
0.0221394472013 0.0263830585504 0.00435547148499
0.0215895076328 0.0268200564966 -0.00231762121995
0.0221601395408 0.0267142695878 0.00601761008906
0.0219522633291 0.0265456424498 0.00214032189633
0.0222187938111 0.0269214044477 0.00775922452914
0.0217274305194 0.0173146274505 -0.00729981327281
0.0218931016837 0.012361205813 -0.00782417040942
0.0218846241671 0.0135890429314 -0.00757597696909
0.0214725992973 0.0163771564756 -0.00807880692213
0.0213875604422 0.0246773963785 -0.00681545511983
0.0213960269933 0.018384019774 -0.00789765995753
0.0217569150571 0.0150731207149 -0.00767593352085
0.021472533132 0.0140680660677 -0.00848291783317
0.0208878368964 0.0253562635993 -0.00780577297782
0.0209033919628 0.0230631708613 -0.00817241554088
0.0210413119596 0.0217956735719 -0.00808805947321
0.0214161709285 0.0225351783002 -0.00712672780733
0.0204833685647 0.0243993512202 -0.0088708538261
0.0213214808804 0.0199801015462 -0.00778388029798
-0.0209604590083 -0.00903491414375 -0.00907698825999
-0.0209132941631 0.0184467424745 -0.00910055400508
-0.0208085867556 0.0230916139664 -0.00915287068429
-0.0207221875151 0.0105260340385 -0.00919603975375
-0.0210471210168 -0.00650659348853 -0.00903368789947
-0.0205478471282 0.0153731611079 -0.00928314830037
0.00731765452759 0.0236944831265 -0.00959200544779
-0.0160887576993 0.0256644407986 -0.00919165563769
-0.0187704668625 0.0247164428596 -0.00929099561282
0.012964493289 0.0236310212846 -0.00963764388611
0.00239474810603 0.0245200559913 -0.00945692386972
-0.0132245855735 0.0251397069327 -0.00927574131108
0.0115870651463 0.0234747466281 -0.00964776065298
-0.00496196097859 0.0244078804001 -0.0094215731314
-0.00278150037556 0.0244876720388 -0.00942629241535
-0.0186159770736 0.0258151979594 -0.00915609271598
-0.0127852110381 0.0239247634456 -0.00942899286796
-0.0119962553427 0.0256481183856 -0.00922106087081
-0.0104763231234 0.0247700734605 -0.00933986251082
-0.00592207567953 0.0252047359487 -0.00931656228331
-0.00137057065039 0.0237999159852 -0.0095208223252
-0.01466716407 0.0248507128459 -0.00930184200355
0.014749006929 0.0233498656137 -0.00968436958703
-0.00794149289884 0.024463634463 -0.00939473713717
0.00105842951475 0.0244488419524 -0.00945679212957
-0.019784673015 0.0239948527365 -0.00937348312568
-0.0166283500598 0.0243165141014 -0.00935480875845
-0.00669163232117 0.0241032732472 -0.00944768431181
-0.017386751318 0.0256612514161 -0.00918336442612
-0.000920915448677 0.0248460738679 -0.0093944018563
-0.021109870726 0.0241603717156 -0.00899123677198
-0.021683412889 -0.0165532796858 -0.00868738688315
-0.021483898641 0.0123818018554 -0.00869819656135
-0.0214336487684 0.0213174393364 -0.00869033320994
-0.0211490856063 0.0267994926264 -0.00893562846421
-0.0217051977049 -0.0200473081431 -0.00868835603475
-0.0215076478584 0.00363473868835 -0.00873097169893
-0.0211495392584 -0.00519448617276 -0.00898258266
-0.0212495055112 -0.00249952815706 -0.00893270531504
-0.0211995166269 0.00644119868579 -0.00895764686039
-0.0214969302937 -0.0126077504972 -0.00880925474172
-0.0211985716748 0.00226974590846 -0.00895811833651
-0.0211568513786 -0.0261687393202 -0.00897893433733
-0.0214655603425 -0.0226176635491 -0.00882490652254
-0.0210949759974 0.00790962181992 -0.00900980655319
-0.021362681446 -0.0177776504455 -0.00887623710723
-0.0211241245532 0.0144276819767 -0.00899526311947
-0.0159183227744 0.0268516862213 -0.00890939320192
-0.0114029250257 0.0267775809904 -0.00890812402159
-0.0171795252613 0.0268751554292 -0.00890835143818
0.0025753407514 0.0264475605739 -0.00895489687965
0.0010730114017 0.0264381581825 -0.0089724819255
-0.00127235637387 0.0266702900383 -0.00887556071984
-0.0193039839619 0.0272530204248 -0.00873610245828
0.0140682429491 0.025492620578 -0.00918278208015
0.0150350048766 0.0247647992367 -0.00936041557875
0.0055588050995 0.0244397793661 -0.00948172145362
0.00984427606264 0.0256539755555 -0.00916039072705
0.0183331988028 0.0241344065116 -0.00950384360015
0.0112159240916 0.0259054400638 -0.00909179071951
0.00767184849518 0.0258740549087 -0.00911464389583
0.0121993861051 0.0245392637939 -0.00942874435114
-0.00225807603757 0.0257474918884 -0.00918831954256
-0.00785771180026 0.0261500234697 -0.00911153763513
-0.00545012233383 0.0263949902947 -0.00904017064378
0.0163086950959 0.0240507148911 -0.00953331859892
-0.0034944973765 0.0261972985233 -0.00908124613296
0.0186009720441 0.0251773598897 -0.00924229390512
0.00844998918149 0.0244259584261 -0.00947292215958
-0.0103839440672 0.0258330659758 -0.00920138268417
-0.0148451898122 0.0262214750033 -0.00912330356224
-0.00910758179667 0.0260928114184 -0.0091311187451
0.0172904215325 0.0253977446783 -0.00919281894757
0.0102677449336 0.0243416561884 -0.00948626957311
0.00573046511891 0.0255053603994 -0.00921492909919
0.000164974953982 0.0252459412573 -0.00930328504227
0.0199918242088 0.0257437950093 -0.00909496749061
0.0124268349757 0.0259281184153 -0.0090809974056
0.00437824603248 0.0252759533071 -0.00927793926631
0.0140419047197 0.0242173299633 -0.00950132109325
-0.0224699992687 -0.008087178088 0.00516893229459
-0.0224699992687 -0.0101788499844 0.00606319312591
-0.0224699992687 -0.0154616837662 0.00554846820891
-0.0224699992687 0.000755663948506 0.00572301788825
-0.0224699992687 -0.0141884138928 0.00436346806539
-0.0224699992687 0.00752506588167 0.00627936064922
-0.0224699992687 -0.0140385563505 0.00601797434837
-0.0224699992687 -0.0197100822518 0.00517266695452
-0.0224699992687 0.0024429908276 0.0060461845807
-0.0224699992687 -0.0231683251049 0.00556759444224
-0.0224699992687 -0.015772067896 0.00426985760478
-0.0224699992687 -0.00136889503348 0.00523202964303
-0.0224699992687 -0.0177911851557 0.00557137848644
-0.0224699992687 0.0110755763942 0.00612723118046
-0.0224699992687 -0.00558745313574 0.00539912792282
-0.0224699992687 -0.00667491901634 0.00596579445351
-0.0224699992687 -0.0120535821426 0.00452325673323
-0.0224699992687 -0.0112744110809 0.00572611987934
-0.0224699992687 -0.0218446570038 0.00588674503311
-0.0224699992687 -0.0177995871826 0.00368452415332
-0.0224699992687 0.00563727590914 0.00612201789431
-0.0224699992687 -0.0126284359011 0.00585552311831
-0.0224699992687 0.00912492934745 0.00622827751167
-0.0224699992687 -0.0189201016809 0.00398991877446
-0.0224699992687 0.0159657983247 0.00649219991442
-0.0224699992687 0.0206175345418 0.00672014562179
-0.0224699992687 -0.0167477963717 0.00514233135835
-0.0224699992687 -0.00452180636011 0.004964519937
-0.0224699992687 -0.0207229561739 0.00436455555411
-0.0224699992687 0.00433547269075 0.0061679562494
-0.0223628020705 0.00219367499104 0.00130130600331
-0.0224695251706 0.0123069945476 0.00575900067428
-0.0222694869575 -0.0118587462129 -0.00298228327616
-0.0224525529733 -0.00818201834225 0.00365142028524
-0.0222410985788 -0.0037933185388 -0.00337126381888
-0.0223539955086 0.0127587092063 0.00177794068784
-0.0223482904196 0.00619308390107 0.0010933170952
-0.0223094409464 0.00877092705654 -6.56920240372e-05
-0.0222759876783 -0.00360775423808 -0.00214516125271
-0.0222818859159 0.00206050742041 -0.00152030223163
-0.0224082788194 0.0118699182588 0.00359838206279
-0.0223476444718 -0.0133774854186 -0.000378907062362
-0.0223286413415 0.00735126600491 0.00049633180837
-0.0224438727478 0.0197424510127 0.00541842349105
-0.0222109732823 0.000872917927616 -0.00407241068248
-0.0221552515111 -0.0073228888575 -0.00661581946694
-0.0222911859603 -0.0136625063404 -0.00236188957173
-0.022307292409 -0.00232103618293 -0.000962038445129
-0.0222997932283 -0.0105423779234 -0.00183165932506
-0.0223260837498 0.01145367088 0.000711362589466
-0.022364518935 -0.00742979076564 0.000648063426411
-0.0224519452081 -0.00631072880026 0.0037689253592
-0.0224406212549 -0.00172077191894 0.0037154527819
-0.0223834459412 0.00456157582699 0.00219406968944
-0.0223403282874 -0.0106493092532 -0.000431034094479
-0.0223128695985 -0.00436660969149 -0.00091977261563
-0.0224403038176 0.0117279353676 0.00470069586777
-0.0222867385589 0.00523343250144 -0.00111662973083
-0.0224210416738 0.00511890582311 0.00354176485963
-0.0223758169032 -0.0110577850921 0.000771894772495
-0.0224679389929 -0.00930318754448 0.00410301109167
-0.0223376411017 -0.00170390647558 0.000138260363907
-0.0223995922874 0.00805645901457 0.0030140358738
-0.0224543069272 7.62529035913e-05 0.00432413686595
-0.0221989556235 -0.00815242801074 -0.00515860371398
-0.0223470509417 0.0142095826312 0.00164410497302
-0.0224067012138 0.0179561337806 0.00399442595665
-0.0224624629562 0.00707464255603 0.00512598677344
-0.0223881088152 0.00109806131076 0.00209952372935
-0.0221639640501 -0.00420050331383 -0.00608176396704
-0.0222454859697 -0.00928061845445 -0.00362530353351
-0.0224485947247 0.0170697568223 0.00538451487205
-0.022334815624 -0.0144054302438 -0.000900844411712
-0.0223430253135 -0.000107141002525 0.000443643133192
-0.022381796836 -0.017029436969 0.00053731349907
-0.0221907313981 -0.000977810685642 -0.00491289393498
-0.0224154490177 0.0163910609546 0.00418246224383
-0.0222906774084 0.00369512554275 -0.00109371627368
-0.0222461214253 0.00372748894919 -0.00263958793872
-0.0223170463099 0.00205489229496 -0.000298934970367
-0.0222281520687 -0.0059367654685 -0.00397992564859
-0.0224586684005 0.00216018958522 0.00463007005587
-0.022317232415 0.00576099503248 -1.79217518143e-05
-0.0222581126129 -0.00708042231326 -0.00302355275831
-0.0223942353042 -0.0142221939158 0.00117749514736
-0.0223944813418 -0.0153684962771 0.00110112715215
-0.0223689233859 0.00711722810939 0.00187874907846
-0.0222957541288 0.010067505679 -0.000445243272942
-0.022170897494 -0.00855559825492 -0.00616345807702
-0.0223747380969 -0.00887681738036 0.000895972515884
-0.0223707119995 -0.00173195475945 0.00128535819813
-0.0221840128867 -0.00565234595352 -0.00549264176277
-0.0223266392129 0.00325810141282 0.000123540512636
-0.0223894661863 -0.0101253335098 0.00131526720773
-0.02231215565 0.000625433416175 -0.000574773391357
-0.0224276745991 -0.01397653025 0.00235767080598
-0.0223602104482 0.00374467768027 0.00132614763104
-0.022452684688 -0.0111841238954 0.00343360270973
-0.0223531872655 -0.00622848895992 0.000343292804681
-0.0224320330783 -0.00910060765439 0.0028703289046
-0.0224046354448 -0.00611643347984 0.00213935883596
-0.0223717138268 0.0165763083095 0.00267643772956
-0.0224435119055 -0.0191345946694 0.00252589208322
-0.0223239377912 -0.0116273312284 -0.00107303636393
-0.0223505836839 0.00918737561058 0.00139482105491
-0.0224321027782 0.0073828769893 0.0040938393869
-0.022417008718 -0.0173130242648 0.00173987786507
-0.0224263130328 -0.00286777152264 0.0031332893634
-0.0223786439515 -0.00285985980748 0.00147742974656
-0.0222694082746 -0.00854974120571 -0.00273988794001
-0.0222260015812 -0.0012826286253 -0.00370987642917
-0.0222523512218 9.99407448397e-05 -0.00269183668138
-0.0222879324647 -0.00683611451469 -0.00196924902454
-0.0224084732293 -0.00384769970123 0.00244078412344
-0.0224160718386 -0.0112361277122 0.0021574959118
-0.0222207594416 -0.00456586081011 -0.00413525498226
-0.0224554623844 0.0181184893895 0.00570084774032
-0.0224082601999 0.00309259988945 0.00294751559839
-0.0222427335724 -0.0107019332877 -0.00382623648125
-0.0223412213341 -0.0030373513395 0.000163888374423
-0.0224496845566 0.00897154756153 0.00482247388978
-0.0224596753851 0.0046692099602 0.00485092861551
-0.0224155483083 0.000217030749189 0.00298774821931
-0.0223024549516 -0.00945110860874 -0.00165832680438
-0.0224666291263 -0.0201816806707 0.00325162128038
-0.022245437467 0.00140393837827 -0.00283548219512
-0.0224456781474 -0.00445760699354 0.00368843057335
-0.0224398670189 -0.0164365425709 0.00259910685046
-0.0223057037237 -0.00797573208113 -0.00143614054064
-0.0224403267799 0.00117993865084 0.0039201033384
-0.0223325097541 0.00440582310465 0.000412557723038
-0.0223711718304 0.0114194284589 0.00227558483655
-0.0224297888216 0.0104983604739 0.00424422555293
-0.0222887852303 -0.00132080843742 -0.00153104522301
-0.0224433450521 0.0150392486484 0.00505167573653
-0.0222686473848 -0.0022678378656 -0.00230096765514
-0.0223155055963 -0.0057441461771 -0.000930221956645
-0.0222842927426 -0.00477945483376 -0.00194336883463
-0.0224317390654 0.00384325548165 0.0038189873519
-0.0222378630796 0.00269864754438 -0.00300277201691
-0.0222737002748 0.00731266062093 -0.00141566689472
-0.0224430981687 -0.0130039999762 0.002965666666
-0.0224115076526 0.0145462349094 0.00390884053049
-0.0224598266317 -0.00331780964643 0.00426450975031
-0.0223600152764 -0.01225038534 0.000134459182502
-0.0223620768275 -0.0156819586662 -4.81135657639e-05
-0.0221849694404 -0.00267130005161 -0.00523856819816
-0.0223931112478 -0.00488037156811 0.00183047311696
-0.0223929887311 0.0130868372382 0.00315721785485
-0.0224588387608 0.0244572190365 0.00628774292879
-0.0221934476333 -0.00953616559109 -0.00545250663686
-0.0224074256173 -0.00179368901024 0.00255654092012
-0.0223410958245 -0.00824486210549 -0.000226242793643
-0.0224495298539 0.0227041257285 0.00583440083349
-0.0223700052038 0.0100236217388 0.00213164522424
-0.0224022009033 -0.0126229095833 0.00157276475277
-0.0223924180264 0.0154925694737 0.00331560199084
-0.0219922495274 -0.026392253466 -0.00408768017818
-0.022047283048 -0.0251132149305 -0.00352001832889
-0.0222499856614 -0.025088812355 0.000757004727584
-0.0219238101221 -0.0262922508099 -0.00558224267423
-0.0219812420616 -0.0251302934002 -0.00490922448376
-0.0224581912615 -0.0251971238216 0.00521235713143
-0.022354293012 -0.0247803768715 0.00281986986479
-0.0223123027843 -0.0241542224356 0.00163943508997
-0.0220869225841 -0.0260733272285 -0.00223353321686
-0.0223056723989 -0.0259668663641 0.00234470890802
-0.0224468371478 -0.0224183639757 0.00367593481414
-0.0224250782888 -0.0235409863608 0.00373927285789
-0.0222544764875 -0.0229395391339 -0.00015056198413
-0.022153459834 -0.0260729916008 -0.000826017974637
-0.0221454962943 -0.0245192949388 -0.00171925141959
-0.0224244036993 -0.0246813095148 0.0042569297052
-0.0223136923316 -0.0222951054005 0.000801606939211
-0.0221897534132 -0.0250256481379 -0.000546741859691
-0.0220453575015 -0.0115684661796 -0.00797968289996
-0.0221216982622 -0.0213994027642 -0.00332922412023
-0.0219577916846 -0.0177893641029 -0.00773155175687
-0.0220826516864 -0.0138658020712 -0.00650712340416
-0.0220552472568 -0.0154662525026 -0.00653999429958
-0.0222974480841 -0.0197636648881 -0.000365643959219
-0.0218546356287 -0.0249560756321 -0.00749085036367
-0.0223040845946 -0.0152352905441 -0.00167876954936
-0.021946463129 -0.0194973500695 -0.00741129959861
-0.0221400404531 -0.0132039093128 -0.00558016785701
-0.0218526836555 -0.0238142197889 -0.00789386123166
-0.0222007494963 -0.0126448934858 -0.00455454297379
-0.0223656652572 -0.0201544420736 0.00111190476112
-0.0221118011439 -0.0231649979609 -0.00296220413053
-0.0220320425221 -0.0199572691588 -0.00556736633598
-0.0223038387627 -0.0208245825878 9.95721263509e-05
-0.0221242738696 -0.00943796211187 -0.00709434281385
-0.0220156530155 -0.02316820028 -0.00486798022179
-0.022091233411 -0.0162408590981 -0.00557918958005
-0.0219510354515 -0.0230194198567 -0.00619693489175
-0.0222873377746 -0.0176643413379 -0.00123592202214
-0.0223960283208 -0.0187200494697 0.00125643028524
-0.0220970093013 -0.0195460795136 -0.0044101398498
-0.0221788301063 -0.019378320347 -0.00284100195076
-0.0220136142273 -0.0145643076666 -0.00765341335198
-0.0222586277964 -0.0148267209896 -0.00271061384246
-0.0221338528962 -0.0177873659645 -0.00424056512331
-0.0221854635131 -0.0204467389511 -0.00236857900899
-0.0219738771136 -0.0204252312051 -0.00657159612059
-0.0221021234343 -0.0123099221774 -0.00661735260926
-0.0224226017558 -0.0210491195406 0.00252650172276
-0.0221298027253 -0.0081231501606 -0.00740417501295
-0.0222098961422 -0.0179795785371 -0.00267116107942
-0.0219838485025 -0.0215090636974 -0.00602805705992
-0.0222295906155 -0.0211563765368 -0.00126705183493
-0.0221142575166 -0.0149373536955 -0.00553845089322
-0.022235771085 -0.0164805349542 -0.00263626976593
-0.0220210368092 -0.0173083751282 -0.00663073780434
-0.0220190786388 -0.0188018064995 -0.00619310518216
-0.0220823099433 -0.0104353732532 -0.00760835049768
-0.0223249488619 -0.0183053700188 -0.000285508751456
-0.0218967961688 -0.021115771404 -0.00787994477474
-0.0222356641461 -0.0192452789231 -0.00175632207321
-0.0220825781234 -0.0174589420097 -0.00536222098452
-0.0221909789948 -0.0107708964938 -0.0053461934493
-0.0221984611556 -0.0228082098086 -0.00135740380396
-0.0220670886987 -0.0223373939202 -0.00411297596427
-0.0221396938869 -0.0166671232198 -0.00448213141869
-0.0222136980122 -0.0140768730346 -0.0038408884851
-0.0219497161265 -0.0243284329768 -0.00580546986987
-0.0220869402379 -0.020735926908 -0.00423021738519
-0.0151010674761 -0.0273541445991 -0.00782127626098
0.0102041850376 -0.0276025700624 -0.00644976379455
0.0214379593233 -0.0272102428836 -0.00735766161625
-0.00173468717842 -0.0277047785219 -0.00643469827138
0.0154777875826 -0.0270665400316 -0.00793778037283
0.00250379480572 -0.027495517985 -0.0069620420754
0.017115915432 -0.0277574422633 -0.00581255606289
0.0118426538183 -0.0278203501931 -0.00575229557185
0.0165337933135 -0.0274329994811 -0.00680594793313
-0.00656212855923 -0.0276341382546 -0.00676649777264
0.0178224013154 -0.027272700179 -0.00725802624875
-0.004122160296 -0.0275268438015 -0.00703032828293
0.00513688771298 -0.0277283202697 -0.00619479982417
0.0193806799483 -0.0282392553773 -0.00430291219297
0.00506239726488 -0.0273265796077 -0.00740898336947
0.0145570838749 -0.0273301173831 -0.00716499415189
0.0186662392098 -0.0278914949515 -0.00536992236159
0.0202701899223 -0.0278164129334 -0.00555708725263
0.008299204135 -0.0274897984168 -0.00683689161433
0.00101851451257 -0.0275028447096 -0.00697642966616
-0.00754305429107 -0.0273890239444 -0.00753029591352
0.00960633737932 -0.0279556342847 -0.00539899497623
0.0195264704952 -0.0275132569576 -0.00649021178511
0.00914341497722 -0.0271426029018 -0.00786389625176
-0.0115854673634 -0.0273348359812 -0.00779315595181
-0.00230085530488 -0.0273945432398 -0.00738482341285
0.0124301474071 -0.0273330490065 -0.00720841248935
0.0206373128049 -0.0283579491273 -0.00391384480703
-0.00550797870674 -0.0272332357562 -0.00795041785234
0.003945470088 -0.0276226664779 -0.00654291333442
0.0167729872108 -0.0270520598597 -0.00794965095674
0.0164161314142 -0.0282095722227 -0.00446533644899
-0.000850229385399 -0.0272598783744 -0.00775556212478
0.0176860830398 -0.0281603117037 -0.00458278586302
-0.010462604803 -0.0274266917847 -0.00748836593281
0.0132551595477 -0.0278591586301 -0.0056004718639
0.0153909881232 -0.0277474125536 -0.00588520989239
0.0188679153445 -0.027109396758 -0.00772514379782
0.00726566687825 -0.0276415268099 -0.00640441030609
-0.0212187986647 -0.0272712740796 -0.00811821494164
0.0108641282654 -0.0281964848811 -0.00464106540963
-0.0123841513944 -0.027677090052 -0.00677937922142
-0.0111118932728 -0.0277318991494 -0.00658259373957
0.0128248513592 -0.0283680530216 -0.00407447660335
0.00603833183952 -0.0282572014461 -0.00457543612934
-0.00848148345704 -0.0277892024827 -0.00634507929346
0.00787424864822 -0.0281289934725 -0.00491816409105
-0.00495827493859 -0.0278510231177 -0.00607209147661
0.00413873631863 -0.0281363785236 -0.00498712099076
0.00281642816448 -0.0282141479575 -0.00478432527736
-0.00972267670455 -0.0277815656061 -0.00639849715119
0.000328881495026 -0.0281514362823 -0.00503469884925
0.00935438160242 -0.0284072151512 -0.00404089003546
-0.00079567314474 -0.0279330267497 -0.00572246295678
0.0149680057127 -0.0282786970889 -0.00429224135466
-0.0106567741539 -0.0279495971265 -0.00511148539814
-0.00485127693333 -0.0281788548032 -0.00425518037678
-0.0172172139997 -0.0276000113614 -0.00672432147171
-0.00790924145421 -0.027964651667 -0.00537228414008
0.00156869101586 -0.0282285653255 -0.00476097768279
-0.014313275331 -0.0276702071357 -0.00661303877213
-0.00709361975362 -0.0281695151226 -0.00402133074473
-0.0154693908962 -0.0277177476844 -0.00611928660881
-0.0157415802678 -0.0281192177917 -0.00322121760829
-0.0195217785607 -0.0277976576319 -0.00500677937253
-0.0145119976162 -0.0281075620144 -0.00346903285055
-0.0115266055626 -0.0280438387926 -0.0043232119431
-0.00944803994768 -0.0280973468786 -0.00422029535465
-0.00192135899276 -0.028296948043 -0.0038059743263
-0.0144419106441 -0.0278514184537 -0.00530416510058
-0.0119654217985 -0.0278508998467 -0.00563965276721
-0.018766592834 -0.0280156936135 -0.00355383773941
-0.0173958376485 -0.0280411336828 -0.00355615468373
-0.0188445198896 -0.0275745659868 -0.0066876705945
-0.00304429186459 -0.0281988323853 -0.00435487740649
-0.00629499615793 -0.0280392015489 -0.00505717768068
-0.0166333603154 -0.0277741908843 -0.00556102582144
-0.0132956105602 -0.0277843174485 -0.00593602540874
-0.0177137374588 -0.0277903875829 -0.0053008337823
-0.00400554544446 -0.0280616801143 -0.00520368720558
-0.0203743349871 -0.0274662204633 -0.0072549775712
-0.0134602127968 -0.028028500511 -0.00417348248179
-0.0164231635064 -0.0279605162546 -0.00426109568235
-0.0105315447765 -0.0281416234736 -0.00375953615496
-0.0201518398862 -0.0276336448175 -0.00609141793719
0.0207262947883 -0.0268763246186 -0.00823946561359
0.0110657539389 -0.0269674500283 -0.00821495149709
0.00777049678152 -0.0269589959956 -0.00828436822189
0.00158266753973 -0.0271118157132 -0.00808285953137
0.0137307005098 -0.0268989400156 -0.00830703663682
-0.0196046306392 -0.0271439753565 -0.00835564021671
-0.0137580275862 -0.0271184380924 -0.00831350955406
0.000217364909197 -0.0269765101058 -0.00837045839485
-0.00211808119885 -0.0269166112905 -0.00852392115878
-0.0161624069762 -0.0270752705876 -0.00843544442801
-0.0091954460683 -0.0271431799089 -0.0081935627193
0.022187480383 -0.0141624055675 -0.00850609575031
0.0217938152911 -0.0160346389942 -0.00884228229758
0.0220719508727 -0.0102020532326 -0.00854507300519
0.0222459003371 -0.00435064717162 -0.00833003109966
0.022014508617 -0.000937805493224 -0.00846790709878
0.0225601585421 -0.0159413251073 -0.00585005701353
0.0224809328041 -0.0154276368717 -0.00706347616184
0.0224819011261 -0.0172581788964 -0.00688743518984
0.0224537937162 -0.0190490094961 -0.00714356683423
0.0224847446512 -0.021154212123 -0.00650122064269
0.0226994410228 -0.00930310725725 -0.00438323569129
0.0226173717713 -0.00965161996523 -0.00556238403872
0.0224607359162 -0.0128739565213 -0.00758690748754
0.0227207140928 -0.0081783715027 -0.00416899986896
0.022649969123 -0.0106578355958 -0.00499288222322
0.0225740443476 -0.0129174899165 -0.00591255500781
0.0225556069835 -0.0117974975391 -0.00628335067281
0.0226112813889 -0.0141602506497 -0.00525374678936
0.0224280217856 -0.0225751752372 -0.00721191494773
0.0223881066442 -0.0202209626387 -0.00778071279391
0.0218060633171 -0.0230131511023 -0.0089091759624
0.0223094162777 -0.0180930127333 -0.00815468350892
0.0220149964553 -0.0209880861725 -0.00859447921134
0.0220966082289 -0.0240638369044 -0.00812984884837
0.0223418881412 -0.000322915793171 -0.00751443474549
0.0221664616272 0.00687724209655 -0.00779820279738
0.022367694824 0.00478410798282 -0.00694012770491
0.022178188172 0.00264493079585 -0.00810319997531
0.0223464177858 0.00138517184565 -0.00734352722627
0.0223327522079 -0.00623560578995 -0.00807226354715
0.0221111951773 0.00467031645318 -0.00827411945449
0.0221551692648 0.00570782182981 -0.00795749900509
0.0223435595902 -0.00277235904706 -0.00771735863298
0.0226074102885 -0.00201436337923 -0.00506579002294
0.0224608902024 0.00281076087063 -0.00629808789742
0.0224819966766 -0.0041515193424 -0.00666185762444
0.0225499407485 -0.00668054307169 -0.00611559660239
0.0224898399264 -0.00289492888563 -0.00646505582543
0.0225152206107 -0.00965205315669 -0.00676300197177
0.0224859735857 0.00389392975891 -0.00592223242001
0.0224393933897 -0.0115148645978 -0.00777729754239
0.0225993031759 -0.00351323293672 -0.00528648658059
0.022458509492 -0.00132286934819 -0.00668189386407
0.0224801941851 -0.00580587019333 -0.00682502642183
0.022666183122 -0.0068263027217 -0.00481991813373
0.0225335503617 0.000358479315318 -0.0056921209165
0.022423318679 -0.00869538374432 -0.00771470088916
0.0225780147829 -0.00839645566272 -0.00594783246063
0.0225752070479 -0.0053649614005 -0.00571760952304
0.0188147618 0.00358245904417 -0.00963636238819
0.0178988591272 0.00485297343521 -0.00972026216711
0.0209828197275 -0.0214717363756 -0.00912529051659
0.0188488899685 -0.0087631502687 -0.0094589315653
0.0186403836895 -0.000643267536445 -0.0095890160053
0.0189884549507 0.00193752942723 -0.00960055265659
0.0133305671996 0.00460253622371 -0.0100453686559
0.01907967458 0.00899224373266 -0.00969397722152
0.0192786623155 -0.0016312576238 -0.00952909353768
0.0157918439746 -0.00613125234847 -0.00971616632982
0.0170722137112 0.00622518085921 -0.00979918182967
0.013200689976 0.00267751704963 -0.0100274289064
0.0185668129608 0.0129626286411 -0.00978714660925
0.0204501020577 -0.0188936552767 -0.00920015514532
0.0200694896277 -0.000229321166071 -0.00949206894807
0.0212860944998 -0.0200277019144 -0.00912393850747
0.0205184502352 -0.00822028542092 -0.00934651271173
0.0182414277178 0.0112855470601 -0.0097867863088
0.0149190914244 0.00369172895572 -0.00991817672743
0.0174584931541 -0.0050118852949 -0.00961212773111
0.0185062013555 0.00773825027967 -0.00971746154855
