0.0739917409072 0.0131515862236 0.00972000043839
0.0654747944065 0.0126441368765 0.00972000043839
0.0570350086829 0.0118063450942 0.00972000043839
0.0435135943097 0.0194245381888 0.00972000043839
0.0605007185561 0.0115827777036 0.00972000043839
0.0658674042708 0.0181261660975 0.00972000043839
0.0626003441646 0.0205667228941 0.00972000043839
0.0396752774114 0.0192744791248 0.00972000043839
0.0590762883322 0.0170086376063 0.00972000043839
0.0501393724378 0.0189044595783 0.00972000043839
0.0689540991993 0.0086047576388 0.00972000043839
0.0464646494793 0.0328507979995 0.0100333168829
0.0491455375721 0.0267906058281 0.0098718360887
0.0438976773031 0.0252019070539 0.00982539743471
0.0651625016731 0.0227285114287 0.00977340867447
0.0565694032008 0.0216704078446 0.00973896209012
0.0425833209354 0.0323606524071 0.0100174286684
0.0389858300615 0.0304451265057 0.0099633203209
0.0359300755276 0.0282040041442 0.00990081049335
0.0388041346081 0.0248147857797 0.00981144944324
0.0507246067678 0.0221704943462 0.00974840721764
0.0557827363834 0.0253441637249 0.00983743211857
0.0389062398846 0.0410889783165 0.0102501320039
0.0439794220873 0.0357387483748 0.0101094363571
0.0418216665642 0.0225345148163 0.00975207506293
0.0738498585758 0.0221558969463 0.00976397017855
0.0522032009326 0.029176427298 0.00993824707544
0.0566924317331 0.02864818456 0.00992710776042
0.0608137439299 0.0231769213148 0.00978249330932
0.0489768288469 0.0306546967532 0.0099758623011
0.0345183890833 0.0250473387628 0.00981475991285
0.0350909879813 0.0366046335346 0.0101266401625
0.0440471174513 0.0293528472692 0.0099373741563
0.0473341018625 0.0235794856141 0.00978404204852
0.0364452698552 0.0221333969916 0.00973755467623
0.0446590030751 0.0162115808829 0.00977393260973
0.0348519191496 0.0191275694784 0.00995403586034
0.0478424583886 0.0150042181471 0.00976204435833
0.0366853994725 0.0417232301829 0.0129794373126
0.0417408459275 0.0404595367947 0.0131776444603
0.0319559983909 0.0360938203639 0.0124659115613
0.0384559161047 0.0285472939061 0.0137806142788
0.0323004486649 0.026398580429 0.0134874072979
0.0418656813491 0.0342739004232 0.0139430336211
0.035222767103 0.030789527169 0.0136266078013
0.0384610981999 0.0322917503232 0.0137808611206
0.0355192364539 0.0248389843143 0.0136407296993
0.0360324590248 0.035594411893 0.0136651763302
0.0453706493934 0.0362864705849 0.0138757165301
0.0584024127771 0.0192636869104 0.0141273804088
0.0607008392118 0.0249930492743 0.0143013593267
0.0661727505445 0.0191452271942 0.0143242587104
0.0807024543985 0.0124144089441 0.0145616998304
0.050114572414 0.0211823424967 0.0139533777468
0.054421995126 0.0204118937063 0.0140483643147
0.057224949668 0.0229605260382 0.0141714151666
0.0765534455048 0.0117740755823 0.0144424484435
0.0376057289232 0.0216188692697 0.0136413751363
0.0425042924925 0.0191119066144 0.01371665306
0.0565011124057 0.0270091801152 0.0142341464589
0.0471107747011 0.0252254419073 0.0139575318707
0.0467018053178 0.0215697568707 0.0138736421319
0.0628128701624 0.0183690000088 0.0142225145479
0.0743881926824 0.0151184201758 0.0144540753145
0.0337082176769 0.0221992436791 0.0135530835381
0.0522793445838 0.0177058108766 0.0139390843696
0.046936057162 0.0179656891384 0.01380728311
0.0438483636185 0.0259154481293 0.0138877276111
0.0406685141272 0.0234853873337 0.0137573927366
0.0616758236584 0.0215989927557 0.0142582119203
0.0657188069662 0.0152515523826 0.0142344370943
0.0428713423885 0.0296308732002 0.0139372755405
0.0513720198957 0.0245723799845 0.0140536913048
0.0606307412338 0.0151784862801 0.0141024953695
0.0696617164731 0.0138044687569 0.014306490215
0.0498053833428 0.0292454377458 0.0141073478584
0.0903146507859 0.00533836614055 0.0146327007369
0.0697366184268 0.0102084440282 0.0142158148196
0.0754931827399 0.0054835170417 0.0142057240316
0.0795524842276 0.00653032719312 0.0143687744456
0.0551781139095 0.0143013773163 0.0139360082565
0.0636103055923 0.011232777426 0.0140709442363
0.048285254078 0.0151276237769 0.0137603317504
0.0832141874172 0.00684658104314 0.0144914477522
0.0355524411115 0.0191020969659 0.013530957359
0.0670816664388 0.00858427199822 0.0140726609496
0.0735518804027 0.0082460932363 0.0142545643574
0.0321579438622 0.0273667393877 0.00987593244976
0.0319559983909 0.0426729803546 0.0115757784848
0.0441241761123 0.0153043791382 0.0135680370073
0.0391304398172 0.0167925980466 0.0133020118166
0.0528790603653 0.0117793892151 0.0136784906819
0.0483964871712 0.0376822774634 0.0135387673582
0.0504426860561 0.0343392693803 0.0138536721299
0.0583273090516 0.0314746977232 0.0137913431655
0.0506075662124 0.0120936807141 0.0100853384428
0.0701842911682 0.00573404876318 0.00986940672361
0.0965981547423 0.00352328345695 0.0114202267828
0.092849306158 0.00348662968263 0.0125072863792
0.0710682957166 0.0251389581487 0.0133387295942
0.0663899580135 0.0283573516151 0.0130032661354
0.056706339901 0.0345965891406 0.0125722412064
0.0953630384313 0.00940417047342 0.0135759515681
0.0865282183467 0.0160436491976 0.0104717538389
0.0896954666275 0.0137027741052 0.00986185276148
0.0414881350124 0.0430870630025 0.0105559828254
0.0453946120575 0.039938140433 0.0128398718799
0.0515983340586 0.037523120596 0.0122625005469
0.0471154059278 0.0126156570184 0.0116337156972
0.0574256421229 0.00889223045653 0.0124979577838
0.0705890605028 0.00472823299558 0.013825527195
0.0657907505273 0.00631113674267 0.0108101706559
0.0609155707562 0.00778235119244 0.0115325486776
0.0386199368174 0.0157209782203 0.0105311211895
0.073151178334 0.00373004174674 0.0111945143054
0.0976756622901 0.00431021486017 0.0147209996358
0.0914137690639 0.00905231165552 0.0146435177571
0.0946386235891 0.00586615765413 0.0147173565919
0.0721540940726 0.0182243348624 0.0144541382922
0.0782106191488 0.0155872487901 0.014507381358
0.0858659030124 0.00984301595253 0.0146362249438
0.0647137137356 0.0237197812114 0.0143311460653
0.0895880814992 0.0123461988079 0.0143053196935
0.0732510646979 0.0217952421032 0.014186178266
0.0675283522682 0.0251505381845 0.0140977363364
0.0756237249802 0.0193939038853 0.0143198601493
0.0548174979782 0.0303006738829 0.0141223996785
0.0841359892862 0.0138568790668 0.0145038642411
0.0727159281615 0.0257852943991 0.0105562137172
0.079500419135 0.0200497893665 0.013295959284
0.0689808880564 0.0277215444067 0.0114475186299
0.0767838897205 0.0220774202297 0.0127315035237
0.0836862946052 0.0178256353709 0.0124792063193
-0.0888541466214 -0.0755717470102 -0.0071694165318
-0.0935130953406 -0.0749111797813 -0.00699327228845
-0.0904094389378 -0.0810938433123 -0.00937953050313
-0.0884527637591 -0.0789684145342 -0.0109651013739
-0.0860448997151 -0.0812763012639 -0.00887466055634
-0.0937212936166 -0.0719825448663 -0.0092454564872
-0.0937068265686 -0.0810097134886 -0.00718279798614
-0.0929616785222 -0.0770333670107 -0.0118560133847
-0.0895541401145 -0.0760747401708 -0.012306972333
-0.0850777732694 -0.0772706631038 -0.0117986062979
-0.0868138553906 -0.0745107581201 -0.0124134502757
-0.0906043568248 -0.0720453464358 -0.0127889998257
-0.0971756117743 -0.0773011378503 -0.00981129626648
-0.0972139473667 -0.0738973987863 -0.00840090483954
-0.0940712805313 -0.0739248884008 -0.0124657344621
-0.0975857561713 -0.0813101735453 0.0019687758723
-0.0945350439484 -0.0827383409111 -0.00356877622226
-0.0915420179801 -0.0783049712245 -0.00653500016779
-0.0960252143118 -0.0773607801511 -0.00653500016779
-0.08435100317 -0.080001494151 -0.000715364400945
-0.0932005436993 -0.0784293314195 0.00346700008959
-0.0868987294754 -0.0786164096325 0.00125795996561
-0.0895997025734 -0.0774376254033 -0.0016840753377
-0.0869671420902 -0.0781614574053 -0.00563041031326
-0.0895545432168 -0.0777897831617 0.0033013818376
-0.0960682408263 -0.0749463236245 -0.00366673512473
-0.0946382395091 -0.0757149817949 -1.9329610882e-05
-0.097531233683 -0.0810168881766 -0.00137362108334
-0.0979783951262 -0.0798387927296 -0.00500971154784
-0.0913989912496 -0.0832078793151 -0.0051537620842
-0.0914523434336 -0.0837009461939 -0.00174111849261
-0.0901837148569 -0.0840699970722 0.00161998831477
-0.0864497376967 -0.0840699970722 0.000998698592488
-0.0878186731589 -0.083944085564 -0.00350703400169
-0.0996958853553 -0.0755889451883 -0.00550499894237
-0.0986664175837 -0.0749886726133 -0.00015553162977
-0.100479500206 -0.0774756765939 -0.00247550270923
-0.100555334674 -0.0780410418916 0.000700044804028
-0.0937640781564 -0.0831569930051 0.000901989991973
-0.0915802816809 -0.0818118476488 0.00346700008959
-0.0385231152106 -0.0342180495814 -0.00327161841419
-0.0347723021635 -0.0318564964941 -0.00439239316269
-0.0136980004609 -0.0264285486717 -0.00569242148175
-0.0136980004609 -0.0206795964789 -0.00434385707301
-0.0136980004609 -0.0215762852814 -0.000576040324631
-0.0138022895762 -0.0383330211912 -0.00321977723103
-0.0138232982233 -0.0354649641749 -0.000428118831821
-0.0255519128243 -0.0386317948575 0.00380783208871
-0.0191029548853 -0.0356637775906 0.00357359367276
-0.0173626611227 -0.0327850473032 0.00353853058878
-0.0138868070785 -0.0302195420314 0.00342536466402
-0.0210751948835 -0.0388484428162 -0.00100890275505
-0.0136980004609 -0.034672845322 -0.00623799739408
-0.0201467733712 -0.0245771793666 -0.00735697128246
-0.0215734149521 -0.0285079190148 -0.00793461674941
-0.0427643717349 -0.0384663854924 -0.0015927463273
-0.0360317859346 -0.0321940183026 -0.0010150092623
-0.0297566736752 -0.0393613179792 0.00270200210456
-0.0296518184167 -0.0389098519402 -0.00269667393477
-0.0226134783605 -0.0386425752123 -0.00477614722718
-0.0251619689364 -0.0388567490188 -0.0026149949279
-0.0266793048346 -0.0391432402161 0.000578675131157
-0.0228147348443 -0.0320441614352 -0.00841199979186
-0.0354263808517 -0.0388934106267 -0.00117667730359
-0.0155435090699 -0.0375099334026 -0.00703883687366
-0.0191442661823 -0.0354783765526 -0.00824812066209
-0.0254771491527 -0.0353632092009 -0.00839693180996
-0.0282075334265 -0.0375708670635 -0.00840688298697
-0.0154521774261 -0.0249531985229 0.00189244144833
-0.0177568990386 -0.0230415615481 -3.95373686855e-05
-0.0214254419586 -0.0246041113381 0.000195455486111
-0.0202326275378 -0.0200685211172 -0.00277582007561
-0.0158551813451 -0.0170494727663 -0.00490697350059
-0.0281556006654 -0.0258354738226 -0.00199848603908
-0.0252690088616 -0.0236012875325 -0.00263104443843
-0.0231276468653 -0.0222694982104 -0.00516086280906
-0.0260336173083 -0.0345648848579 0.00363485434801
-0.0359755220524 -0.0356126263335 0.00121271633276
-0.0298706546587 -0.0357211662453 0.00299852037811
-0.0233290127034 -0.0305295627698 0.00280504781286
-0.0276060775296 -0.0315077157186 0.00192885218283
-0.0216426593727 -0.0274768177705 0.00188288725486
-0.0264746043689 -0.0284765672543 0.000831051321037
-0.0244098417141 -0.0259217064317 0.000258083930553
-0.0392802813873 -0.0358358793688 0.000306716591535
-0.0319874548224 -0.0297583838149 -0.000301160984655
-0.0352406787094 -0.034964600297 -0.00545408519216
-0.0258819427797 -0.0308241278245 -0.00743592789514
-0.0266919216354 -0.0258001825738 -0.00558282009737
-0.0313255472491 -0.0323392518253 -0.00600409991403
-0.0299728386646 -0.0284178760943 -0.00525238119265
-0.0393229587047 -0.0378826748386 -0.00491213434853
0.0251463055116 -0.0333272852069 -0.00599798662257
0.0314613274318 -0.0320571251096 -0.00814832667021
0.0287276306364 -0.0339676521221 -0.00626566206629
0.0319439992309 -0.0352364757283 -0.00648542772557
0.0319439992309 -0.0413018363667 -0.0100270329411
0.0202321624586 -0.0376176186208 -0.00466200010851
0.0207143388873 -0.041430562957 -0.00466200010851
0.0173691009625 -0.0413802417129 -0.00466200010851
0.0319439992309 -0.0317820566768 -0.0117052261667
0.0144370002672 -0.0367336119714 -0.0104346986703
0.0195464992566 -0.0329556371313 -0.0127889998257
0.0169278396586 -0.036169298568 -0.0127889998257
0.0319439992309 -0.042121166078 -0.00573267503275
0.0217014264921 -0.045281537994 -0.00859735478524
0.0275359347037 -0.0309260003269 -0.00874882475527
0.0224323547568 -0.0309260003269 -0.00926032146414
0.0171108676651 -0.0309260003269 -0.00969613817633
0.0148841263578 -0.0309260003269 -0.0121956439528
0.0285766233512 -0.0411922679956 -0.0125719326538
0.0292135671707 -0.0336997639372 -0.0127889998257
0.0222093873564 -0.0381364621684 -0.0127889998257
0.0264015696599 -0.0378195906552 -0.0127889998257
0.0298808818154 -0.0382757036346 -0.0127889998257
0.0249842784322 -0.0337348252673 -0.0127889998257
0.0188753056667 -0.0395807581458 -0.012483092241
0.0152220249244 -0.0401581708679 -0.0118763635559
0.0243521078298 -0.0413975184912 -0.0122623723981
0.0144481603923 -0.0430285458066 -0.00604500035802
0.0189525348602 -0.042664363781 -0.0109782856562
0.0310901446724 -0.0443527010517 -0.011237978456
0.0310156221211 -0.0467926813704 -0.00738952811503
0.027267865899 -0.046633142271 -0.0079151532775
0.0265951652787 -0.0450075348962 -0.0105522589636
0.0176433065902 -0.0455544547511 -0.00637303569139
0.0175088984281 -0.0239046624708 -0.0127889998257
0.0147235420752 -0.0276964194729 -0.0127889998257
0.0229056908392 -0.0303878525715 -0.0127889998257
0.0172548303005 -0.0198908953484 -0.0127889998257
0.0207742034085 -0.0190442237234 -0.0127889998257
0.0197624798575 -0.0290268351595 -0.0127889998257
0.0222582301181 -0.0256214125012 -0.0127889998257
0.0175608094361 -0.0156583685309 -0.0127889998257
0.026588853557 -0.0292415459521 -0.0127889998257
0.0144370002672 -0.0228407825441 -0.00895693607078
0.0311131983305 -0.0226156641487 -0.0127889998257
0.0280377289088 -0.0255578581593 -0.0127889998257
0.0257322147009 -0.0228288121088 -0.0127889998257
0.0301913004294 -0.0205587498621 -0.00908725515644
0.0222120042798 -0.0178382650608 -0.00924695060221
0.018573550904 -0.0187007999377 -0.00919558865068
0.0258929439614 -0.0200181759672 -0.00910204670727
0.0259740949519 -0.0235529582123 -0.00887398334581
0.0194079621269 -0.0220778178327 -0.00897681691
0.0164447239618 -0.0254633265507 -0.00876194959097
0.0292378728932 -0.0261724589935 -0.00896249634459
0.0224488189064 -0.0271144688641 -0.00871552607778
0.0255169451154 -0.0281998667955 -0.00882037930981
0.0193726611955 -0.0290338010073 -0.00859694753915
0.0261001734525 -0.0171520329182 -0.0104882201022
0.0186482639621 -0.0136406719438 -0.0106268435469
0.0232807285135 -0.0167325188385 -0.0127181537868
0.0291948659021 -0.0191768092999 -0.0124234164922
0.0171023591718 -0.0307922127263 0.00133523492483
0.0265907318741 -0.0341170572694 0.000547103900077
0.0172965610103 -0.030079228887 0.00532987180118
0.0230399623543 -0.0327186140943 0.00163393519508
0.0144370002672 -0.0385397094123 -0.00241049612901
0.0144370002672 -0.0426506112108 -0.00142966236434
0.0284718746015 -0.0375663784243 -0.00466099986807
0.0236629341825 -0.0361019972536 -0.00466099986807
0.0285096318439 -0.0433618379179 -0.00466099986807
0.0257131680216 -0.0398446860916 -0.00466099986807
0.0204243121099 -0.0340984839806 -0.00466099986807
0.0144370002672 -0.0409781039337 0.00400490224255
0.0228121175672 -0.0348055415386 0.00784400012344
0.0209508904253 -0.0384586402123 0.00784400012344
0.0164855387563 -0.0364250137006 0.00784400012344
0.0319439992309 -0.0468046635267 0.00204249912221
0.0319439992309 -0.0392132012588 0.00525921644361
0.0319439992309 -0.0440857196319 -3.08076528233e-05
0.0245245613952 -0.0431898931183 -0.00466099986807
0.0171700864073 -0.0355388444138 -0.00466099986807
0.0167268049894 -0.0466330761022 0.000534396421253
0.0287766375333 -0.0483484571182 0.0027266165673
0.0186132847022 -0.0469762677896 -0.00304264255639
0.0144370002672 -0.0385611978667 0.00668147936212
0.0144370002672 -0.035516256991 0.00429152718661
0.0254045832423 -0.0418739658312 0.00784400012344
0.0299231922893 -0.0385004555387 0.00784400012344
0.0268589608935 -0.0472767203926 0.00607311399837
0.0252092748575 -0.0332883005901 0.00431473766454
0.030461123689 -0.0353410294837 0.0072047121075
0.0306959908504 -0.0359575045361 -0.00160232719877
0.0271593011777 -0.048321670428 -0.00349520501989
0.0224539608346 -0.0471737999899 -0.00457348707152
0.0259381543461 -0.0484319999814 0.000250938879306
0.0226320086212 -0.0480689967721 -0.00147403013795
0.0319439992309 -0.0385033268493 -0.00380236571458
0.0198864585825 -0.0475858307966 0.00208499410744
0.0165436352819 -0.0457149446556 0.00500061203929
0.0196264272721 -0.0461132669144 0.00581042118602
0.0232986004016 -0.0479764114215 0.00309698020549
0.0264120924187 -0.0349544905542 -0.00330704220322
0.0172163692301 -0.0320214166139 -0.00323501235112
0.0228161642256 -0.0334703217626 -0.00211398053827
0.0174786007237 -0.0441315566989 0.0079428600018
0.0244041664248 -0.0447830173069 0.00975279396866
0.0229700598466 -0.0396144042965 0.0122210001573
0.014846883592 -0.036262181977 0.0122210001573
0.0204752543605 -0.0316912321906 0.0122210001573
0.0183967677135 -0.022013429425 0.0122210001573
0.0188967467539 -0.0387571035511 0.0122210001573
0.0254780684091 -0.0325206709409 0.0122210001573
0.0219031427809 -0.0348809342033 0.0122210001573
0.0167221465076 -0.0321057651483 0.0122210001573
0.0189559603703 -0.0268279404158 0.0122210001573
0.0176064348839 -0.0183565314045 0.0122210001573
0.0147374498645 -0.0238526854084 0.0122210001573
0.0267636488329 -0.0397103455818 0.0122210001573
0.0219518555806 -0.0279777973457 0.0122210001573
0.0144370002672 -0.0191793013612 0.00883901297056
0.0307901873241 -0.0213219847075 0.0122210001573
0.0216856795278 -0.0240808568091 0.0122210001573
0.0235228602557 -0.0178905632018 0.0122210001573
0.0307238370647 -0.0275936240704 0.0122210001573
0.020613762561 -0.0149778254646 0.0122210001573
0.0263714235607 -0.0209154174274 0.0122210001573
0.0304721073358 -0.0385964729212 0.0122210001573
0.0286702753711 -0.0358580138568 0.0122210001573
0.0257497724469 -0.0271450610306 0.0122210001573
0.0319439992309 -0.0332120825472 0.0118948006323
0.0174212823645 -0.039956941377 0.00784400012344
0.0218245650344 -0.0418135327914 0.00784400012344
0.0209196635334 -0.0189809942901 0.00854606875287
0.0180202304196 -0.0154513633015 0.00880618595766
0.0151677071951 -0.0278126755868 0.00793013693633
0.0257207740402 -0.0181959131877 0.00858930366996
0.0258485795396 -0.0223169544093 0.00829434813583
0.0205091487281 -0.0225082207934 0.00829501023273
0.0171830276933 -0.0212290166558 0.0083953904857
0.0296064844075 -0.0429674969662 0.011938379627
0.019045606827 -0.0424341963967 0.0103664920831
0.0218513577878 -0.0150454666852 0.00924490930486
0.0274147405549 -0.0359387035565 0.00784400012344
0.0247363854343 -0.0381059519163 0.00784400012344
0.0198888181057 -0.0332899722758 0.00784400012344
0.0199700674987 -0.0289294753505 0.00793030836441
0.0292305436661 -0.0231094691361 0.00830688374347
0.0225136732263 -0.0268202551966 0.00805480891738
0.0263477567103 -0.0281416712094 0.00805679853043
0.0261825309506 -0.031948475719 0.00789731587112
0.0176348952578 -0.0128373567541 0.0122140072611
0.0297731301322 -0.018453607983 0.0108074750501
0.0317253728098 -0.0458506447458 0.00804135631181
0.0279322168608 -0.0461471337521 0.00901178386937
0.0656925751876 -0.0309229630034 -0.0107392747835
0.0906574992342 -0.00630951487994 -0.00903700012714
0.0402098118044 -0.0200207257027 -0.00903700012714
0.0706666086824 -0.0111794554267 -0.00903700012714
0.0515480572846 -0.0212948924009 -0.00903700012714
0.0359737052722 -0.0254788404935 -0.00903700012714
0.0371565271302 -0.0291433614105 -0.00903700012714
0.0443166069384 -0.0293305436951 -0.00903700012714
0.0481090670188 -0.0286258588759 -0.00903700012714
0.0557021535867 -0.0167899722012 -0.00903700012714
0.0429186137192 -0.02657430743 -0.00903700012714
0.0408566950051 -0.0237967540346 -0.00903700012714
0.0577344421725 -0.0275408448984 -0.00903700012714
0.0491116088737 -0.0234175241529 -0.00903700012714
0.0517326893833 -0.0178082057851 -0.00903700012714
0.0637084185023 -0.017612090666 -0.00903700012714
0.057974729662 -0.0207437389931 -0.00903700012714
0.0354362021783 -0.0415365034278 -0.00903700012714
0.0675919367957 -0.0187390028304 -0.00903700012714
0.0519009471665 -0.0301850621294 -0.00903700012714
0.0398186728457 -0.0368945567213 -0.00903700012714
0.0359105787107 -0.0222411795791 -0.00903700012714
0.0728326875479 -0.0172494881398 -0.00903700012714
0.0514268572795 -0.0259829012595 -0.00903700012714
0.0558127050378 -0.0235412352281 -0.00903700012714
0.0850286293195 -0.00931805190372 -0.00903700012714
0.033463141622 -0.028587142835 -0.00903700012714
0.0430159145412 -0.0339931992767 -0.00903700012714
0.0409008257468 -0.0304636285913 -0.00903700012714
0.035860851654 -0.0334311119222 -0.00903700012714
0.0443933002509 -0.0230623421933 -0.00903700012714
0.0487455487025 -0.032170717625 -0.00903700012714
0.085002045065 -0.0128580663922 -0.00903700012714
0.0735008272697 -0.0131645694082 -0.00903700012714
0.0773488792195 -0.0103282922767 -0.00903700012714
0.0606755316493 -0.0301034761278 -0.00903700012714
0.0681986966072 -0.0260840981543 -0.00903700012714
0.05491779357 -0.0337818544505 -0.00903700012714
0.0769285103649 -0.0194718540036 -0.00903700012714
0.070726477151 -0.0233319422112 -0.00903700012714
0.0798139754473 -0.0166332241952 -0.00903700012714
0.058775819233 -0.013037224452 -0.00903700012714
0.0779155057676 -0.00599493882088 -0.00903700012714
0.0741479415104 -0.00865193596591 -0.00903700012714
0.0694098578506 -0.00810201887973 -0.00903700012714
0.0450792918408 -0.0182142418584 -0.00903700012714
0.0488479760263 -0.0161998491712 -0.00903700012714
0.0668551900841 -0.0112724925193 -0.00903700012714
0.0633034943868 -0.0106335391329 -0.00903700012714
0.0324837374432 -0.0241062419617 -0.00927617911008
0.0319439992309 -0.0358165722467 -0.0111932488127
0.0412599467522 -0.0276855364888 -0.0130151824867
0.0343311654575 -0.0235475785772 -0.0128462140984
0.063558229687 -0.0162268483292 -0.0135589584795
0.0680113080039 -0.0106787407732 -0.0136675532575
0.0438328795975 -0.0185078538282 -0.0130779271884
0.0700250257027 -0.00808089390769 -0.0137166606862
0.0417791955072 -0.0309154139581 -0.0130278451212
0.0450835695866 -0.0265187312143 -0.013108427079
0.0375622199683 -0.0318625759649 -0.0129250080522
0.0492956496959 -0.0259526264854 -0.0132111447659
0.0533911924735 -0.0177877098799 -0.0133110205208
0.0791970467292 -0.00505895991116 -0.0139403337312
0.0359151741115 -0.0373720433161 -0.0128848424485
0.032173474256 -0.0264054854913 -0.0127935956668
0.0351004575726 -0.0293736111396 -0.0128649744032
0.0556810950021 -0.0136183289726 -0.0133668631175
0.0344854757053 -0.0342457249208 -0.0128499771778
0.0368517054029 -0.0256864197345 -0.0129076811233
0.0660939215223 -0.013506181771 -0.0136207950052
0.055591413083 -0.0233590105807 -0.0133646760937
0.0607728311208 -0.0111584184126 -0.0134910324928
0.0515240728156 -0.0218974672676 -0.013265488098
0.0409074356951 -0.0212478545763 -0.0130065859929
0.0470062066306 -0.0219356082759 -0.0131553133739
0.052084567103 -0.0142254528514 -0.0132573103481
0.0488974603229 -0.0153988186049 -0.0131620895771
0.0385696796396 -0.0175790896758 -0.0124502247232
0.0358812680765 -0.0204297855342 -0.0128326135363
0.100389967837 -0.00399063128345 -0.0112209879799
0.0953937115543 -0.00365961304159 -0.0140380002558
0.0487757153451 -0.0288803776249 -0.0131924073263
0.0698873208909 -0.016939837074 -0.0136076573436
0.0815783894261 -0.00901333883082 -0.0138681915643
0.0866332170979 -0.0109388972303 -0.0138562822405
0.0934421284641 -0.0065685535836 -0.0140022921179
0.084106683662 -0.00640051345842 -0.0139454456301
0.0771680450751 -0.0137228358532 -0.0137299000097
0.0822928985703 -0.0126333632256 -0.0137886050849
0.0881495008519 -0.00759195476956 -0.0139440325973
0.0681864391657 -0.02110177415 -0.013499740967
0.0586524387468 -0.0220066528167 -0.0134166358201
0.0547242313057 -0.0270613248327 -0.0132734500029
0.0745382324449 -0.0156312731819 -0.013668376094
0.0608694036907 -0.0193548324045 -0.0134927711002
0.0705543422379 -0.013284521878 -0.0136970562708
0.0865189408922 -0.00321868076486 -0.0140351850969
0.0457671189635 -0.0331199682859 -0.013074173142
0.0769346278139 -0.00999325173582 -0.0138151669341
0.0735081539402 -0.0186852460457 -0.0135906073409
0.0904034044143 -0.00437491189901 -0.0140335607983
0.0405826358798 -0.0349539791331 -0.0129977548576
0.0861980386286 -0.0155803235883 -0.0133323186265
0.0759848789309 -0.0213544446402 -0.0132203668285
0.0804575796039 -0.0203441966376 -0.0128134206893
0.0579265864501 -0.0331032372045 -0.0125601711187
0.0890764586946 -0.0132786409458 -0.0135663673646
0.0415060865655 -0.0440230744029 -0.0101773178313
0.0628356679961 -0.0326907690903 -0.00939910508542
0.0443856218772 -0.0147135004745 -0.0117973410326
0.0500590341454 -0.0127318842692 -0.0107476188755
0.0335194636301 -0.0197141306656 -0.00961075621808
0.066244421709 -0.00678078565532 -0.00968000537264
0.0532552107188 -0.0119280751467 -0.00949096366689
0.0576526709315 -0.0100932645386 -0.00976465914816
0.0410829950052 -0.016645462202 -0.00955520419678
0.0932465286822 -0.0021670600911 -0.0108406995978
0.0893389367575 -0.00216815795995 -0.0114818272901
0.0856841827124 -0.00216916903806 -0.0105723485973
0.0743737985804 -0.0055370626026 -0.00903700012714
0.0709418268806 -0.00503440122378 -0.00967175477288
0.0625861354447 -0.00764240056693 -0.0124669955191
0.0549773713564 -0.0105951773344 -0.0119396721454
0.0679400907171 -0.00556466040323 -0.012095963886
0.0730560744789 -0.00472819621746 -0.0132708114162
0.0760928777014 -0.00290614522674 -0.0130288028264
0.0819122261434 -0.00222804282634 -0.00959779345178
0.0789545044337 -0.00247773205127 -0.0114271539336
0.0924340533654 -0.011994211052 -0.0131520427207
0.0954450424987 -0.00947223859363 -0.0135388005406
0.0584184617573 -0.0297304586485 -0.0131585883091
0.054586236769 -0.0302364636376 -0.0131785168831
0.0716181014006 -0.023048605374 -0.013391452866
0.0451180722276 -0.0381659624477 -0.0128200060036
0.0644367877508 -0.0267651932389 -0.0132597989414
0.0519092073923 -0.0325777792272 -0.0130710878563
0.0490264372946 -0.0344455284887 -0.0129952965546
0.0811335309704 -0.016967983908 -0.0136364699649
0.0608773906477 -0.0268479038507 -0.013301950136
0.0395599640364 -0.0392928714662 -0.0128249172713
0.0682427351567 -0.025306662072 -0.0132557150957
0.052103336419 -0.0359171922081 -0.0126343458951
0.0906561474481 -0.0139015417964 -0.0108438931435
0.0879952300293 -0.0158510485188 -0.0100656777063
0.098144210076 -0.00753157730181 -0.0126901586181
0.035439403665 -0.041056822129 -0.0127322907646
0.0390953832349 -0.0423745141304 -0.0122846418652
0.0500138256709 -0.0387657890903 -0.0119680395502
0.061171045212 -0.031860159615 -0.0123838050416
0.083657300296 -0.0188984215439 -0.0111891568594
0.0714264822892 -0.027282022975 -0.0107868029474
0.0751336834368 -0.0245870329359 -0.0113471041466
-0.0304895799045 0.0372163979894 -0.00452153086073
-0.0203331695139 0.0282147642965 -0.00778699992225
-0.0280975298017 0.038584700369 -0.00778699992225
-0.0172508833579 0.032833332916 -0.00340999988839
-0.0330493879352 0.0406518536227 -0.00348515545585
-0.0198895904109 0.0400209555174 -0.00340999988839
-0.0304840608587 0.0460231339894 -0.00340999988839
-0.0260876853259 0.0418753531781 -0.00340999988839
-0.0283463732731 0.0346700518048 -0.00547639612585
-0.0330800004303 0.0435930285515 -0.00649789956897
-0.0242862159619 0.0302558526509 -0.00476282536014
-0.0184427871664 0.0238413337069 -0.00500254133511
-0.0183628154458 0.0272250823535 -0.00340999988839
-0.0155638917514 0.0242542995005 -0.00340999988839
-0.0147009603351 0.0310310470241 -0.00778699992225
-0.01370199956 0.032944641691 -0.00392205617709
-0.018457323804 0.0379473685834 -0.00763498720817
-0.014375833389 0.0357848873756 -0.00727631320868
-0.0226438242 0.0420715071355 -0.00511032319924
-0.0268653183082 0.0442797986685 -0.00556217832295
-0.0252919608879 0.0244950317139 0.000245102080611
-0.0192522323855 0.0226178170326 -0.00164982169711
-0.0204498177237 0.0203547163391 0.0017333578119
-0.0137010002509 0.0327454282948 0.0065928826553
-0.0137010002509 0.0289491329248 0.00217370396699
-0.0137010002509 0.032051792453 0.00354679387662
-0.0271674696337 0.0325456715464 0.00846900045872
-0.0179089903781 0.0264671903511 0.00846900045872
-0.0166653770698 0.0347229987383 0.00498979376184
-0.0171190458412 0.0347229987383 -0.000201793892829
-0.0195738642962 0.0347229987383 0.00174996748228
-0.0137010002509 0.0208013584743 0.00427390065459
-0.0137010002509 0.0247623890602 0.00295598043423
-0.0271368780645 0.0347229987383 0.00327134572986
-0.0232088943781 0.0347229987383 0.00249738875261
-0.0309593579361 0.0347229987383 0.00375575697202
-0.0394492222585 0.0332450218321 0.00149110359828
-0.0217744316426 0.0343900306695 -0.00340999988839
-0.0210898040966 0.0305494351106 -0.00340999988839
-0.0251083946189 0.034245384322 -0.00329860510218
-0.0270921440515 0.0303445883534 -0.00220597063418
-0.0332509451981 0.0317544725881 -0.000880906007692
-0.0168126035697 0.0203168076704 0.00798482040494
-0.0220469111085 0.0249022530626 0.00790824778538
-0.0328236693312 0.0290767901715 0.00504622451712
-0.0359758042626 0.0323815461405 0.00509160707951
-0.0294064446686 0.0262718166743 0.005070423424
-0.0251590583599 0.0231440570199 0.00530185626991
-0.014708271052 0.0285093821537 -0.00340999988839
-0.0153305520713 0.0192035448729 0.000856829910529
-0.0147542146098 0.0162582256098 0.00404804225304
-0.0185718370725 0.0182915071602 0.00463823205936
-0.0222695663453 0.0210182467919 0.00538026426327
-0.0320107633406 0.0276815461891 0.00233898052024
-0.0285826835752 0.026264102543 0.000437268011608
-0.0224117249872 0.0253290791356 -0.00237523093969
-0.0305995347875 0.0290780024844 -0.000608898771414
-0.0259041039324 0.0274495778247 -0.00203041484322
-0.023779724435 0.021929321055 0.00222837684383
-0.0362335950271 0.0306958944216 0.00165351849002
-0.0777719423868 0.0646606485139 0.000668520631196
-0.0268732777137 0.0365379806441 0.00846900045872
-0.0466089469492 0.0526336245532 0.00846900045872
-0.0624996155707 0.0592719974531 0.00846900045872
-0.024701823028 0.0388383578755 0.00846900045872
-0.0354265161916 0.0368933819619 0.00846900045872
-0.0569013237154 0.0585305669809 0.00846900045872
-0.0652895591977 0.0570781015051 0.00846900045872
-0.0545105837789 0.0451740548663 0.00846900045872
-0.0564016684649 0.0551159285964 0.00846900045872
-0.038617909542 0.040822556101 0.00846900045872
-0.0291089458744 0.0399024159914 0.00846900045872
-0.0443267661205 0.0452012969462 0.00846900045872
-0.0410749445105 0.0453063109373 0.00846900045872
-0.0678470754904 0.0691109970212 0.00275481500987
-0.064995418632 0.0691109970212 0.00106751935956
-0.0738988191824 0.0691109970212 0.00229499822029
-0.049790676262 0.0515763409138 -0.00340999988839
-0.0345386765653 0.0451202451415 -0.00340999988839
-0.0566339600148 0.0534643485341 -0.00340999988839
-0.030117266788 0.0424135860855 -0.00340999988839
-0.0659837020077 0.0646543391576 -0.00340999988839
-0.0621975352612 0.0582001209156 -0.00340999988839
-0.0136980004609 0.0354326127399 -0.00152901820352
-0.0160355176203 0.0384807671485 -0.00340999988839
-0.0629745049709 0.0629898594089 0.00846900045872
-0.0640647018302 0.0664609044081 0.00846900045872
-0.029317650806 0.0442494066029 0.00846900045872
-0.0518754607043 0.0588732081788 0.00846900045872
-0.0546322879094 0.061586919666 0.00846900045872
-0.0187329926204 0.0382105717775 0.00846900045872
-0.0477466487167 0.0566483924107 0.00846900045872
-0.0646917674908 0.0691109970212 0.00514999347524
-0.0717574411204 0.0631010766881 0.00846900045872
-0.0614631382084 0.0517138161234 0.00846900045872
-0.0689980139138 0.0566943011136 0.00846900045872
-0.0665705204999 0.0534016988827 0.00846900045872
-0.0747187860904 0.0627872166005 0.00682524044797
-0.0743571300373 0.0593723023014 0.00552649002908
-0.0751700255039 0.0660383801492 0.00796310575784
-0.0402153448837 0.0447476901914 -0.00340999988839
-0.0276625890768 0.037973618426 -0.00340999988839
-0.0233338112243 0.0385776635258 -0.00340999988839
-0.01873544141 0.0360410591629 -0.00340999988839
-0.0469068831412 0.0423512927349 -0.00215491707994
-0.0486800736651 0.0448088973913 -0.00307399581522
-0.0587640754638 0.0505321146861 -0.00262797747703
-0.0519033532473 0.0460397479263 -0.00252002216356
-0.0558793127813 0.0483535257953 -0.00238348484714
-0.0775608899167 0.0623231487122 0.00343988371169
-0.0559630220614 0.0649458263482 0.000794515360245
-0.0598731304497 0.0674525710279 0.00212430633542
-0.0269007600781 0.0463142020119 0.00134039422916
-0.0329388568766 0.0501851860159 0.00164426259669
-0.0358719801944 0.0520655920153 0.0016644798511
-0.0479951279266 0.0598376620093 0.00132849343861
-0.0228004926612 0.0432737860715 -0.00206900844313
-0.0293012547994 0.0476823179014 -0.000380909544189
-0.0531723359019 0.0631472707819 -1.63578931695e-06
-0.0448855115042 0.0578365622327 0.000332795098202
-0.026028697224 0.0454112330472 -0.00164728671694
-0.0186658629549 0.0408885733111 0.000225863217131
-0.0152264724635 0.0386784872508 0.000317101597576
-0.0324940950427 0.0496153513387 -0.00141994018179
-0.0476273791955 0.0590815337539 -0.00288052722486
-0.0352870681914 0.0511553180669 -0.002963525475
-0.0611562047511 0.0680968532005 -0.001170269319
-0.0392549793863 0.0538329665527 -0.00229529043817
-0.0431795685768 0.056197076536 -0.00304773300063
-0.0519290268338 0.0617906390281 -0.00311932811176
-0.0555325530387 0.063973175449 -0.00340999988839
-0.0212951075437 0.0349652554084 0.0062941923059
-0.0248696317879 0.0348196570749 0.00593854897531
-0.0344383050026 0.0347269997001 0.00254049025824
-0.0302259170835 0.0347269997001 8.6737984828e-05
-0.0418045540483 0.0351682243937 0.00388063665738
-0.0541808374187 0.0425503833922 0.00592158649349
-0.063682142242 0.0505280486292 0.00213628109675
-0.0640972446062 0.0500754168191 0.00622703215201
-0.0581101012709 0.0451732181444 0.00794910136727
-0.0668016281771 0.0554924728462 -0.00154153120984
-0.0694561057488 0.0545755866449 0.00506293925115
-0.0677988525702 0.0539240384593 0.00166545313151
-0.0718775535462 0.0571799413308 0.00211677140346
-0.0663251933858 0.0521989681365 0.00412912928975
-0.0355434799262 0.0501083026788 0.00717969030616
-0.0603005532706 0.0656807131243 0.00779854696338
-0.0387456160949 0.0523388832436 0.00686968132219
-0.0319791527715 0.0473643977178 0.00799523208255
-0.0565029539171 0.0638250437983 0.00674285105085
-0.0368708318502 0.0347269997001 -0.000272522315327
-0.0396455641291 0.0381173879997 -0.00209910870043
-0.0346204154842 0.0378516551089 -0.00318248681929
-0.0766646795705 0.0674420227719 0.00408818490621
-0.0753540253979 0.0670050244353 -0.000940626881665
-0.0304130182641 0.0481753693524 0.00376899345709
-0.0241032938429 0.0443273555828 0.00269845621984
-0.0215913364183 0.0428651138558 0.00192237573877
-0.050435997636 0.0609387552962 0.00426230662856
-0.040497878351 0.0545806478895 0.00412790413994
-0.0430616339688 0.0562327998474 0.00410766909625
-0.0583319470828 0.0659900282871 0.00437054455632
-0.0535223455785 0.0630062827403 0.00387644852136
-0.0233887346641 0.042449871431 0.00679968146953
-0.0471489302755 0.0583210533096 0.00577998717344
-0.0173662510882 0.0393091588391 0.00529666449141
-0.020246018194 0.0411466157702 0.00534510377346
-0.0280306267153 0.0458690816628 0.00596438812172
-0.0146845178245 0.037317379826 0.00581201843929
-0.0454245167464 0.0361139173614 0.00624505218209
-0.0436028507558 0.0364894841832 0.000893342612291
-0.0459120155987 0.0389053491438 -0.000121468957549
-0.0569147929552 0.0449699899185 0.00426786375105
-0.0480388054473 0.0380970653066 0.00543809860288
-0.0605813423894 0.0480554238769 0.00280967898374
-0.051145227443 0.0404939598891 0.00506215507377
-0.0533080922896 0.0438332185377 0.00018575430802
-0.0630122887532 0.0525760849098 -0.00155413506256
-0.0584937653679 0.048070317225 -0.000185595722323
-0.0500661048082 0.0408075640218 0.00090162762741
-0.0715637075352 0.0597849564991 -0.00152870057889
-0.0750745368065 0.0624907148408 -0.000525406551646
-0.0716434686839 0.0635603351749 -0.0023051477078
-0.0931128758618 0.0810771944906 0.000212589806228
-0.0856000036001 0.0778106974723 0.00320002094051
-0.0986173861853 0.0722601840285 0.00266036876856
-0.0890506923279 0.0764603179113 -0.00340999988839
-0.0979271276562 0.0723141378258 -0.00303516248746
-0.0946733520541 0.0736739460211 0.00169960618922
-0.0926422106861 0.0745171900654 0.00443450734103
-0.0918280385288 0.0749231358941 -0.00133637974581
-0.0897638476958 0.0756215631422 0.00212185822946
-0.101541507984 0.0745165819698 0.00288756767865
-0.100218924016 0.0759773783954 0.00528978329482
-0.0973854545036 0.0786159903207 0.00596799980849
-0.0881264919767 0.0815276141162 0.00276746599184
-0.0936048587198 0.0770183061398 -0.00340999988839
-0.0892884373509 0.0814065182213 -0.000954920252527
-0.0997348906784 0.0775616592782 0.00118616041864
-0.101634803778 0.0746836834504 -0.00137883867444
-0.0970161544853 0.0793587626532 0.00246342326621
-0.0914528929299 0.0813435584602 0.00440466080595
-0.0964414987649 0.0799392501103 -0.00183138628682
-0.0922213771807 0.0784003679132 0.00596799980849
-0.0868603898788 0.0700343989176 0.00906551159193
-0.0894027760685 0.0746719681333 0.00635967883192
-0.0981683096642 0.0720839018895 0.00632049509492
-0.0901052272609 0.0708255799212 0.0132796261066
-0.0978250089373 0.0759778630091 0.00902868619922
-0.0856000036001 0.0709270043549 0.0122034628826
-0.0994631258037 0.072375909332 0.00944054719634
-0.0937107165875 0.0704288909289 0.00813811800326
-0.0962495964394 0.069888658431 0.010497699234
-0.0936802147438 0.0730448972732 0.012606700046
-0.0968970327763 0.0732005908323 0.0119383136311
-0.087470393489 0.0751080806415 0.0126459078468
-0.0866100493985 0.0783253363252 0.0104023350695
-0.0912701420565 0.0762742035407 0.0119911838153
-0.0946840291188 0.078318709122 0.0089006388474
-0.0881791632857 0.0805129144165 0.00741548072078
-0.0118586954283 0.00601583533689 -0.0100385025082
0.0173614685727 0.0114622748845 -0.0107964399571
0.00505894807078 0.00346200005151 -0.00936726270031
0.00931728851887 0.00346200005151 -0.0103358200592
0.00866068074682 0.00346200005151 -0.0144090212359
-0.000558185861661 0.00346200005151 -0.0112079375191
0.0035157524047 0.00920015961484 -0.0177900008857
0.00689409639163 0.00713481576282 -0.0177900008857
-0.00306843758771 0.00818980445322 -0.0177900008857
0.0156249568299 0.00884681097074 -0.00943566855162
-0.00182549564119 0.00346200005151 -0.0143847871948
0.00162314509913 0.00346200005151 -0.0144414071612
0.00349112202083 0.0159660000354 -0.0114181173498
0.0151099138322 0.00806528693195 -0.0125997267527
0.0124141367304 0.0043891635766 -0.0160630599684
0.010107770075 0.00688333366584 -0.0177900008857
0.0126391152013 0.00967207624349 -0.00827257312634
0.00854344906422 0.00652345008046 -0.00804188920906
0.012770701512 0.00543116914243 -0.00926579818354
0.0149521625622 0.0151708230369 -0.0134595536612
0.0132941100729 0.00847326089615 -0.0164571288209
0.0107771636587 0.0114917051206 -0.0167112877523
0.0157988983717 0.0112670092628 -0.0146321671481
0.00537984891692 0.0120316295924 -0.0177900008857
0.00189342878016 0.0156595154058 -0.0143809745622
0.0104321115646 0.0145424035097 -0.0151005935966
0.00676802785329 0.0147558445666 -0.0152250338274
0.0102828155722 0.0159660000354 -0.0118606951194
-0.00640015358299 0.0159660000354 -0.0128031184442
-0.00318992025079 0.0159660000354 -0.0135037626235
0.00272537439371 0.013876630386 -0.0171752407009
-0.00484165225438 0.0146393775909 -0.0158161405361
-0.011542359397 0.0116995879135 -0.00859351608299
-0.00791034245966 0.00611190538014 -0.00797636483196
0.00515828209414 0.0116833305592 -0.0082086099985
0.0112597384219 0.0132104891835 -0.00826241590827
-0.000790190264279 0.00779855710668 -0.0078908940972
-0.00370279434433 0.0120973092136 -0.00842185000813
-0.00831138050579 0.014185136392 -0.00874006788168
0.000917004829523 0.0130124542052 -0.00843588981263
-0.000321927673861 0.00427164968107 -0.00778800016269
0.00315684154359 0.00561395716886 -0.00783880683865
0.0148042040702 0.0122272379293 -0.00822396644246
0.00864741755867 0.0107677296277 -0.00808620978292
0.00490811954316 0.0085108478895 -0.00795823306382
-0.00708849630028 0.0106019566366 -0.0177900008857
-0.0125183487817 0.0135896358532 -0.0140462872594
-0.0106080074204 0.0116914667356 -0.0160616783293
-0.0016604956091 0.013476564333 -0.0174545450646
-0.00851021925057 0.0141147338345 -0.0153105379812
-0.00712703764114 0.00632754261818 -0.0177900008857
0.00431732607685 0.00463202439952 -0.0177900008857
0.00861020313381 0.0035842183717 -0.017789458058
-0.0111979016594 0.00772677944729 -0.0174089993197
-0.0130569773299 0.00975170138917 -0.0139229550173
-0.0104622315378 0.00448863046787 -0.0130518363309
-0.00435748629733 0.00346200005151 -0.00387055154988
-0.00631085269092 0.00346200005151 -6.9208687035e-05
0.0038566727905 0.00346200005151 -0.00475654327367
0.00388920111939 0.00346200005151 0.002818643127
0.00427601902565 0.00393518523936 -0.00056770526274
-0.0048188557716 0.0059561074193 -0.00578321316107
0.00206170850455 0.00595262719056 -0.00315809057056
-0.00107639070442 0.00652005031051 0.000841923675085
-0.00363022870942 0.006505425616 -0.00203463081214
-0.00109487253357 0.00625697925934 -0.00495713050151
0.00242810742941 0.00991745976425 0.00499066640659
-0.00801159985572 0.00622045404681 0.00909500010312
-0.00491564379425 0.0127268188647 0.00909500010312
-0.00753944518004 0.01072009646 0.00909500010312
-0.00987825198924 0.0141940192908 0.00909500010312
-0.00615237920648 0.0159660000354 0.00571162174821
-0.012759713512 0.0134275764887 0.00417060082576
-0.00920829404814 0.00716834895571 0.00365058245475
-0.0111282458512 0.0100491992929 0.00379683631097
-0.00731825638274 0.0135063066618 0.00396417191842
-0.00259636606252 0.0130805914703 0.00394170172911
0.00262151193294 0.00699107028038 0.00362028333338
-0.00304367081115 0.00945235578114 0.00375019542539
0.00451912811396 0.00481564360423 0.00583424300777
0.0038543592167 0.008950581938 0.00767867366673
-0.000930504637644 0.00377386858803 0.0039080271694
-0.00716420881047 0.00346200005151 0.00665449820951
-0.0113191372702 0.0114579529557 0.00806463100903
-0.0128372183447 0.0156423675004 0.00743080162438
-0.0111051916717 0.00811462705385 0.00628019339451
0.0191974329199 0.014631675029 0.0126135984789
0.00606796917029 0.0159660000354 0.0108979118436
0.00613970374968 0.00346200005151 0.010949732139
0.0103774363969 0.00346200005151 0.0141344600762
0.00200891227362 0.00346200005151 0.0110484537109
-0.003728000822 0.010650769568 0.0184729993343
0.00492479887395 0.00758240886048 0.0184729993343
0.00146846392176 0.00704132788506 0.0184729993343
-0.00645978053148 0.00441430138534 0.0180607303815
-0.00919550218745 0.00859127804004 0.0184238955373
-0.00207372550833 0.0070146282895 0.0184564458966
-0.00533817993334 0.00764278059187 0.0184315801914
-0.00706803724655 0.00346200005151 0.0129903783434
-0.00105030830815 0.00346200005151 0.0139129507278
-0.00413558382755 0.0159660000354 0.0126056486947
-0.0112091238286 0.0159660000354 0.0122928631496
-0.000162915025926 0.00963307341993 0.00909500010312
-0.00389496158241 0.00799280847493 0.00909500010312
0.00697338054858 0.00686955547788 0.00909500010312
0.000671451662609 0.00594460167518 0.00909500010312
0.00315912271781 0.0136612055837 0.00909500010312
-0.0107416613788 0.00496089040301 0.0108968599693
-0.00115463728482 0.0134544192859 0.00909500010312
0.0104589968161 0.00484249387623 0.0184729993343
0.00886096398464 0.00839342534135 0.0184729993343
0.0137045514802 0.0062727289964 0.0145992366991
0.0154240442268 0.00896036644304 0.0118641352145
0.0118754760107 0.00503092903095 0.0103560034245
0.00885859107946 0.0155390781082 0.0144636302763
-0.00732884510943 0.0155803546018 0.014043132674
0.00355157908479 0.0158868581489 0.0133931807281
-0.000477388799476 0.0159660000354 0.0130083101395
0.0127279350413 0.00884452675651 0.0172945379983
0.0154354286986 0.00983893723958 0.01605270634
0.00510188016274 0.0120595292462 0.0181370164576
0.0116319886878 0.0142360687502 0.0158154094773
0.0104529832271 0.0115084314465 0.0173903434541
0.0151347341255 0.014804151237 0.0148668384036
0.00692162812614 0.0118820129676 0.00917128081287
0.0156766903553 0.0145257598116 0.00957022617925
0.0127970027647 0.00866472437281 0.00934892440311
0.00902292041 0.00931888318548 0.00920932255598
0.0124382427387 0.0125969836689 0.00940549803532
-0.0073356508343 0.0112416922585 0.017821853731
-0.0101060748545 0.01427953536 0.015060064381
0.00129107267822 0.0128445075468 0.0184674915338
-0.00295106665302 0.0146645263192 0.0161701844355
-0.0110834082813 0.00568574450885 0.017590427313
-0.0112693126261 0.0104431527741 0.0164418856085
-0.0122508010095 0.00663804419471 0.0148875701216
-0.0105413561534 0.0292913766444 -0.0120037931002
-0.0136970002204 0.0227936717311 -0.00654980150949
-0.0136970002204 0.0283752281881 -0.00997017211728
-0.00634263936999 0.023486614455 -0.0121630001813
-0.0105234492528 0.0163970196933 -0.0121630001813
-0.00833398899271 0.0189167744844 -0.0121630001813
-0.00469861401922 0.0266396402577 -0.0121630001813
-0.00307000009343 0.0205027923044 -0.0119905841725
-0.00441928219528 0.0159660000354 -0.00971834486953
-0.0078782964846 0.0186919310713 -0.00790143759375
-0.00657568583906 0.0288277418017 -0.00591100007296
-0.00442286575871 0.018953403042 -0.00810428938545
-0.00755542182256 0.0241807762727 -0.00638931653064
-0.0100923315011 0.0214043247877 -0.00684510827737
-0.0136970002204 0.0260676824762 -0.00629000902121
-0.0122438261953 0.0301553840826 -0.00591100007296
-0.00906632282932 0.033129836465 -0.00920930984645
-0.0121698170069 0.0337302780661 -0.00839789308554
-0.0060095772497 0.0315651948541 -0.0105959517432
-0.0106836425771 0.0240397722455 -0.0121630001813
-0.0129880887332 0.0196208931626 -0.0121630001813
0.0247594143496 0.0424637348586 -0.0104454989088
0.026806452108 0.0445504764683 -0.00857064794009
0.0257407299919 0.0425604532808 -0.00591100007296
-0.00306900008582 0.0233423649342 -0.00984238870445
-0.00306900008582 0.0264885865669 -0.0078559499606
-0.00306900008582 0.030313897396 -0.0107361549746
0.011008851593 0.0329410533406 -0.00591100007296
0.0271945668816 0.0382576381776 -0.00591100007296
0.0260702974851 0.0346924337178 -0.00591100007296
0.0299595067002 0.0357850084051 -0.00591100007296
0.0179184998302 0.0365780737971 -0.00591100007296
0.0319439992309 0.0404334186129 -0.00712915036078
-0.000282589513665 0.0330291522334 -0.00591100007296
0.00288104939472 0.0347932561337 -0.00591100007296
0.00928715288898 0.0372930134213 -0.00591100007296
0.00760898763214 0.0347054326707 -0.00591100007296
0.0058594196622 0.038296401825 -0.00601398338895
0.0260551267596 0.0165759279292 -0.00854887835616
-0.000491881163559 0.0159690007567 -0.0107899506206
0.00913551394212 0.0259957175698 -0.00600000087062
-0.000525105223185 0.0194341132721 -0.00806091940376
0.00358600902577 0.0238855319804 -0.00676904546835
-0.00157212389399 0.0237299143353 -0.00703234443704
0.000377012165073 0.0277931273108 -0.00593158752632
0.00870851498751 0.0298619170461 -0.00591100007296
0.0122160993011 0.0282169971832 -0.00591100007296
0.0152922534783 0.0249348931001 -0.00634415424064
0.0195181920055 0.026276076658 -0.00641570863739
0.0308818218545 0.0321254870002 -0.00625163785349
0.0220981362323 0.0287035914192 -0.00620371096404
0.0271108971285 0.0206265496158 -0.00782516158279
0.0217677556147 0.0202897950687 -0.00751869864817
0.0276729592845 0.0275718784092 -0.00675917390005
0.0237233145416 0.0239616024326 -0.00706687247073
0.0264642633759 0.0306586054041 -0.0061871512052
0.0298808661942 0.0177904285975 -0.0098162835337
0.0319439992309 0.0394632662095 -0.0111219151945
0.0309552498836 0.0286774963127 -0.00680787795142
0.03085265458 0.0227679428035 -0.00774661388784
0.000853998816782 0.032202099045 -0.0116380209131
0.0243650983037 0.0170851558472 -0.0116568183708
0.0268971409589 0.0204380862111 -0.0117776192718
0.0273265974123 0.0305228102919 -0.011757144025
0.0260770079085 0.0257502268784 -0.0118167208535
0.0309210147631 0.0314901871637 -0.0115857725586
0.030174578466 0.0276190816097 -0.0116213604913
0.0319439992309 0.024219990819 -0.011199956316
0.0131576730747 0.0417880788853 -0.00683516265776
0.017631447998 0.0161548199338 -0.00849693334481
0.0226753813063 0.0164100833 -0.00846344239135
