0.000394000002416 0.00129202794721 0.016837402341
0.000394000002416 0.00286066577439 0.026008481572
0.000394000002416 0.00261070761775 0.0237197960798
0.000394000002416 0.00232027982816 0.0212388382528
0.000394000002416 0.00192108352066 0.0246581449127
0.000394000002416 0.00307774419427 0.0175739257498
0.000394000002416 0.00160737673506 0.0201236585084
0.000394000002416 0.000922854370758 0.0189696273565
0.00341760476578 0.00037200000952 0.0199887426333
0.00293147444515 0.00037200000952 0.026757052244
0.00319411176695 0.00037200000952 0.0294456459528
0.00155113717891 0.00037200000952 0.0186226416338
0.00215453043618 0.00037200000952 0.01982638331
0.00338737772593 0.00037200000952 0.0187297288288
0.00412149803491 0.00037200000952 0.017312161855
0.00197248183733 0.00037200000952 0.0211157151657
0.00319027268363 0.00037200000952 0.0211155154745
0.00261275914066 0.00037200000952 0.0177703491173
0.00376396056387 0.00037200000952 0.0224921589699
0.00156995971143 0.00250228119261 0.0158639997244
0.00197811535512 0.00103132993734 0.0158639997244
0.00238447350364 0.00433880313993 0.0158639997244
0.00351179845277 0.00534828577574 0.0158639997244
0.00289721005915 0.0027872328127 0.0158639997244
0.0029541905125 0.00595074328959 0.0199588214022
0.00232279507331 0.00510992540631 0.0237589225714
0.00207418821781 0.00461196967907 0.0260814091428
0.00261146810737 0.00547105541324 0.0221368275028
0.00145421950671 0.00473214496805 0.0216404888969
0.000748392573785 0.00356480540744 0.0299225936876
0.000657690628251 0.00359105698122 0.0282100081262
0.00112713379104 0.00452791775092 0.0201735420131
0.0010768395589 0.00465329566487 0.0174779863031
0.000788675353497 0.0037959443255 0.0268580528786
0.000829715012473 0.00407275924451 0.0230847530444
0.00210236053527 0.00559382903879 0.0173476476048
0.00270206508259 0.00605921644821 0.0186045363457
0.00123660299261 0.00471833822007 0.0187413648034
0.000399987439708 0.0037997679784 0.0212311364884
0.000984130765118 0.00411984479011 0.0245544458321
0.00201592936915 0.005382859105 0.0194335138244
0.00119254295321 0.00037200000952 0.0243233913543
0.00194726019135 0.00037200000952 0.0273978295438
0.000524004001216 0.00037200000952 0.031789962596
0.000394000002416 0.001293718981 0.0309177660003
0.000394000002416 0.00130332438219 0.0286466939448
0.000394000002416 0.00132242313347 0.0257302418235
0.00496245351015 0.00515075707869 0.0158639997244
0.00505446535999 0.00242510550515 0.0158639997244
0.00387022977173 0.00641477305802 0.0180460361131
0.00419678450976 0.00666933117194 0.0166887077647
0.005113697097 0.00648819123723 0.0158639997244
0.00581562847066 0.00202767001054 0.0200000464497
0.0050020417564 0.00139916106079 0.0228676113182
0.00506141959876 0.00138611151175 0.021742439646
0.00492624957392 0.00106539511442 0.0188566253914
0.00447788232218 0.000736599153265 0.0207101364725
0.00420309298975 0.000799266609515 0.0259526058501
0.00662795181557 0.00263040620529 0.0167514773385
0.00466661988342 0.00113930283265 0.0240383446124
0.00549254593421 0.00150231569148 0.016852069915
0.0057539124491 0.0018529855054 0.0182432784716
0.00449332424319 0.00228879111108 0.0278678152162
0.00373563568027 0.00212196214604 0.0304428488887
0.00340203691513 0.0019272226251 0.0316337163993
0.00397796994302 0.00293351921652 0.0292621983672
0.00685523096826 0.00476106425831 0.018098114566
0.00630365884333 0.00547278733886 0.0199170038502
0.00439003538689 0.00376832062794 0.0271086841663
0.00531831774923 0.00459397768382 0.0236217596458
0.00308316239675 0.00487178783963 0.0249627085767
0.00193681391875 0.00416941253896 0.0280193408636
0.00388380357523 0.00573942015136 0.0212956640971
0.0033837262515 0.00529918831281 0.0231728855657
0.00145401726395 0.00391129888413 0.0291534866437
0.00528793824098 0.00608094545698 0.0194329619776
0.00416564129308 0.00614386439878 0.0194703811294
0.00561922465323 0.00623736641042 0.018289212594
0.00575897801543 0.00551011079604 0.0211383602385
0.00144433978311 0.00320572580011 0.0316590666613
0.00414391489985 0.00502278721991 0.0241519227011
0.00256239348186 0.00305798828382 0.0314050467059
0.00348028511937 0.00404230674075 0.0276902400294
0.00505132753157 0.00536674020094 0.0224747092434
0.00294227518131 0.00340142763902 0.0300703812064
0.00346942245014 0.00448780417229 0.0262844331411
0.0043284058099 0.00453594302356 0.0255432329062
0.0015862227741 0.00187128914212 0.0332433844973
0.00281054958303 0.00149861247911 0.0329935105523
0.00199861272614 0.00276392212181 0.0325141774969
0.00708428916498 0.00339532593238 0.0158942017239
0.00553746115167 0.00646706114224 0.0169553261932
0.00637693924307 0.00573575827575 0.0172895075678
0.00707004186243 0.00474443673378 0.0168022054909
0.00674982085761 0.00352935583076 0.0181338141643
0.00491412510432 0.00193798997599 0.0260248147195
0.00457202022047 0.00128010115578 0.027160883586
0.00642154719826 0.00289512410002 0.0192384557149
0.00579700637266 0.00255780601043 0.0221044292983
0.00384366956498 0.000927701979444 0.0305408165477
0.00548003263385 0.00244530597616 0.0236128239536
0.00588924166056 0.00375308314795 0.0223797207843
0.00523756914451 0.00296637522768 0.0249866938994
0.00620658373984 0.00397552533179 0.0211108261973
0.000620449224834 -0.00608299998567 -0.0160359503735
-0.00486775664968 -0.00608299998567 -0.020443358317
-0.000617867623368 -0.00608299998567 -0.018369060023
-0.000371120713911 -0.00608299998567 -0.0147683223758
0.00191564474808 -0.00608299998567 -0.0184892107373
0.00407321851696 -0.00608299998567 -0.0142630278976
-0.00578691789372 -0.00608299998567 -0.0221402275524
-0.00314984323807 -0.00608299998567 -0.0181445825485
-0.00504436200069 -0.00608299998567 -0.030186186064
-0.00374447371439 -0.00608299998567 -0.0279001531089
-0.00313143005541 -0.00608299998567 -0.0161235825183
-0.00278878109769 -0.00608299998567 -0.0230754968683
0.00136022156578 -0.00608299998567 -0.0140140580129
-0.00449309776385 -0.00608299998567 -0.018000297646
-0.00595226687868 -0.00608299998567 -0.0185567677725
0.00077829266492 -0.00608299998567 -0.0174851590921
-0.00189355408475 -0.00608299998567 -0.0157424370672
-0.00408372644063 -0.00608299998567 -0.015341723032
-0.00149717226623 -0.00608299998567 -0.0229830845061
-0.00355062353239 -0.00608299998567 -0.0247579321581
-0.000203132471191 -0.00608299998567 -0.0209535698209
-0.00466691991546 -0.00608299998567 -0.0247666902499
0.00208471279388 -0.00608299998567 -0.0160522868645
-0.000658690792989 -0.00608299998567 -0.0219597549164
-0.00294527961304 -0.00608299998567 -0.025867787029
-0.00511137476288 -0.00608299998567 -0.0267933790538
-0.00485325558202 -0.00608299998567 -0.023355173908
-0.0040363652537 -0.00608299998567 -0.0265461344651
-0.00538053865566 -0.00608299998567 -0.0286872950263
-0.00423276485187 -0.00608299998567 -0.0290976822657
-0.00145213858015 -0.00608299998567 -0.0138335516301
0.0052330000326 -0.00738264836009 -0.025550245802
0.0052330000326 -0.0103953421124 -0.0242235218743
0.0052330000326 -0.00841760473398 -0.0273063998229
0.0052330000326 -0.00690484074945 -0.0149932050384
0.0052330000326 -0.00869697734605 -0.0294279445885
0.0052330000326 -0.00731552461736 -0.0226163539877
0.0052330000326 -0.00716531937306 -0.0183538071411
0.0052330000326 -0.0121112385791 -0.0318982324524
0.0052330000326 -0.0099543965647 -0.0225522632988
0.0052330000326 -0.00931375190414 -0.030588821175
0.0052330000326 -0.0112252886965 -0.0261413887803
0.0052330000326 -0.0129567589425 -0.0296259561238
0.0052330000326 -0.00853471368202 -0.0205203075836
0.0052330000326 -0.00693653527394 -0.020383817394
0.0052330000326 -0.00904547734117 -0.0243560515262
0.0052330000326 -0.00777036157004 -0.0214346105537
0.0052330000326 -0.0087454968096 -0.0260946329905
0.0052330000326 -0.00726340851982 -0.0162754909482
0.0052330000326 -0.00800461428845 -0.0310668604093
-0.00632899999619 -0.0124281637679 -0.0193643245554
-0.00632899999619 -0.0128749179509 -0.0269534732155
-0.00632899999619 -0.0113831761326 -0.0313572017536
-0.00632899999619 -0.0139019460235 -0.0220473867471
-0.00632899999619 -0.0136183906401 -0.0181711450924
-0.00632899999619 -0.0131082473827 -0.031983353525
-0.00632899999619 -0.0126047886019 -0.0219860519189
-0.00632899999619 -0.0118381344148 -0.0209135511304
-0.00632899999619 -0.0138512222307 -0.0152695857129
-0.00632899999619 -0.0128831264125 -0.020436691749
-0.00632899999619 -0.00965031831912 -0.0292168845468
-0.00632899999619 -0.00884629347498 -0.0310580485134
-0.00632899999619 -0.011446585262 -0.0246017890515
-0.00632899999619 -0.0133750852063 -0.0236738054513
-0.00632899999619 -0.0127462535324 -0.0246158610788
0.00394431379803 -0.00608299998567 -0.0238796716449
-0.00270314825025 -0.00608299998567 -0.0283136340007
0.00465483266921 -0.00608299998567 -0.0230106055968
0.00128892460005 -0.00608299998567 -0.020119714649
0.000211104777718 -0.00608299998567 -0.0229699838845
0.00327808815663 -0.00608299998567 -0.0180899648612
-0.0016791139788 -0.00608299998567 -0.0254049566584
-1.22315291158e-05 -0.00608299998567 -0.0261931045962
0.0025439934815 -0.00608299998567 -0.0220001487817
-0.00136360507178 -0.00608299998567 -0.0273764362588
0.00420155332752 -0.00608299998567 -0.0154886227122
0.00153884018752 -0.00608299998567 -0.0212917164138
0.00111766968667 -0.00608299998567 -0.0255980761858
0.00435899758288 -0.00608299998567 -0.0188898687903
-0.00119278237663 -0.00608299998567 -0.0242584755607
0.00222129898791 -0.00608299998567 -0.0236590355014
0.00397232761323 -0.00608299998567 -0.0198902765906
0.0052330000326 -0.00632230109626 -0.0216704703755
-0.0029464287873 -0.00643562689014 -0.0317407620589
-0.0017949913292 -0.00665076013651 -0.0320278065763
-0.0017460727987 -0.00616874414502 -0.0292568858845
0.00304014282374 -0.00649292074901 -0.027219748205
0.00381807050562 -0.00686394225094 -0.0286924547881
0.00396524692444 -0.00623323948756 -0.0249994740997
-0.00263146765884 -0.00624654466987 -0.0304143982874
0.00421701034092 -0.00664355971189 -0.027120754698
0.00282034751704 -0.00611772298284 -0.0252716119381
0.00268964679047 -0.00685002202427 -0.0295269481953
0.00016213522238 -0.00616902306133 -0.0277139193605
0.000202997099322 -0.00647085314816 -0.0293911533076
-0.00428346972135 -0.00618107851575 -0.031380604924
-0.00121357164004 -0.00648354940534 -0.0306096991274
0.00390323130776 -0.00707956361713 -0.0298453338054
0.00215439497673 -0.00620073500497 -0.0262810334812
0.00383240866517 -0.00728888381455 -0.0310887640438
0.000174081145246 -0.00669817711612 -0.0307026809862
0.00133272902446 -0.00664743228879 -0.0294773014326
0.0011951915896 -0.00615964386113 -0.0268245931561
0.00199654265936 -0.00704515682504 -0.0311936862301
0.00140415916064 -0.00643019729819 -0.0281885306065
-0.0055412542351 -0.00608450183625 -0.0318514363211
0.0052330000326 -0.00844743078155 -0.0154866868524
0.0052330000326 -0.0101121013484 -0.0155328014096
0.0052330000326 -0.011059609782 -0.0187248301253
0.0052330000326 -0.0115705157643 -0.0218128233151
0.0052330000326 -0.00989819540881 -0.0180374888475
0.0052330000326 -0.00674663345049 -0.0137975424063
0.0052330000326 -0.00803256650012 -0.0143891809428
0.0052330000326 -0.00937055800017 -0.0167612485991
0.0052330000326 -0.00963270258829 -0.0209644274539
0.0052330000326 -0.0133547647969 -0.0284531614698
0.000821552154879 -0.0154919996858 -0.0264833617888
0.000938945943742 -0.0154919996858 -0.0253556766475
0.0013830121316 -0.0154919996858 -0.0171876529839
-0.000141052194704 -0.0154919996858 -0.0300094107758
0.000455875329747 -0.0154919996858 -0.0235797640248
0.00145652297184 -0.0154919996858 -0.0323260979144
-0.00103048215773 -0.0154919996858 -0.0314221500059
0.000550548723085 -0.0154919996858 -0.0216416279306
-0.000709719498641 -0.0154919996858 -0.028648700859
0.00111794637659 -0.0154919996858 -0.0284812317101
0.000312984398672 -0.0154919996858 -0.0274617427972
0.000405561798156 -0.0154919996858 -0.0315207879503
-0.00632899999619 -0.00866848488085 -0.0273743513837
-0.00632899999619 -0.0119321305911 -0.0155344244921
-0.00632899999619 -0.0102935190385 -0.0251852449818
-0.00632899999619 -0.00869100381544 -0.0284832359154
-0.00632899999619 -0.0113289812463 -0.0145193009727
-0.00632899999619 -0.0118208845412 -0.0167248138407
-0.00632899999619 -0.0103675843897 -0.0175510904951
-0.00632899999619 -0.00985542274868 -0.0196349582567
-0.00632899999619 -0.0126593798849 -0.0146079839681
-0.00632899999619 -0.0095260122978 -0.0264122654267
-0.00632899999619 -0.0129348001246 -0.0165278805929
-0.00632899999619 -0.0107704062099 -0.0217109117008
-0.00632899999619 -0.00968466471627 -0.0223645631139
0.00224538902286 -0.00864962488895 -0.0333359986544
0.000371203987461 -0.00953471736228 -0.0333359986544
-0.000584411570546 -0.00871560192686 -0.0333359986544
0.0035699309918 -0.00893060973343 -0.0333359986544
0.00411076412428 -0.010220548584 -0.0333359986544
-0.0045812368495 -0.00772746186662 -0.0333359986544
0.0052330000326 -0.0144716725025 -0.0220661280182
0.0052330000326 -0.0135989492728 -0.0161236384323
0.0052330000326 -0.0139193355072 -0.0234289193935
0.0052330000326 -0.0144068674061 -0.0204162169399
-0.00632899999619 -0.00704946928359 -0.0244119045784
-0.00632899999619 -0.00826549594712 -0.0172717781208
-0.00632899999619 -0.00723461779982 -0.0196347295636
-0.00632899999619 -0.00792609067853 -0.0226457622887
-0.00632899999619 -0.00813216265743 -0.0150437519559
-0.00632899999619 -0.00886763415493 -0.0160514965984
-0.00632899999619 -0.00915255074498 -0.018303800975
-0.00632899999619 -0.00714062249668 -0.0211472693322
-0.00632899999619 -0.00910898721106 -0.0205700680996
-0.00632899999619 -0.00985009883943 -0.0150192419369
-0.00632899999619 -0.0078786121048 -0.018442245171
-0.00632899999619 -0.00764188325643 -0.026072087359
-1.96720759583e-05 -0.0109762061714 -0.0333359986544
-0.00369632129204 -0.0105025735813 -0.0333359986544
0.00128938426423 -0.0103457663432 -0.0333359986544
-0.00125385728344 -0.0110475309307 -0.0333359986544
-0.00207208091164 -0.00922678697237 -0.0333359986544
-0.00234900405457 -0.0103567152569 -0.0333359986544
-0.00405505606436 -0.00930927857484 -0.0333359986544
0.00229996349333 -0.0110986868237 -0.0333359986544
0.00434925338308 -0.0114871585093 -0.0333359986544
-0.00294317650201 -0.0064698530931 -0.0129060000181
0.00252927220792 -0.00686125641489 -0.0129060000181
0.00345942926197 -0.0100372649382 -0.0130737187499
0.00133345691201 -0.00863390211993 -0.0129475032955
0.00511596097861 -0.0109176900512 -0.0131607145383
0.00414464700133 -0.00830907404881 -0.0129982419069
0.00227250524296 -0.0094567656826 -0.0130140666729
-0.00624590094207 -0.00617491485163 -0.0257562215769
-0.00632899999619 -0.00669785369842 -0.0231465198005
-0.00632899999619 -0.00650853206048 -0.0283991967385
-0.00632899999619 -0.00672312673211 -0.0309912064949
-8.07851557043e-05 -0.0151638929619 -0.0328225694829
-0.00253100652184 -0.0146563700445 -0.0328539966569
-0.00142819563435 -0.0145735604558 -0.032951663156
-0.00579637475546 -0.0139738343623 -0.0328581538793
-0.00206263593309 -0.0135134661291 -0.0331227770199
-0.00362825843715 -0.0138716277522 -0.0329804721677
0.00124980021119 -0.0145909957908 -0.0330754739117
-0.00092511515094 -0.0133390697456 -0.033209877756
0.000926701605401 -0.0134172910944 -0.0331994520459
0.00221778138122 -0.013917910336 -0.0331529025699
-0.000351849636263 -0.0120740295973 -0.0333136962427
0.0023015257753 -0.0125142912014 -0.033265357491
-0.00224148261698 -0.0119169934646 -0.0333355371779
0.00341702293313 -0.0126496860903 -0.0332490313898
-0.00531527055866 -0.0144038157383 -0.0159837947125
0.000379787296078 -0.0145171322787 -0.0141191637857
-0.000764033717879 -0.0145228307598 -0.014161885451
-0.00458540816273 -0.0145388508121 -0.032749000395
0.00174904250377 -0.0154919996858 -0.0294426195082
0.00184231696205 -0.0154919996858 -0.0305793168824
0.00174734197294 -0.0154919996858 -0.027482380598
0.00209238755636 -0.0154157528498 -0.0209525916117
0.00289474813003 -0.0152568891661 -0.0163561238323
0.00226394151405 -0.0153714997311 -0.0180889212874
0.00208354565393 -0.0154356266603 -0.0243171608419
0.00161050660154 -0.0154881113284 -0.01949800188
-0.000982044115176 -0.0135434639486 -0.0134408087306
0.0040200351397 -0.0120213208629 -0.0133035763302
0.0052330000326 -0.0122463838238 -0.0134687476111
0.00391669804332 -0.0133170166875 -0.0136763178223
0.00212821744728 -0.0135340055417 -0.0136391770646
0.000445375151157 -0.0133459557941 -0.0134517096324
0.00519781115827 -0.0146846318356 -0.0303969351565
0.00267250988152 -0.0121151131428 -0.0132799013714
0.00155262774202 -0.0115613696873 -0.0131998159199
0.000106811072436 -0.0119331856145 -0.0132377077057
-0.00540457397455 -0.0106617408834 -0.0131481207728
-0.00515962556386 -0.00790812522398 -0.0129833373754
-0.0026632773931 -0.00900953714881 -0.0129750853006
-0.00329004420319 -0.01002626042 -0.0130498737959
-0.00418544559614 -0.00853578155397 -0.0129912410554
-0.00421200099514 -0.0111310361104 -0.0131379121431
-0.00473207675551 -0.00960755345011 -0.0130668718822
0.000811684373029 -0.0105966223172 -0.0130950056997
0.00232466681658 -0.0107282596338 -0.0131163684799
0.000327196728513 -0.00955325735137 -0.0129890217782
-0.00299978168201 -0.0115214022531 -0.0131656014982
-0.000994032329894 -0.00989610615875 -0.013015699523
-0.00555736480096 -0.0118953094309 -0.0133823072502
-0.00295184227458 -0.0127640728626 -0.0133526450275
-0.00414058461954 -0.0124627666157 -0.0133735326619
0.00384351933869 -0.0150825637652 -0.0296586229852
0.00306378834691 -0.0152554746737 -0.0308089360179
0.00303142089093 -0.0152383408932 -0.0321944282416
0.00481821812948 -0.0147896543968 -0.0324445666467
0.00417842794555 -0.0149676280955 -0.0314022632561
0.00263856834436 -0.0153453984491 -0.0283726345285
0.0037659357148 -0.0150926245181 -0.0256756413388
0.00297552721037 -0.0152586777778 -0.0220019570364
0.0033741994622 -0.0151748626927 -0.0238250852151
0.00281842734544 -0.0153022799678 -0.0265517493434
0.00392487811154 -0.015061052795 -0.0273210009134
0.00294042010699 -0.0152606779502 -0.0191607325671
0.00324977919681 -0.0151961398734 -0.0208246405627
0.00507236115848 -0.0146992539929 -0.0252640243908
0.00480516418051 -0.0148161213812 -0.0286287551389
0.00409046706643 -0.0149858386957 -0.0217085399821
0.00445039934306 -0.0148427274691 -0.0174420324859
0.00457814539456 -0.0148568984854 -0.0229854680932
0.00408683737823 -0.0149676254569 -0.0196160775353
0.00429908491258 -0.0148757950334 -0.0162919356681
-0.000243653329765 -0.00699529243999 -0.0324175905627
0.00159365857491 -0.00731348778679 -0.0325238793144
-0.00410747249745 -0.00669423061802 -0.0328959068165
0.00368812745656 -0.00768187699067 -0.0325248924711
0.00486640297016 -0.00846507643782 -0.0330960922387
-0.00261630285388 -0.00778344761774 -0.0333142029017
-0.00136612377525 -0.00789628707864 -0.0333048939232
0.000396560125951 -0.00784263530178 -0.0332305991691
-0.00536112508376 -0.00685404354019 -0.0331386504036
0.000387948017085 -0.0154919996858 -0.0199776285105
-0.000557953370037 -0.0151875342109 -0.015174329353
-0.00225909509727 -0.0151276366084 -0.0156933949752
-0.00395443920627 -0.0121448912137 -0.0332878695172
-0.00621067699485 -0.0123532726742 -0.0330656612792
-0.00553030571957 -0.0114161668913 -0.0332572315385
-0.00621914065018 -0.00806977897092 -0.0333359986544
-0.00529432157037 -0.00931852509539 -0.0333359986544
-0.00195886021788 -0.0154666849925 -0.0320517453703
-0.000704071925396 -0.0154919996858 -0.0243594495139
-0.000515244756348 -0.0154919996858 -0.0229549590001
-0.00171902618884 -0.0153050722768 -0.0174237916638
-0.00208050069423 -0.0153283269646 -0.0210437534377
-0.00211656670902 -0.0153045606722 -0.0196959512834
-0.00186838017639 -0.0154773354392 -0.0295753437579
-0.0014644531347 -0.0154577248546 -0.025947896437
-0.000241607486222 -0.015446327379 -0.0181089009467
5.53562647838e-06 -0.0154446538805 -0.0165658732434
-0.00241221114552 -0.0152623138934 -0.0186429699447
-0.000658174699331 -0.0154491855257 -0.020712172036
-0.00136602946358 -0.0154910422627 -0.0275597470767
-0.00190552410694 -0.0153768895156 -0.0232103498443
-0.00103024820896 -0.0154345110966 -0.0219087904359
-0.000838424732396 -0.0154148061714 -0.0195053318018
-0.00628105848893 -0.014161555563 -0.016655506209
-0.00523459458873 -0.0145455243322 -0.0189484969577
-0.00517761680213 -0.0146266202538 -0.0229224837674
-0.00392996027185 -0.0149487336262 -0.0170707725608
-0.00516245222782 -0.0145454360245 -0.0174145682633
-0.00447609657678 -0.0148107833399 -0.0198269888105
-0.00358498108728 -0.0149799260298 -0.0159757796614
-0.00421529472728 -0.0149078315279 -0.0210991333151
-0.00438463664717 -0.0148874770619 -0.0239130612361
-0.0042863693532 -0.0149309004685 -0.0255300965912
-0.00461374127153 -0.0148816355812 -0.029950588974
-0.00238233662976 -0.0154055265256 -0.0306588307713
-0.0030730593352 -0.015217916799 -0.0266054409573
-0.00399123330299 -0.0149795064449 -0.0226255691517
-0.00383445644856 -0.0150620839869 -0.0286760787494
-0.00337833910374 -0.0151781139567 -0.0303447447154
-0.0026080234206 -0.0153389725662 -0.0286604043989
-0.00434733590892 -0.0149669441244 -0.0313317978844
-0.00325125702216 -0.0152196669754 -0.0319930479583
-0.00412343053047 -0.0149875097129 -0.0274824996659
-0.00371885531154 -0.0150070316086 -0.0183057512212
-0.00265499721823 -0.0152983343791 -0.0253502570758
-0.00330657689911 -0.0151147505718 -0.0205719496816
-0.00296733343811 -0.0152217111916 -0.0240804251661
-0.00629193563788 -0.0141839273734 -0.0267591915221
-0.0061428233751 -0.0142559973636 -0.0201833435529
-0.00575460916147 -0.0145094799649 -0.0299848901078
-0.00563105366756 -0.0145372158493 -0.0280944805982
-0.00563005900687 -0.0145063278778 -0.0251350360933
-0.00542195940749 -0.0146284289556 -0.0311310874383
0.00477120403177 -0.0136071744119 -0.0331356151603
0.00371515937785 -0.0144950363283 -0.0330787137153
-0.00451385300391 -0.0144057979011 -0.0148282472976
-0.00221667053746 -0.0140080869451 -0.013910434915
-0.00313085693531 -0.014654617835 -0.0146401878937
-0.00526063216999 -0.0137200979575 -0.0142466166169
-0.00342332180964 -0.0138668726773 -0.013979678872
0.00477482422497 -0.0144672659289 -0.0151424005774
0.00282323730675 -0.0145622172405 -0.0144266878172
0.00397578891153 -0.0142395007013 -0.0143457750769
0.00169782399323 -0.0153057677234 -0.0153079955085
-0.00498199895094 -0.00312848728998 -0.0129070002586
-0.00445880792614 -0.00507116770948 -0.0129070002586
-0.00321644684929 -0.00479962535068 -0.0129070002586
-0.00529680426333 -0.00426001935607 -0.0129070002586
-0.00576777215543 -0.00109200515206 -0.0129070002586
-0.00391666922285 -0.00367372742031 -0.0129070002586
-0.00260222690806 -0.00366980107347 -0.0129070002586
0.0031952153932 -0.00608200021088 -0.0162990565985
0.00283875070578 -0.00608200021088 -0.0203581111631
0.000599034801629 -0.00608200021088 -0.0187368299777
0.00255714287246 -0.00608200021088 -0.0140459816025
-0.00146137122524 -0.00608200021088 -0.0175308237797
0.00381111569086 -0.00608200021088 -0.0214801450599
9.4385856e-05 -0.00608200021088 -0.013617214412
-0.000813338903462 -0.00608200021088 -0.01600400693
-0.00267008727676 -0.00608200021088 -0.0141828513147
0.00394514341232 -0.00608200021088 -0.0171086321451
-0.00632899999619 -0.0046936920472 -0.0138898640441
-0.00632899999619 -0.00257733383564 -0.0143657916937
-0.00632899999619 -0.00175146750029 -0.018776316711
0.00411316849941 -0.00100668617571 -0.0217320572337
-0.000437553743447 -0.000691011643428 -0.0217634417762
0.00256515249502 -0.00036448109995 -0.02161719355
0.00195199476057 -0.0022276613462 -0.0220687536782
0.00131390640861 -0.0033454384904 -0.0223459219532
-0.0044989810762 -0.000926875888016 -0.0219129483495
7.48422998204e-05 -0.00312225839915 -0.0223222553702
0.00367343959935 -0.00206099572207 -0.0219897297838
0.00071116987529 -0.000930517036434 -0.0217930344703
-0.00223824623234 -0.00138967720815 -0.0219691798362
0.00250242680909 -0.00320229183071 -0.0222847716147
-0.000942274063258 -0.00246065675012 -0.0221905327203
0.00417648927857 -0.00459392522063 -0.0225726281839
0.0037913304806 -0.00330977389985 -0.0222801249502
-0.00247912754028 -0.000167000005604 -0.0191708625437
0.00126839328304 -0.000167000005604 -0.0193670823121
-0.00440449415483 -0.000167000005604 -0.014539423278
-0.00298598727086 -0.000167000005604 -0.0160112231363
-0.0058763644006 -0.000167000005604 -0.0147836914481
-0.0019156322999 -0.000167000005604 -0.0168080999363
-0.00266385937595 -0.000167000005604 -0.0212431616912
-0.00569561607156 -0.000167000005604 -0.0167995902503
0.000374654794193 -0.000167000005604 -0.0180022469009
-0.00449045922589 -0.000167000005604 -0.0210693649219
-0.00444341548235 -0.000167000005604 -0.0164927458222
-0.00366928277513 -0.000167000005604 -0.0183056617363
-0.000528510985051 -0.000167000005604 -0.0173732554761
0.00370978497333 -0.000167000005604 -0.020567297538
0.00167805974605 -0.000167000005604 -0.020751883541
-0.00353841742398 -0.000948500412208 -0.0129070002586
0.00319398793304 -0.000532889754523 -0.0129070002586
0.00150261936125 -0.00193807771382 -0.0129070002586
0.00284287233419 -0.00184898926256 -0.0129070002586
0.000529756888104 -0.00300705775379 -0.0129070002586
0.0016126189607 -0.00359726611507 -0.0129070002586
0.00420902458367 -0.00413833382841 -0.0129070002586
-0.000371120557148 -0.00230252716786 -0.0129070002586
0.000293403158471 -0.000345711893194 -0.0129070002586
-0.00518954798521 -0.000167000005604 -0.0136870788595
0.00213338886336 -0.000167000005604 -0.0171242019557
0.00499514136916 -0.000167000005604 -0.0207531677252
0.00399490963901 -0.000167000005604 -0.0188821114241
0.0040933595387 -0.000167000005604 -0.014801599637
-0.0014993070232 -0.000167000005604 -0.0141576070419
-0.00334332965182 -0.000167000005604 -0.0139463456238
0.00228625629934 -0.000167000005604 -0.014953243836
-0.00180758013252 -0.000167000005604 -0.0154020301725
-0.000323117081627 -0.000167000005604 -0.0143055463714
0.00127139021492 -0.000167000005604 -0.0142154383412
0.00284740757658 -0.000167000005604 -0.0161260258674
0.00449926562083 -0.000167000005604 -0.0134763037932
0.0052330000326 -0.000930049874661 -0.0172456262985
0.0052330000326 -0.0043928047258 -0.0135240808992
-0.00558075416652 -0.00608200021088 -0.0142856000703
-0.00334984230872 -0.00608200021088 -0.0214378273131
-0.00185905656001 -0.00608200021088 -0.0187738528475
-0.00253589066648 -0.00608200021088 -0.0203590239492
-0.00177980817185 -0.00608200021088 -0.0214611696088
-0.000200901234748 -0.00608200021088 -0.0197008778181
-0.00533425871948 -0.00608200021088 -0.0155709650812
-0.00143249993319 -0.00608200021088 -0.0201113792138
-0.00471591150113 -0.00608200021088 -0.0164852341543
-0.00431081222217 -0.00608200021088 -0.0192171488547
-0.00307685871832 -0.00608200021088 -0.0192437321796
-0.00632899999619 -0.00291618530958 -0.0201857924193
-0.00632899999619 -0.00362315698665 -0.0172757722768
-0.00632899999619 -0.00302651641823 -0.0214800669944
-0.00632899999619 -0.00412213552542 -0.0191733928886
-0.00632899999619 -0.00113916506814 -0.0215195112178
-0.00632899999619 -0.00411414771784 -0.020335212785
-0.00632899999619 -0.00521220473971 -0.0215307190892
0.0052330000326 -0.00342924263262 -0.01877752711
0.0052330000326 -0.00596703302877 -0.0168480165867
0.0052330000326 -0.00258158006177 -0.020829153497
0.0052330000326 -0.00530014196122 -0.0182868591943
0.0052330000326 -0.00254968365811 -0.0197002973869
0.00341123197837 -0.00587509589613 -0.0227606964083
-0.00545705919388 -0.00214891937416 -0.0218891749879
-0.00399036141135 -0.00316244083133 -0.0220398982267
-0.00308742830463 -0.00449989807998 -0.0221443620763
-0.00242013544217 -0.00253742777586 -0.0221732785165
-0.00446282128653 -0.00450250849057 -0.0220186161782
-0.0022010330875 -0.00518404843168 -0.0222366233944
-0.00412998499981 -0.00560403750666 -0.0220670804906
-0.000708373635036 -0.00412273082692 -0.0223557704893
-0.00160883190733 -0.00337770142347 -0.0222612268521
-0.00390720137153 -0.00186952411336 -0.0220263478083
0.00167956880531 -0.00548905819188 -0.0225965204781
-0.00546652397112 -0.00393274239277 -0.0218523432413
0.0147644867009 0.00505129700597 -0.0279850738006
0.0146836121337 0.00533435802624 -0.0310932637253
0.0149078048097 0.00454968356319 -0.0300849596665
0.014724901079 0.00518984669978 -0.0290811880971
0.0132066572644 0.00184761252427 -0.0220480002463
0.0143639978522 0.00163047038996 -0.0220480002463
0.00995281177954 0.000778193321134 -0.0220480002463
0.0114436895718 0.00547999981791 -0.0322528171691
0.0113203760465 0.00547999981791 -0.028004904668
0.0103992272888 0.00547999981791 -0.0310175669572
0.0133112314077 0.00547999981791 -0.0306770328366
0.0127463974177 0.00547999981791 -0.0320647059934
0.0116069189739 0.00547999981791 -0.0256397454484
0.0110207669145 0.00547999981791 -0.0291169051394
0.00726298569021 0.000985577991305 -0.0220480002463
0.0121752053632 0.00238304776981 -0.0220480002463
0.0120288598032 0.00434609717979 -0.0220480002463
0.00953305643514 0.00417442276542 -0.0220480002463
0.00940770849615 0.00181501283992 -0.0220480002463
0.0105016853853 -0.000167000005604 -0.0272594926644
0.00967841280304 -0.000167000005604 -0.0324076831233
0.00975709047584 -0.000167000005604 -0.0293569960578
0.00954441658404 -0.000167000005604 -0.0281082527163
0.0075310377342 -0.000167000005604 -0.0324875126454
0.0109526371179 -0.000167000005604 -0.0297212183039
0.0101229101665 -0.000167000005604 -0.0306200867168
0.0135775951265 -0.000167000005604 -0.0315033715157
0.00827899926794 -0.000167000005604 -0.0316192340283
0.00823799291421 -0.000167000005604 -0.0291301556892
0.0135428284419 0.000628228848642 -0.0220480002463
0.0114737266568 0.000808793610896 -0.0220480002463
0.0103001489736 -0.000167000005604 -0.0228201675021
0.0141371984679 -0.000167000005604 -0.0245179130217
0.0144614509595 -0.000167000005604 -0.0257742527661
0.0135630441332 -0.000167000005604 -0.026881208928
0.0080066048667 -0.000167000005604 -0.0228263929306
0.0152414112953 -0.000167000005604 -0.0288841336165
0.0106528963616 -0.000167000005604 -0.0239483993271
0.0120272164844 -0.000167000005604 -0.028323562739
0.0148691501816 -0.000167000005604 -0.0314739549345
0.0118684140868 -0.000167000005604 -0.0232430584486
0.0133335629834 -0.000167000005604 -0.0286357187159
0.0141644656581 -0.000167000005604 -0.0295742225664
0.0113538155519 -0.000167000005604 -0.0251213416861
0.00918021969448 -0.000167000005604 -0.0228289434039
0.00910380189676 -0.000167000005604 -0.0240431670155
0.0133122231943 -0.000167000005604 -0.025810581247
0.0154499998316 0.000221654055786 -0.0252295241217
0.0154499998316 0.00125085538788 -0.0234319074574
0.0154499998316 -3.37131611295e-05 -0.0268631476819
0.0154499998316 -9.1722072587e-05 -0.0232425142247
0.0154499998316 0.000631269779235 -0.0221261084066
0.0120616276019 0.00547999981791 -0.0230603833155
0.0140546249368 0.00547999981791 -0.0270032533416
0.0130478210424 0.00547999981791 -0.0247114971853
0.0141844248837 0.00547999981791 -0.0322259017924
0.0133329675617 0.00547999981791 -0.0234419989387
0.0130551461898 0.00547999981791 -0.0260181138434
0.0127614244548 0.00547999981791 -0.0284675639862
0.0136988675446 0.00528271357863 -0.0220480002463
0.0140202721908 0.0041558043168 -0.0220480002463
0.00778652084227 0.00300033761919 -0.0220480002463
0.0153037409467 0.00272451703201 -0.0271852743101
0.0153490621773 0.00240662813639 -0.0253882926211
0.0151868706246 0.00349373946804 -0.0298931532397
0.0153390250912 0.00241356058793 -0.0233666261655
0.00920072082234 0.00547999981791 -0.0267981914956
0.0077018072814 0.00481683373814 -0.0302383440317
0.00779601631827 0.00150675615562 -0.0330069929226
0.00856578138193 0.00328951293919 -0.0333163245335
0.00862625031312 0.00474637146339 -0.0333126677825
0.011289111326 0.00145451664374 -0.0333399996161
0.00892976928658 0.00189636012386 -0.0333399996161
0.00960072577228 0.000884589740456 -0.0333399996161
0.0118001568408 0.00482496599912 -0.0332812026126
0.0128280725189 0.000311190486458 -0.0333399996161
0.0101018666689 0.00490504913046 -0.0333399996161
0.0121542529541 0.00337213479123 -0.0333399996161
0.0109089584654 0.00385085562209 -0.0333399996161
0.0109643689406 0.00257051783273 -0.0333399996161
0.014554414768 0.0053301857837 -0.0239186609955
0.0146052557849 0.00497008200906 -0.0226528697125
0.0150153953883 0.00400819789897 -0.024086054409
0.014898310773 0.00451720474507 -0.0265226728695
0.0151200545045 0.0036465907235 -0.0254680266224
0.0151220105846 0.00357074445657 -0.0228600107878
0.0150263902017 0.00408408289872 -0.0285724366801
0.00736383035341 0.00376894715945 -0.027781725196
0.00698073439953 0.00253930899642 -0.0256821192882
0.00684630339725 0.00221663038427 -0.0227522868606
0.00723295761888 0.00336909135524 -0.0266570959019
0.00672376377634 0.00171241070836 -0.0243158744532
0.0154499998316 0.00135349194407 -0.0284300695815
0.0154499998316 0.00191256875804 -0.0300373704767
0.0154499998316 0.00161452216345 -0.0271197004782
0.0154499998316 0.00117817642988 -0.0315463880872
0.0154499998316 0.00135263399776 -0.0246134295131
0.0153273138987 0.00263164982186 -0.0290659413792
0.0153837323052 0.00234328950593 -0.031011922789
0.0152379477462 0.00324749946981 -0.0321850808682
0.0151774904859 0.000867449329802 -0.0329768262339
0.0138009452992 0.0041370738056 -0.033112906504
0.0132384797329 0.00143482555622 -0.0333037407531
0.0140787744877 0.00257596430872 -0.0331954163777
0.0153682190611 0.00207182486358 -0.0326275086076
0.00757533402011 0.00251898430373 -0.0325700612938
0.00650158220782 0.000433827464762 -0.024153970187
0.00723007692655 0.000644608543866 -0.0311446891852
0.006943220687 0.00054922412579 -0.0283944517738
0.00677695598819 0.000556771262935 -0.0267878671981
0.00692049455401 0.00190785918375 -0.0267044810727
0.0073235841108 0.00331798028124 -0.0290827598521
0.00737081664189 0.00157629041797 -0.0318627852716
0.00716036902815 0.00251002713435 -0.0284306226651
0.0071744114351 0.00172335097935 -0.0296098103955
0.0073572368034 0.00256949162236 -0.0304175464334
0.00675326090919 0.00148065082935 -0.0255107632535
0.0077575340663 0.00437240575775 -0.0322513028555
0.00761972081467 0.00405859656311 -0.0312174244222
0.00863186764312 0.0045070975024 -0.0241801240608
0.0084402595618 0.00523649236175 -0.0278232976226
0.00959333458584 0.0053327111996 -0.0241149023196
0.00977674188201 0.005206038383 -0.0229484888999
0.0076475105982 0.00373486401487 -0.0247730982034
0.00706472703995 0.00288719155137 -0.0237104968248
0.00805963509973 0.0044784715574 -0.0261009562594
0.00797316519112 0.0036577018672 -0.0231644042142
0.00770917027352 0.00482609780762 -0.0288901331817
0.0148102197555 0.00447583077714 -0.0324963483365
0.00100041462143 0.00811723176643 -0.0333399996161
-0.000852389066845 0.0116043850373 -0.0220480002463
0.00762039041214 0.0119244461106 -0.0220480002463
0.000749411069818 0.00854003068635 -0.0220480002463
0.00642206892534 0.0113512372615 -0.0220480002463
0.0092608237902 0.0120234646375 -0.0220480002463
0.00520029065331 0.0123554518762 -0.0220480002463
-0.000516686212205 0.0135795119002 -0.0220480002463
-0.0015129813545 0.0126636638136 -0.0220480002463
0.00154863591895 0.0075798716247 -0.0220480002463
0.00375987039802 0.0124826927788 -0.0220480002463
-0.00206944952917 0.0136706256716 -0.0220480002463
-0.00376494779842 0.0132829462595 -0.0220480002463
0.00330551281353 0.0103478603502 -0.0220480002463
0.000319301625522 0.0111477481747 -0.0220480002463
-0.000672183983035 0.0091922439227 -0.0220480002463
0.00303195698916 0.00787876996283 -0.0220480002463
0.0117812390211 0.00827704046521 -0.0220480002463
0.00853792270748 0.00864752981027 -0.0220480002463
0.00423516699338 0.00772443813803 -0.0220480002463
0.00317265227936 0.00655734026173 -0.0220480002463
0.010838345855 0.00612944973794 -0.0220480002463
0.0105690481054 0.00727972717906 -0.0220480002463
0.0127514223055 0.00597264886548 -0.0220480002463
0.00173437024668 0.00624734155348 -0.0220480002463
0.00721852994328 0.00892806207411 -0.0220480002463
0.00162737950424 0.0145235742124 -0.0220480002463
-0.000764607774898 0.0146873707512 -0.0220480002463
0.0123724057095 0.00548100005835 -0.0296525138492
0.0114916799521 0.00548100005835 -0.0304726329134
-0.00498400023207 0.0118794662993 -0.0253307934727
-0.00498400023207 0.013017977756 -0.0249325526026
-0.00498400023207 0.0107825103773 -0.0271838841064
-0.00498400023207 0.0145051298621 -0.0251144840142
-0.00498400023207 0.0137735676144 -0.0276287269303
-0.00498400023207 0.0142990944918 -0.0306401241804
-0.00498400023207 0.0127856485687 -0.0282595584123
-0.00498400023207 0.0116713296909 -0.0320386623595
-0.00498400023207 0.0100490005239 -0.0309017725992
-0.00498400023207 0.0120558605274 -0.0272315938997
-0.00399712674527 0.00830804372731 -0.0329016903973
-0.00099216283897 0.00749211544414 -0.0328266249278
0.000433625495127 0.00700034483333 -0.0326771304621
0.00218805789478 0.00699320322416 -0.033144006171
-0.00269407701567 0.00755504567736 -0.0324346765615
-0.00236256653446 0.00717257114547 -0.0244741739884
-0.00244824884779 0.00714829936955 -0.0273465288418
-0.001988443506 0.0070076640675 -0.0257275097397
-0.00421788343922 0.00775218030502 -0.0303884294898
-0.00128258632147 0.00681520176041 -0.022048924279
-0.000659547430846 0.00655035163489 -0.0236383515029
0.00920629791716 0.00846259138508 -0.0333399996161
0.00259460686648 0.00810352434025 -0.0333399996161
0.000835969129513 0.00943873530502 -0.0333399996161
-0.000559346552851 0.00962168193596 -0.0333399996161
0.00601562255534 0.00666446357642 -0.0333399996161
0.00880939769215 0.00739189171575 -0.0333399996161
0.00462516910718 0.00854096658523 -0.0333399996161
0.00344736018918 0.00911222230288 -0.0333399996161
0.00533899216202 0.00955776631205 -0.0333399996161
0.00541735749605 0.00770179281875 -0.0333399996161
0.00384731717544 0.00769150993539 -0.0333399996161
0.00801838344783 0.0088073230237 -0.0333399996161
-0.00220220990494 0.0102626668148 -0.0333399996161
0.00719531116752 0.00742596760505 -0.0333399996161
0.00192077259401 0.00968801285909 -0.0333399996161
0.0115111731876 0.00643404298078 -0.0332214902811
0.0102259453592 0.00783982374334 -0.033310668658
0.0127977912167 0.00666491970491 -0.0331569869059
0.00936543719972 0.00618261336804 -0.0333310851029
0.00240562066742 0.0153586601349 -0.0324914945947
0.00111397382865 0.0154280001298 -0.0319092331581
7.9218547673e-05 0.0154280001298 -0.0264727536517
0.00096664346157 0.0154280001298 -0.0291738702416
-0.000502697753758 0.0154280001298 -0.0293581056057
-0.000188267686037 0.0154280001298 -0.03231479139
0.000162456874576 0.0154280001298 -0.028372648158
-0.000476168145024 0.0154280001298 -0.0245077329097
0.000763406858476 0.0154280001298 -0.0307567216105
0.00919417348707 0.00548100005835 -0.0317910629212
0.00993697591704 0.00548100005835 -0.0296844678093
0.011976032871 0.00548100005835 -0.0269083619577
0.000257112321475 0.00668149959906 -0.0283524980335
0.00141643014897 0.00668230982801 -0.0317240211822
-0.00390721760971 0.00771533735186 -0.0318116445401
0.00338774295386 0.00612862303655 -0.0291210528755
0.00473875277231 0.00583641401699 -0.0286474930947
0.000768204075216 0.00642377896112 -0.0259630525828
0.0061382903194 0.00581952738097 -0.0324493302486
-0.00071899252255 0.00680860152233 -0.0274328496003
0.00509857983481 0.00595268831773 -0.0314363657254
0.00302609067799 0.00599062622449 -0.0260006637077
-0.00269386297212 0.00743248725691 -0.0310797532272
-0.000965273862552 0.00695171590276 -0.0288684849736
0.00746911979001 0.00553501387183 -0.032032864676
-6.44030634867e-05 0.00683456962353 -0.0297196410982
-0.000922813808913 0.00668130990141 -0.0249305773162
0.00494927704425 0.00589859015745 -0.0301912875071
0.00276836038092 0.00645404950144 -0.0322135068385
0.00132972852538 0.00640199227137 -0.0272629904891
0.000374208117738 0.00640834704761 -0.0245896148054
0.0018990718163 0.00614240812541 -0.0250143544402
-0.000594748596573 0.00669678870079 -0.0261136717088
-0.000260327762578 0.00694901720524 -0.0308706783195
0.00253961833034 0.00622404016759 -0.0280964120507
0.00391597416806 0.00623636923204 -0.0322698355331
-0.00211485811394 0.00723879648789 -0.0298486970247
0.00392875417423 0.00594485310728 -0.0279288931999
0.00195734195141 0.0064253063471 -0.0294317555132
0.000301021384765 0.00630281445348 -0.0227926582595
0.00126061926516 0.00664069505266 -0.0306475593291
0.00291482702045 0.00631437904063 -0.030540359033
0.00556772060757 0.00565359264741 -0.0261747533115
0.00663551105605 0.00559612002709 -0.0299971782924
0.00330709254509 0.00591929153905 -0.0245760678127
0.00656991095435 0.00558014626728 -0.0288829104221
0.00391593872901 0.00588614215619 -0.0267385011039
0.00350943232256 0.00585984722487 -0.0231111796724
0.00547885097627 0.00569622022753 -0.0275629676093
0.00228312135322 0.00602350608228 -0.0231243756068
0.00433881319678 0.00580229188093 -0.0254978448609
-0.00442122815484 0.0147412746053 -0.0328001755869
-0.00498400023207 0.00980471844222 -0.0280153770876
-0.00407135916694 0.00777679831838 -0.0288596180095
0.00749600682164 0.01360711701 -0.0316553699537
0.0104539149167 0.00548100005835 -0.0249004772602
0.0111503027905 0.00548100005835 -0.0239149812883
0.00995017573675 0.00548100005835 -0.0281621029762
0.00894457850038 0.00548100005835 -0.0291755847373
0.0107629429574 0.00548100005835 -0.0268509428008
0.00821003187992 0.00548100005835 -0.0309871702787
0.00790474376427 0.0055439008731 -0.025270398984
0.00758245652341 0.00554774336332 -0.0266174559513
0.00865553543411 0.00552451219056 -0.0233535651064
0.00668265964867 0.00559886221502 -0.0256523143619
0.004944649454 0.00569401767518 -0.0242073896972
0.00676283994368 0.00558047860991 -0.0273563338042
0.00717909437849 0.00559220889117 -0.0236633238942
0.00459989414409 0.00572377409476 -0.0226476027588
0.00599115173026 0.00565536495783 -0.0228960754637
0.00641619658275 0.00562162605152 -0.0244742492758
0.00620356396004 0.014212890243 -0.0220480002463
0.00328486261572 0.0104358614835 -0.0333399996161
-0.00340105911501 0.0111305975595 -0.0333399996161
0.00146561961286 0.0107075447089 -0.0333399996161
-0.00049873533749 0.0113246565884 -0.0333399996161
0.00662769752177 0.00960864322438 -0.0333399996161
-0.00226414024755 0.0113808643132 -0.0333399996161
0.000832571440663 0.0119081622769 -0.0333399996161
0.0105598520532 0.00885988099145 -0.0333020316685
0.0120259026515 0.00828071995848 -0.0331427907652
-0.00308973199191 0.0147910039798 -0.0329689547088
-0.00408538616294 0.0130185041444 -0.0331853139022
-0.00105203033269 0.012484280921 -0.0333188804899
-0.00294330936976 0.0131505147849 -0.0332116988665
0.000761178059499 0.014578937694 -0.0331135815926
-0.000596064978238 0.014394335747 -0.0331174350844
-0.00176425618537 0.0136895371584 -0.0331832260938
0.000280880445264 0.0132965287968 -0.0332542289049
-8.25454577054e-05 0.0154280001298 -0.0229951477186
0.000814967512948 0.0154280001298 -0.0242174996112
0.00144460558749 0.0154280001298 -0.0268786372599
0.00192571762299 0.0154280001298 -0.0304385607356
0.00153614315585 0.0154280001298 -0.0251383215293
0.00275917642848 0.0153121607331 -0.0259463855012
0.00321520002335 0.0152896578907 -0.0299762330358
0.00373767074207 0.0151829427293 -0.0282705792718
0.00184391390237 0.0154279089081 -0.023372433471
0.00300541196533 0.0152879682479 -0.0271816204958
0.00257805850361 0.0153794075114 -0.0289011100467
0.00478099287165 0.0148176711344 -0.0320142668508
0.00438519856753 0.0149653304366 -0.0304648354789
0.00318309458393 0.0152786087814 -0.0311900083482
0.00383565665066 0.0150336983858 -0.0228628147231
0.0046251101445 0.014864502582 -0.0254656628258
0.00426117313761 0.0149442341167 -0.0243321613459
0.0050011455195 0.014691409801 -0.023159825073
0.00297450011683 0.0152446134707 -0.0236667492031
0.00336863317759 0.0151984544335 -0.0250314656234
0.00280068206559 0.0152533031864 -0.0222629960066
0.0070387208241 0.0135156897756 -0.0328083744896
0.00811648870554 0.0126707979053 -0.0330130606553
0.00884028417215 0.0110705359085 -0.0332023566552
-0.00453417402277 0.00993585396189 -0.023620530977
-0.00394797296326 0.00881528831675 -0.0244205643136
-0.00385253954713 0.00798879920914 -0.026425888595
-0.00366792774439 0.00894422679913 -0.0228688640589
-0.00303120261201 0.00788729386401 -0.0232714171403
-0.00340751819424 0.00777622449275 -0.0252470088593
-0.00396842473821 0.0078411303149 -0.0275124716448
0.00260734872391 0.0142863576968 -0.0331521593519
0.00166751348483 0.0133298876004 -0.0332476413085
0.00682487951121 0.0107732142287 -0.0333399996161
0.00813097597205 0.00995261713117 -0.0333399996161
0.00549885498565 0.0108527039126 -0.0333399996161
0.00341258956205 0.0118585758882 -0.0333399996161
0.005522470056 0.0140061601329 -0.0330884284
0.0039147225494 0.0143647227147 -0.0331089799311
0.00455125063117 0.0130604278761 -0.0332355334435
0.00951719264066 0.00973537832461 -0.0333191694799
0.00604289653289 0.0130364337584 -0.0331643388212
0.00712390423384 0.0119859008009 -0.0332149605509
0.0108085390437 0.0113613243879 -0.0271939658817
0.011769844227 0.0102581587001 -0.0227659985408
0.0110579833951 0.010987258386 -0.0233040932519
0.0105340496908 0.0115691850494 -0.0251142603373
0.0114835199483 0.0107593257391 -0.0313492127773
0.0116855558935 0.0104960614913 -0.0279843594887
0.011738507528 0.0103382278697 -0.0243574185614
0.0117648559692 0.0103463762827 -0.0255921702426
0.0105582688439 0.0116118098187 -0.0311467989628
0.00963889545575 0.0122598564209 -0.0323111443007
0.0088310018957 0.0128681441438 -0.0314867811973
0.0125185224444 0.00943915733253 -0.0285846597913
0.0126317621926 0.0092562856158 -0.0299825901754
0.0117474090749 0.0104721671933 -0.0294372581095
0.0129416275693 0.00882203342762 -0.0275735130151
0.0125793482146 0.00937405922618 -0.0264082058376
0.013111688472 0.00852229961356 -0.0256580631082
0.0126756498183 0.00915317291241 -0.0243187341944
0.0126445330444 0.00913418240526 -0.0230581477587
0.00838644365551 0.0131287238382 -0.0236943637907
0.00867076018814 0.0128870193206 -0.0225103955855
0.00807524144655 0.0134166853044 -0.028487350389
0.00788942761734 0.0134886733377 -0.0265590397658
0.00802066015759 0.013392492666 -0.0252761205777
0.00803188949864 0.013467288838 -0.0300096412342
0.0108126913942 0.0114387449956 -0.0298183137957
0.00920100949959 0.0126515117714 -0.0270258580152
0.0104822538027 0.0116798939867 -0.0284775787167
0.00932202176281 0.012536465379 -0.024778784705
0.00999215292247 0.0120128189607 -0.0239546665075
0.00954446532452 0.0123755661316 -0.0258285326094
0.0089787839985 0.0127888781767 -0.0294633500845
0.00986694035516 0.0121347047172 -0.0300763036852
0.00934637099149 0.0125322670096 -0.0283291614302
-0.00399218371312 0.015039087399 -0.0318566223348
-0.00379127549914 0.0150210078015 -0.0245704291384
-0.00467862040872 0.0148532539157 -0.0281626684196
-0.00387529099543 0.0149579474414 -0.0229347496871
-0.00469181374717 0.0147435870723 -0.0237276388445
-0.00394461351796 0.0150615410117 -0.0298205823327
0.010634982305 0.0114238080146 -0.0324483292747
0.0129373094334 0.00879769001974 -0.0314242318864
0.012268419271 0.00973121299323 -0.0320651432562
0.0114598980888 0.0105156249561 -0.0326766564839
0.0139158431859 0.00675978688634 -0.0325712051486
0.0131141458871 0.00786414013381 -0.0327538906324
0.00627207082684 0.0142785592546 -0.031615136778
0.00701567012652 0.0139363913149 -0.0259788473663
0.00694787004489 0.0140242730895 -0.0293448134558
0.00731718851495 0.0138046445985 -0.0275242750437
0.00622937972461 0.0143137076309 -0.0250788927283
0.0072434458288 0.0137877088874 -0.0240425184395
0.00730367508278 0.0137329766663 -0.0227580258972
0.00611268439648 0.0143469714387 -0.0237786809459
0.00494563549037 0.0148051227845 -0.0291733016349
0.00596557797922 0.0144648207728 -0.0300911559417
0.00576567608253 0.0144970706511 -0.0262025222627
0.00449019956193 0.014936278411 -0.026830049783
0.00625109940549 0.0143622754385 -0.0284514760912
0.0142559939562 0.0063883875633 -0.0306730387406
0.0139770113021 0.00702437471495 -0.0273183264207
0.0135548557749 0.00790720848963 -0.0308372904249
0.0140129254404 0.00692895368066 -0.0262125316343
0.0135199303755 0.00794307428987 -0.0296528725782
0.0141098944642 0.00681053545584 -0.0287532381055
0.0135975042188 0.00767217973656 -0.0246926549564
