0.016013000160455704 -0.005065697408696697 -0.0206851489159693
0.016013000160455704 -0.012158884141423153 -0.0028694669578836814
0.016013000160455704 -0.011057078354024094 0.0041639803581048195
0.016013000160455704 -0.00999016557244274 0.001996444114308947
0.016013000160455707 -0.005801757841054012 -0.008267864733666589
0.015905377162447748 -0.012822999618947506 -0.019114445060644962
0.013625707373674955 -0.005686593863961436 0.02004705080796195
0.012689201210052733 -0.008168682207921461 0.021325929415494813
0.012246999889612198 -0.006810979636403666 0.019616684079677094
0.012246999889612198 -0.008069727690825512 0.01821113367982513
0.012246999889612198 -0.005041655710355818 0.018395929175660176
0.012246999889612198 -0.011030601551488061 0.019384022565244383
0.013613541357407027 -0.011883298383615133 0.018422945905347928
0.012773758419138043 -0.009801586437687268 0.020977854952647507
0.01270536939460616 -0.0071388440009622495 -0.01778833680594211
0.012616996730640984 -0.006329331328220137 -0.016087040415632924
0.01235247915024809 -0.0022926479302720565 -0.010479970574733816
0.012278726516020372 -0.006152489293958709 -0.010506894942522532
0.0124286384176552 -0.004874130766804674 -0.012547073826084228
0.012354742408197322 -0.00696630625487252 -0.012007786254906727
0.012246999889612198 -0.0052604330272020515 -0.009028205809137128
0.012397294957612832 -0.00980544887189602 -0.01250967712946377
0.012605971169023445 -0.00822411489124511 -0.016373185106167837
0.012587797527830982 -0.00983814163626249 -0.015666531980968405
0.012437649848142725 -0.007902015782081013 -0.013657422247918652
0.012309033437851828 -0.008772289123731649 -0.011302342013619428
0.014017430008775015 -0.0023648830449662294 0.018173153541042698
0.013961520102275637 -0.0036053521988537447 0.01895219654457766
0.013599617678948081 -0.010355515402738243 -0.021095754433926306
0.01243445571866581 -0.011448010630656301 -0.012692704238860333
0.012719290525392495 -0.009691069917912729 -0.017582374158022582
0.013436760953510079 -0.011280302459535629 -0.018718322543533845
0.013185379439972165 -0.011512548505599863 -0.016891024339063067
0.0129096328034572 -0.011744091647492566 -0.014929216892682975
0.012908398464599402 -0.009123935900749343 -0.01973088371209698
0.01453483491432164 -0.006262333690076042 0.01880556003255151
0.013883153870437417 -0.009788981233398077 0.019695485778191784
0.015838004167254182 -0.004938472826227803 0.01702597187359701
0.01489206777773775 -0.00806907744394121 0.018317728254527182
0.015589045122053856 -0.002566145626642987 0.01736594656829314
0.011764420394660097 0.005073250122921985 -0.01108308978837073
0.012495172605540374 0.007474534910219337 -0.018891139893076656
0.011821090153939562 0.00824867132244776 -0.01193747183863184
0.011695269838605898 0.0034243638788343184 -0.01022585856690166
0.011919847058901803 0.004019073405132474 -0.012613527364091243
0.01206446922012136 0.006400179468234358 -0.014317482715839644
0.012246209651465056 0.006087292058163971 -0.016183599242129393
0.011712298001468625 0.006954207508889728 -0.01069702517242835
0.011899524124474767 0.006717702997461243 -0.012626614568841463
0.013876043531983363 -0.0008980000275187194 -0.003832229318488868
0.01403753287351935 -0.0008980000275187194 -0.0074208222151628716
0.01324169790012033 -0.0008980000275187194 -0.005563684699757886
0.014301662688871564 -0.0008980000275187193 0.002051404472077348
0.013921594663662173 -0.0008980000275187194 -0.013123489209652422
0.014802141452140231 -0.0008980000275187195 0.00042063838404253246
0.016013000160455704 0.009129716648496142 0.004494849284233127
0.016013000160455704 0.010496869182428273 -0.0006156683289411042
0.0160130001604557 0.004514669158025854 0.00890902871677027
0.016013000160455704 0.012163351775204547 0.01123237995839264
0.016013000160455704 0.0069416583771690155 0.0015506281108665296
0.016013000160455704 0.006195598616257758 0.006983686624896323
0.0160130001604557 0.0024731588689164935 0.008670812162551242
0.016013000160455704 0.004014186146677937 0.004995668777792716
0.0160130001604557 0.009577728808788362 -0.014232181894432724
0.016013000160455704 0.004057685385758913 0.006838492659219627
0.016013000160455704 0.0028693871945559557 0.010471415251721043
0.016013000160455704 0.008368881320023693 -0.0013776368840625617
0.016013000160455704 0.008190742211806362 0.01522673484261862
0.016013000160455704 0.007289353337608038 0.010105388208331024
0.016013000160455704 0.0029457176007668473 0.016264282123049305
0.016013000160455704 0.009579297418879033 0.016218969330473426
0.016013000160455704 0.009179319660594721 0.010713781416015238
0.016013000160455704 0.009649389553206917 0.008793280041401993
0.016013000160455704 0.008954482031751232 -0.004422242862241988
0.016013000160455704 0.009098031474362925 0.00011533348436893343
0.016013000160455704 0.008094936461775849 0.008471606181236279
0.016013000160455704 0.00860658460643694 -0.006372531279620624
0.016013000160455704 0.006997120658865518 -0.005602331100307888
0.016013000160455704 0.006714275920169227 0.016402632489716094
0.016013000160455704 0.006120083910534242 -0.0027239715315750253
0.016013000160455704 0.004364258052550166 0.003355447055538866
0.016013000160455704 0.009526641868657952 0.0029518974796010344
0.016013000160455704 0.01063406815987009 -0.01288865514338077
0.016013000160455704 0.007452591024932091 0.011850494359011893
0.016013000160455704 0.009931672685974498 -0.0020991764938910586
0.016013000160455704 0.005682618963940318 0.010489923947731012
0.016013000160455704 0.006110991349667744 0.008865206189110696
0.016013000160455704 0.006591761672530753 -0.0006539494223028529
0.016013000160455704 0.003892427800225247 0.0138899896125605
0.016013000160455704 0.010536921614278827 0.001092258591745437
0.016013000160455704 0.01081956081683128 0.015209511914168312
0.016013000160455704 0.010811891133458339 0.010392996344379488
0.016013000160455704 0.007195717286000575 0.005217509882438026
0.016013000160455704 0.0022911772623533558 0.012649868062040284
0.016013000160455704 0.010470831757596114 0.00736273736586311
0.016013000160455704 0.005461573574454939 0.0046184990585070255
0.016013000160455704 0.00888992551867037 -0.008641144887785869
0.016013000160455704 0.010543280254365246 -0.0062026780470434495
0.016013000160455704 0.004365386465692181 0.012240174397230663
0.016013000160455704 0.00986679604326161 0.012205924975907785
0.016013000160455704 0.0017550247350929557 0.015102775673201892
0.016013000160455704 0.008614450505710212 0.0017623886863513257
0.016013000160455704 0.007133126151482689 0.013497866640240185
0.016013000160455704 0.004648674007626008 0.01566029413074774
0.0160130001604557 0.005116325313430283 0.0011740371873303736
0.016013000160455704 0.008610820958483957 0.006693526420156955
0.016013000160455704 -6.180753024438208e-05 0.015477154045047837
0.016013000160455704 0.012101838723984876 -0.003617642585446823
0.016013000160455704 0.009894556850042403 0.013732718483988
0.016013000160455704 0.0055962817885186495 0.013382105957124652
0.016013000160455704 0.01189064640739337 -0.001833078099022209
0.016013000160455704 0.011073057970469863 0.005180524039695557
0.016013000160455704 0.010544242556048695 -0.011160627825315806
0.016013000160455704 0.011700976785616492 0.01276706779432413
0.016013000160455704 0.00047307802063007505 0.013489373150938415
0.016013000160455704 0.011339592883213371 -0.008441634079120072
0.01283489085233527 -0.0008980000275187194 0.0008420081415233755
0.01460649679995099 -0.0008980000275187194 0.01204474345038238
0.015153977049240965 -0.0008980000275187193 0.014635370379914405
0.011618999764323235 0.0028852254838527516 -0.007875343143178566
0.011618999764323236 0.0009467063737041849 -0.007813451898029965
0.011618999764323235 0.0006786795687405973 0.0004854700894557154
0.011618999764323235 0.0012550303246119249 0.0023180448192545696
0.011618999764323233 0.00942581983500754 -0.007371214676013855
0.011618999764323235 0.004444548132952229 0.000951723423246678
0.011618999764323233 0.0016571799820008426 -0.004497567879956792
0.011618999764323235 0.001140333355862314 -0.005961114029586565
0.011618999764323235 0.003340312555870327 -0.0005626168557640006
0.011618999764323235 0.005572416785495284 0.0023306439614759044
0.011618999764323235 0.0049068722328712185 -0.003925248129707296
0.014539983724112372 0.00012596510518450018 -0.021646145819026255
0.014673799274196356 -0.0008980000275187195 -0.014659310038062263
0.015045851156759967 0.012285999953746796 0.014457723189346041
0.012459939905361993 0.012285999953746796 0.01250017613129908
0.014171839125212997 0.012285999953746794 0.012705069726848168
0.012881151165399563 0.012285999953746796 0.0027245190259957753
0.014334605689635153 0.012285999953746796 0.008031578167812962
0.013232955167696264 0.012285999953746796 0.014139128808279906
0.013331489816705913 0.012285999953746796 0.0063371145448186585
0.011668233650722667 0.012285999953746797 -0.007710888500971777
0.012432822501778858 0.012285999953746796 0.004654559721641297
0.011618999764323235 0.010793402914149583 -0.00028846727986397156
0.011618999764323235 0.0063615667404582485 0.007711395034494174
0.011618999764323235 0.009671750392111877 0.004796675236413497
0.011618999764323235 0.005440117752412983 0.012345479881947122
0.011618999764323235 0.002879525558381949 0.01592286335520797
0.011618999764323235 0.004539019347565259 0.014009900090631213
0.011618999764323235 0.007488366859832097 0.015006437548495998
0.011618999764323235 0.009933613511046045 -0.002282256316956728
0.011618999764323235 0.01058807758080482 0.010701675803026663
0.011618999764323235 0.009116773742344618 0.0009492264778247638
0.011618999764323235 0.007347256286507779 0.0035387634148313575
0.011618999764323235 0.011194052186362127 0.001430601209899152
0.011618999764323235 0.01077217054239032 0.008374087405181063
0.011618999764323233 0.002217251018885043 0.017304277105285377
0.011618999764323235 0.0018072485964747559 0.01203894870752532
0.011618999764323235 0.008820112902328045 0.01237858024925664
0.011618999764323235 0.005653929745108861 0.005857861567672292
0.011618999764323235 0.010111147835479773 0.0165930800815898
0.011618999764323236 0.009303763125324846 0.0029776654255531214
0.011618999764323233 0.010436806588539144 -0.003999753613298846
0.011618999764323235 0.012086623954945367 -0.0021584058355379344
0.011618999764323235 0.009162503288418555 0.01536454051765535
0.011618999764323235 0.007562203979188915 0.001478187657780695
0.011618999764323235 0.00815806485258006 0.010630781832075258
0.014449343905434946 0.004290257932228301 -0.021659689219387754
0.013833334076429627 0.012285999953746796 -0.016629222643027814
0.014026508448017002 0.012285999953746796 -0.02095640983513983
0.014376378440396164 0.012285999953746796 -0.008685169296516297
0.014064071508940422 0.012285999953746796 -0.003840275712285872
0.014025896766843824 0.012285999953746796 -0.010476348736790396
0.01297939923894782 0.007911690079197814 -0.020919573444517933
0.016013000160455704 0.0003014187039423479 0.005844329473602314
0.016013000160455704 0.005696897053473787 -0.015198684311095084
0.016013000160455704 0.0081977110557973 -0.016714443788360844
0.016013000160455707 0.003340867951717054 -0.0011598558726625989
0.016013000160455704 0.006711383990364613 -0.017354593070937507
0.016013000160455704 0.006764251483552241 -0.01134562929667702
0.016013000160455704 0.0050420410755785475 -0.013378783580216387
0.016013000160455704 0.010815227269744123 -0.0181657156252375
0.016013000160455704 0.00028996004643833584 0.009361020050388288
0.016013000160455704 0.003118801655355729 -0.012422485552240287
0.016013000160455704 0.009607720826534312 -0.020662842462413074
0.016013000160455704 0.0019872274705505263 0.007036253403202734
0.016013000160455704 0.004362856791018025 -0.017939400391480745
0.016013000160455704 0.008936864931516773 -0.018439835968327125
0.016013000160455707 0.00819642881593131 -0.010370022854591349
0.016013000160455704 0.002984698653596236 -0.005089584907365648
0.016013000160455704 0.0060481310896408225 -0.009433424944799432
0.016013000160455704 0.0028239086134714706 -0.007416364705547626
0.016013000160455704 0.0037210321584899824 -0.009607336662141041
0.016013000160455704 0.007320806222204388 -0.015327287176991496
0.016013000160455704 0.007834457368872748 -0.019898596672961035
0.016013000160455704 0.0056880109789047935 -0.007662220095260507
0.016013000160455704 0.0022414427053183673 0.0008817853221908681
0.016013000160455704 0.004155203022464054 -0.020564596630473837
0.016013000160455704 0.009774788774429262 -0.016049654480817944
0.016013000160455704 0.005427996273734215 -0.004091074969625149
0.016013000160455704 0.0014802661150786788 -0.0012013605738061782
0.016013000160455704 0.0022692474749565067 0.0048937490847830115
0.016013000160455704 0.004588228615811103 -0.01634038898309044
0.016013000160455704 0.0032190870661687374 -0.014776045695205464
0.016013000160455704 0.005017319359792907 -0.0058764576910840145
0.016013000160455704 0.00785133861717329 -0.01263662469573619
0.016013000160455704 0.002947322842030438 0.0026669236160734655
0.016013000160455704 0.005641650958181176 -0.01924120309604339
0.016013000160455704 0.00233959880374502 -0.010204585263419844
0.016013000160455707 0.0007933228364606571 0.011317877007954578
0.016013000160455704 0.003962272678472396 -0.0029535407719350776
0.016013000160455704 0.004765709951242555 -0.011718484722246562
0.01601137659929952 0.0013624003473126833 -0.006384202098150694
0.015981382556040452 -0.0003660789244215046 0.007526444242382175
0.015807406758941385 9.808033901293411e-05 -0.018404518697823946
0.015862707249298377 0.00040298151324886426 -0.01476053035447129
0.01592261093442562 0.0007669965266688588 -0.011156082581352617
0.015977036543878595 0.0015588467628729744 -0.012568019375864258
0.015977992884062903 0.002176637165925745 -0.018730502764256314
0.015975221585843517 0.000654759565849716 -0.003600368822209264
0.015907145727926498 0.0004234701283994405 -0.009550267014029116
0.016011834265163866 0.0003794840425730715 0.003661758287493995
0.015864455226662227 -0.0002732262838133808 -0.007674559938738623
0.015934673214611107 0.0018507892724408895 -0.020700738741245103
0.015812135866528673 -0.00044004876444218014 -0.012358453902793564
0.015899046544322865 -6.926819798421858e-05 -0.005529733253087419
0.015920406837765175 -0.0003111031189056585 -0.0004672545995707115
0.015881727969489164 0.0007730661602144284 -0.016202744894833258
0.011618999764323235 0.0017680303926955068 0.018891504009859728
0.011618999764323233 -0.0004054657727326553 0.017594821273484426
0.011618999764323235 0.006465114948049071 0.01933456587452561
0.011618999764323235 0.0046060671769302276 0.01944743195948557
0.011618999764323233 0.008553755471020644 0.017660110506187127
0.011618999764323235 0.010235769999996022 0.01864636477485689
0.011982332458617403 0.009629834087400075 0.021494999527931217
0.011872046408656769 0.00040204100905401146 -0.010579883492240844
0.012220560376866703 0.0021337678851006845 -0.01366225598136522
0.013565564431915405 -0.0001851457576212929 -0.01904988900732809
0.012808484736269155 0.003473987356234223 -0.017718994690052576
0.013513714218744987 0.0024685611253125374 -0.02069605460826502
0.01253486174831591 0.003251219999548435 -0.016120853137743325
0.013146786075201745 0.003404493673058599 -0.019445543756825383
0.01285458245327752 0.00500824589340884 -0.019070290632475183
0.013485445944581852 0.0012162110674090996 -0.019642205211004286
0.012582207622678554 0.0008265971813399518 -0.01461664582223494
0.01259014961695467 -0.0006054212202162438 -0.01362308546682419
0.01300266859568694 0.0006859647259989672 -0.016723275214349735
0.01317739883655921 0.005669846160707503 -0.020806012700596746
0.01598862135796046 0.01207456126978576 -0.010501690142816869
0.015558325971386781 0.012277414591105018 -0.012282819007177953
0.015169607026285944 0.011504928850153825 -0.021771991127258576
0.014665929081262715 0.007729306372840172 -0.02169943116275816
0.014989499677182746 0.009488448803358755 -0.02175562182942596
0.015243347586709479 0.012285999953746796 -0.0005871677230323169
0.015860845629897147 0.0054298584589391715 -0.021575562214330383
0.013608737329334493 -0.00020480993914158858 0.017847045564999935
0.0123868532290974 0.0027944432744868622 0.01970162657098928
0.012532540414938093 0.006994482041599266 0.02127538266589843
0.013733492224231165 0.002021302251790624 0.019214572272284968
0.01361173596499805 0.0038642194769661618 0.019778496010543416
0.014807392648913429 0.011094315402912343 0.01833669003161243
0.013217199582352193 0.009702614391188325 0.02034513380890052
0.011618999764323235 0.009507385194796665 -0.009055073431744876
0.011618999764323235 0.004316614764576045 -0.00888881078959083
0.012127281484379197 0.00882417340904304 -0.014994765155152943
0.011764463375152634 0.010373135375868188 -0.010923839478247486
0.01195591929451786 0.010105621971111398 -0.012921909947757642
0.012328304704231482 0.008277696927095094 -0.01716519375253871
0.011823917684857715 0.011124700595991455 0.02058859137605354
0.01268889655887936 0.012104045425844711 0.017833727239896468
0.01271150026207006 0.009407160953751144 -0.018755942792225654
0.012897914246402613 0.010920171193272533 -0.017617930758748977
0.012437917928669167 0.010320752415525108 -0.016027162361488666
0.01231870821274694 0.011070067095750837 -0.014345156965201845
0.012114743337737183 0.012213971795880109 -0.011661196961401018
0.013540006775116454 0.010684266133347897 -0.021060817613093752
0.015212669649198688 0.0018754678560881728 0.017879296567298482
0.013849108858729156 0.007939199142706226 0.019738589522521784
0.013665029679701105 0.005768169987722366 0.019989591988390787
0.01574827954880665 0.0002839148467168074 0.01714896190231737
0.01542719218966454 0.0086274135609038 0.01758678284072863
0.014766332163297032 0.007032397249705055 0.01848790320147961
0.015800714947144637 0.005038233010633035 0.017077463244233645
0.014764782464422093 0.005342021126141197 0.018490016304335773
0.011618999764323235 0.0017025341344378015 -0.009202193395256937
-0.0018211911073782224 -0.0035728962606281596 -0.016430903791095106
-0.0025191788846470045 -0.0029247988061160517 -0.014688781970621878
-0.00030899999546818435 -0.0060936833935776235 -0.016644760414961192
-0.005156732295699023 -0.0008980000275187194 -0.016010013870106775
-0.005149784568567855 -0.005078481187288324 -0.011102136222031043
-0.0038957520820192236 -0.006100660201642072 -0.01445790858129202
-0.004731861552402156 -0.00540460867871483 -0.013138340194983587
-0.0011461128863406275 -0.006969692524519061 -0.017950556414981673
-0.0008690257954965841 -0.007292326440685121 -0.013556959673225804
-0.006674484268792767 -0.0025076125947686807 -0.013022343896837998
-0.006634885565782016 -0.002520050775523454 -0.014765659948195814
-0.0059198094097971015 -0.0030785413183609532 -0.01079080915060223
-0.005066926242441898 -0.00499368548732812 -0.017306879208145984
-0.004934455947021624 -0.005176070254687113 -0.01587998402406999
-0.006297227531355014 -0.002254040632534046 -0.019446199843289325
-0.00613074309798915 -0.0037975723210342963 -0.015662215153206996
-0.0062565208512233355 -0.0031606204423975043 -0.017810916208989887
-0.006238202236401315 -0.0038382019062325563 -0.012065118293588127
-0.005668675726502519 -0.0044951672498820625 -0.014344341056184632
-0.0017362530545337717 -0.003651763165798199 -0.01865486129786424
-0.004138297541788865 -0.0014214104740842444 -0.014902490584201199
-0.002753304041772741 -0.002707408296837826 -0.017734912473161984
-0.004203592476774782 -0.0013607826485906602 -0.017460158724551637
-0.002642978161864461 -0.006789283964396608 -0.010573384419557767
-0.0014248000266644857 -0.005148262032479962 -0.019618000835180283
-0.004671299505337077 -0.0026207470282880343 -0.019618000835180283
-0.0037374587767384643 -0.004165883452327027 -0.019618000835180283
-0.0014838497358484633 -0.006766441088420356 -0.01942591155275685
-0.00404781725608433 -0.0020845785096836053 -0.011446229337122677
-0.006649248863390099 -0.0009293083405088299 -0.012608519570208651
-0.002956364883718263 -0.0033722174587693214 -0.010743304681629411
-0.0057752254758184265 -0.0015401753253684127 -0.011407930379834102
-0.0043071459549434985 -0.005665206152563695 -0.01869375197299269
-0.003078047866912479 -0.006651334647746349 -0.012365825534129345
-0.0034805515383666127 -0.006184041012407883 -0.017048064335433072
-0.002467114275402955 -0.0067794033125200765 -0.015703771648956467
-0.0011012100688934847 -0.007393178436896284 -0.012029243790567468
-0.0019262054883604092 -0.003582746004373338 -0.013151386616620695
-0.003208609837978669 -0.002377101690003672 -0.013009011239628698
-0.0006972040888640172 -0.004707148646747283 -0.013753064901423546
0.010678174140361528 -0.010986006260467071 -0.011861366081962095
0.011666698117118814 -0.010423287177183225 -0.010532367851955509
0.006503754352693378 -0.007488999981433153 0.015955706266890073
0.0031514376308842606 -0.007488999981433153 0.01152060369800623
0.008366376522974969 -0.007488999981433153 0.019717079288096642
0.010327943242508106 -0.007488999981433153 0.020487478579577566
0.005709589989668179 -0.007488999981433153 0.00933434069255787
0.007640731165331598 -0.007488999981433153 0.013465903938211309
0.009169986616432547 -0.007488999981433153 0.016468584740187416
0.005448793580927449 -0.007488999981433152 0.01781191139994851
0.003600461012615797 -0.007488999981433153 0.015906402418578363
0.0038595784682942153 -0.007488999981433153 0.017745537092427918
0.006719262861453718 -0.007488999981433154 0.019100850618249184
0.00749105785681628 -0.007488999981433152 0.017243460647179205
0.0016244731419619064 -0.007488999981433153 0.0008913263741898774
0.004294828911452846 -0.007488999981433153 0.005184869187939933
0.003850219097077619 -0.007488999981433153 0.008051542207580913
0.0016406251497029616 -0.007488999981433153 -0.002921460801905483
0.0038299988757891134 -0.007488999981433153 0.013394212263585925
0.004015652475149737 -0.009602269731761296 -0.011038498725691527
0.009780160177455722 -0.008190095411637422 -0.010312456245835664
0.007516547237545612 -0.007895901855782008 -0.009556050726970147
0.002054332721438615 -0.008724293714174257 -0.009618511695240122
0.00635424200646156 -0.008932279431943274 -0.010624810808345573
0.008292105811705345 -0.009094372733846594 -0.011162211602008169
0.007164782002607859 -0.010741213130665792 -0.012986205997779653
0.008983738693607923 -0.010040074537710105 -0.012443529719599174
0.005923554055046165 -0.010072439106011341 -0.011948718806482357
0.012119131813680139 -0.007488999981433153 -0.0023633728056723395
0.01088871782426545 -0.007488999981433153 -0.007385409214356434
0.00594911508712135 -0.007488999981433153 0.003584245992168357
0.012205145729612111 -0.007488999981433152 0.011293167609405973
0.007157781151271485 -0.007488999981433153 -0.00029225215345381455
0.007684100220578704 -0.007488999981433153 -0.0068419410069827345
0.0041439936369197915 -0.007488999981433153 0.0012857803774458025
0.011322312319119173 -0.007488999981433153 0.013987036942154748
0.007642388152177257 -0.007488999981433153 -0.0027751518296760974
0.0026635705602770085 -0.007488999981433153 -0.004276249016005312
0.011191385273565465 -0.007488999981433153 -0.0036848689436215012
0.004005938593784527 -0.007488999981433151 -0.00647787537947369
0.010827466995023433 -0.007488999981433153 0.015685673520615406
0.010971374824208159 -0.007488999981433153 0.005814540683210202
0.0012694447600890115 -0.007488999981433152 -0.00685066605581992
0.0034881099152729413 -0.007488999981433153 -0.0024149823934835448
0.005872246680575944 -0.007488999981433153 -0.0032425702575525333
0.006590037872477847 -0.007488999981433153 0.007630824804137973
0.010767308107935105 -0.007488999981433153 -0.00016482431023440505
0.008462034879425342 -0.007488999981433153 0.008859225918935853
0.009365768152482792 -0.007488999981433153 0.005257314740852687
0.007684055092196937 -0.012823999859392641 0.019476328855244463
0.009010763036148946 -0.012823999859392643 0.01821395153465063
0.004225932472951983 -0.012823999859392643 0.019127438878155715
0.010837375607053319 -0.012823999859392643 0.018065480353787088
0.005746971625483844 -0.012823999859392643 0.02008913643431578
0.012246999889612196 -0.009119530302624385 0.005991282379686449
0.012246999889612198 -0.009807604269590483 0.004444586127430657
0.012246999889612198 -0.01104808188790439 0.011010661056903051
0.012246999889612198 -0.008358343179614418 -0.005103139692379677
0.012246999889612198 -0.008176004640529382 0.000458094247475132
0.012246999889612198 -0.01005680318990278 0.009504180385451333
0.012246999889612198 -0.009057116460903288 0.01943511013572443
0.012246999889612198 -0.009160700485901323 0.013358216288815752
0.012246999889612198 -0.009337315068851253 0.011585571813574677
0.012246999889612198 -0.011398805248640714 0.01774918869368658
0.012246999889612198 -0.009730006206361521 0.016748493975625826
0.012246999889612198 -0.009689693293814066 0.007773875027497579
0.012246999889612198 -0.008346923067778855 0.0031337291725789624
-0.000307999987853691 -0.012341952884350926 0.009486270639949213
-0.000307999987853691 -0.010274658767773896 -0.0019734231034196077
-0.000307999987853691 -0.010033817978220888 0.002566686761709152
-0.000307999987853691 -0.01209227895073356 -0.0036648497150656998
-0.000307999987853691 -0.01274074377803766 0.007376729498929924
-0.000307999987853691 -0.010672315194014091 -0.005372735786377995
-0.000307999987853691 -0.012281898890102607 0.013547970780144072
0.003429080876609086 -0.012823999859392641 0.012518840002098654
0.003464436221821689 -0.012823999859392643 0.010155932268062532
0.005581060274029638 -0.012823999859392643 0.007718277206705218
0.0010493374774648155 -0.012823999859392643 0.0016992532237195806
0.0007567042787376913 -0.012823999859392643 -0.004788461501095525
0.010271302384561557 -0.012823999859392643 0.016529506969676682
0.002175358868806379 -0.012823999859392643 -0.0017843630829906757
0.005212170810808026 -0.012823999859392643 0.016028154237397015
0.009601633028485379 -0.012823999859392643 0.012581395040866266
0.004586313300342586 -0.012823999859392643 0.00420111005956743
0.0070726632135146555 -0.012823999859392643 0.014084584452170309
0.0013216309024075125 -0.012823999859392643 0.013637288653280944
0.006784470719641681 -0.012823999859392643 0.012391463932029525
0.0028487815690155264 -0.012823999859392643 0.0022624332179622146
0.005866164776320036 -0.012823999859392643 0.010402634918406622
0.006873290581397022 -0.012823999859392643 0.00876767933316673
0.0016827442068748763 -0.012823999859392643 0.011579581146178387
0.009322256412390605 -0.012823999859392645 0.01425545397974658
0.002885982213752873 -0.012823999859392643 0.0003953916510477202
3.1950582729454084e-05 -0.012823999859392643 0.0168467731076365
0.011372340285567911 -0.012823999859392643 0.005416826958461629
0.00914943727314024 -0.012823999859392643 -0.007658423522421971
0.008546429900772704 -0.012823999859392643 -0.0009248188556764763
0.01113440930529292 -0.012823999859392643 -0.001382929104956995
0.009850882793210052 -0.012823999859392643 0.00015363289198966346
0.008016302146218285 -0.012823999859392643 0.000813406521322385
0.005985957081568386 -0.012823999859392643 -0.005522577984893395
0.0009284496776605821 -0.012823999859392641 -0.008730990113820678
0.003415169074485933 -0.012823999859392643 -0.003983033085416348
0.00932437881085589 -0.012823999859392643 0.002923454836816683
0.011117394945801462 -0.012823999859392643 0.011297219080751939
0.009596772938572662 -0.012823999859392643 0.00833405502209287
0.012058862638168813 -0.012823999859392643 -0.003265692917284461
0.007201900597784233 -0.012823999859392643 -0.0018111986921322703
0.005385884309018369 -0.012823999859392641 -0.003726358768383428
0.004542864004509276 -0.012823999859392643 -0.006953545995467537
0.010372059469349678 -0.012823999859392645 0.009802387621227792
0.01100476719553481 -0.012823999859392643 0.002395577558831967
0.01115422585002461 -0.012823999859392643 0.006881817654642037
0.00778085716358052 -0.012823999859392643 -0.005722273298857489
0.012084779511155778 -0.012823999859392643 0.016693200047413797
0.012246999889612198 -0.011493945403664167 0.0016108036306800551
0.012246999889612198 -0.011689843229920494 -0.0019113212841250777
0.012246999889612198 -0.011242523683894563 0.006196647230890976
0.012246999889612198 -0.008478262536715209 -0.009281294076712318
0.0122469998896122 -0.009703552787550467 0.0013005299005206406
0.012246999889612198 -0.01042764952738854 0.0030364023375828017
0.012246999889612198 -0.012434963992793044 0.012672459746165616
0.012246999889612196 -0.009295338950744681 -0.0016407727005027866
0.003838801594835622 -0.007488999981433154 0.019713966211551696
0.0019888386251350814 -0.007488999981433153 0.014743724860182973
0.0013792545983758173 -0.007488999981433153 0.009959319854115141
0.0022773088827389466 -0.007488999981433153 0.017878151082836476
0.0008599217645079248 -0.007488999981433153 0.0066012951255579565
-0.000307999987853691 -0.008526184541534067 -0.002225929534766198
-0.000307999987853691 -0.008002644693949137 0.0033421172001960268
-0.000307999987853691 -0.011341505630641504 0.015999185871316605
-0.000307999987853691 -0.00901610731145191 0.005783423355756415
-0.000307999987853691 -0.007605845984646597 0.015148505092771524
-0.000307999987853691 -0.010824443519000672 0.008758455184342423
-0.000307999987853691 -0.009547241163217556 0.004126986200119553
0.011036033952987405 -0.008935107042211395 0.021643356085869286
0.009343650036326957 -0.009083614331086225 0.021659288264990948
0.010547058444040934 -0.00936274407312531 -0.01187539195564401
0.0045262469685199355 -0.012740514705375558 -0.010849138260530355
0.006568243836438706 -0.01265938247554213 -0.012395094864010327
0.010427826067879713 -0.012738521808478304 -0.01088571394281897
0.0023981835676940228 -0.012793891331319845 -0.009832246052814225
0.0077895618948947785 -0.01260820108119148 -0.013370360933988218
0.008207649313611906 -0.012714637040933872 -0.011341507192903055
0.001858652508733758 -0.008445430744832949 0.01997970122915254
0.0006263354298967144 -0.00941896087660378 0.018522125660378697
3.791871799563144e-05 -0.011332581089195293 0.017826150705349552
0.0010122118406855163 -0.010809960995147255 0.018974884496905813
0.002275610845659478 -0.010477024370702567 0.020244464692492428
0.007672707727924328 -0.00932853515694344 0.0216782444436473
0.005859748963994917 -0.009310260262257126 0.021632117556684004
0.01015029876236779 -0.010723028714507879 0.021789393588951964
0.004332199767528648 -0.008807121330442067 0.021559524343822106
0.003998221926510046 -0.011138074590125526 -0.012206214754020065
-4.94158615448934e-05 -0.009119194741017604 -0.008564012880179337
0.0003256619323428752 -0.01072230988725886 -0.009323725858507841
0.005323023698072823 -0.011781929140245747 -0.013375711880696549
0.0021531048553004063 -0.01136286573589881 -0.010856286660246711
0.0018092327027812312 -0.012442580150275908 0.01895363265369925
0.0033187635397645774 -0.011596838296332207 0.020364077869631445
0.004318021669740303 -0.01067079441135339 0.021498688877656155
0.006037906095659092 -0.011133547923430383 0.02161982501858262
0.007782968199888282 -0.012725007914321441 0.021086598207564356
0.011648616551921492 -0.011155344383602103 0.020907458873298125
0.01082473871911023 -0.012592574900383343 0.019619940073772307
0.010238962746453108 -0.012192062610277724 0.02114703209764483
0.008705511191344611 -0.011906180735937695 -0.014515912951759139
-0.008178926866791293 -0.009739383972745277 -0.01003327322905968
-0.005858434160699728 -0.005743612946975439 -0.00957299955189228
-0.0036760055579329767 -0.005432383400269022 -0.009577442961797756
-0.004785054945936464 -0.003972519701705938 -0.009934047110359676
-0.004218978392437424 -0.007922417780894586 -0.010466932917559551
-0.006293074390224875 -0.008062080292247434 -0.010484348887360592
-0.007261955949236461 -0.00591985139755186 -0.010514999739825726
-0.009138534773435111 -0.0074421857470707295 -0.010514999739825726
-0.009092253641182827 -0.00518401415567295 -0.00977141018884212
-0.007436688611740384 -0.004362341849219897 -0.010379339558133034
-0.0020378587857650793 -0.004709142286812334 -0.010162243407415793
-0.0007728522555884102 -0.005866680486048052 -0.010126848865646491
-0.0053179399617948675 -0.00755462072368286 -0.009095547390678955
-0.0029433040670670085 -0.01005990990248411 -0.0089689087491291
-0.0077244111714273355 -0.008245922372641974 -0.009449554040237246
-0.010979999788105488 -0.0049000811565081855 0.0001205079699315081
-0.010979999788105488 -0.007355470722128796 -0.005462276445273868
-0.010979999788105488 -0.00213881489347332 -0.005281109577995562
-0.010979999788105488 -0.004074524846274702 0.016669593849849427
-0.01097999978810549 -0.006066841457013084 0.00478989541374435
-0.010979999788105488 -0.007710767095023225 0.0016919099259422035
-0.01097999978810549 -0.006483684859748283 0.0005472951810613226
-0.010979999788105488 -0.006063349105386054 0.006406780766514414
-0.010979999788105488 -0.003584597153942194 -0.003405263361772429
-0.010979999788105488 -0.004226662968499753 0.006398294106016079
-0.010979999788105488 -0.004210635913843121 -0.005402578629738102
-0.010979999788105488 -0.006855782255302286 -0.0013224975055012528
-0.010979999788105488 -0.010169572652022618 -0.009122397557418208
-0.010979999788105486 -0.0041294940912992625 0.0094618219147331
-0.010979999788105488 -0.003275143800003042 0.003142514878008649
-0.010979999788105488 -0.0061934573327878766 -0.008644513039592343
-0.010979999788105486 -0.004757524366211297 0.012759090902543136
-0.010979999788105488 -0.010217553420309021 -0.0070641306640487865
-0.010979999788105488 -0.0031016671433933773 0.01364318076046448
-0.010979999788105488 -0.004618541828275802 0.01088965057155604
-0.006939602991793614 -0.01094099972397089 -0.005520951667691683
-0.002197473238513761 -0.01094099972397089 -0.007364665186478997
-0.010882470402904361 -0.01094099972397089 -0.0008160476787901711
-0.007509252929338157 -0.01094099972397089 0.007600828759193422
-0.00818624111311464 -0.01094099972397089 0.009276627805483658
-0.005101852880450315 -0.01094099972397089 -0.003301435086134779
-0.006265834612975234 -0.01094099972397089 -0.007650802974550565
-0.00990288325984614 -0.01094099972397089 0.012324211576775688
-0.009765309805595828 -0.01094099972397089 0.017549545833969678
-0.008536169975562771 -0.01094099972397089 0.0015736592997338426
-0.0068211026203385955 -0.01094099972397089 -0.003050690509189013
-0.010056458813937035 -0.010940999723970888 -0.005385419997964507
-0.010076588353054118 -0.01094099972397089 0.019858389308023017
-0.009319279693580085 -0.01094099972397089 -0.004023125496667887
-0.0069035986885824805 -0.01094099972397089 -0.009041643752342364
-0.008462194168605015 -0.01094099972397089 -0.0059108781178180865
-0.0043588778528952515 -0.01094099972397089 0.0025345615990380157
-0.005240109261190021 -0.01094099972397089 0.0004975880765436241
-0.0029237932299511597 -0.01094099972397089 -0.001164607781478916
-0.007884465170423101 -0.01094099972397089 0.004016847223327124
-0.009284413101604218 -0.01094099972397089 0.007792044564910063
-0.007021170476441116 -0.01094099972397089 0.0006636720329966745
-0.007942917861682207 -0.01094099972397089 0.012790824688079312
-0.002029461623090022 -0.010940999723970888 -0.005528093466156583
-0.00791826057009088 -0.01094099972397089 0.0059712962565022145
-0.0003089999954681843 -0.006886683094403599 -0.006454570366178062
-0.00030899999546818435 -0.00599239544617539 0.0059638473115508185
-0.00030899999546818435 -0.0026852706000986193 -0.0023720384337840203
-0.00030899999546818435 -0.0037170647593465847 0.00993412203837035
-0.00030899999546818435 -0.006116167115662889 -0.004476980269198943
-0.00030899999546818435 -0.006010166573711819 0.004240081281661192
-0.00030899999546818435 -0.0058980579512283105 0.002551801002627401
-0.00030899999546818435 -0.003692114053357681 0.0026161949079605163
-0.00030899999546818435 -0.0040918998684121395 0.00821627509524865
-0.00030899999546818435 -0.010351249558992052 -0.007262434045662624
-0.00030899999546818435 -0.0064944223060962696 0.0005857670345444803
-0.00030899999546818435 -0.004078587255602532 0.01353892444741395
-0.00030899999546818435 -0.00463966527080569 0.000930538883731058
-0.00030899999546818435 -0.0020077068318146243 0.0027612301171283174
-0.00030899999546818435 -0.004098286271190049 -0.0009506544767006529
-0.00030899999546818435 -0.004502460480339473 0.004047146982450942
-0.00030899999546818435 -0.008231678724984598 -0.000486201239423669
-0.00030899999546818435 -0.009082873679032369 -0.006219652030205824
-0.00030899999546818435 -0.00747311306974163 -0.0033381517031980407
-0.00030899999546818435 -0.0018757625209420495 -0.0005414361196573562
-0.00030899999546818435 -0.006614040304701999 -0.001320867136740974
-0.00030899999546818435 -0.009845470597772748 -0.003810181376919414
-0.00030899999546818435 -0.00670616184765491 0.011829969918894208
-0.00030899999546818435 -0.009346728355491114 0.007531768949711325
-0.00030899999546818435 -0.010776567531103325 0.006850601535299856
-0.00030899999546818435 -0.009830349962433392 -0.0003200282719282065
-0.00030899999546818435 -0.00843491796203936 0.012413173383013558
-0.00030899999546818435 -0.009027689911061282 0.010431671891098592
-0.00030899999546818435 -0.008601168990504062 0.001314482340744901
-0.00030899999546818435 -0.007591382375258223 0.009198026544107351
-0.00030899999546818435 -0.008811646961284003 0.01685985522266699
-0.00030899999546818435 -0.009656176840484157 0.013935895390070934
-0.003070069818148494 -0.01094099972397089 0.008986125450127617
-0.0048623671431963856 -0.01094099972397089 0.01792094776082804
-0.004012685388962094 -0.01094099972397089 0.010779445285171423
-0.0017127341052080905 -0.01094099972397089 -0.002152308802006015
-0.0026791704145409994 -0.01094099972397089 0.017759554981284377
-0.004598349534361148 -0.01094099972397089 0.009236202510088495
-0.0025479650077722773 -0.01094099972397089 0.0022576870641869092
-0.005348311743066371 -0.01094099972397089 0.0159794296596558
-0.006101852820737336 -0.01094099972397089 0.01908733085149375
-0.006138554441053266 -0.010940999723970888 0.01277203549805467
-0.0019475459180767114 -0.01094099972397089 0.005844304312653325
-0.0016314977368030773 -0.01094099972397089 0.010547844954747306
-0.0073865650828894005 -0.01094099972397089 0.017137150075480088
-0.005277502896932161 -0.01094099972397089 0.014217703449666951
-0.0031542228311059626 -0.01094099972397089 0.004483778053802314
-0.0035281303259855033 -0.01094099972397089 0.006900047367070948
-0.010979999788105488 -0.0015907382075385152 0.005882989301806138
-0.010979999788105486 -0.0029780438014482295 0.017831321263710224
-0.010979999788105488 -0.0011035540285280255 0.016706093716662557
-0.010979999788105488 -0.0016524347545044831 0.014820310663191104
-0.008851070680510735 -0.0008989999769255519 0.005386653872195611
-0.007519046296003409 -0.0008989999769255519 0.001975143390881286
-0.010366991377142868 -0.0008989999769255518 -0.0013188219192078465
-0.008882361488604749 -0.0008989999769255519 0.0005620040868596632
-0.005014114915353683 -0.0008989999769255519 0.0003007349042082885
-0.005809507022992992 -0.0008989999769255519 -0.003684578813970778
-0.00784121169905976 -0.0008989999769255519 0.0041731475479440845
-0.005699712661506958 -0.0008989999769255518 -0.006094508603733164
-0.007628159295890079 -0.000898999976925552 -0.003908936354327025
-0.007128189538412056 -0.0008989999769255518 -0.005913278286516509
-0.004986356257593446 -0.0008989999769255519 -0.002031006064225828
-0.003869346373663942 -0.0008989999769255519 0.001429970032661518
-0.0015236548969368557 -0.0008989999769255519 -0.0038960744454941635
-0.003921011854653746 -0.0008989999769255519 0.01655092816716516
-0.0008593794572688121 -0.000898999976925552 -0.0021397011031745023
-0.0030289373839939887 -0.0008989999769255518 0.0035685797652822253
-0.007466628680736209 -0.0008989999769255519 0.01051031332135025
-0.001161591608235187 -0.0008989999769255519 0.011434865001011766
-0.008034248305318454 -0.0008989999769255519 0.014543227554532471
-0.0061595169418678045 -0.0008989999769255519 0.007728626328530041
-0.001444075211315587 -0.0008989999769255519 0.009583514576122488
-0.005746721439161894 -0.000898999976925552 0.012105747908508307
-0.004353830787021272 -0.0008989999769255519 0.011075698587467663
-0.002328434938191543 -0.0008989999769255519 0.01237734335317743
-0.00441255293902059 -0.0008989999769255519 0.013542168146081036
-0.0016455814756394399 -0.0008989999769255519 0.005177871333053514
-0.0012384143907894414 -0.0027565629275109484 0.018161592621898995
-0.00030899999546818435 -0.0024110709415883463 0.016634234467450028
-0.00030899999546818435 -0.0022738370845521686 0.010703989764702122
-0.00030899999546818435 -0.0021498285189356005 0.012373094006002639
-0.0057879886194270504 -0.01094099972397089 0.020786693637649838
-0.003034617689431685 -0.01094099972397089 0.019739191881740684
-0.01083480798916814 -0.0038944700476038663 -0.00905468010802555
-0.00030899999546818435 -0.007657181361557305 -0.00778427670644217
-0.010979999788105488 -0.009562629808530725 0.015261439240329187
-0.010979999788105488 -0.009563842744334423 0.005660606400438968
-0.010979999788105488 -0.008741101579310342 0.011673794987075426
-0.010979999788105488 -0.010216693499979723 0.0070553709554608815
-0.010979999788105488 -0.008508971058715054 0.013399426836144552
-0.010979999788105488 -0.004361877776946826 0.01868218106923594
-0.010979999788105488 -0.009734593721385267 0.02072924731286896
-0.010979999788105488 -0.006863024758052928 0.011580749260226163
-0.010979999788105486 -0.009950925637901717 -0.0036511677735167414
-0.010979999788105486 -0.009524184787758707 -0.0016557407999359423
-0.010979999788105488 -0.0065195095879937714 0.016190027352065026
-0.010979999788105488 -0.009367536535638175 0.0017161272001732161
-0.010979999788105488 -0.00581656819427553 0.017664125317235532
-0.00886757239301553 -0.0028206504690244942 -0.008657088512381495
-0.007458960116025425 -0.0036755021447697246 -0.008567819250262815
-0.007360392842602948 -0.00517871408697206 -0.00895598578622571
-0.0031655826840356486 -0.0036878967934622264 -0.006970721976375286
-0.003030387706545168 -0.005587225608522621 -0.007831409583640543
-0.002935336552015568 -0.0020675987910162234 -0.006105272574839773
-0.0015381436691888214 -0.004977234980835726 -0.0069719475087507785
-0.0018690288863277048 -0.007032203934644901 -0.008084326018975548
-0.005982479842345055 -0.0023356203657541497 -0.007390874355975203
-0.004764084057962203 -0.0033484719906442173 -0.007414637718126935
-0.0018102210540252572 -0.0013995590831335607 -0.005357323633114008
-0.0056132864857122555 -0.00450721985634943 -0.008293458729009372
-0.001692126554625654 -0.003404307055646869 -0.0062751237613088515
-0.00739100151534018 -0.001505583150333533 -0.0075270793064795005
-0.0024613179024256773 -0.003684515150295471 0.01946530332337291
-0.003980434481717145 -0.004678414627076268 0.020888913053863534
-0.0012580919393038693 -0.001233780002634535 0.017464098601933317
-0.0049467667021606725 -0.0033501228704135508 0.02080525614300828
-0.009599681645342936 -0.008684349205759041 -0.00957299955189228
-0.01076635668089745 -0.004116224041647415 0.021018936437877694
-0.010249291835882765 -0.005801650870666668 0.021462259030053513
-0.00977439622047186 -0.002001259988307944 0.019241016710567396
-0.009169083914404918 -0.0033069407572821935 0.021136349751529677
-0.006541998887628875 -0.004444950848797073 0.02179071434301471
-0.009100309893730858 -0.007378132199781485 0.021746221636852615
-0.008278455453906913 -0.005678754121451765 0.021719396414241848
-0.0075346314655529234 -0.0032058674626478344 0.021505497253517865
-0.004975586925981597 -0.009659858754984225 0.021798722453425033
-0.009436437492369566 -0.009614385421036098 0.021815000101923943
-0.005526601189942302 -0.007360201186937825 0.021815000101923943
-0.007679820408027525 -0.009122782447720305 0.021815000101923943
-0.00591682308351586 -0.005929553658577992 0.021815000101923943
-0.007455428756283771 -0.007241490017503584 0.021815000101923943
-0.0035073262122765152 -0.008686937167146528 0.021242578712161928
-0.002241734014062472 -0.005582480052645195 0.01971180644014853
-0.0034415695729813154 -0.006633947533028987 0.02113071497130981
-0.0011323298194962919 -0.010186662772712948 0.018406048755497284
-0.001139121339568558 -0.008701671595211671 0.018414199009510194
-0.0007766021756852231 -0.007089967183262447 0.017979153064161087
-0.00205106191970515 -0.007368918273389162 0.01950858543459699
-0.002569231271167073 -0.009492539984278268 0.02013042145822368
-0.00409953902342404 -0.010692801910387014 0.021071708076488106
-0.006945904435294094 -0.002443132272309925 0.020285259176147964
-0.005279112044624665 -0.0012839970878415715 0.01813259109315591
-0.0069801309413823134 -0.0016701291215593672 0.018849213264991074
-0.00439606576500512 -0.0020563722306261444 0.01935123016280933
-0.0020270920116674915 -0.008575931434202478 -0.008650951653082975
-0.003431599098033039 -0.007756047575955092 -0.00875455659637014
-0.004480636178364841 0.001007643328280473 -0.014971010655986137
-0.004481370003205988 0.0028689999599009752 -0.012753488993130216
-0.005818528141868133 -0.0008970000199042261 -0.014211069987596884
-0.006119899005751525 -0.0008970000199042261 -0.017865492193482897
-0.006592392703104388 -0.00012088863231602705 -0.01950964015652046
-0.005221154459504785 0.0026658523279044005 -0.019319937614233583
-0.006021206732014295 0.0028689999599009752 -0.014030010791230813
-0.004821095843238334 0.0028689999599009752 -0.01785204789817578
-0.005339840672722735 0.0028689999599009752 -0.016257852616349065
-0.006453850637091539 0.0022475089141287415 -0.01254543391544867
-0.00672811959380619 0.0007405661499996277 -0.013214640402163816
-0.006559529552656637 0.002273546392834384 -0.017488928435156287
-0.0068598891422737285 0.0007928028450629569 -0.017827241819222253
-0.006774804220004913 0.0018633912962852158 -0.015607878349859527
-0.006899999920278787 -0.000124781334615519 -0.0162300603438249
-0.005030544749771996 -0.000582847637726424 -0.012784311723411754
-0.004726731189424546 0.0012650677427210558 -0.011931384327033431
-0.004395174382638585 0.0011766325787843622 -0.01692431989388913
-0.004585063442971562 0.0008285997715727597 -0.019299935899512108
-0.0029294940212989703 0.0033534899994800004 -0.012045295251806065
-0.003109745372826454 0.0032252469401286947 -0.01720884032945611
-0.002606688507394845 0.0034996548614801867 -0.015695400119328087
-0.0009622748480752029 0.004396651135865097 -0.017553139106121
-0.0031312868328813807 0.0032134964846976225 -0.013599663290477697
-0.003139306110429934 0.006623778528817802 -0.01373247000703162
-0.003977665089191225 0.005794504938428086 -0.01869578758191924
-0.0024553487968586585 0.00596205700542691 -0.019465299311976075
-0.005231900990419196 0.004759061447533125 -0.01640527377276928
-0.004790396992477449 0.005473770502998374 -0.012091722290697937
-0.004991543984007496 0.005161001102966739 -0.014603006863063605
-0.00401610824345247 0.005866720514845798 -0.01708301404612446
-0.00030899999546818435 0.006248299180038927 -0.019570051348353414
-0.0014708742543826268 0.0046593330784033375 -0.019617000594735146
-0.0041167991984876594 0.00374388787715437 -0.019617000594735146
-0.0057646303475846735 0.004437496464015668 -0.012786627463303009
-0.0011121144689305944 0.007413030073633879 -0.01338718720019831
-0.0020329642497421497 0.006665789214350509 -0.018112876438199834
-0.002385970582337747 0.006761464410904417 -0.015858062306517855
-0.0015815589878527938 0.004058843454070485 -0.014541564252907988
-0.010892738497092961 -0.0008980000275187194 -0.008422443893960442
-0.011921999976038931 0.001907650539481979 -0.004772451456423734
-0.011921999976038933 0.0056856256499746025 -0.008682471779301603
-0.011921999976038933 0.006783448838817538 0.0037972335840932535
-0.011921999976038931 0.0045275458368712355 -0.0013442978297395075
