-0.0163170006126 -0.0124245387583 -0.00929303331704
-0.0163170006126 -0.0120762801655 0.00354470929122
-0.0163170006126 -0.00674097418202 0.00490598555636
-0.0163170006126 -0.00571082164122 0.0128573178685
-0.0163170006126 -0.0122690102987 -0.00466424777735
-0.0163170006126 -0.00795227685383 0.0014492857318
-0.0163170006126 -0.0150353643033 -0.00741638063902
-0.0163170006126 -0.00827310632819 0.00359743508193
-0.0163170006126 -0.0114041913959 -0.000800727617389
-0.0163170006126 -0.00449925699961 0.00820015237617
-0.0163170006126 -0.00296306708613 0.0135046201169
-0.0163170006126 -0.008939306117 -0.000459767028052
-0.0163170006126 -0.00446784843069 0.0145968453716
-0.0163170006126 -0.0103724354865 0.00377565236121
-0.0163170006126 -0.00945103501918 -0.00283636298654
-0.0163170006126 -0.00750345762888 0.0091051581352
-0.0163170006126 -0.0109424490279 0.00565407206816
-0.0163170006126 -0.0104960254456 0.0129383453045
-0.0163170006126 -0.01216351012 0.0156700771963
-0.0163170006126 -0.0132481657217 -5.85670210852e-05
-0.0163170006126 -0.0136508145124 -0.00581999376801
-0.0163170006126 -0.00813766695214 0.016221049307
-0.0163170006126 -0.0137119405271 0.00647392609059
-0.0163170006126 -0.0136311612612 0.0025078563474
-0.0163170006126 -0.0136017107244 -0.0130178322774
-0.0163170006126 -0.0113257952321 -0.00341649747368
-0.0163170006126 -0.00718708524282 0.00717160576848
-0.0163170006126 -0.00995479544599 0.00787744585027
-0.0163170006126 -0.00573322323882 0.0102123654199
-0.0163170006126 -0.0130269225461 -0.00193261087063
-0.0163170006126 -0.00239275217189 0.0151448324783
-0.0163170006126 -0.0121727896191 0.00877419080686
-0.0163170006126 -0.00907074686507 0.00628207024121
-0.0163170006126 -0.0107463521946 0.00933603694668
-0.0163170006126 -0.00991369930997 0.00210226382538
-0.0163170006126 -0.00917515254779 0.0108321949069
-0.0163170006126 -0.00636182931618 0.0152659946058
-0.0163170006126 -0.0141378258088 0.0113335874898
-0.0163170006126 -0.0132397213677 -0.0034616178368
-0.0163170006126 -0.0128645618697 -0.0112694628062
-0.0157395732837 -0.0146608600879 0.0175511134641
-0.0109810000286 -0.00987444948138 0.0205526162477
-0.0109810000286 -0.00747827384229 0.0175894405727
-0.0109810000286 -0.00971911670278 0.0178867994523
-0.0109810000286 -0.0114289931547 0.0169713069807
-0.0142210736839 -0.0139539168415 0.0188032135098
-0.0130788601706 -0.0118141420882 0.0204824792515
-0.0110771198933 -0.0158631580229 -0.0215272905707
-0.0109810000286 -0.0123726586846 -0.019503891522
-0.0109810000286 -0.00992004089773 -0.0169284686285
-0.014777858346 -0.0121915414262 0.0188937162177
-0.0129810264907 -0.0099019821985 0.0209360416988
-0.0124381962236 -0.00849308472313 0.021500999108
-0.0132900291004 -0.0117840335138 -0.0218150001019
-0.0145660205385 -0.00309164634457 -0.0218150001019
-0.0140718253034 -0.00687045868298 -0.0218150001019
-0.0126095739748 -0.00833539201982 -0.0218150001019
-0.0142748940486 -0.00162600147755 -0.0218150001019
-0.014416161619 -0.0100338904214 -0.0218150001019
-0.0140938891827 -0.0143322167217 -0.0218150001019
-0.0126124491038 -0.0135875461823 -0.0218150001019
-0.0134885433344 -0.00466878726618 -0.0218121386035
-0.0152020945127 -0.0162371578807 -0.0125548407615
-0.0151280529419 -0.0161895798526 -0.0202578146011
-0.0149606103824 -0.016256581489 -0.0175588661589
-0.0154798042875 -0.0161928557627 -0.00933115264257
-0.0138677134107 -0.00186834276459 0.0183094834818
-0.0116291583474 -0.00213325539127 0.0187407894401
-0.0142584187049 -0.000898000027519 0.0169260212066
-0.0162519833915 -0.00155039801183 0.0166334159105
-0.0162621524576 -0.00625245956531 0.0168331557566
-0.0150808162546 -0.00360497425414 0.0184226170215
-0.0144036210144 -0.00569724721028 0.0193941815748
-0.0158446056971 -0.00920426988493 0.0175746905405
-0.0138925022706 -0.00890246320667 0.0201781189129
-0.0149498735928 -0.010231533869 0.018804253186
-0.0148156302045 -0.00838207518588 0.0189263352054
-0.0154219125257 -0.00575494377309 0.0180330280009
-0.0159903522621 -0.00348128418981 0.0172013801952
-0.0162134624872 -0.0120928039214 0.0171709463709
-0.0131243863424 -0.016201755944 -0.00449594583631
-0.012185652475 -0.0160967501909 -0.000263536177097
-0.0133315975365 -0.0162249343636 -0.0017781304791
-0.0116582440022 -0.0160377548506 0.00175293964112
-0.0125593406797 -0.0161385505485 -0.00633077636013
-0.0113130708138 -0.0159991441518 0.00502369656164
-0.0116865186125 -0.0160409176179 -0.0155569689925
-0.0124810235542 -0.0161297900797 0.00673170906249
-0.0117037625923 -0.0160428465108 -0.00359305818386
-0.0143837231002 -0.0162780005485 -0.0112823497027
-0.0149639288661 -0.0162780005485 -0.00705258811352
-0.0146994262719 -0.0161394741926 0.00651306209405
-0.015443202927 -0.016037722159 0.0122644862788
-0.0145607376012 -0.016256586785 -0.00067857603262
-0.0146848080924 -0.0161931558474 0.00317755280531
-0.0157335191857 -0.0146379483249 -0.0214457194517
-0.0163170006126 -0.015276506332 0.0055340730244
-0.0163170006126 -0.0147276324396 0.00829921215379
-0.0163170006126 -0.0144995773066 0.0155155964855
-0.0163170006126 -0.0149379836738 0.000935734995823
-0.0163170006126 -0.0152830221603 -0.0108088741648
-0.0150353190552 -0.0050368415369 -0.0218150001019
-0.0152974068082 -0.0116671811819 -0.0218150001019
-0.0157382772704 -0.00784503730221 -0.0216276399227
-0.0163170006126 -0.00579864931291 0.00353195258355
-0.0163170006126 -0.00230471709358 0.0115030704893
-0.0114749986733 -0.00727872917327 -0.0169977656928
-0.0111873180029 -0.00322225471595 -0.0117910618462
-0.0126509068227 -0.00269754721925 -0.0176206855168
-0.0122933761193 -0.00254868700886 -0.0159261447103
-0.01255251877 -0.00110928019399 -0.0156438060835
-0.0111314067655 -0.00132287453929 -0.00969451263883
-0.0116200663588 -0.0105139703519 -0.0207847801209
-0.012162361065 -0.00742802334252 -0.0201219228397
-0.0129725563499 -0.00393657130118 -0.0202240282125
-0.0115570058803 -0.00432470939025 -0.0144692327327
-0.0120809203223 -0.0016006688759 -0.0140800452004
-0.0114143713541 -0.00927838208166 -0.018687233844
-0.0113126387004 -0.0123611498139 -0.0212559854279
-0.0116418839427 -0.0020538197119 -0.0126200490074
-0.0127330830082 -0.00552823593327 -0.0207402383979
-0.013212290822 -0.00186356205858 -0.0192390341946
-0.0114222758434 -0.00613093190785 -0.0156487691349
-0.0124134075188 -0.00509862481851 -0.0189356432821
-0.0121937677835 -0.00449412595706 -0.0173937776582
-0.0120284625757 -0.00409145831014 0.0207350513784
-0.0154256537448 -0.00198802471765 0.017891775676
-0.0139516576734 -0.00392678941576 0.0196303197117
-0.013239693483 -0.00579326924719 0.0207705045028
-0.011637011438 -0.00545370512792 0.021500999108
-0.0110619975005 -0.0116814759296 0.0213872027279
-0.0120662043723 -0.0130471075565 0.0200028671393
-0.0126966415936 -0.0157254490862 0.0171258799692
-0.0122549167671 -0.0144887781012 0.0184427693029
-0.0129096702381 -0.0160488229611 0.0118160143388
-0.0136147065496 -0.0160202557594 0.0136450208898
-0.0125672341653 -0.016099647848 0.00876307258166
-0.0137219035287 -0.0162340539774 0.00114393234386
-0.0121695433994 -0.0159910664356 0.0150362864762
-0.0131159235244 -0.0161927121632 0.00343218130408
-0.0140685173662 -0.0159890811289 0.0154702611719
-0.0140689994086 -0.0160838808813 0.00991662199541
-0.0138945691557 -0.0161718094722 0.00479430523205
-0.0160172391737 -0.0017155073295 -0.0210740818993
-0.0162905199388 -0.0138860968229 -0.018893470032
-0.0160993203271 -0.0126187015737 -0.0206050692106
-0.0161452974325 -0.0084271121521 -0.0200781301188
-0.0161830946172 -0.0113970035875 -0.0198095401638
-0.0162116908327 -0.0064999447436 -0.0110631392778
-0.0162548543153 -0.00353750045476 0.00076867236246
-0.0162677168378 -0.0103257039566 -0.0138331650457
-0.0161193248069 -0.00341163325016 -0.0141032153189
-0.0162148101788 -0.00851362585785 -0.0154726178295
-0.0161409154005 -0.00648202046482 -0.01894242092
-0.0162098682903 -0.00910816215374 -0.0174307196912
-0.0162579185866 -0.00917604918904 -0.0122130498094
-0.0160408578045 -0.00197711821835 -0.0194957806834
-0.0160891638325 -0.00138748888889 -0.0126956827057
-0.0161927413694 -0.00105532944393 -0.000317681825416
-0.0160687303809 -0.00122858013792 -0.0146072013091
-0.0162488354186 -0.000906246172324 0.00631302815374
-0.0162404455327 -0.00695294030044 -0.00891522236802
-0.0160881391901 -0.00419513464683 -0.0194452346837
-0.0161361118868 -0.0027482044916 -0.0106565211177
-0.0162098612928 -0.00755779261819 -0.0137677585161
-0.0161844072259 -0.00380148662179 -0.00774005365479
-0.0162754695642 -0.00694060107314 -0.00496594928964
-0.0162225263859 -0.00500757285291 -0.00632366714919
-0.0160629059636 -0.00234411763884 -0.0178952816141
-0.0162943937211 -0.0104193470401 -0.011068609523
-0.0162959515707 -0.00301545611098 0.00660220542452
-0.0162590209814 -0.00212814603104 0.00456553784196
-0.0161007100764 -0.00381402638689 -0.0171376074639
-0.0161686307694 -0.0044937670621 -0.0111418130566
-0.0162224392783 -0.00268800385254 -0.000851944348082
-0.0161732162323 -0.00732703209153 -0.0173239881436
-0.0163031232031 -0.00868788942722 -0.0059998686996
-0.0163009035211 -0.0123906142191 -0.0149983766043
-0.0161344347483 -0.0053953487019 -0.0170998165807
-0.0160900238612 -0.00273688259577 -0.0157882326111
-0.0162835263912 -0.00431726729351 0.00213513429464
-0.0162607868732 -0.0029055667437 0.00292603171325
-0.0162666762554 -0.00875769631962 -0.0102442079633
-0.016174551359 -0.00672193839256 -0.0157446294881
-0.0161333812125 -0.00161395184791 -0.00828175486128
-0.0161290024911 -0.00452154056488 -0.0156428962894
-0.0163073618596 -0.00707043667249 -0.00170317954546
-0.0161861028295 -0.0032807094794 -0.0063196001646
-0.0162825230616 -0.00547876582038 -0.000721951482587
-0.0162098589489 -0.00975251723005 -0.0189544682032
-0.0162528895743 -0.0105230045909 -0.0159589768073
-0.0163126570499 -0.00604642460904 0.0013093786158
-0.0162808826705 -0.00849278896067 -0.00802812119515
-0.0161571616053 -0.00522877725495 -0.0141624492256
-0.0163047575483 -0.0101520625398 -0.00927699226356
-0.0162125221508 -0.00102052230588 0.00197856404044
-0.0162559592943 -0.00697839512534 -0.00723897627638
-0.0161261286177 -0.00309016864343 -0.0125820225512
-0.0161873956055 -0.0046738198749 -0.00946702300389
-0.0161859110695 -0.00592342261327 -0.0125861713067
-0.0161570009378 -0.00140113408751 -0.00513516533723
-0.0162541147524 -0.00496343000713 -0.00268377920241
-0.0163013838307 -0.00412655463796 0.00458453439985
-0.0162705242105 -0.011969424858 -0.017403292902
-0.0162249730295 -0.00339768582692 -0.00224543044319
-0.0163170006126 -0.00274073452562 0.00976677356165
-0.0163170006126 -0.0142716805675 -0.0166408502309
-0.0158213951411 -0.0160533802144 -0.00401133353567
-0.0156197230801 -0.0160591385453 0.00947535907637
-0.0157171841703 -0.0159417759423 0.0164267388572
-0.016025358272 -0.0156866464863 0.0141096576685
-0.013940638167 -0.0162219110559 -0.0214509825323
-0.0143543379334 -0.0162780005485 -0.0152767080187
-0.0136935263323 -0.0162654193265 -0.00934046698348
-0.0124571674461 -0.0161271215613 -0.0113345475666
-0.0114905939267 -0.0160190016949 -0.0197758131685
-0.0115638975978 -0.0160272013641 -0.0181982699181
-0.0137146316588 -0.0162677801455 -0.013685469879
-0.0131383162296 -0.0162033141261 -0.016529700795
-0.0133101534907 -0.0162225356559 -0.00764216291141
-0.0132364393834 -0.0162142900757 -0.0183411258902
-0.0122742991028 -0.0161066661066 -0.0128630127599
-0.0163170006126 -0.0154472407899 -0.017895950681
-0.0142778781849 -0.000898000027519 -0.0131493828348
-0.0139754283515 -0.000898000027519 -0.00963789986703
-0.0140631980764 -0.000898000027519 -0.0147672736288
-0.014546666114 -0.000898000027519 0.00307470699394
-0.0141343402209 -0.000898000027519 0.0123177894897
-0.0144348544181 -0.000898000027519 -0.00794445018601
-0.013504408222 -0.000898000027519 0.0139289090425
-0.0144850546889 -0.000898000027519 0.00961828842413
-0.0148135584951 -0.000898000027519 0.0012096832717
-0.0155934284279 -0.000898000027519 0.00828253992421
-0.0141500013798 -0.000898000027519 -0.00222543610604
-0.0150209452628 -0.000898000027519 0.0153004675185
-0.0119230002165 0.00850129910305 0.0169956629744
-0.0119230002165 0.0149212182561 -0.0123205606265
-0.0119230002165 0.00981498348628 -0.00171323022582
-0.0119230002165 0.00775539848115 0.00831315932421
-0.0119230002165 0.00432587965582 0.0084106066665
-0.0119230002165 0.0137823120507 -0.0106732816441
-0.0119230002165 0.00458294866144 0.00530443913607
-0.0119230002165 0.00826572866348 0.00308115552756
-0.0119230002165 0.00228983789338 0.0130494457103
-0.0119230002165 0.00968159148432 0.00405908099293
-0.0119230002165 0.0132335785605 -0.012178205388
-0.0119230002165 0.0116215415399 -0.00896315756553
-0.0119230002165 0.0082883594994 0.0152013335064
-0.0119230002165 0.0144525255635 0.0147222125067
-0.0119230002165 0.00593875077323 0.00761158852389
-0.0119230002165 0.0138787574526 0.000512262418921
-0.0119230002165 0.0110743227371 0.00691426481276
-0.0119230002165 0.0103778453513 0.00245271177243
-0.0119230002165 0.0134131781778 -0.00117559581028
-0.0119230002165 0.0158360455004 0.00407654330903
-0.0119230002165 0.0116682903524 0.0107654668819
-0.0119230002165 0.0135414045684 0.00394410653583
-0.0119230002165 0.00679556920156 0.0158429901318
-0.0119230002165 0.00837996918087 -0.000582708790114
-0.0119230002165 0.00851291474278 -0.00286094984335
-0.0119230002165 0.00665086408287 0.014018339156
-0.0119230002165 0.00632237542598 0.00223633264134
-0.0119230002165 0.0147908521434 0.00910847938581
-0.0119230002165 0.0157430601697 -0.0067801688503
-0.0126184206563 -0.000898000027519 -0.00278155911426
-0.0138661118743 -0.000898000027519 -0.0169342101252
-0.0135112098697 -0.000898000027519 -0.0113851284486
-0.0119230002165 0.00935481128141 -0.014620194231
-0.0119230002165 0.00345660496349 4.89576343861e-05
-0.0119230002165 0.00183609000543 -0.000573646876083
-0.0119230002165 0.000895224063683 0.0078963952461
-0.0119230002165 0.00432502083636 0.00363168417669
-0.0119230002165 0.014489777086 -0.0196663072636
-0.0119230002165 0.000787208609285 0.00372571624417
-0.0119230002165 0.00217018620864 0.00463556790567
-0.0119230002165 0.00905969225974 -0.012431436015
-0.0119230002165 -0.000816018573159 -0.00123828712057
-0.0119230002165 0.00697580108988 -0.0126548028941
-0.0119230002165 0.0111620480332 -0.012579191358
-0.0119230002165 0.00700152976186 -0.00714961452468
-0.0119230002165 0.00288773078369 0.00297078042193
-0.0119230002165 0.00619644661105 -0.00919708764538
-0.0119230002165 0.00299910854211 -0.00202025276195
-0.0119230002165 0.0117707585844 -0.0156974122054
-0.0119230002165 0.00998979462166 -0.0163032033501
-0.0119230002165 0.00110908931245 -0.0022191187191
-0.0119230002165 0.00573243623577 -0.00351487694906
-0.0119230002165 0.00102790692548 0.0114015421863
-0.0119230002165 0.0135224902957 -0.0176459521835
-0.0119230002165 0.000417182815933 0.0138330114549
-0.0119230002165 0.0104868964249 -0.0104018926223
-0.0119230002165 0.00523934340152 -0.00149625925356
-0.0119230002165 0.00419101286067 -0.0098085201995
-0.0119230002165 -0.000301921053408 -0.00416278116013
-0.0119230002165 0.00281363662656 -0.00741185772324
-0.0119230002165 0.00342426193514 0.00634260199741
-0.0119230002165 0.00848482698295 -0.00637323589914
-0.0119230002165 0.00409445041768 -0.00613344870077
-0.0119230002165 0.00224689684037 0.00885404020717
-0.0119230002165 0.00362441366969 -0.00458631902669
-0.0163170006126 0.0144651050631 0.00911822122268
-0.0163170006126 0.00140117593191 0.0157397446183
-0.0163170006126 0.014546987994 -0.00117113560195
-0.0163170006126 0.00751810304398 0.0164094915776
-0.0163170006126 0.0140114797778 -0.0163091551978
-0.0163170006126 0.00439070767962 0.0126544481937
-0.0163170006126 0.00531300259347 0.0112028304696
-0.0163170006126 0.00790897200778 0.0042066736296
-0.0163170006126 0.0138703350534 0.0159920873852
-0.0163170006126 0.0115293771024 -0.00372907149253
-0.0163170006126 0.00628143575876 0.00548996589189
-0.0163170006126 0.0106377254583 -0.00651483369707
-0.0163170006126 0.00363694812033 0.010379830309
-0.0163170006126 0.0119791007652 -0.0055340441164
-0.0163170006126 0.0144928278043 0.00149949337431
-0.0163170006126 0.0111391744017 0.00028772175915
-0.0163170006126 0.0126217171324 0.00406134044775
-0.0163170006126 0.0148349551029 0.00616444616303
-0.0163170006126 2.25669597373e-06 0.014595280502
-0.0163170006126 0.0134649623495 0.0144489961147
-0.0163170006126 0.0135079162904 0.00703087739677
-0.0163170006126 0.0141771142495 -0.0141185996135
-0.0163170006126 0.0148042408328 0.00414074176896
-0.0163170006126 0.0116333601741 -0.0106536181224
-0.0163170006126 0.00951501838442 0.00586353973006
-0.0163170006126 0.00581181984553 0.00228830824706
-0.0163170006126 0.00918602214823 0.0104712874178
-0.0163170006126 0.00822424486631 -0.00424213422868
-0.0163170006126 0.0120164799756 0.0162859926775
-0.0163170006126 0.00952731852197 -0.0048638583521
-0.0163170006126 0.0106209176735 -0.00167400177808
-0.0163170006126 0.0130114835361 -0.000896574026733
-0.0163170006126 0.00686851920299 0.0114609154528
-0.0163170006126 0.00202527330546 0.0128167817379
-0.0163170006126 0.0146902048439 -0.00983102674304
-0.0163170006126 0.0017822820709 0.0106051162485
-0.0163170006126 0.0142147456227 0.0108564124982
-0.0163170006126 0.00953204452969 0.00795713728333
-0.0163170006126 0.0118980366525 -0.0129522181842
-0.0163170006126 0.0100449553038 0.00162237821875
-0.0163170006126 0.0049887782999 0.00677343236169
-0.0163170006126 0.0142669719701 -0.00294032374193
-0.0163170006126 0.0142119987058 0.0130908318544
-0.0163170006126 0.0146289410271 -0.00444154370827
-0.0163170006126 0.00651651200833 0.00755569939668
-0.0163170006126 0.0124305873822 0.0121334445632
-0.0163170006126 0.00785085332135 0.00858734994708
-0.0163170006126 0.0136730048991 -0.00646691401354
-0.0163170006126 0.0106877053458 0.0151660478343
-0.0163170006126 0.0114427388778 0.0133698549429
-0.0163170006126 0.0109398228116 0.00867087950475
-0.0163170006126 0.0117427775 0.00598667686131
-0.0163170006126 0.0106866433649 0.0111780560172
-0.0163170006126 0.00614806857795 0.00926274286694
-0.0163170006126 0.00741580884775 0.0144811407144
-0.0163170006126 0.0125581821879 0.0013430798574
-0.0163170006126 0.0088095858517 -0.00253370923872
-0.0163170006126 0.00549886139829 0.0164430859042
-0.0163170006126 0.0122600295006 -0.00827243265613
-0.0163170006126 0.00912855494626 -0.00023534106533
-0.0163170006126 0.0140876223065 -0.0181040396563
-0.0163170006126 0.0108085300271 0.00394674011757
-0.0163170006126 0.00786296892716 0.00606573357297
-0.0163170006126 0.00742518141706 0.000971508900618
-0.0163170006126 0.00850399442524 0.0129152111967
-0.0163170006126 0.00853711297526 0.00275385391808
-0.0163170006126 0.00534460766978 0.014529835653
-0.0163170006126 0.014019031228 -0.00834830608344
-0.0163170006126 0.0129599781283 -0.00971508646618
-0.0163170006126 0.00283467656965 0.0142128834658
-0.0163170006126 0.0133742600094 -0.011272566748
-0.0163170006126 0.00303577210027 0.0087138786507
-0.0156473077895 -0.000898000027519 -0.016047613353
-0.0160916255523 -0.000898000027519 -0.00200973958066
-0.0119230002165 0.00582411656879 0.0198173910317
-0.0119230002165 0.00742614386382 0.0185639382571
-0.0119230002165 0.000231364853956 0.0179634525425
-0.0137592611202 0.00542923287491 -0.0218150001019
-0.0143830226338 0.00344327874529 -0.0218150001019
-0.0119230002165 0.0111280552067 -0.0182931756903
-0.0119230002165 0.00338118513427 -0.0118803937877
-0.0132817374781 0.00261733084076 -0.0204749615236
-0.0122739066374 0.0100575100306 -0.02030255939
-0.0120413405192 0.00384546870917 -0.0134644140323
-0.0121573462082 0.00761431868172 -0.0174500015636
-0.0130799738255 0.000835003329484 -0.017635147656
-0.0121062497401 0.0129439499078 -0.0216875249952
-0.012560093865 0.000280317303419 -0.0137799193331
-0.0122730905291 0.000356967577321 -0.0119798899941
-0.0124641215448 0.00740556970822 -0.0192653016067
-0.0135630760449 0.000213978542513 -0.0202432225083
-0.0127325498575 0.0022229703393 -0.0165666751432
-0.0124141407169 0.00534704033655 -0.0171753781022
-0.0123627475965 0.00396434301191 -0.0156557402549
-0.0119275185356 0.00108435916621 -0.0103570713257
-0.0128059288616 0.00610299627089 -0.0203704789096
-0.0126482190686 0.00120381472184 -0.0151446213404
-0.0121665869906 0.00917883645718 -0.0188515107314
-0.0119636257596 0.00572330721067 -0.0145692879667
-0.0129987603313 0.0024869384349 -0.0185235846878
-0.0142091475426 0.000222752092442 -0.0217532202232
-0.0146067634221 0.01026103769 -0.0218150001019
-0.0152226911679 0.001326086022 -0.0218150001019
-0.0130753586111 0.0109822870863 -0.0218150001019
-0.0141702012577 0.0123069638685 -0.0218150001019
-0.0151534489386 0.0145201738817 -0.0218150001019
-0.0154364883982 0.00868805736238 -0.0218150001019
-0.0135295205363 0.0088010351629 -0.0218150001019
-0.0163154676033 0.0089495071003 0.0168638678244
-0.0159657874668 0.00161472431491 0.0172174172426
-0.0136334493673 0.00891103008027 0.0204632006211
-0.0156370557703 0.00434842867248 0.0177187542768
-0.0161016675946 0.0144971068693 0.0173705782444
-0.0141341596881 0.0064038428141 0.0197421935508
-0.015953936864 0.0103740433701 0.01745823859
-0.0145827031619 0.0119694457162 0.0192972129043
-0.0152291196958 0.00667081848831 0.0183133642487
-0.01521677171 0.002843399383 0.0182311164473
-0.0159264322035 -9.86009039706e-05 0.0172249538756
-0.0146193260155 0.00808887670099 0.019149388272
-0.0148992789382 0.0099648036484 0.0188305654629
-0.0125447525017 0.00993294507911 0.021500999108
-0.0162387483905 0.0155051265901 -0.0113094394033
-0.0162037530906 0.0156645041458 -0.00804184052073
-0.0161631293251 0.0155963422837 -0.0189699192258
-0.0162075440889 0.015693878542 -0.00568386845243
-0.0162216764667 0.0154899743545 -0.0151173639755
-0.0124895112731 0.0161213213663 -0.00921731352945
-0.0133504281786 0.0162297075839 0.00581103399428
-0.0136379329577 0.01626590336 0.00874952238067
-0.0122717020351 0.0160938999981 -0.0031000248501
-0.0128696758832 0.0161691826685 -0.00127365217487
-0.0122244087175 0.0160879459464 0.0024128231386
-0.0129390020459 0.016177910573 0.0133619617607
-0.0123900910782 0.0161088047357 0.000406231297625
-0.0133381363161 0.0162281600844 0.0152140483695
-0.0154531598492 0.0163659993559 0.00705122013228
-0.0153332243639 0.0163659993559 0.00485462543907
-0.0149637322266 0.0163659993559 0.015515261022
-0.0147743094663 0.014287810249 0.018330802515
-0.0131951959819 0.0154738819075 0.0175773393538
-0.0149314200195 0.0160171285669 0.0171320405726
-0.0130165830813 0.0125419478226 0.0199956859404
-0.0163170006126 0.00646661720488 -0.00142419109156
-0.0163170006126 0.00982365210283 -0.00925153262622
-0.0163170006126 0.0148932508044 -0.0204292717976
-0.0163170006126 0.0101489297915 -0.0108879603347
-0.016109362944 0.00439620240349 -0.0210126518661
-0.0162373415889 0.00920484312939 -0.0183607122416
-0.0161150219804 0.00382376498533 -0.0195818609174
-0.0162974109386 0.0113948048835 -0.0167019056688
-0.01627676146 0.00443343273683 -0.00274385422995
-0.0162821603931 0.00728720715755 -0.0088121321406
-0.0162165047409 0.000674481886659 -0.000752314987668
-0.0162572023166 0.00569589832161 -0.00790682381548
-0.0161568050857 0.00524264680274 -0.0181836924276
-0.0161086305312 -0.000720751682152 -0.00966925167925
-0.016286408584 0.00411683444494 -0.00091358509055
-0.0162052397649 0.00634300182753 -0.0152890187036
-0.0163163841072 0.00407791962156 0.00256250514112
-0.0162576994756 0.00434030140984 -0.00467852395045
-0.0161478218202 0.00295119149654 -0.0138360321664
-0.0161925291014 0.00658117578231 -0.0172817258432
-0.0161064016765 0.00274390803726 -0.0180284071374
-0.0161945742059 0.00312705709441 -0.00896798711046
-0.016170800747 0.00067307506843 -0.00591021028874
-0.0160641856148 0.00179457472427 -0.020574232373
-0.016286105645 0.00061368991624 0.0072497202086
-0.0161340682626 0.00305707975255 -0.0156369551185
-0.0161067965082 0.00104987883477 -0.0140197160045
-0.0162865211112 0.00654559987706 -0.00658429770223
-0.0161449690348 0.00112508901717 -0.00988502534512
-0.0160345625832 -0.000298344803933 -0.0190219291208
-0.0162810047517 0.0090720031299 -0.013119137074
-0.0162702263286 0.00160996731219 0.00312519249942
-0.01620818347 0.00426208375012 -0.0100871551867
-0.0163122080766 0.00634153417245 -0.00320603838983
-0.0162531559096 0.00846507802703 -0.0148437745214
-0.0162353920507 0.00282744742068 -0.00365747494842
-0.0160788589295 0.00103082864194 -0.0171300277807
-0.0161699399578 -0.000266259685896 -0.00380933070817
-0.0163156240699 0.00256305214598 0.00602153461244
-0.0162440557332 0.0100919779068 -0.0196784432479
-0.0162795826767 0.0100534160141 -0.0155762769921
-0.01627381067 0.000765170422996 0.0055068218161
-0.0162834225597 0.00323825760673 0.000805123096891
-0.0162387250762 -0.000346156346722 0.00414528657566
-0.0163136657001 0.00313787997422 0.0044552601083
-0.0161738773458 0.0016008649516 -0.00773385096307
-0.016297672477 0.0125777674254 -0.0194405564158
-0.0162196911356 0.00323811927889 -0.00639151325213
-0.0161683531788 0.0026423009087 -0.0107946820247
-0.0160689915313 0.00133449532781 -0.0189549111459
-0.0161403895506 0.00389700192566 -0.0168885703528
-0.0160279089907 0.000124606567122 -0.0207630205009
-0.0162375508421 0.00207330742429 -0.00164896904554
-0.0161946356957 0.00453735320435 -0.0122611993662
-0.0162042988146 0.00847789144422 -0.0203910141639
-0.0162928388026 0.00609306034163 -0.00481190080062
-0.0162319475585 0.000540933746119 0.00130409537947
-0.0162897414594 0.00827563931885 -0.0102690051797
-0.0161196856085 0.00101872740502 -0.0124913006155
-0.0162954158222 -8.23987726313e-05 0.00992996367939
-0.0162282843733 0.00801698219487 -0.0166038631723
-0.0162034484052 0.00135410812643 -0.0038170757731
-0.0161914839713 0.00525598680657 -0.0142987470628
-0.0162402850811 0.00658901079628 -0.0119071494519
-0.0163170006126 0.00848770710676 -0.00715402073037
-0.0163170006126 0.000438567023531 0.0126519193451
-0.0126803461492 0.0160911491869 -0.0203712772712
-0.0151781103807 0.0163138611014 -0.0163769849473
-0.0125245268843 0.0161246485995 -0.0134327429529
-0.0139930569628 0.0162847194316 -0.0144931308493
-0.0139791388695 0.0162963660727 -0.00262009198737
-0.0135705760805 0.0162344337399 -0.0180045743833
-0.0132864060291 0.0162107993876 -0.0111843139058
-0.0145598154302 0.0163520124931 -0.0099314359442
-0.0143434337032 0.0163299411741 -0.0084103931753
-0.0122674432512 0.0160928187688 -0.0166784099629
-0.0139305425633 0.0162886883459 -0.00473045507843
-0.0141523110074 0.0163206111763 0.00209353803586
-0.0149873198176 0.0163659993559 -0.00656205243839
-0.014847193192 0.0163659993559 -0.0116238388896
-0.014592386117 0.0163659993559 0.0108884723038
-0.0130099457948 0.00388700778414 0.0201721598691
-0.0139756495903 0.00292764585022 0.0194311880936
-0.0145078217576 0.000438652488143 0.0180204232788
-0.0129557066678 0.00153218249806 0.0187954712902
-0.0156869541157 0.0163659993559 0.0139614751792
-0.0155958980873 0.0163659993559 -0.00125649429009
-0.0158160403013 0.016238959542 -0.0139296662606
-0.0158157690813 0.016239230762 -0.00303998799174
-0.0159628319479 0.0160913960962 0.0119942428653
-0.0157882562123 0.0162665973747 0.00951204292745
-0.0159245122605 0.0161301534843 0.000790370617468
-0.0159591692043 0.0160953352261 0.0026006791962
-0.0161303309772 0.00650426962086 -0.0212073925632
-0.0158049923175 0.0115521723435 -0.0216793203779
-0.0161643469263 0.0132738200085 -0.0211191046419
-0.0132770126022 0.0148428286436 -0.0218150001019
-0.0146981192416 0.0160088312729 -0.0205317413953
-0.000308999995468 -0.0142285593096 0.00248286612891
-0.000308999995468 -0.0140511935443 0.0160630578184
-0.000308999995468 -0.0145100922165 0.0129590746485
-0.000308999995468 -0.014205392502 0.00405509491895
-0.000308999995468 -0.0156284466922 -0.0126316454459
-0.000308999995468 -0.0151644897806 0.00978526195762
-0.000308999995468 -0.01412703344 0.000934775928542
-0.000308999995468 -0.0159239980428 0.0165699736871
-0.000308999995468 -0.0154229745806 -0.00225454769722
-0.000308999995468 -0.0144045611469 -0.00077111345806
0.00255390646978 -0.0128250000998 0.0145672793649
0.0106500484212 -0.0128250000998 0.00914569724142
0.0146298223326 -0.0128250000998 -0.0135450906964
0.014176255778 -0.0128250000998 0.00723633289879
0.00185925888852 -0.0128250000998 0.0125879842905
0.0112376174731 -0.0128250000998 0.0145615153797
0.0145858154044 -0.0128250000998 0.0133103337607
0.00788720754311 -0.0128250000998 0.00740627513837
0.00867777011109 -0.0128250000998 0.00159670880823
0.014496766332 -0.0128250000998 -0.00819460138263
0.0142964296327 -0.0128250000998 0.0153255962978
0.010827486308 -0.0128250000998 0.0160094130761
0.00507405476143 -0.0128250000998 0.00626114160516
0.0143890063654 -0.0128250000998 -0.00636914415653
0.0128952373236 -0.0128250000998 0.00256136418637
0.0145667996494 -0.0128250000998 0.0104732351356
0.00892771581367 -0.0128250000998 0.0089353958053
0.0130288210394 -0.0128250000998 0.0139634243432
0.0063542169273 -0.0128250000998 0.0114026037061
0.0124150031141 -0.0128250000998 -0.0107888679709
0.00989670945716 -0.0128250000998 0.017397226548
0.00962844740283 -0.0128250000998 -0.00145502048684
0.00798162367609 -0.0128250000998 -0.000166137756248
0.0144559910234 -0.0128250000998 -0.0100444302927
0.0145764359292 -0.0128250000998 -0.0174354293816
0.0094759071695 -0.0128250000998 0.00611236004357
0.0141511830475 -0.0128250000998 0.00893977919657
0.0121879558794 -0.0128250000998 0.00450101069045
0.0140553296949 -0.0128250000998 -0.0043985779122
0.0142707402609 -0.0128250000998 -0.00243467295157
0.00138702137957 -0.0128250000998 0.0163716776318
0.00576881970372 -0.0128250000998 0.00824261155128
0.00905926814516 -0.0128250000998 0.0153978479129
0.0103417134378 -0.0128250000998 0.0130271624481
0.0145620872031 -0.0128250000998 0.00288084388085
0.003744028331 -0.0128250000998 0.0098605954004
0.00680666424083 -0.0128250000998 0.00131033253093
-0.000308999995468 -0.0141828012304 -0.011332801796
-0.000308999995468 -0.0149607762006 -0.0144060836633
-0.000308999995468 -0.012834775615 0.00986699472614
0.0113623288107 -0.0128250000998 -0.0167789790631
0.0121937029051 -0.0128250000998 -0.0183401062165
0.0108163246071 -0.0128250000998 -0.011043260945
0.00167818120284 -0.0128250000998 -0.00951546451714
0.00696694804695 -0.0128250000998 -0.00670748138506
0.00117321404281 -0.0128250000998 -0.005337491964
0.00522116474151 -0.0128250000998 -0.0113262596055
0.00707536012933 -0.0128250000998 -0.00321296336726
0.00143401401533 -0.0128250000998 0.0010311504435
0.0103629674175 -0.0128250000998 -0.014714129792
0.00411587628893 -0.0128250000998 -0.000985942593007
0.0026293363347 -0.0128250000998 -0.00378081947578
0.00461859980654 -0.0128250000998 0.00269459280273
0.00359039160437 -0.0128250000998 0.00169287564424
0.0128198314211 -0.0128250000998 -0.0164657570286
0.00270848426078 -0.0128250000998 0.00325176096508
0.00510417859987 -0.0128250000998 -0.00592375501491
0.00731856963245 -0.0128250000998 -0.00169127261815
0.0118902484388 -0.0128250000998 -0.0148807345407
0.000179445131638 -0.0128250000998 0.00727331704801
0.00155679887785 -0.0128250000998 0.00495484058511
0.0091680323779 -0.0128250000998 -0.0127656203915
0.0060655475123 -0.0128250000998 -0.00827892574397
0.00424231279049 -0.0128250000998 -0.00304227773327
0.00140024662606 -0.0128250000998 0.0107290172586
0.00259388893138 -0.0128250000998 -0.000517638571863
0.0094675673355 -0.0128250000998 -0.0167674621587
0.0114139039197 -0.0128250000998 -0.0129615930156
0.00240738028393 -0.0128250000998 -0.00719004825712
0.00867275401887 -0.0128250000998 -0.0107282539617
-0.000308999995468 -0.0143178257857 -0.018041354328
-0.000308999995468 -0.0157036195054 -0.0190983133504
0.00901832093322 -0.0128250000998 -0.0192717758492
0.00743899534156 -0.0128250000998 -0.0202483018953
0.00781005353115 -0.0128250000998 -0.0180964982037
0.00507431034956 -0.0128250000998 -0.0144004001901
0.00289225223275 -0.0128250000998 -0.0134653849843
0.0110938728447 -0.0128250000998 -0.0205046755153
0.00700133351244 -0.0128250000998 -0.0153761712486
0.00496148339724 -0.0128250000998 -0.0160993397751
0.00622854352118 -0.0128250000998 -0.0186631811554
0.000602939431743 -0.0139097848706 -0.0211843648182
0.00173204584371 -0.0133659424531 -0.0176459870585
0.00131619185968 -0.0132465787683 -0.0159136607242
0.00491825530396 -0.0131601071207 -0.0202796427929
0.00372370868464 -0.0129838655913 -0.0168858542865
0.00136170566511 -0.0135997530692 -0.0193329517711
0.00145613361159 -0.0130565287143 -0.0143104639352
0.00317425446991 -0.0132623354233 -0.0187389721705
0.00229431548763 -0.0135936013289 -0.0206175309373
-0.000308737248519 -0.0133069440913 -0.0141469266616
0.00328346413546 -0.0128448670516 -0.0149319516192
0.0163269992918 -0.0141823326138 0.00116785670483
0.0163269992918 -0.0139364679816 -0.00207771530228
0.0163230895525 -0.0145540516385 0.00407337523779
0.015799482991 -0.0138799117754 0.0169914245239
0.0162411731208 -0.0133923776038 -0.00586699905237
0.0161386803641 -0.0131909336696 0.006026322462
0.0162217873728 -0.0143549397813 0.00809917999387
0.0161344461698 -0.014239494952 0.0115701678007
0.016178800497 -0.0147704545201 0.00980750225807
0.0160895691784 -0.0134605543477 0.0133536043066
0.0160822164993 -0.0154316663688 0.0136458038474
0.0160528669706 -0.0142476906214 0.0148121703838
0.0151320173045 -0.016257305989 -0.00658926931804
0.0152600474539 -0.0162145837824 -0.00414267795973
0.0154534418277 -0.0161500502766 -0.00256118131887
0.0159133805644 -0.0159965739444 -0.0173522723543
0.0157167849029 -0.0160621756836 -0.00889100629348
0.0157298883834 -0.0158393716864 -0.020885834704
0.0158435112422 -0.0158964070655 0.00148257707514
0.0158189158797 -0.0158966614776 0.00326722476572
0.015648436329 -0.0159390754442 0.0111271263258
0.0115407645887 -0.0138210376813 0.0175654648224
0.0134766902169 -0.0140115330133 0.0174939189358
0.0163269992918 -0.0143316964402 -0.0160771953702
0.0163269992918 -0.0144004680689 -0.0074968474187
0.0163269992918 -0.0152329379166 -0.0189949837186
0.0163269992918 -0.0147316905581 -0.00384732596517
0.0162491386206 -0.0153883643827 -0.0104577820386
0.0162962068642 -0.0149445342919 -0.000499283477178
0.016222237507 -0.015071051109 0.00610325113236
0.0162686508578 -0.0153990171406 -0.0142778746141
0.0074500078857 -0.0136083881865 -0.021635624259
0.00415034056953 -0.0137658677338 -0.0215373514398
0.00934457457942 -0.0128288411631 -0.0210126011955
0.00282655494322 -0.0149732164923 -0.0217441294741
0.0013685008059 -0.014274717858 0.0174906424161
0.00686816544019 -0.0142693644462 0.0175634708308
0.00362660463 -0.0153327471992 0.017445359206
0.0100294426466 -0.0146682215809 0.017509025552
0.0144570345973 -0.0153360004772 0.0174198764111
0.0146024601443 -0.0162780005485 0.0138301525723
0.0019856801892 -0.0160128425498 -0.00237167702886
0.0107047320326 -0.0161984303328 0.00723725728599
0.00814168778018 -0.0161438751232 0.0143922559699
0.00662757950429 -0.0161116468485 0.00842612150057
0.00480549004658 -0.0160728630967 0.00632014667768
0.00442478464635 -0.0160647596615 0.00796144753407
0.00142596382714 -0.0160009288096 0.00762789822236
0.00960282993096 -0.0161749759972 0.015500513157
0.0075563697387 -0.0161314164431 0.00998333783626
0.00406376355851 -0.0160570752132 0.0147978163549
0.00267460923298 -0.0160275066229 0.00666230929914
0.00701419775118 -0.0161198761405 0.00162047352659
0.0100780001488 -0.0161850901459 0.013994823059
0.00656484185754 -0.0161103114578 0.00672129289586
5.87271627831e-06 -0.01597070172 -0.000169934604234
0.00506387986911 -0.016078363006 0.00955812558641
0.0020764883228 -0.0160147754297 -0.00885427796638
0.00241759139878 -0.0160220359168 0.00365772584547
0.00876840368639 -0.01615721497 0.0123823462999
0.00113153466537 -0.0159946617915 0.012996004509
0.00206559801426 -0.016014543626 -0.0143842764577
0.00369009055129 -0.0160491214648 0.0125798136807
0.00556812653341 -0.0160890960561 -0.00154223631882
0.00719056064773 -0.0161236300806 0.0115267494608
0.00079739525446 -0.0159875495282 0.00368418579699
0.00812095829543 -0.0161434338896 0.00569848912921
0.00439529896865 -0.0160641320495 -0.00889497836725
0.00624012748025 -0.0161033998093 0.0133917211114
0.0105199377359 -0.0161944969276 0.0108115705324
0.00313469941991 -0.0160372997884 0.0108924643319
0.00151829167841 -0.0160028940372 0.0152865886974
1.65229120734e-05 -0.0159709284128 -0.0108803528296
0.00293700182535 -0.0160330917325 0.00888153471972
0.0050582452014 -0.0160782430703 0.0114531254134
0.00489122562749 -0.0160746880057 0.000850267841317
0.00174892316982 -0.0160078031016 0.00135869433609
0.00499688563267 -0.0160769370124 -0.00561414534088
0.00460645110852 -0.0160686264898 -0.00408073746366
0.00313936463815 -0.0160373990891 0.0018719529892
0.00112678923968 -0.0159945607836 0.00933415187941
0.00504693210356 -0.0160780022674 0.00296676939546
0.0133149460875 -0.0162539895665 0.0156794612268
-0.000217087966575 -0.0159659559312 0.0148143119517
0.00378623229131 -0.0160511678722 0.0046781397045
0.00968158992925 -0.0161766524287 0.00557627913626
0.00319920649199 -0.0160386728419 -0.00772868861852
0.00363483484134 -0.0160479453295 -0.00168596855778
0.00124646925865 -0.0159971082108 -0.0167530633675
0.00662621096989 -0.0161116177188 0.0157364548129
0.00185918457091 -0.0160101500505 -0.00685010435798
0.00777951942325 -0.0161361662549 0.00300052975728
-2.75946330046e-05 -0.0159699893569 -0.00722244056122
0.00113091209953 -0.01599464854 -0.00375675481346
0.00310447462774 -0.0160366564442 -0.00492660967943
0.00182471888814 -0.0160094164375 -0.0125523699936
0.0103527860885 -0.0161909390518 0.00912533156571
0.00635942403434 -0.0161059390743 -6.25630644114e-05
0.0112286023393 -0.0162095810784 0.0126080105213
0.00152012923911 -0.0160029331502 -0.00529820514036
0.00692156091688 -0.0161179043361 0.00468545557785
0.00862497349099 -0.0161541620128 0.00762451418774
0.0121414795513 -0.0162290119593 0.0142722475902
0.00151412662642 -0.0160028053827 0.00531879697689
0.00501467447706 -0.0160773156536 -0.00729573494518
2.39747403622e-05 -0.0159710870273 0.00194516967096
0.00298335862887 -0.0160340784517 0.000152123583395
0.0116231426235 -0.0162146335799 -0.000500887432775
0.012155363783 -0.0162195027211 -0.0175382954783
0.00892190936113 -0.0161582723883 -0.00410712382439
0.00165463695048 -0.0160050186134 -0.0184264201139
0.0144911787288 -0.016276244831 0.00836502884931
0.00812863652918 -0.0161387060012 -0.0137468060339
0.0135074548614 -0.0162546872041 0.00411374663229
0.00379716527546 -0.0160508690857 -0.0123024668754
0.00330932872458 -0.0160390014973 -0.017760665557
0.00987407633439 -0.0161741432571 -0.0142096247207
0.00410316673912 -0.0160565892373 -0.0137854330107
0.0107600113053 -0.0161926235277 -0.013040389749
0.00707058326091 -0.0161195453654 -0.00686085468868
0.0123003227056 -0.0162310566204 0.00693148361043
0.0132453295897 -0.0162455535532 -0.00666587408196
0.0128734539622 -0.016234727613 -0.0158909783764
0.00113395560014 -0.0159937008448 -0.0204130423588
0.0141102179673 -0.0162656048481 0.000196599364737
0.00885279713413 -0.0161527536706 -0.0158025031758
0.0128019053519 -0.0162428249738 0.0113092633536
0.00439807068635 -0.0160636557851 -0.0107920535408
0.00787029352873 -0.0161380681917 -0.000565062801828
0.0106956102789 -0.0161901785489 -0.0162607600289
0.0133993513308 -0.0162443114196 -0.0191423671841
0.00590983438872 -0.0160951521581 -0.00890630086796
0.00778075717257 -0.0161332725535 -0.00901676583495
0.0124620240458 -0.0162310170665 -0.00256802699339
0.00973762489314 -0.0161758467089 -0.00144009836711
0.00993748978845 -0.0161774225327 -0.0085573429221
0.00369961749722 -0.0160477599188 -0.0154890510615
0.00947372204882 -0.0161715545834 0.00166345750807
0.0102280488005 -0.0161875863314 0.00350368376725
0.00937791136969 -0.016166528164 -0.00708086573819
0.0119448192542 -0.0162179313434 -0.00978843254903
0.0130938917014 -0.0162454414796 0.00180626899379
0.0138966106867 -0.0162607403032 -0.00124877945966
0.0123364464605 -0.0162243997537 -0.0141123629793
0.00497396185475 -0.016073406187 -0.0164714700282
0.0110423070155 -0.0162046684115 0.00485428918582
0.0134797212604 -0.0162509517671 -0.00490811822274
0.00712397260253 -0.0161162791159 -0.0192565861403
0.00524133733021 -0.0160781160688 -0.0185875946039
0.00705995300522 -0.0161163943964 -0.0152120692686
0.00887447658603 -0.0161523565971 -0.0181911716126
0.0120990292898 -0.0162202514461 -0.0121369925394
0.0146582900114 -0.0162722125624 -0.0128126293122
0.014510330238 -0.0162684595292 -0.0149053215493
0.0138874544325 -0.0162549338388 -0.0172436526164
0.0116118871231 -0.0162121553677 -0.00690100010254
0.0145892055483 -0.016277493458 0.00622832130763
0.00648060209928 -0.0161059647669 -0.0112650339027
0.0084620572218 -0.0161464151018 -0.011160525303
0.0104326584106 -0.0161866917156 -0.0109203806205
0.0141210786475 -0.0162692399297 0.00991232224841
0.00662427031927 -0.0161113598514 -0.00424959396189
0.0141661257393 -0.0162629134817 -0.0107090929824
0.0077393380579 -0.0161347096644 -0.00252202684665
0.0114398620414 -0.0162118849677 0.00231562125092
0.00799833704751 -0.0161390183887 -0.00529366520539
0.0125589189472 -0.0162369974714 0.00882859671094
0.00687951879458 -0.0161120649902 -0.0170600633165
0.00378507236954 -0.0160478759102 -0.0201196600706
0.0131631653414 -0.0162431462845 -0.00874773985206
0.00595071444175 -0.0160942610396 -0.0138157389562
0.0105106399627 -0.0161854667609 -0.0189337666222
0.0116364332269 -0.0162079324693 -0.0203451727656
0.0109958615128 -0.0162007371176 -0.00363877965493
0.0149456273162 -0.0145396437173 -0.0217555532785
0.0132824343528 -0.0133879484095 -0.021627947812
0.0113795045742 -0.0141050700775 -0.0218007362474
0.00940891986842 -0.0150716463771 -0.0218150001019
0.0115588157136 -0.0160404641252 0.0168731196568
0.0155419178193 -0.0159431230541 0.0164779332627
0.00580172073375 -0.0158650235266 0.0172019762278
0.00190918992572 -0.0159265318725 0.0171404675169
0.00777024746437 -0.0157142224767 0.017304543114
0.0158441694849 -0.0128250000998 -0.00440198898199
0.0160431745078 -0.0128889425713 -0.0140207421823
0.0161686681504 -0.0131383416851 -0.0104588411084
0.0161622251388 -0.0131255372008 -0.00875901171239
0.0161818819314 -0.0131646020215 -0.0174342478189
0.0162950796164 -0.0138454205034 -0.020208458662
0.00795878240658 -0.0160848253473 -0.0208724511707
0.013972391326 -0.0160379623284 -0.0211976321437
0.00545463257046 -0.0159339686095 -0.0213441438274
0.0154193360612 0.0152782791333 -0.021437000798
-0.000308999995468 0.0136496565985 -0.00546538466785
-0.000308999995468 0.0159407664076 -0.00353009384393
-0.000308999995468 0.0145594280149 0.00399735751983
-0.000308999995468 0.01465691266 -0.0125422019845
-0.000308999995468 0.0129348296363 -0.0069272384892
-0.000308999995468 0.0160396084619 -0.00868987540071
0.00588940463167 0.0122859999537 -0.00506890326765
0.00892001755774 0.0122859999537 -0.0155944898682
0.0150987891691 0.0122859999537 0.00636345021776
0.0126365919358 0.0122859999537 -0.00677275787951
0.00936583888647 0.0122859999537 -0.0130112028219
0.00902201659102 0.0122859999537 -0.00138272171404
0.00790151882585 0.0122859999537 0.00206909490291
0.00920694851265 0.0122859999537 -0.00743027527303
0.0132392518322 0.0122859999537 -0.0139010380856
0.0142427416103 0.0122859999537 0.000573237642573
0.0145573260386 0.0122859999537 -0.016784563334
0.0142820590693 0.0122859999537 0.0142356173928
0.0118265427856 0.0122859999537 -0.0174946608663
0.00648969836429 0.0122859999537 -0.0092402153143
0.00871299108214 0.0122859999537 -0.003603338879
0.00190406658336 0.0122859999537 -0.00665687312793
0.00977325108089 0.0122859999537 -0.00544284124113
0.0105376200115 0.0122859999537 -0.0096254260211
0.00586952764647 0.0122859999537 -0.0120786051512
0.00451861480778 0.0122859999537 -0.00981421873987
0.0139787571785 0.0122859999537 -0.0103557795181
0.0112990436337 0.0122859999537 -0.000495282270123
0.0148436266276 0.0122859999537 0.00247473998174
0.0115314540756 0.0122859999537 -0.0141887848135
0.0111404126986 0.0122859999537 -0.0158068347686
0.00970881995945 0.0122859999537 -0.0112106136332
0.00763178577404 0.0122859999537 -0.0110420279625
0.0134069251005 0.0122859999537 -0.000974732022223
0.00673514396872 0.0122859999537 -0.00727773582433
0.00856825024208 0.0122859999537 0.000126211407982
0.0106824771652 0.0122859999537 -0.00210507983644
0.0110729665358 0.0122859999537 0.0102944209604
0.0108418946104 0.0122859999537 0.00651764758062
0.0108553031404 0.0122859999537 -0.0123191155473
0.00548056998503 0.0122859999537 -0.00125635466612
0.0145505887976 0.0122859999537 0.0116803808309
0.00400321154412 0.0122859999537 -0.00537371805027
0.0108297363521 0.0122859999537 0.00253859883089
0.0147170160294 0.0122859999537 0.00925538777497
0.00509749921667 0.0122859999537 -0.00689934424137
0.00744275050449 0.0122859999537 -0.0129582182675
0.00225679873959 0.0122859999537 -0.0048648124349
0.0110706192669 0.0122859999537 -0.00692356071497
-0.000308999995468 0.0146129123193 0.00771861675469
-0.000308999995468 0.0143036311023 0.0143664994695
-0.000308999995468 0.0149316941321 0.00976805778004
-0.000308999995468 0.0141157288838 0.011496426288
0.00108341591322 0.0122859999537 -0.00255944321698
0.00276257075515 0.0122859999537 0.012107504121
0.00356084155963 0.0122859999537 0.00780363539111
0.00579785141134 0.0122859999537 0.0134341303981
0.006649527636 0.0122859999537 0.0158610824347
0.00474782085081 0.0122859999537 0.000855609364987
0.00489528364725 0.0122859999537 0.0163860824733
0.00173019736281 0.0122859999537 -0.00095664687731
0.0100427554143 0.0122859999537 0.0135636017417
0.0011156858806 0.0122859999537 0.0111787160398
0.00409035482104 0.0122859999537 0.00402203759836
0.00365498069643 0.0122859999537 -0.000654271436723
0.00149907571672 0.0122859999537 0.00715505237852
0.00657927540507 0.0122859999537 0.00345757522794
0.00841617851518 0.0122859999537 0.0165536978132
0.000925419305518 0.0122859999537 0.00553080163849
0.0082572580304 0.0122859999537 0.00602639780987
0.0141816708925 0.0122859999537 0.0158653065524
0.00136532270705 0.0122859999537 0.0161215383384
0.000319322193752 0.0122859999537 0.0135098900897
0.00584784605867 0.0122859999537 0.0101512379118
0.00407797734309 0.0122859999537 0.00578598914804
0.0025000674532 0.0122859999537 0.00466510472215
0.000850796782914 0.0122859999537 0.00381273897504
0.00301429991215 0.0122859999537 0.00214890271796
0.000199246449568 0.0122859999537 -4.36512386014e-05
0.00488742529774 0.0122859999537 0.0117790616261
-0.000308999995468 0.0142311781128 -0.0191535712185
-0.000308999995468 0.0142274258961 -0.016337146154
0.0114126896342 0.0134196651023 0.0201070362247
0.014494361777 0.0138322530795 0.0179781939398
0.012921327058 0.0129499466201 0.0190867898014
0.0162898971442 0.0134483440686 -0.0153125019751
0.0161622207535 0.013330943675 -0.000510131714618
0.0163266284148 0.0140932645117 -0.0195710016425
0.0155869724778 0.0127453525631 0.0172148107024
0.000191145617407 0.0160631200492 0.0150023029982
0.00910895199735 0.0162613911939 0.0119752725454
0.000457170020946 0.0160690346162 -0.0155375629875
0.00733792383814 0.0162220156159 0.0158736785203
0.00546831808784 0.0161804483452 0.00628826684807
0.0102819094322 0.0162874697611 0.0106184201243
0.00266622421561 0.0161181489034 -0.00743957067412
0.0019848578006 0.0161029999651 0.0161626179673
0.00343029226794 0.0161351365617 -0.00474471103276
0.00449804663315 0.0161588761307 0.00141188088503
0.00520268830333 0.0161745425519 0.00303477259439
0.00405842278628 0.016149101897 -0.00863802827765
0.00178847447549 0.0160986337403 -0.00189156291404
0.00672014262789 0.0162082803785 0.00115979864234
0.00335042281653 0.0161333608102 0.0145681358538
0.008115794694 0.0162393101543 0.00362531639711
5.95441291318e-06 0.0160590026609 0.0112372610043
0.00123871728968 0.0160864108929 -0.00968729531626
-0.000185046362447 0.0160547561073 0.00517139893195
0.00150334177263 0.0160922943352 0.0123993081425
0.00232298992807 0.0161105177156 -0.0108087536424
-0.000262862755298 0.0160530260019 0.0019891403695
