0.0174811894555 0.00584635999761 0.0162625826388
0.0157615347117 0.00338945203066 0.0158407085961
0.00756097519406 0.0100723758309 0.00799130464495
0.00918929426024 0.00992950394269 0.00803610976635
0.019629887614 0.00968752086001 0.00978184316772
0.0137971766114 0.0097169589261 0.00857778535295
0.0149744116469 0.0103558476992 0.010215936607
0.0185804888882 0.0104201446035 0.0111388337399
0.0113651726558 0.00999348746913 0.00864747289969
0.0178121136645 0.00925692407661 0.00845512301252
0.0172444893241 0.0100650977401 0.0100802851695
0.00580149696327 0.0106832610518 0.00893056911114
0.0163169885281 0.00956165600078 0.00878946250253
0.0178581769863 0.0107892500237 0.0130158004402
0.0187170194001 0.0107892500237 0.0144322565466
0.00780789508456 0.0107892500237 0.0106120154235
0.0148313073308 0.0107892500237 0.0117045727547
0.0192909057375 0.00958573327634 0.0160232513956
0.0183940021827 0.00145703821931 0.0163459532305
0.0175259394783 -0.0060714948791 0.0162255132565
0.0176788639752 -0.00354405129882 0.0162614232524
0.0201022118405 0.00550164002067 0.0156061149216
0.0208913826059 0.0016350840501 0.014969550142
0.0193280824612 0.00779312610458 0.016302195744
0.0204722799622 0.00784032489545 0.0151094740634
0.0210475659 0.000324278253989 0.00901017216681
0.0209652923582 -0.00267680176254 0.00801278390883
0.0210755113888 -0.00564921123911 0.0102500461409
0.0209918201986 -0.0063400098825 0.0089311067743
0.0209247964867 -0.0100829611131 0.0105930514502
0.0207518839008 -0.00842073874409 0.0144310756071
0.0208329571193 -0.010180176307 0.0129320474084
0.0210202361762 -0.00654419113823 0.0127679487013
0.020893535377 -0.00557355130067 0.0143485324234
0.0204298073192 -0.0117941625057 0.0151518832803
0.0177987296553 -0.00892644992771 0.0161788938461
0.0192098738824 -0.00655072039001 0.0161277403416
0.0188843696681 0.00395752597351 0.016381061323
0.01829163236 -0.0120450782719 0.0160747730937
0.0192294201255 3.202893277e-06 0.0162694821082
0.0189821100321 -0.00164950561856 0.0162514391943
0.0202073586993 -0.00426284622924 0.0154690680615
0.0208849575713 -0.000681639106768 0.0149973691285
0.0202263508339 0.00320673164386 0.0155613431502
0.0194869679831 -0.00806293651926 0.0159706599977
0.00993393130359 0.0105908788961 0.0141889711898
0.00108220018515 0.0101158195316 0.0117370097814
0.00255608562473 0.0101285445276 0.0121717571589
0.0111753025433 0.00278882524006 0.0146332952394
0.00611965345904 0.00847840082776 0.0132038815654
0.00316938893411 0.00635154820342 0.0123731324234
0.00577384581739 0.00443997152261 0.0131088702694
0.00987320486409 0.00154486990281 0.0142668349069
-0.00046619551679 0.00908324938763 0.0113460699608
0.0128102113113 -0.00221458732636 0.0150975153894
0.0109784228761 0.00523377820267 0.0145762438283
0.00579738813235 0.00682545777533 0.0131140224706
0.0105749274514 0.00689218835716 0.0144614101845
0.00284591726278 0.00849536234081 0.0122805655252
0.00844093440446 0.00923213738578 0.0138580920916
0.00913684919101 0.00301740381384 0.0140582392083
0.00914130956841 0.00509724350027 0.0140582002455
0.00900320190019 0.0074677978422 0.0140177709395
0.00779641270276 0.0062574165246 0.0136781699194
0.00519632422145 0.010082087317 0.0129424711493
0.0116317117726 0.000262649106226 0.0147635935035
0.00444647229659 0.00855076505204 0.0127319421842
0.0113410080086 0.00860455848593 0.0146716758032
0.0154069445907 0.0049162942482 0.0157485975619
0.0129063198493 0.0091991810574 0.0150780042571
0.0133446341649 0.000423619859287 0.0152284780516
0.0120735873374 0.00395892829812 0.014882046874
0.0164630117145 0.00851695747303 0.0160096052255
0.0121411016266 0.0070778057388 0.0148868790055
0.015184488869 0.00978217332335 0.015670537338
0.0135139119389 0.00311491989198 0.0152616395103
0.0167478852287 0.0102130053213 0.0160770377134
0.0141449506395 0.00575487645114 0.0154155968032
0.0141967319925 0.00754535690745 0.0154217716386
-0.00401499720799 -0.00454083635796 0.00973791230885
-0.00441001387583 -0.00126226436747 0.00931799454763
-0.00406066080807 0.000480339356311 0.00976443237158
-0.00418740106363 0.00630709555687 0.00970690988902
-0.00381864047004 -0.0108526274858 0.00987093982186
-0.00473878951899 0.00184341961252 0.00897458786976
-0.00442055985626 -0.0032100594563 0.00927387334002
-0.00430469537536 0.00826851845111 0.00946582634549
-0.00489498291922 0.0037323817993 0.00837938019349
-0.00406346730905 -0.00855452265134 0.0095857374006
-0.00494825001806 -0.00490772098738 0.00809069278636
0.0206576131676 0.00933834312785 0.0130173852501
0.0208681349842 0.00643384301539 0.0132527474909
0.0210340343476 0.00708327712532 0.0115579601599
0.0205030482242 0.00949036792308 0.0146432046169
0.0210892775798 -0.00381929561663 0.0108244082906
0.0210764124229 0.00140921890587 0.0102118488906
0.021049159767 0.00334304552697 0.00891424555518
0.0210927501321 0.000145334713908 0.0121474618866
0.0210927501321 -0.00778321018939 0.0110818000436
0.00204534612702 -0.0124322480809 0.0119236267404
0.00643558224768 -0.0100728005132 0.0132410499405
0.00882536909207 -0.0111087929031 0.0138978318848
0.0109302552102 -0.0121456310819 0.0144749748411
0.00460362449688 -0.011628034745 0.0127122568213
0.0112498792009 -0.00827708310864 0.014605999719
0.012876319125 -0.00378615274528 0.0151089873749
0.00666726072715 -0.00834876534478 0.0133243834301
0.000840630193746 -0.0109606327097 0.0116676906579
0.010392827948 -0.00945595910625 0.0143537492438
0.00943684668565 -0.00621598493997 0.0141214680197
0.00448255411995 -0.00926213546823 0.0127039139767
0.00771377828264 -0.0121868925555 0.0135755235236
0.00809904539687 -0.00898707198067 0.0137176890671
0.00920629844919 -0.00791773247045 0.0140386906187
0.0157604769966 -0.0096571272296 0.0157889325916
0.0141332081788 -0.0107066418925 0.0153449184627
0.0134919130151 -0.00729225491077 0.0152231265598
0.01202983598 -0.0102031579378 0.0147968415345
0.0126419490745 -0.00587983721863 0.0150184497882
0.0161885927456 -0.0111034481216 0.0158818139274
0.0137559827612 -0.00882673020496 0.0152714917705
-0.00367537359761 -0.0129138627868 0.00999974171917
-0.00412621611669 -0.0101905416257 0.00844709295695
-0.00344543587 -0.0126889909193 0.0083092919448
-0.00406982327872 -0.00856099823713 0.00796911175594
-0.00385458731286 0.0102433119764 0.0101500901636
-0.00298710230085 -0.00775635807915 0.010538318033
-0.00360930847921 0.00380201432625 0.0102946655038
-0.00338151179728 0.00201525543127 0.0104182071699
-0.00230049720406 0.00454715352192 0.0107991901001
-0.00275573694022 0.00658228141731 0.0106473735195
-0.00304062304782 0.00824615392313 0.0105523580059
-0.00312789838134 -0.00161751956209 0.0105235068816
-0.00284141703258 -0.00584190433225 0.0106191176563
0.016009738321 -0.0117369855341 -0.0222259634166
0.0158551642531 -0.00981483530304 -0.0220981595691
0.0172349996865 -0.0113276851709 -0.0147766010096
0.0172349996865 -0.0133018715045 -0.0155209740187
0.0125689462001 -0.0139709081103 -0.0182251977144
0.0124954881129 -0.0121565783848 -0.0182543462939
0.0121759321839 -0.0129034237101 -0.0163868631765
0.0122503362059 -0.0101794211272 -0.0171220257037
0.0172349996865 -0.0161477333933 -0.0219996936523
0.0172349996865 -0.0133187124348 -0.0172474126284
0.0172349996865 -0.0121576618902 -0.0203970372461
0.0157192886711 -0.0084982495755 -0.0158060757954
0.0135099573346 -0.00881483702576 -0.0164564350992
0.0142785591442 -0.00879540770757 -0.015019490162
0.0132027200153 -0.0160985993781 -0.0191716302593
0.0147742959072 -0.0159831539911 -0.0208595345723
0.0128543609039 -0.0100744162623 -0.0192975640633
0.0136198662486 -0.0129375162 -0.0204941753001
0.0127088510263 -0.012283406817 -0.0149258164384
0.0124530088132 -0.0100160428735 -0.0154335053581
0.0168653900099 -0.0145195612495 -0.0223036001882
0.0151335625419 -0.0132601275122 -0.0216933767808
0.0140353804707 -0.0102025808303 -0.0210221283342
0.0158181880413 -0.0164240217881 -0.0176883707784
0.0161804459489 -0.0159888077024 -0.0162132373779
0.0166442560931 -0.016524513993 -0.0201523838113
0.0125605451331 -0.0147477636195 -0.015446172777
0.0126344496249 -0.0159693233388 -0.0174936466624
0.0133400475074 -0.0165357496589 -0.0161624533859
0.0150808677937 -0.0165052959083 -0.0191898043718
0.0172349996865 -0.0145979684239 -0.0144554603172
0.0155120772592 -0.0130733303681 -0.0140892500058
0.0136999500949 -0.00875261993659 -0.0202834743132
0.0153538001277 -0.00854858274759 -0.0210436986427
0.0148209182808 -0.00857310732303 -0.0174798406703
0.0148309761993 -0.00858517346172 -0.0191287406647
0.0126207379734 -0.00879764943026 -0.0183283605011
0.0145623078086 -0.0103292147262 -0.0125290304964
0.0143399553797 -0.0112272977013 -0.0140442688165
0.0152950169942 -0.0084982495755 -0.012446560918
0.0169626584388 -0.0121850802759 -0.00886515252321
0.017333569937 -0.0101015767526 -0.0116161731213
0.017310703491 -0.0110726100852 -0.0129804724867
0.0172845270596 -0.00932003784649 -0.0129509796342
0.0154022799757 -0.0150066781319 -0.0106207881171
0.0147050206625 -0.0133437300733 -0.0107259931616
0.0144163589901 -0.0111297111462 -0.0107958574339
0.0140328693267 -0.0146565541797 -0.0124733773049
0.0138390737229 -0.0158333665831 -0.0137984968614
0.0160769305667 -0.0164630650096 -0.0107125494104
0.0159312106579 -0.0163809101306 -0.0130399075667
0.0171711157082 -0.0158320858077 -0.012042058123
0.0173433960148 -0.0135752179208 -0.0126922294569
0.017414507614 -0.012880477276 -0.0104413158802
0.0134332448499 -0.0140568978356 -0.0139085786455
0.01394350661 -0.0129248311133 -0.012276312605
0.0152496506241 -0.0146281844529 -0.0141373986239
0.0151509117387 -0.00959695255535 -0.0140947315768
0.014713430757 0.00645666866387 -0.0185749315202
0.015012770934 0.0060846324171 -0.014276504986
0.0147246372316 0.00628933414546 -0.0158184785082
0.0162155275036 0.00853356700026 -0.0121595002711
0.0176998875015 0.00627140749084 -0.0124703767769
0.0178775005043 0.011249831271 -0.0140520675953
0.0178775005043 0.0117667938024 -0.0198217005883
0.0178775005043 0.011446466463 -0.01574483178
0.0178775005043 0.0115609810739 -0.0174041841325
0.0144393322571 0.0149702504277 -0.0165458654558
0.0166679738438 0.0149702504277 -0.0162365180272
0.0156398097354 0.0149702504277 -0.0145135887287
0.0159214346744 0.0149702504277 -0.0177849468663
0.0130855963857 0.0100806934607 -0.0139591577609
0.0124717049271 0.0092491287652 -0.0150593105885
0.013777494132 0.0082435700679 -0.013384754629
0.0162939295393 0.00686377426058 -0.0214995961784
0.0164427521207 0.0062638013738 -0.0197976484478
0.0172005577361 0.0144407764075 -0.0132437181627
0.0176164454551 0.0148397726634 -0.0179599973445
0.0149671528544 0.00712240923149 -0.0121595002711
0.0138700304009 0.0119827382234 -0.0124436742459
0.0135653268482 0.0137010457148 -0.0130937972041
0.0128834294082 0.0149702504277 -0.0153423902979
0.0144776355254 0.0148432165555 -0.0125892060545
0.0132723168236 0.00693730561791 -0.0165556105485
0.0120909996331 0.00829207188951 -0.0174310638187
0.0120909996331 0.00978542495393 -0.0166449910716
0.0123553417499 0.0103264059869 -0.0183390986567
0.0122481015 0.0127314207623 -0.017700540291
0.0122390241765 0.0144523833381 -0.0174401431812
0.0133146580603 0.0097637631482 -0.0198607325345
0.0143005945273 0.00741592591208 -0.0209375931527
0.0131328966781 0.0128510405271 -0.019879062413
0.0126421714916 0.00834390650085 -0.0188437447384
0.0164194983923 0.0135228649935 -0.0224704542198
0.0166827843359 0.0118919932695 -0.0225204362437
0.0161560541356 0.00840650184015 -0.0222347484254
0.0158062328418 0.0104508408017 -0.022180375701
0.0148783323353 0.00912864938081 -0.0216380756603
0.0145229930084 0.011504846642 -0.0212626772825
0.0137668958579 0.0142753640152 -0.0205704668742
0.0151991432985 0.013235122227 -0.0216854998342
0.0178575706772 0.0107555189335 -0.0217557025934
0.0177523470232 0.00627980502469 -0.0186472319805
0.0178651976577 0.0066719571772 -0.0210741940467
0.0178775005043 0.00952708497211 -0.0154938217112
0.0178775005043 0.00816163876763 -0.0181936619643
0.0178259948346 0.00732611232108 -0.0153474892548
0.0171292791538 0.0149702504277 -0.0197134101374
0.0145956653441 0.0149702504277 -0.0187168845852
0.0167963599753 0.0148171412319 -0.0212195212761
0.0127465442667 0.012046194414 -0.014271650928
0.0121222334466 0.00779631896561 -0.0159355085659
0.0121314385143 0.0120176442074 -0.0159109760385
0.0127471308155 0.0135790581662 -0.0144542082309
0.0149357238923 0.00772254798018 -0.00917650247569
0.0144814343069 0.0104661508961 -0.0116210364767
0.0146549270437 0.00876376018482 -0.0116529085952
0.0163754420695 0.00607896807927 -0.00937239683649
0.0178185878513 0.00817688153922 -0.0118759966859
0.0165637666053 0.0143774513934 -0.011509019333
0.0167883119118 0.0120946305702 -0.0121595002711
0.0158737522603 0.0105598144001 -0.0121595002711
0.0149675083847 0.0143056941004 -0.0111620542012
0.0151541712007 0.0124709143184 -0.0103137577902
0.0178462787731 0.00958173913211 -0.0104544656182
6.00800219818e-05 -0.0111459297688 -0.0087125313543
-0.000290965871575 -0.00947639656422 -0.00837605668436
-0.000680695087846 -0.0106107014224 -0.00674877452984
-0.000532543238357 -0.0140770500323 -0.006677309894
-0.000209178689977 -0.0166095977271 -0.00834625150059
0.000954076520332 -0.0168557502329 -0.00725442742534
0.0092257289245 -0.0168557502329 -0.00508785607355
0.0175162274452 -0.0168557502329 -0.00337972543211
0.00458067830152 -0.0168557502329 -0.00739773976452
0.0225288766962 -0.0123104610006 -0.0089445002377
0.00482780689085 -0.0158266997054 -0.0089445002377
0.018606007127 -0.0144560964363 -0.0089445002377
0.0114270157036 -0.0155669147276 -0.0089445002377
0.0145646680883 -0.0130126288596 -0.0089445002377
0.0146319828607 -0.0160421502665 -0.0089445002377
0.0163905184288 -0.0156524413997 -0.0089445002377
0.0222539285577 -0.0102860832161 -0.0089445002377
0.0180502648773 -0.0110839527682 -0.0089445002377
0.0124299343329 -0.0133907580657 -0.0089445002377
0.0210529616536 -0.0113173077173 -0.0089445002377
0.0109772797083 -0.0138579898189 -0.0089445002377
0.0131311158613 -0.0152371830187 -0.0089445002377
0.00724872212988 -0.0160510335346 -0.0089445002377
0.00948122870297 -0.0150126997115 -0.0089445002377
0.0206169591708 -0.0149908608957 -0.0089445002377
0.0167589746575 -0.0138883636571 -0.0089445002377
0.0184949790749 -0.0128993088907 -0.0089445002377
0.00695618581209 -0.0145410696632 -0.0089445002377
0.00806274496157 -0.011426315578 -0.00889569350783
0.0120126884544 -0.0112776113962 -0.00891741379989
0.000565497449363 -0.0130055808151 -0.0088782281056
0.000266480644201 -0.0148548096551 -0.00891025519886
0.0099305481014 -0.0117768331699 -0.00891367397852
0.0135185776788 -0.011262077173 -0.00892644852672
0.00740362206653 -0.00947037544818 -0.00885578195923
0.00593884672286 -0.0122451766503 -0.0088975510063
0.00952376237651 -0.0103614934721 -0.00888522775289
0.00251430280299 -0.00903781710341 -0.00881759962977
0.00340010388635 -0.0131064733692 -0.00889761862142
0.0121410230027 -0.00923046408978 -0.00888070459114
0.015555920057 -0.011032648524 -0.00893485368003
0.00951145486013 -0.0133520267955 -0.00893993768745
0.00359589636219 -0.0146741481989 -0.00892754985478
0.00205912670719 -0.015385941482 -0.0089310793786
0.00213864684762 -0.0108708954447 -0.00884885656116
0.00406614613807 -0.0105988946678 -0.00885580202737
0.0165760750028 -0.00882074981928 -0.00499017023784
0.0211341788216 -0.00882074981928 -0.00681853306574
0.0124119424674 -0.00882074981928 -0.00663306460848
0.0102814991154 -0.00882074981928 -0.00674572126027
0.0195344249535 -0.00882074981928 -0.00355059136441
0.0160595661915 -0.00882074981928 -0.00672778175062
0.0150333707677 -0.00882074981928 -0.00386092488226
0.0210892091573 -0.00882074981928 -0.00399578154081
0.0199063796307 -0.00882074981928 -0.00526328191785
0.00430405828337 -0.00882074981928 -0.00697328890627
0.0226930223025 -0.00882074981928 -0.00759992713732
0.0182188438738 -0.00882074981928 -0.00599367453989
0.0239367867311 -0.0101860133043 -0.00533660133515
0.0238589051637 -0.0112016348634 -0.00657398998439
0.0238493659337 -0.0140012624519 -0.00676915293794
0.0239332116449 -0.0153751572613 -0.00576699124694
-0.000204120861856 -0.0124641834652 -0.00638095920715
0.000199180205103 -0.00892945153457 -0.00630429644824
0.0138362894979 -0.0119846031243 -0.00388465075971
0.0173331167342 -0.0144723473871 -0.00330183247529
0.0175629629227 -0.0123248951285 -0.00326352387373
0.0176670686423 -0.00978895365116 -0.00324617251126
0.0161030855004 -0.0117104769625 -0.00350684251582
0.0216744843225 -0.0149475597186 -0.00257825414588
0.0117203993483 -0.0121798245432 -0.00423730743496
0.00614845316569 -0.010203836393 -0.00516598703381
0.00773229033414 -0.00882465612414 -0.00490200794678
0.0139208144829 -0.0103004055692 -0.00387056292996
0.0122525893585 -0.0103364329042 -0.00414860700802
0.0104696617314 -0.0107369360007 -0.00444576862073
0.0194766396544 -0.0105796444415 -0.00294457022967
0.0154414087723 -0.0137301880972 -0.00361712457138
0.0190718236219 -0.0124093153179 -0.00301204115964
0.0199239600766 -0.0140711967858 -0.00287001506767
0.0239571749567 -0.0146243557148 -0.00390505789231
0.0239476670263 -0.0164482814752 -0.00436411393618
0.0125962118203 -0.0168557502329 -0.0058011474008
0.0178535191745 -0.0168557502329 -0.00578742667916
0.0217991263722 -0.0168557502329 -0.00417158123856
0.0136772780081 -0.0168557502329 -0.00742200092072
0.0201424739423 -0.0168557502329 -0.00436895812228
0.0112068369327 -0.0168557502329 -0.00645958711062
0.0202687033825 -0.0168557502329 -0.0070636325273
0.0032319776576 -0.0168424239611 -0.00873692096974
0.0127440535596 -0.0166758646531 -0.00892231083032
0.0187427379078 -0.0166792129165 -0.00838789138073
0.0221571586283 -0.0166426544221 -0.00831484728804
0.0237664442683 -0.0154512027456 -0.0073062008864
0.0237041266052 -0.0110684356696 -0.00846092556237
0.0237783577092 -0.0126578468811 -0.00759858394782
0.000622160076196 -0.0108741432489 -0.0061053670535
-0.000146426381954 -0.0154473979511 -0.00629762574251
0.00852490350781 -0.0147746915264 -0.00476990263563
0.00163954494702 -0.0125489742992 -0.00591748946017
0.0103213054062 -0.015424712672 -0.00447049525808
0.0115922761713 -0.0138488236973 -0.0042586618014
0.0099257669727 -0.0126370355989 -0.00453641988508
0.00187773550425 -0.0163841609973 -0.00587779009771
0.00149508927155 -0.0147016735982 -0.0059415659739
0.0138661824502 -0.0138359437691 -0.00387966848349
0.00601921309555 -0.0117231605593 -0.0051875275535
0.00694432697338 -0.0138288047101 -0.00503333827084
0.0146101984656 -0.0167554273378 -0.00375566288975
0.00316462117584 -0.015099514154 -0.00566330409406
0.00286341002952 -0.0115491301754 -0.00571350713575
0.00430975692462 -0.0139190373783 -0.00547244363472
0.0126801268533 -0.0164314826184 -0.00407734907836
0.00421481398257 -0.0102567810746 -0.00548826783159
0.00822732245736 -0.0123848141457 -0.00481950064708
0.00666411534344 -0.0158780503433 -0.00508004131059
0.00512336900107 -0.0154791949693 -0.0053368384239
0.022346742708 -0.0104822019645 -0.00251449993812
0.0236667666363 -0.0103501598407 -0.00353139351485
0.0237869632911 -0.0121412709606 -0.00366530236349
0.0229268993451 -0.0135690681376 -0.00294685721135
0.0227878259483 -0.0165092671648 -0.00301548014412
0.0106260627337 -0.00887134758079 -0.00849560481178
0.0134400536136 -0.00883885864067 -0.00827180875629
0.0315917026754 -0.01500085906 -0.00251449993812
0.0051836468822 0.00645477401352 -0.00411147174203
0.0122710868896 0.00660692471978 -0.00664258357077
0.00357574552498 0.00642859964924 -0.00484012442779
-0.00249765245663 0.00630013946467 -0.00297119215591
0.0108240451626 0.00656216130916 -0.00398667297745
0.00994530595119 0.00656197264685 -0.00658916515426
0.00971446854916 0.00654808895391 -0.00511255445113
0.00135597532226 0.00631366704308 -0.00532815392273
-0.000625021596928 0.00632270834483 -0.00411916789864
0.00337263188854 0.00614457347797 -0.00835373958078
-0.00243002652171 0.00617939822514 -0.00471878982952
0.000271257473306 0.00611332942203 -0.00697061961706
0.005338515335 0.00643611697193 -0.00618006706574
-0.000865269035404 0.00617606579637 -0.00563098883313
-0.00159259386203 0.001588214966 -0.00845720472216
-0.000803155078358 -0.00247164940793 -0.00858176079958
-0.000570156601568 0.00499398761546 -0.00859438903783
-0.00239342356789 -0.00193314459833 -0.00835213256714
-0.00207152553571 -8.90501897348e-05 -0.00839317284368
-0.00360562487574 -0.000641519114631 -0.00817464119984
-7.81147085066e-05 -0.00516424855794 -0.00869327015134
-0.0001665316874 -0.000794655670016 -0.00866841472528
0.0133769996464 0.000670457314237 -0.00386177938968
0.0133769996464 0.00345284452621 -0.0037875385535
0.0133769996464 -0.00295495743862 -0.00359954468923
0.0031738515263 0.00633975690259 -0.00314168857181
0.00845206846774 0.00607835287281 -0.00312273937101
0.011275089943 0.00350644080405 -0.00258052514438
0.000912228791844 0.00464753203355 -0.00254480144125
0.00443400583456 0.00206640435188 -0.00254161604535
0.00419094303567 0.000336083061778 -0.00252850046717
0.00420381115338 0.00473201514133 -0.00255927139174
0.00251263625082 0.00196281087523 -0.00253279034022
0.011459580985 0.00534616922769 -0.00259415822744
0.00713460165267 0.00485731264866 -0.00257250518177
0.00927559786275 0.00319673605207 -0.00256992981326
0.00876854113977 -0.00105370603697 -0.00253809165666
0.00941578271795 0.00110087455996 -0.00255587605687
0.0104538872849 -9.12158478468e-05 -0.00255192367921
0.0123080216202 -0.00422289403492 -0.00253087182765
0.00573148809521 0.000883043688163 -0.00253881838549
0.00623164626083 0.00318823942768 -0.00255703500505
-0.0010460640375 0.00475340973034 -0.0025372837258
-0.0041940953356 -0.00628439397989 -0.00653607077632
-0.00278197658157 -0.00722261129446 -0.00679381701724
-0.00359650062974 -0.00765666793066 -0.00504404086487
0.0132239335794 0.00223496546016 -0.00520167772057
0.00160300497518 -0.00875931678141 -0.00716575426492
0.00608083321655 -0.00881974957883 -0.00728813339774
0.00756360783263 -0.00881974957883 -0.00686849970249
-0.00352085260057 0.00546040104456 -0.00551381340526
-0.00454322286672 0.00593246946251 -0.00350384171213
-0.00253589803409 0.00539734436146 -0.00676053226455
-0.00492925714221 -0.00322744054768 -0.00348923550981
-0.00493046226835 -0.000226835667062 -0.00410280269543
-0.00494473124755 0.00376823464683 -0.00602062416125
-0.0034892080109 0.0041589170614 -0.00724117554937
-0.00261525990354 0.00320222808085 -0.00819044965448
-0.00442471369447 0.00108778102962 -0.00793137543544
-0.0049406054401 -0.00151802093929 -0.00496988955768
-0.00494339563489 0.000550978431911 -0.00548036863554
-0.00493871616931 -0.00553789535152 -0.00471143004574
-0.00494825001806 3.0853328751e-05 -0.00691201236575
-0.00494825001806 -0.0046560255012 -0.0067297945676
-0.00494825001806 0.00211411424817 -0.00668723696413
-0.00494825001806 -0.00305945333055 -0.00713075728767
0.0127269422861 0.00232007713278 -0.00764144415356
0.0129981857964 -0.00230651636633 -0.00676650129121
0.0129907238404 -0.000137689988075 -0.00682900354874
0.0128860021529 -0.00414624669164 -0.00753017999602
0.00907086600702 -0.00450336549194 -0.00251799991873
0.00131347729949 -0.00275930835399 -0.00252089319226
0.00415768015063 -0.00803815498756 -0.00251478115576
0.00371155847724 -0.00528424260255 -0.00251783671812
0.00289691083583 -0.00239786388278 -0.00252108374606
0.000386161585678 1.80782077192e-05 -0.00252403599548
0.00528238472519 -0.00409373790368 -0.00251893154334
0.0112130412097 -0.00602562106939 -0.00251606793422
-0.000913209638239 -0.00102545898722 -0.00252306638692
0.00203378361625 0.000533746345472 -0.00252438623513
-0.00196075782131 0.00308606484198 -0.00252767717011
0.00448366171381 -0.00166992424245 -0.00252167290331
-0.00362989097017 -0.00709010616429 -0.00252124034648
-0.00395773541987 -0.00434772695649 -0.00252341290691
-0.00261543931629 -0.000473050369478 -0.00252476326473
-0.00281611731917 -0.00282820925191 -0.00252335665491
0.0130126027228 -0.00872433676474 -0.00398447745169
0.00746852585517 -0.00838853188372 -0.0029962429472
-0.000655093915749 -0.00862688414493 -0.00492968279339
-0.00234857911551 -0.00853850025825 -0.00483453325608
-0.00281123221103 -0.00831067968356 -0.00299442924844
0.00274321769944 -0.00878695706035 -0.00568892350724
0.00563788352125 -0.00869668581689 -0.00415426277616
0.00269901183568 -0.00855369519303 -0.00309074896043
0.0112298980506 -0.00881891082014 -0.00450358818053
0.00973957299393 -0.00879225686824 -0.00447663507069
0.00176127195618 -0.00865107177186 -0.00434914927972
-0.0035086687841 -0.00350594799897 -0.00819293748873
-0.00226388692026 -0.00485632876244 -0.00837727740951
-0.00171036812326 -0.00728404959721 -0.00800395096728
-0.00494825001806 -0.00162689770957 -0.00785091170838
0.00145364159742 -0.00200831406488 -0.0086579336392
0.00180301181252 -0.00579965250537 -0.00863321768449
0.00895524651769 -0.00752528430351 -0.00817910364491
0.00231991820852 -0.00370147971625 -0.00860191715049
0.000782774117689 -0.006915427936 -0.00869706444527
0.0039885259995 -0.00271646054284 -0.00849692122955
0.00505815145605 -0.000929916618129 -0.00843040528204
0.00620209678426 -0.00402351567131 -0.0083558475613
0.00781614185235 -0.00581576372192 -0.00825240888842
0.00585335219912 -0.0022806499708 -0.00837912389621
0.00330644970639 -0.000705629550903 -0.00854148983697
0.00497353843872 -0.00549760640444 -0.00843264190727
0.00351908987326 -0.00661430483728 -0.00852398561948
0.00706428353053 -0.00758360058942 -0.00829881415448
0.00227876366537 0.00351113265963 -0.00860945273289
0.00483537575884 -0.00742583687991 -0.00844007361188
0.00348395772506 0.00148602317731 -0.00853174651422
0.00347275201649 -0.00467584691416 -0.00852824490206
0.00971854249841 -0.00604100246801 -0.00813178026632
0.000658924509204 0.00383776598783 -0.00865726566145
0.00121656757171 0.00563016391833 -0.0086312440023
0.000148666667383 0.00128483492821 -0.00868584276079
0.00165848017716 0.00101074150332 -0.00864216113987
0.000738949851641 -0.00366464891672 -0.00869405011319
0.00488698787868 0.00305879072208 -0.00844344692306
0.00977558164168 0.00467620761133 -0.00812870866356
0.00886226087183 -0.00336708498304 -0.00818751023378
0.00800390777332 0.00159330796221 -0.00824277286622
0.0106175108284 -0.00460218177505 -0.00807450343815
0.0110262085977 0.00138248452311 -0.00804819059016
0.00677027073531 0.00304821562208 -0.00832219709189
0.00610587768586 0.00600683542939 -0.00836497215608
0.00902333433899 -0.00172702474042 -0.00817713997494
0.011946259284 -0.000776434899122 -0.00798895573333
0.0100588427349 0.00258390871298 -0.00811047170058
0.0113527902259 -0.00663429399084 -0.00802716455727
0.00438031695784 0.00504201510034 -0.00847606749485
0.0112290999119 0.00652146070017 -0.00803512800771
0.00938340381334 -0.000149802380171 -0.00815395792195
0.0106311733254 -0.00296149963911 -0.00807362381698
0.00818307925843 0.00368238242736 -0.00823123741777
0.00730656343036 -3.87787387062e-05 -0.00828766940609
0.0115957121464 0.00498745747381 -0.00801152471764
0.0228872715485 0.0196257487988 -0.00692145268645
0.0227690226895 0.0240973446588 -0.0069805999718
0.00457733014211 0.027497394119 -0.00538839473844
0.0110446445031 0.0285819477535 -0.00430331046498
0.00815573276038 0.0274384446105 -0.00476183206978
0.00243453902094 0.025929888832 -0.00569991935964
0.0145374880035 0.0280477260373 -0.00774542614182
0.0199070020082 0.0287879516106 -0.00719401460323
0.0166619647756 0.0303212122748 -0.00439911701311
0.0151249762731 0.0295435845516 -0.00374408112843
0.0133331197437 0.0295222478812 -0.0043016600454
0.00662168354575 0.0286377408333 -0.0051892194832
0.0119993331539 0.0149718037805 -0.00682197917483
0.0159657260082 0.0149715395552 -0.00743925568727
0.00856193328607 0.0149720460218 -0.00539966686084
0.0142056872251 0.0149716262835 -0.00674030690306
0.0193324991486 0.0149712324128 -0.00681461303177
0.0103621282334 0.0149719210394 -0.00663658750652
0.0186653597693 0.0149712520124 -0.00392724271394
0.0127329490275 0.0149717234353 -0.00526507644701
0.0215925406522 0.0149710125356 -0.00264289523581
0.0180322874092 0.0149713172593 -0.00542817693888
0.0215678303463 0.0149710312086 -0.00416754247368
0.0012977802624 0.0272484357852 -0.00643196322865
0.00393666118928 0.0286173561841 -0.00613474225524
0.00863808326732 0.0293022730699 -0.00557120542622
0.0100964917552 0.0297078302636 -0.00666780829435
0.01476757089 0.0303388908265 -0.00536022928434
0.00554346574847 0.0290406127998 -0.00690953427019
0.0118845909771 0.029922570738 -0.00563544072827
0.000765583784112 0.0249264663854 -0.00894325040281
0.00123443845524 0.0193527014415 -0.00894325040281
-0.000533376698016 0.0227447832751 -0.00846262612384
0.00133089117246 0.0173578555862 -0.00887261667799
-0.0003098600223 0.0190152563623 -0.00852559670868
0.000225888932817 0.0153161180259 -0.00844338670834
9.70456557533e-05 0.0210046880226 -0.00876027983245
-0.000220523154907 0.0174533914179 -0.00845337764838
0.00232570177859 0.0281282072733 -0.00780637057957
0.00148053643131 0.0267501589066 -0.00856466011769
0.0122679898184 0.0283912143467 -0.0079384818289
0.0179185771149 0.0291626674161 -0.00734744529501
0.00421370257244 0.0287347244343 -0.0082884902089
0.00795996177134 0.0291799328339 -0.00796228645606
0.01550398164 0.0297372315655 -0.007432371715
0.00932317112555 0.0285039057728 -0.00815726160187
0.00581881728871 0.0285075473185 -0.00830515718265
0.0188621164878 0.030389693418 -0.00685301485196
0.0171198004864 0.0303984351557 -0.00623018026753
0.0124032672054 0.0298248278781 -0.00703073353368
0.019067369861 0.0308915432705 -0.0048327693541
0.0225082741018 0.0286452494621 -0.00517070651711
0.0210714525104 0.028896468674 -0.00300027262548
0.0230975143681 0.027626932516 -0.00383552157429
0.0207337817602 0.0303712404703 -0.00452933735477
0.0208152041956 0.0300371199272 -0.00605148975436
0.0211240503126 0.0273860230874 -0.00264381902367
0.0181948392726 0.0294062322863 -0.00310502673054
0.0218551244445 0.0214694330168 -0.00251500005834
0.0217553634572 0.0165961277841 -0.00251500005834
0.00980750112857 0.0266516144215 -0.00447011765273
0.0158152359981 0.0272323918884 -0.00347756090365
0.00900881372361 0.0246317601536 -0.00458433330307
0.00761089822601 0.0260426777374 -0.00482940413393
0.0192934845291 0.0271457803298 -0.00289904746833
0.0174852885671 0.0261171426273 -0.00318998894379
0.00574517748455 0.0259954563812 -0.0051388614087
0.0111143047208 0.0257594678094 -0.00424491695386
0.0133054028846 0.0266177713398 -0.00388882172004
0.0176571543938 0.027775123928 -0.00317658153693
0.0124175602112 0.0278846768956 -0.00404785662543
0.0202874186857 0.024779981367 -0.00271235737005
0.0154446804579 0.0254529598521 -0.00352286089518
0.0145735374367 0.0279899506847 -0.0036907190258
0.0172499220775 0.0244145797454 -0.00321353647825
-0.000757877097929 0.0242615904458 -0.00799956759764
-0.000154482464135 0.0220463989209 -0.00625489504157
-0.000268080891564 0.0199010178251 -0.00630750198626
-0.000460022456736 0.0151368984969 -0.00707048467922
-0.000271194577877 0.0251138437914 -0.00655334503363
0.0220608864233 0.0250509799949 -0.00251500005834
0.0236394116798 0.0238823982953 -0.00355842600195
0.0239477671913 0.0193244103832 -0.00392090126165
0.0241453096701 0.0223229227355 -0.00434722710632
0.0234308749331 0.0260022802994 -0.00328171704997
0.0232185306605 0.0162809759335 -0.00305389711976
0.0234264300868 0.0212235828725 -0.00327299779316
0.0226007409214 0.0180177332723 -0.00254861921614
0.0224783634119 0.0196327776967 -0.00252538953209
0.0223044772806 0.023240488735 -0.00253192771769
0.0115885936322 0.0159294415599 -0.00418312002197
0.00157741059727 0.016520171725 -0.00583741482524
0.00354706676009 0.0168066302418 -0.00550235615433
0.0098799478522 0.0151428118778 -0.0044865851784
-0.000103009859235 0.0164567377054 -0.00620113001514
0.0120187282149 0.0207133086219 -0.0040811847473
0.0171145960608 0.0212334560262 -0.00323821550175
0.0165876519956 0.0176298394845 -0.00334707181067
0.0142049493684 0.0181381045411 -0.00373663230845
0.014980621421 0.0165068756537 -0.00361876890836
0.00838522729498 0.0164894505087 -0.00470578638467
0.0149563145666 0.0195801223501 -0.00360399827768
0.00927803107411 0.0186455153427 -0.00454548093422
0.0185855903384 0.0203293948616 -0.00300132132945
0.020995722619 0.0198325675528 -0.00260717058586
0.019132178192 0.0164918875259 -0.00293469017898
0.00763130489525 0.0182405050327 -0.00481933338586
0.0103524300359 0.0169969001388 -0.00437849401331
0.0127553625822 0.0172821670204 -0.00398075147824
0.00634131903456 0.0170723778633 -0.00503905792311
0.0129016913015 0.0193330072064 -0.00394410687542
0.0194888736017 0.0219165933643 -0.00284276443184
0.0197886973643 0.0184233918159 -0.00281469605491
0.0181650282817 0.0187536995614 -0.00308025621933
0.0137009971434 0.0210554612238 -0.00380185894066
0.0173249149082 0.0161043202633 -0.00323489233329
0.0105123435932 0.0237954095714 -0.00433166674428
0.000448669961554 0.0181033931083 -0.00600876785162
0.0048488997227 0.023487258182 -0.00527547397951
0.00549572912542 0.0189140960224 -0.00516768050893
0.00599109191101 0.0220529750692 -0.00508512879803
0.0115476891804 0.0224561010417 -0.00415912744161
0.00662380723702 0.0205539710342 -0.00497968742416
0.0160589929846 0.022960668844 -0.00340732319173
0.00364814657641 0.0202389864771 -0.00547557828585
0.00990136778648 0.0203051802776 -0.00443348524908
0.00260320858273 0.0189364941795 -0.00564971615344
0.00808641981528 0.0211952522225 -0.00473594450638
0.00746471441482 0.0227259046232 -0.00483955108721
0.0142725711184 0.0228367886721 -0.00370502860227
0.00601060651073 0.0245020674915 -0.00508187670958
0.00184061658182 0.0236512842305 -0.00577680134479
0.00215133961774 0.0218704146998 -0.0057250196628
0.0100010757473 0.0222222530139 -0.00441686901751
0.0134109188148 0.0240977099474 -0.00384862209361
0.0182719191211 0.0232209238732 -0.00303854127274
0.00372717141052 0.0225000492973 -0.00546240887658
0.022926710572 0.0279485572362 -0.00647637697359
0.0217772985877 0.0290909426157 -0.00683699410452
0.0231859191459 0.0224216679842 -0.0067328864477
0.0239745575708 0.0156902449744 -0.00437526400548
0.0239622861857 0.0173251082097 -0.00554719529687
0.0240906543186 0.020512472412 -0.00504772660041
0.0239270881236 0.0234095460609 -0.005688684484
0.0241533477305 0.0260544559761 -0.00514400393846
0.0123236440379 0.0163900206425 -0.00798477982126
0.0217167680462 0.0174496902926 -0.00709966795034
0.0167898849094 0.0168794986848 -0.00756380265904
0.019724047551 0.0177675460518 -0.00729213564417
0.00854391597301 0.0155562405655 -0.00833741883698
0.0138731653488 0.0162229757374 -0.0078358117191
0.00715255608657 0.0201456474615 -0.008482912963
0.00380537983276 0.0265775728992 -0.00881384849079
0.0127689926954 0.0203146755602 -0.0079545889019
0.00458090031902 0.0208919799336 -0.00872684911681
0.0127780251502 0.0220484852115 -0.00795800500151
0.00884560933902 0.021220598928 -0.00832617148216
0.00561558408059 0.0194107313696 -0.00862579744845
0.00474296342892 0.0165633243886 -0.00870094061497
0.00422505464867 0.0243844390384 -0.00876894295784
0.00496235963251 0.0229706528236 -0.00869605299193
0.00713661756893 0.0226087393792 -0.00849047443154
0.0107795188642 0.0186849251287 -0.00813787066486
0.00812155967735 0.0184922486434 -0.00838762091264
0.00908063242122 0.0171064059204 -0.00829392214949
0.017731156596 0.018211360251 -0.00748226746896
0.00237477152375 0.0234518258172 -0.00894083655632
0.00310759095164 0.0176790011036 -0.00885764247239
0.0126726008204 0.0182540932869 -0.00795859285509
0.0142426966843 0.0190812912887 -0.00781281711904
0.0152436464061 0.0174114289279 -0.00771447709846
0.0152529580967 0.0208701203965 -0.00772211137025
0.00662185181553 0.0164200428474 -0.00852370659192
0.0107643508035 0.0168895586343 -0.00813488070618
0.00983575165461 0.023194770266 -0.0082378158524
0.0111568859536 0.0203815418179 -0.00810651965301
0.0209608907936 0.0190915628829 -0.00718038125383
0.00559877473288 0.0178805737496 -0.00862361460917
0.0168368090656 0.0199571233041 -0.00757075856579
0.00370253397111 0.0194486426579 -0.00880598822149
0.00828825083867 0.0246820790922 -0.00838715982073
0.00335269275461 0.0158360097172 -0.00883003311611
0.00265630852461 0.0211856494311 -0.00890875579247
0.017260311695 0.0223411597934 -0.00753306169586
0.00784521834218 0.0265296731787 -0.0084293389414
0.00580041233111 0.0260083153823 -0.00862399586413
0.0197291621904 0.0266126523733 -0.00729803752363
0.0134966113947 0.0242223294171 -0.00789135011763
0.0143032631789 0.0227501164375 -0.00781456026413
0.0162923595284 0.0237323305904 -0.00762520666662
0.016266302365 0.0271022711569 -0.00762768719886
0.0132350132159 0.0259051293237 -0.0079162531628
0.0213264071512 0.0227623388538 -0.00714598652846
0.0221858257992 0.0261145366054 -0.0070641734917
0.0149162647671 0.0256067021998 -0.00775620509393
0.0221451635307 0.0211582117174 -0.00706804436845
0.011784797832 0.0237230942094 -0.00805430756132
0.0202083471787 0.0248638174891 -0.00725242113032
0.0195680399074 0.0234135929708 -0.00731337568658
0.0189798741218 0.0211649685511 -0.00736936659293
0.0181004660306 0.0239925093262 -0.00745308254052
0.0176555566693 0.0255089393674 -0.00749543603846
0.0112606815861 0.0258176366436 -0.00810420122117
0.0231607358951 0.015938454553 -0.00678360177013
0.0308289975697 0.00356882348471 0.003060637647
0.0327493302412 -0.00366692957491 0.00518368689547
0.0328059848103 -0.0013554835385 0.00473084592713
0.0329422440423 -0.00272486151132 0.00364172348701
0.0300720407097 -0.000752712412312 0.00580765460885
0.0312768619176 0.000424472855542 0.00582866629289
0.0299667259755 -0.0037023355409 0.00584600574332
0.0299289049267 0.00312227254599 0.00574848008199
0.0315581047182 0.00306747371621 0.00543345113794
0.0308634528012 -0.00247180719306 0.00584527917643
0.0291300008257 -0.00344014767868 0.00141619791473
0.0291292566255 -0.00491669086947 0.00406546820771
0.0317204394345 -0.00490867093902 0.00578591583287
0.0315570449973 -0.00545009207648 0.00265741624567
0.0322673988259 -0.0047596787966 0.00417964074812
0.0329577438734 -0.000679392711012 0.00315156535189
0.0328240650396 0.000487735350853 0.00444069128477
0.0320757961241 0.0026297422654 0.00408356235621
0.0326505871657 0.000961545986338 0.00292309088966
0.0318648262291 -0.00206381827365 0.00182652262153
0.0306851867883 -0.00309218995863 0.000722871981269
0.0311594276864 -0.000913125651395 0.000819488998557
0.0292827187852 -0.00342707901328 -0.000375157599748
0.0306244318736 0.00258883524763 0.00101401101753
0.031310148033 0.000734837233646 0.00124857570966
0.0291331436496 0.00223203965646 0.00198140231173
0.0291400185308 -0.000684106727519 0.00397299938709
0.0291324106288 0.000608549386764 0.00279321841308
0.0291297543513 -0.00165195209904 0.00220746180215
0.0291293825539 -0.00299059636707 0.00363525508567
0.0299883769383 -0.00479313558669 0.000814390976266
0.0315325202688 0.00702716686348 0.0018759754832
0.0312329124817 0.00484416904964 0.00208125614634
0.0313233971129 0.0133961673361 -0.00131477070001
0.0301773575891 0.0106663123282 -0.000759135467404
0.0294844021559 0.00637416420985 0.00362266282332
0.0305061468674 0.0121238380625 0.00018710268114
0.0297226254088 0.00804685222203 0.00108621340726
0.0302524506022 0.0106895182872 0.00107511078142
0.0312235308538 0.00754387428514 -0.000992808590725
0.030262441115 0.00927184253533 -0.00147630939119
0.0316929648338 0.00960445190462 0.0020181854849
0.0294268906641 0.00395631261257 0.00110696462206
0.0297679535249 0.00736608799406 -0.000463244563828
0.0290691905522 0.00404792909588 0.00440402024933
0.0294779850952 0.00636067750017 0.000979026087797
0.0292596178797 0.00505128553136 0.00253006042101
0.0304053256641 0.00481315761995 0.00515156840908
0.031216069846 0.00778905730441 0.00327819639429
0.0301410333536 0.00903309916741 0.00236796701552
0.0319269871898 0.0123170102061 -0.000338707918816
0.0313839614636 0.00635188509794 0.00018441743795
0.0317566650404 0.00919547353145 -0.000917081375732
0.0319164783632 0.0115562006693 -0.00187181480016
0.0318660520063 0.00999440312611 0.000389488397393
0.0314245273773 0.0062416880331 0.00361255593664
0.00683120753087 0.0079804280996 -0.00882582843442
0.0149134793021 0.00980336055246 -0.00888645685665
0.0132396372585 0.0105653265523 -0.00887457503686
0.0226901362692 0.0110052240462 -0.00894446598216
0.0182741528381 0.00898327993035 -0.00891073274042
0.0195577923913 0.00753200352512 -0.0089193316421
0.0038485853835 0.00783215121124 -0.00880376493334
0.0162202563793 0.0118968208941 -0.0088973240072
0.0182865015927 0.011023596433 -0.00891203118334
0.00961953225413 0.00956226000954 -0.00884730874275
0.00870310774272 0.00746617567492 -0.00883931612966
0.0206183016221 0.0135941666966 -0.00893073298453
0.0167913115674 0.00977060016189 -0.00890027320556
0.0132463476078 0.00893024317774 -0.00887365683682
0.020946965808 0.0116600851375 -0.00893200997083
0.0169003664225 0.00785331007377 -0.00889994206289
0.0114389805271 0.008319123133 -0.00885997862237
0.00167077143278 0.0123612851494 -0.0087790481568
0.00606643832694 0.010666550077 -0.00881796033617
0.00504743453484 0.0147415315272 -0.00880273800573
0.00231257834064 0.00829768599559 -0.00879115716053
0.00384489303575 0.0112450431535 -0.00879876259792
0.0134558589449 0.0131602250289 -0.00887437589229
0.0101607061443 0.012676339218 -0.00884816066929
0.00426075047388 0.00942780453318 -0.00880523462869
0.00989195130538 0.0145204420058 -0.00884285007809
0.00727711545122 0.0143653008549 -0.00882166181388
0.0174369362247 0.0144524177209 -0.008904856355
0.000662690014927 0.00956616421465 -0.00877548660977
0.00778597227847 0.0115419471912 -0.00883059130205
0.00273239725636 0.0137913441564 -0.00878534807862
0.0155306883074 0.0132496421907 -0.0088912451671
0.0062061844374 0.0121807583009 -0.00881655632408
0.00220973046662 0.0105439965186 -0.00878653007735
0.000701948821385 0.0138085899353 -0.00876866321127
0.0112672052385 0.0111275702021 -0.00885984587287
0.0117233456812 0.0135030859754 -0.00885958656716
0.0221442807773 0.0149670290856 -0.00894260407269
0.0205650955396 0.0149710001424 -0.00782445876056
0.00292885002794 0.0149710001424 -0.00585265260558
0.00736465289191 0.0149710001424 -0.00675616749187
0.0176634209259 0.0149710001424 -0.00713627429727
0.00685468696203 0.0149710001424 -0.00522453489398
0.0208168892378 0.0149710001424 -0.00595260190725
0.0152208920252 0.0149710001424 -0.00487485777678
0.0178536049247 0.00661375001073 -0.00312707366365
0.0220842096756 0.00908975541862 -0.00251449993812
0.023905262205 0.0141294540572 -0.00547264567696
0.023266374191 0.00742720552985 -0.00284698776232
0.0236675136707 0.00911067465116 -0.00339363115534
0.0237630601563 0.0111773265681 -0.00353061619971
0.00628147736341 0.00863981142032 -0.00505529558094
0.00954558501815 0.0109580998912 -0.00445043595015
0.0156215674085 0.00701837540028 -0.00338227785847
0.00435423855138 0.00800858928685 -0.00540726435361
0.00783818703945 0.0105437475148 -0.00476124191421
0.00147474202251 0.00919076442122 -0.00591827227762
0.00664370103282 0.00673381506456 -0.00500330922437
0.0132032414399 0.00910155157752 -0.00380381557717
0.00407984266341 0.0116606376796 -0.00543119529828
0.00259862318349 0.0108609595553 -0.00570390899687
0.00907119365863 0.00816539934269 -0.00455552624767
0.00101173864347 0.0125286762021 -0.00597841406701
0.0122487127859 0.0076503861166 -0.00398610584365
0.0109085038364 0.0100454838685 -0.00421103684926
0.00338591557314 0.00924136221407 -0.00557326319215
0.00567008950795 0.0127770822633 -0.00513660358551
0.0106507479275 0.00838113867328 -0.00426916487961
0.00562609455703 0.010669043914 -0.00515928707753
0.00258485417886 0.0131081740999 -0.00569066868416
0.0123752027251 0.0140044186544 -0.00404940505668
0.00765018455399 0.0129064975995 -0.00480880854293
0.0170419523756 0.0125157500683 -0.00323349159699
0.0204789603562 0.00861649398338 -0.00256082197182
0.0115449433906 0.0120424651347 -0.00413755358209
0.0012897630896 0.0147489574283 -0.00591606167873
0.0198361067143 0.0149583779019 -0.0028303295374
0.0131711458452 0.0124126997065 -0.00387599533982
0.0180553249879 0.00900500348842 -0.00297471252607
0.0189257864214 0.0126763759998 -0.00292362787897
0.0205718246361 0.0133630571917 -0.00266686526007
0.015629488995 0.0120219528964 -0.00345626280798
0.0161983117954 0.00884279340955 -0.00328006549207
0.0125791015342 0.0104413645241 -0.00392420070545
0.0107935038999 0.0138133934093 -0.0043081340322
0.00493147009981 0.0143186880088 -0.00529808766039
0.0189436436961 0.0104754811772 -0.00286430462853
0.0157653915275 0.0142005880483 -0.00348938923292
0.017072886434 0.0105282292146 -0.00317745162757
0.00963053635897 0.0124466455441 -0.00446697295111
0.0139058638472 0.0142644207201 -0.0038009484002
0.0210603471142 0.0112751542316 -0.00253198968663
0.0236536665233 0.0137892905594 -0.00741552832112
0.0146533169821 0.0149320395103 -0.00872766262098
0.019188786733 0.0149586027792 -0.00882261312811
0.00293989848068 0.0149307213661 -0.00752500763537
-9.29353708021e-05 0.00694254298925 -0.00854391183198
-0.000465759616158 0.0100539904913 -0.00777093169066
-0.000449028249407 0.0074324854459 -0.0066505100477
-6.56941527597e-06 0.010147636146 -0.00622834361083
0.0136067153705 0.00665927452136 -0.00590826982318
0.0184922970707 0.00668796833509 -0.00626862911265
0.016599205224 0.00668018858915 -0.00626437725898
0.00336428681017 0.00663078062435 -0.00643665016704
0.017592186233 0.00672171667872 -0.00778507970998
0.0160039515379 0.00671685351986 -0.00784897728453
0.0200285126525 0.00672347152299 -0.00745572045767
0.00804960444446 0.00664799349134 -0.00636438521521
0.0166640573469 0.00663892841983 -0.00458063748755
0.0017427707203 0.00668887784087 -0.00773926075426
0.00478105649262 0.00669364724984 -0.00777459919969
-0.000458143354963 0.0126525455097 -0.0071859775957
0.0239489266413 0.00992819492825 -0.00480161094992
0.0237370691427 0.00876038030159 -0.00787355208707
0.023881088954 0.0113926342729 -0.00580980644097
0.0239451724965 0.00804760133827 -0.00483121217127
0.0238454246293 0.00984233779762 -0.00630886526572
0.0235111646839 0.0069765936237 -0.00706082458164
0.0237451235332 0.0108282249212 -0.00777559283062
0.0231452888606 0.0135198724759 -0.00291903762934
0.0226060221439 0.0105035131643 -0.00251449993812
0.0313647287647 0.0133635001257 -0.00300169564948
0.0252915441166 -0.00645235796582 -0.00335925015013
0.0238351080252 -0.00810960210418 -0.00655369927673
0.0200688280208 -0.00654859290667 -0.00251449993812
0.0153747856642 -0.00845389080659 -0.00853634530159
0.0222127379796 -0.00881974957883 -0.00510358835503
0.0177060326962 -0.00881974957883 -0.0077088310338
0.019346841676 -0.00881974957883 -0.00740625650926
0.0165378149866 -0.00739117461551 -0.00881478626806
0.0191052268985 -0.00692441605256 -0.00893999720808
0.0133782504126 -0.00548441414182 -0.00252065531331
0.0133782504126 -0.0074938459054 -0.00477311719921
0.0133782504126 -0.00606363492394 -0.00411149003953
0.0184842788962 -0.00665424232266 -0.00251449993812
0.0164759291393 -0.00609527810593 -0.00251449993812
0.0133782504126 -0.00432193556292 -0.00438552680473
0.0133782504126 -0.00687989703069 -0.00637952818827
0.0181199617952 -0.00446366554624 -0.00842477662467
0.0141699841292 -0.00455979166334 -0.00844973439379
0.0136708293234 -0.00687595227816 -0.00795057922666
0.0164728410384 -0.00399724999443 -0.00592921341384
0.0227311124743 -0.00399724999443 -0.0037535188113
0.0224560051088 -0.00881974957883 -0.00261912449213
0.0142912265547 -0.00881974957883 -0.00676805893176
0.0169481978871 -0.00802350416325 -0.0026891752803
0.0239892832803 -0.00841991086783 -0.00357393786972
0.0223238697572 -0.00441065440246 -0.00795157663354
0.0196576680757 -0.00443658474987 -0.00828247022044
0.0234181399815 -0.00399724999443 -0.00508846163667
0.0160563848371 -0.00468920111125 -0.0089345246032
0.0221894865112 -0.00782491591695 -0.0089445002377
0.0172071265679 -0.00579350011525 -0.0089445002377
0.020872623627 -0.00684561891548 -0.0089445002377
0.0209603844433 -0.0051552192402 -0.0089445002377
0.023531553436 -0.00699481486503 -0.00779790362804
0.0226529076058 -0.00623179603701 -0.00885476474658
0.0256648635761 -0.0050076774416 -0.00433051719105
