-0.00914099998772 0.024502204726 0.0290451630687
-0.00914099998772 0.00628652715246 0.0291086228273
-0.00914099998772 0.0259952538446 0.0335870735963
-0.00914099998772 0.0226541695102 0.0149563765033
-0.00914099998772 0.00797902674813 0.0206807585854
-0.00914099998772 0.0311870393604 -0.0297256216755
-0.00914099998772 0.017216419012 -0.00158348636289
-0.00914099998772 0.0191470704846 0.0186319154872
-0.00914099998772 0.0246974412384 0.019989914536
-0.00914099998772 0.0271959630141 0.0430909051208
-0.0318299745164 0.00017499999376 0.0117660631238
-0.0324307644415 0.00017499999376 0.00734889778455
-0.0312614120134 0.00017499999376 0.036665519711
-0.0304485979285 0.00017499999376 0.0444138927475
-0.0312276807946 0.00017499999376 0.0147366666129
-0.0320711350425 0.00017499999376 -0.00466375763005
-0.00914099998772 0.0292036185416 0.0237049221954
-0.00914099998772 0.0306574583443 -0.00589206817036
-0.00914099998772 0.0298327002561 0.0347816386173
-0.00914099998772 0.0296487145612 0.0148050385739
-0.00914099998772 0.029763029472 0.0204551780345
-0.0262427698137 0.0207103349588 0.0304013898593
-0.0260497238519 0.0183234173558 0.0386583674894
-0.0256348783364 0.020141452336 0.0347007860552
-0.0306472110958 0.00017499999376 -0.0259648139285
-0.0303136936945 0.00017499999376 0.00184509515448
-0.0298627939035 0.00017499999376 -0.00292418846419
-0.0296702249915 0.00017499999376 0.0305790508821
-0.0304330877997 0.00017499999376 -0.0205355230346
-0.0138381973358 0.0136124945691 0.0447191951987
-0.0130936990873 0.00536977690512 0.0424900268785
-0.0206521031024 0.00316857657229 0.0443022179031
-0.0142977375374 0.00290281332659 0.0422656906733
-0.0153991947287 0.0158060707157 0.0457354001648
-0.013306476601 0.0188604513945 0.0458263262158
-0.0213212363626 0.00586419834228 0.0451633295789
-0.0137307647703 0.00764436843313 0.0432391246647
-0.0233421449015 0.0015324645704 0.0447404750444
-0.0165711639584 0.00735054951198 0.0440494299735
-0.0112137574356 0.0148085655001 0.0441946278971
-0.0201222493692 0.0109433810017 0.0460224593346
-0.0108235492269 0.00639822602908 0.0420347819046
-0.0187051884984 0.00876742317708 0.0450551965093
-0.0263301911701 0.00185865017962 0.0457468980106
-0.0176961980583 0.0116553887043 0.0454421214007
-0.0103525433569 0.0228570216913 0.0458783659583
-0.0239661890678 0.0045478904976 0.0456651165866
-0.0173220851325 0.00395514003206 0.043459403154
-0.011191320081 0.00884587802116 0.0427422543607
-0.0119427641115 0.00243041083711 0.0414203001875
-0.0131275754928 0.0106916106919 0.0437906017724
-0.0235332428945 0.00758321561771 0.0461425223532
-0.0127684162214 0.0226157342402 0.0465210062664
-0.019142840597 0.0145411139297 0.0463177060763
-0.0157929036694 0.0183151378196 0.0464127272346
-0.0325185761384 0.00649966338106 -0.0438778607135
-0.0328069696138 0.00541153454969 -0.0411802990903
-0.0208287130825 0.0266331183194 -0.0381777856379
-0.0200445072407 0.0273622978065 -0.0320192195278
-0.0195774205512 0.0277208049963 -0.0356485507991
-0.0206764371407 0.0267909640407 0.00445214777079
-0.021148762796 0.0264968938817 -0.0169130915855
-0.0209485997334 0.0266796968277 -0.0291359201304
-0.0215805226719 0.0260761607248 0.0191138057876
-0.0210912828497 0.0264972801128 -0.00136689025618
-0.0193318289982 0.0278760394947 -0.0253911839542
-0.019538292325 0.0277120996566 -0.0217861017364
-0.0214500306453 0.0261993238337 0.00968674102382
-0.0203574084846 0.0270728231884 -0.0115548917999
-0.0333107497471 0.00292614871442 0.0303108600044
-0.0324711617917 0.00231766410329 0.0346766164572
-0.0334407860277 0.000499727095757 0.0296346869755
-0.00914099998772 0.0297754176136 -0.041290305703
-0.00914099998772 0.0139375099319 0.00173174181011
-0.0201540434995 0.0147827331772 -0.0462698125138
-0.0162268418718 0.00390029992488 -0.0434087888057
-0.0136149450518 0.00797575226163 -0.0434157920587
-0.0118227853036 0.0182304165411 -0.0446796562588
-0.0195711862487 0.00178098286452 -0.0439229754335
-0.0216640935321 0.00548687210298 -0.0450942540534
-0.0241780095214 0.00727229997236 -0.046051100544
-0.0142093812208 0.0196908720037 -0.0455484474164
-0.0174624211264 0.0158483566312 -0.0457479294542
-0.0130316861492 0.0128350367722 -0.044084034512
-0.0106906542917 0.00698096166757 -0.0424854206479
-0.0250261324019 0.00373839908328 -0.0456756575774
-0.0136398994191 0.0024241649357 -0.0424851152721
-0.0173664353806 0.00888238820314 -0.0445469538306
-0.0121583069357 0.0214406115058 -0.0453090596483
-0.0221714907682 0.00278445538182 -0.044770340981
-0.0145947156631 0.0164747645189 -0.0451059915068
-0.0284409760666 0.00188153210122 -0.0462525302934
-0.0221713173639 0.0101072740718 -0.0460064866085
-0.0193550506338 0.00683023872289 -0.0447190060391
-0.011786193811 0.0244046192621 -0.0457124048493
-0.0170472872718 0.0117331214621 -0.0449449860971
-0.0108662758055 0.0153171229179 -0.0439384664313
-0.00942439173982 0.0199986514433 -0.044352835756
-0.0135434929093 0.00534800732218 -0.042953563773
-0.011910865092 0.00977579900898 -0.0432753671188
-0.0189354106139 0.00460599227726 -0.0442341122823
-0.00933057961189 0.00235954087793 -0.0413506560995
-0.0152802755599 0.0135814794031 -0.0447963088247
-0.0113520186199 0.00397058802894 -0.0421496634367
-0.00919592951573 0.00222620018417 -0.00931748378133
-0.0091768889339 0.0144494459404 -0.0295843356606
-0.00915492380233 0.0162939512173 -0.017555293183
-0.00919260340982 0.00461644904579 -0.0135945969058
-0.00919296459306 0.00954959421033 -0.0281321587016
-0.00914996797778 0.0230742802411 -0.0332277141972
-0.00914221599518 0.0188405150655 -0.0148701292078
-0.009187944387 0.00986061963971 -0.025063516065
-0.00914246569145 0.0195979309052 -0.0172556688969
-0.0091435792803 0.0121566812073 0.00336251245927
-0.00918133113235 0.00891394285092 -0.0171023950955
-0.00920481138823 0.00567272407193 -0.02629357825
-0.00916338471512 0.0224625167477 -0.0420628578718
-0.00916355287715 0.012175274755 -0.0124753202298
-0.00915265071401 0.0147581870492 -0.0113220773491
-0.0091484546973 0.0212905152373 -0.0268784472164
-0.00915004499953 0.0143825195349 -0.00817758926718
-0.00916693229358 0.0172100260786 -0.0296915837519
-0.00916194073861 0.011634525943 -0.00963907527214
-0.00915271158666 0.0103450517343 0.00137961716193
-0.00914170151465 0.00234460332632 0.0331940662341
-0.00915800520327 0.0197239500068 -0.0298998288756
-0.00917144607051 0.00672585918845 -0.00296923668205
-0.00915626332568 0.0102828480225 -0.00124743097673
-0.00916344925746 0.0162164435937 -0.0240686016078
-0.00917252583354 0.00744816158151 -0.00590929105077
-0.00920540477469 0.00167435530103 -0.0152109863957
-0.00916179384147 0.00205532293916 0.018151872627
-0.00917118558237 0.00977570224197 -0.0115745563254
-0.00921547927555 0.00255251388419 -0.0257094007086
-0.00916288947973 0.0155026176649 -0.0215639540893
-0.00915228276102 0.0234277071244 -0.0360780397031
-0.00915707921904 0.00426483189209 0.0154942011782
-0.00918547788909 0.0045876938363 -0.00788058585928
-0.00914394487067 0.0214616094081 -0.0238088620419
-0.00915143240907 0.00838451710503 0.00805458207442
-0.00914479174237 0.0049358325874 0.0232658080931
-0.0091420100182 0.0147232194265 -0.00281225471094
-0.00917319453103 0.0127761485083 -0.0218305859941
-0.00916717445608 0.00330349034494 0.0102938206728
-0.0091977614712 0.00579406625028 -0.0210729528507
-0.00921162411819 0.00266285924161 -0.0229816604925
-0.00914378358307 0.00952931231015 0.0107916806528
-0.00916512578348 0.00467631507449 0.00794661336922
-0.00915574199929 0.00246507539643 0.0217505366707
-0.00914624831451 0.0129637216332 -0.00107827486142
-0.00915453457035 0.00669644383767 0.010480041965
-0.00917504602752 0.0133214978042 -0.0248692743868
-0.00921237312207 0.00772992802871 -0.0382126101269
-0.00915217691239 0.0124732994864 -0.00434648590347
-0.00918795565016 0.0148994650026 -0.0396299277526
-0.00916882945621 0.00463206984581 0.00514761669849
-0.00914968539287 0.018396317267 -0.019489500522
-0.00918642514312 0.0119783348484 -0.029981134858
-0.00919203199474 0.00207477396151 -0.00579999275578
-0.00915318508726 0.00905944889563 0.00471961354034
-0.00914923696366 0.0194190558311 -0.0220898796981
-0.0092128700326 0.00450779355318 -0.0292963633179
-0.00921579365896 0.00501892571416 -0.0330834460154
-0.00917023673624 0.0153203678494 -0.0268435860871
-0.00914630333401 0.0255929186968 -0.0376082229575
-0.00920554020809 0.0077582379096 -0.0328946955687
-0.0317223190668 0.00247976854711 0.0385705086188
-0.0308045156849 0.0041299129862 0.0433429758887
-0.0311698992529 0.00142382928087 0.0414430252528
-0.033466858859 0.00144900114627 -0.00634686953101
-0.0332407951845 0.00140695582574 -0.0232043935112
-0.0329751586557 0.00444368865471 -0.0383792736489
-0.0331303229411 0.00315775561958 -0.0287827555421
-0.0331198723953 0.0011996230468 -0.0324991081098
-0.0332619509074 0.00217169793093 -0.0204845254213
-0.0334545246977 0.000356482615738 -0.00890350834289
-0.0330786142089 0.00382974222557 -0.0316152932191
-0.0333197214584 0.00188253193818 -0.0166268780481
-0.0329910418197 0.00210258516719 -0.0407142796967
-0.033182761905 0.00252197886305 -0.0258416024194
-0.0330679958716 0.001836078008 -0.0353974589643
-0.0334019368583 0.000597361531468 -0.0124486282773
-0.0329534578434 0.0020857261824 -0.0435317266326
-0.0330186337019 0.00485490813363 -0.0345320758666
-0.0336089991033 0.000785337707258 0.0169041343694
-0.0336089991033 0.000259210610632 0.0103228403645
-0.0336089991033 0.00173084701403 0.0134677287529
-0.0336089991033 0.00195522336081 0.0242809558925
-0.0336089991033 0.00327375758704 0.0273153346741
-0.0254046720359 0.0168478905445 -0.0464558924688
-0.0321279500144 0.00265545376715 -0.0464812709364
-0.0251474605587 0.0143819422474 -0.0464560203984
-0.0111215733329 0.027995102113 -0.0460178459886
-0.0275993951474 0.00512326005067 -0.0465200072317
-0.0277120510821 0.00808684491617 -0.0465291609199
-0.0141524565969 0.0235558479375 -0.0461097862093
-0.0298449735385 0.00712688811017 -0.0465978298609
-0.0226423645198 0.0127085030149 -0.0463702339115
-0.025339675146 0.0102232810848 -0.0464547423301
-0.0280234653477 0.0125660405975 -0.0465476565056
-0.0159120499691 0.02146672556 -0.0461640574864
-0.017279991524 0.0193488759813 -0.0462053437593
-0.022218136562 0.016930433275 -0.0463639669098
-0.0198270282036 0.0177279632665 -0.0462864748646
-0.0215704831971 0.0199051284187 -0.0463471937036
-0.0197637753546 0.0218826210351 -0.0462903312033
-0.0155197848978 0.0256634805596 -0.0461567601282
-0.0175417565131 0.0237873311865 -0.0462203976234
-0.00960612573328 0.029575086203 0.0384867848973
-0.0125411855167 0.000264367282505 -0.0382852946736
-0.0185804001176 0.000233083994646 -0.0407467031751
-0.0150555361145 0.000175960667298 -0.0290009015293
-0.0131561038719 0.000205726024349 -0.0309518348984
-0.0177734545982 0.000221619679308 -0.0382783204326
-0.0218275470935 0.000175868473482 -0.0365457510186
-0.0234687594113 0.000209001157248 -0.042908499093
-0.0112965725028 0.000239084438328 -0.0286777698934
-0.0117265859254 0.00017793880518 0.00163737126532
-0.0108078855146 0.000262696430665 -0.0355169967195
-0.00972361838595 0.000224626762413 0.00375372069523
-0.00971186070596 0.000261187957146 -0.0180743665885
-0.0116246687184 0.000210677297975 -0.0165297537088
-0.00968799719891 0.000244009899646 -0.007375224822
-0.00933641614863 0.000198359983436 0.0254045396542
-0.023690083362 0.00017499999376 -0.0334922414397
-0.0255182011167 0.00017499999376 0.0313433074153
-0.0270724974099 0.00017499999376 -0.0142064760935
-0.0230253521902 0.00017499999376 0.0166891742362
-0.0291786730184 0.00017499999376 -0.0153462844615
-0.0271363985385 0.00017499999376 -0.019848235564
-0.0252554706101 0.00017499999376 -0.0377485181781
-0.0199884081254 0.00017499999376 -0.00934376382494
-0.029955457011 0.00017499999376 -0.028680445185
-0.0268882952905 0.00017499999376 0.0142427090894
-0.0241377526075 0.00017499999376 0.0145313648812
-0.0175924169995 0.00017499999376 -0.021856182038
-0.0239097291766 0.00017499999376 0.0115766085448
-0.0282235410451 0.00017499999376 0.0207800426763
-0.0265974161509 0.00017499999376 -0.00267908009522
-0.018370803059 0.00017499999376 -0.0119329822597
-0.0166695716728 0.00017499999376 -0.0161360357143
-0.0268509425511 0.00017499999376 0.00647631198944
-0.0291289283683 0.00017499999376 -0.0179950292092
-0.0244326191442 0.00017499999376 0.00893095959682
-0.0262334944125 0.00017499999376 -0.0350983843301
-0.0284555186883 0.00017499999376 -0.0418322446333
-0.0219795233944 0.00017499999376 -0.0153658359723
-0.0272992714469 0.00017499999376 0.0091632281567
-0.0259395605523 0.00017499999376 -0.029299439741
-0.0289071568357 0.00017499999376 -0.0066970486416
-0.0224927728612 0.00017499999376 -0.0193728136319
-0.0290972229958 0.00017499999376 -0.000402711526599
-0.0284929613655 0.00017499999376 0.0182534756579
-0.0260574839252 0.00017499999376 0.022469550276
-0.0265392639831 0.00017499999376 -0.00617811476551
-0.0203498234654 0.00017499999376 -0.0244217827651
-0.0256871392212 0.00017499999376 -0.0245423218531
-0.0279809185031 0.00017499999376 0.0354704894215
-0.0269350341554 0.00017499999376 0.002345573924
-0.0168001829554 0.00017499999376 -0.0189455837312
-0.0196517157089 0.00017499999376 -0.03035930843
-0.0245250346342 0.00017499999376 0.00534703029021
-0.020728685491 0.00017499999376 -8.46404910653e-06
-0.0229321314154 0.00017499999376 -0.0245394796855
-0.028902851832 0.00017499999376 -0.0121124911888
-0.0206428876155 0.00017499999376 -0.0337914831544
-0.0227689634705 0.00017499999376 -0.0281550381239
-0.0262414018108 0.00017499999376 7.28196861679e-05
-0.0199657353198 0.00017499999376 -0.00318399040098
-0.0157618367026 0.000177135938206 0.0310925308005
-0.0234788115807 0.000175276625892 0.0278175806259
-0.0123800964169 0.000176385850376 -0.00299443931425
-0.0116307737665 0.000177206892441 0.0118627062696
-0.015053647622 0.000176841168939 0.0208286962423
-0.0170606655145 0.0001761463049 0.0151805866765
-0.01636769683 0.000175689417609 0.00131351896928
-0.0182682399835 0.000176150091397 0.0213585315346
-0.0184608524106 0.000176761807149 0.0362159402464
-0.0202690611996 0.000175919397696 0.0262156504402
-0.0165161919069 0.00017662872836 0.0233846451614
-0.0261716674935 0.000175365345599 0.0434164507641
-0.00963268986114 0.000178838065687 0.0388097479039
-0.0193327831258 0.000175285706433 0.00710774853091
-0.0128593869951 0.000176163697628 -0.00561928843729
-0.0255099320116 0.000175270673128 0.0379290870498
-0.0139776044944 0.00017664434789 0.0109324923292
-0.0140532580523 0.000175462742898 -0.0155078317397
-0.0146423079699 0.000175080728265 -0.021207768821
-0.0149628554911 0.000175592671821 -0.00796974169219
-0.020209470807 0.000175490149108 0.0161712486163
-0.0156902144192 0.000176175767977 0.00893571162047
-0.0232580247486 0.000175846460166 0.0396387719547
-0.0133586261401 0.000175489295808 -0.0184093820383
-0.0173951295665 0.000175119752938 -0.00643444106763
-0.0142925671519 0.000176701766818 0.0138248092262
-0.0167395666387 0.000176086255916 0.0121976124406
-0.0138307761931 0.000175616150691 -0.0131479137588
-0.0122141480664 0.000178030186534 0.0334941849323
-0.0188551149292 0.000176553470237 0.0334757542984
-0.0155667879852 0.000177071479271 0.0286453523867
-0.0133233084336 0.000178019742164 0.038852613338
-0.0189800744295 0.00017610984393 0.0240360042721
-0.0171716832987 0.000177163969981 0.0388412601856
-0.0155257422456 0.000177438759724 0.0367754102697
-0.0171527148558 0.000175037308461 -0.00952883719991
-0.0160103306456 0.000175985944428 0.00624171742313
-0.0102778472062 0.000178520405445 0.0348536826873
-0.0118244221147 0.000176864834287 0.00507503726674
-0.0209621653836 0.000175532869741 0.0209381974449
-0.0119687669376 0.000177720779755 0.0252328660825
-0.0180354876209 0.000176468217275 0.0274056743894
-0.0215878055558 0.000175527710199 0.0239773183003
-0.0148699443259 0.0301493859935 0.00745247045002
-0.0132902334652 0.0311458192431 -0.0327734635769
-0.015299147965 0.0298636724752 0.0212513437621
-0.0159849963639 0.0297535813681 -0.0249733679638
-0.016584406091 0.0293209367611 0.00135425054696
-0.0152562402633 0.0300405432394 -0.00916649889857
-0.015010394758 0.0302712802758 -0.030624170974
-0.0168422627697 0.0293379257469 -0.0279472596033
-0.0176283079123 0.0289038134133 -0.0200746674715
-0.0158995717492 0.029610499662 0.012228639446
-0.0161777952189 0.0297101252183 -0.0356486113298
-0.0135010532137 0.0310522132554 -0.0352118921041
-0.0169708781664 0.0292954325264 -0.0323675150202
-0.0157280058419 0.0297658739332 -0.00161605144497
-0.0161992508684 0.0295551232547 -0.00679894261115
-0.0162298924184 0.0294820819602 0.00473337152858
-0.0158650309947 0.0297979731964 -0.0218018364196
-0.0149716058199 0.0302037447643 -0.0132184802978
-0.0167020333714 0.0291731714924 0.0190953635689
-0.014065394974 0.0269441888482 0.0435911065009
-0.0168257047403 0.0270311855073 0.0375462781001
-0.0124411272905 0.028197877941 0.0415327016769
-0.0147262495476 0.0282789287054 0.0364896288108
-0.0153716090431 0.0271002557077 0.0402361618574
-0.0152652451732 0.0286969737848 0.0335833727072
-0.0104517399231 0.0319180004299 -0.0227750521261
-0.00950032383011 0.0319180004299 -0.012464057259
-0.00987667373439 0.0319180004299 0.00437004792232
-0.0109517930218 0.0318154246328 -0.0337655605724
-0.0103032654311 0.0317443562806 -0.0424360867538
-0.00990454360986 0.0319124572151 -0.0393100558199
-0.0105721762179 0.0318282125677 -0.0366692080259
-0.0120840379222 0.0314457649204 -0.0118055929843
-0.0124179899398 0.0312770043313 -0.00558968151143
-0.0119619194925 0.0314648348041 -0.00837275917663
-0.0120226813629 0.0316087948625 -0.0306135291831
-0.0126729636423 0.0313460710992 -0.0273266576806
-0.0123026692513 0.0313850695517 -0.0143983044691
-0.0127948106286 0.031281257833 -0.0246253389815
-0.0143666068054 0.0302298779905 0.0269128279127
-0.0129626688222 0.0311523050253 -0.0168210153694
-0.0140185773688 0.0306177800937 -0.00335535047266
-0.0124377866635 0.0310573264077 0.020488711942
-0.0142477339696 0.0304178811106 0.00980209418469
-0.0120715415273 0.0312237126052 0.0181379704821
-0.0127988585565 0.0308812989265 0.0242692023847
-0.0136077437641 0.0306379997205 0.0143112144475
-0.0135868950122 0.0309226928859 -0.0193994003563
-0.0134172999453 0.0307901380646 0.00508336666164
-0.0140917783463 0.0304223804926 0.0168959463463
-0.0138481699161 0.0306456246034 0.00159864289703
-0.0115356867282 0.0304384891997 0.0324586211365
-0.0121263826841 0.0289860866921 0.0383813691015
-0.0118326284401 0.0311472528805 0.0285321290617
-0.0143951105997 0.0296142866662 0.0309849165859
-0.0107605168599 0.0317006125309 0.0068666968407
-0.0105868497263 0.0318189402407 -0.00160580230132
-0.0109774077837 0.0315870488124 0.0135773769051
-0.0103713304274 0.0316295893494 0.0259121205243
-0.0111626581168 0.0318305766435 -0.0192129758865
-0.0114810751068 0.0314930809025 0.00995777722329
-0.0293383402711 0.0170606818934 -0.0146110024748
-0.028671147373 0.0180797136974 -0.0205989287684
-0.029206261992 0.0171564531297 -0.0246725242664
-0.0277714332476 0.0194848910394 -0.0260762832427
-0.0290037704447 0.017645016201 -0.011470642739
-0.0282389399766 0.0187564542018 -0.0230863092304
-0.0289602389381 0.0174583975045 -0.0330642433185
-0.0292262568357 0.0173253566749 -0.00778561174942
-0.0284059476357 0.0184177963825 -0.0285890122912
-0.0302451581677 0.015440915355 0.0105325594837
-0.0301119183254 0.0157199995263 0.00753191517041
-0.028564818907 0.0182893071155 0.0248359902543
-0.0302553762222 0.0153484766166 0.0162810985958
-0.0291781082716 0.0172197433485 0.0219429076311
-0.029703752305 0.0163128704792 0.0186989128964
-0.0285374838623 0.0183620526727 0.0108474305645
-0.0282669222466 0.0187674184907 -0.0010115029973
-0.0286129976129 0.0182484193404 0.0058726387177
-0.028382714473 0.0185938079949 0.00195588889361
-0.0291300916115 0.0174717046609 -0.0046288783951
-0.0276620386923 0.0196743153301 -0.0168778574701
-0.0278825416221 0.0193435297593 -0.014225439601
-0.0278958199325 0.0193249467203 0.00826668268656
-0.0294346989515 0.017014801376 -0.000115926888328
-0.0279996430385 0.0189546085949 -0.0358984457685
-0.0272081858756 0.0203098432291 -0.0333912544428
-0.0264524449754 0.0208188488247 -0.0395218867924
-0.0278253536923 0.0187962910771 -0.040306029571
-0.0273566106195 0.0191395478764 -0.043312356823
-0.0232118393814 0.0230392685899 -0.0460648255814
-0.0243411582867 0.0208483725933 -0.046217659585
-0.028567421088 0.0161530666298 -0.0461980621014
-0.015719276256 0.0291083200009 -0.0457347699907
-0.0179621983282 0.0286134376064 -0.0404764850658
-0.0171215522789 0.0288459208671 -0.0430536450555
-0.0195227580837 0.0273287659097 -0.0440276385781
-0.0127337525661 0.0310953667262 -0.0416796042016
-0.0127452344667 0.0312664256726 -0.0384708292554
-0.0111864508705 0.0313544041087 -0.0452734990219
-0.0166362594781 0.0294424188371 -0.0387818849392
-0.0145212026442 0.0302981764708 -0.0434474645774
-0.0317086820488 0.0120919930088 0.0142950812649
-0.0310981394167 0.0132313643171 -0.0214063828473
-0.0311182534243 0.0134881805405 0.00318163887508
-0.0312593818859 0.012969842755 -0.00884533561993
-0.0317865976374 0.0119471736042 0.0188976178391
-0.0314521522545 0.012667572578 0.00699793152718
-0.0310680677408 0.0133986369722 -0.0143239778869
-0.0309785660821 0.0139704597267 0.0126387979109
-0.0318933497312 0.0113452331457 -0.00131554566427
-0.0312281651601 0.0128150238366 -0.0260682450047
-0.0318595872474 0.0113915186776 -0.00401514429707
-0.0313659744942 0.0122810720429 -0.0326348663456
-0.0315443185731 0.0121687979734 -0.0116355850297
-0.0315799336744 0.0117115326469 -0.0296056142031
-0.0312177085749 0.0126578889679 -0.0356439832884
-0.0298185846179 0.0160000315787 -0.0209868739488
-0.029925204696 0.0156691856152 -0.0269963002642
-0.0302522853588 0.0149037748511 -0.0324430599044
-0.029647375712 0.0164076357994 -0.0177738591095
-0.0299680426062 0.0155327219551 -0.0295948301384
-0.0306182163467 0.0143961481044 -0.0166779947339
-0.0303450154456 0.0150503163348 -0.0121540887383
-0.0306774988545 0.0143967002761 -0.00632550939742
-0.0301656313004 0.0156398317174 0.00354121985608
-0.0306947943566 0.0143970545666 -0.00328983520655
-0.0305115344789 0.0145417493098 -0.0236481174138
-0.0309377587713 0.0138983991531 -0.000702525501939
-0.0327743995429 0.00692725264506 -0.0382553410353
-0.032263440787 0.00864741244714 -0.0414278117521
-0.0319250573145 0.0102452626089 -0.0390923137179
-0.0320506508861 0.0106147253483 -0.0144155459477
-0.0318730972902 0.0110640012165 -0.018527417603
-0.0321173676653 0.0109227255657 0.0107184892789
-0.0320584922378 0.0104210798549 -0.0228323198389
-0.032198790933 0.0105760442683 0.00564591832632
-0.0321845922904 0.0103143960767 -0.00940447094021
-0.0322139994863 0.0104527907341 0.00180439977362
-0.0335609562366 0.00476641405815 0.024705051185
-0.0332880559185 0.00618012317562 0.0270739087503
-0.0335753383089 0.00175322546531 0.00535913501475
-0.0334441727128 0.00402533806209 0.00176197311186
-0.0333042457084 0.00330254166629 -0.0146676162298
-0.0330554065154 0.0057118523925 -0.0291000108923
-0.0333631734614 0.00409341802758 -0.00580181392082
-0.0335548275984 0.00336112943776 0.00980923232645
-0.0335546960818 0.00151716732475 0.00241747461434
-0.0332039941766 0.00478431088477 -0.0184367542998
-0.0334520153844 0.00252279645512 -0.00349205460592
-0.0333558462942 0.0036121029708 -0.00843676813933
-0.0334656269997 0.00417237789361 0.00442596872521
-0.0336089991033 0.00325175039251 0.0223397492825
-0.0336089991033 0.00425378242661 0.0192407052965
-0.0238017658035 0.0217617071568 0.0361857819272
-0.0242823554052 0.0196987824556 0.0410829571902
-0.0223354411134 0.0210129562119 0.0438245072201
-0.0250100851726 0.0183326284017 0.0428633459363
-0.0234319647389 0.0213652056891 0.0387780503602
-0.024674738303 0.0179287962714 0.0453560368824
-0.0194823209694 0.0229640145869 0.0458884669768
-0.027193345915 0.0201546107212 0.0277293183533
-0.0275116242406 0.0199005367881 -0.00849030353498
-0.0271285274786 0.0204744581098 0.00411637227914
-0.0278291630963 0.0194248284611 0.0161412678467
-0.027940353307 0.0192582532273 0.0131472170447
-0.0277926687099 0.0194795010883 0.0216815507472
-0.0275863544483 0.0197885826714 0.0192489520747
-0.0235369649421 0.0241314527265 -0.0138225746997
-0.0267122838793 0.0209566674949 -0.0211533753921
-0.0258183050434 0.0218504960714 0.00114731213587
-0.0247485447518 0.0229200765583 -0.0166893799961
-0.0243420417746 0.0233265112108 -0.00517822469443
-0.0262316846391 0.0214371859563 0.00624095184772
-0.0259217177535 0.0217471007429 -0.0147988724493
-0.0263480873965 0.0213208027637 0.0136872548771
-0.0235570668554 0.0241113541918 -0.0203358098586
-0.0249837623106 0.0226848985347 -0.0107483744167
-0.0265253173972 0.0211436025518 -0.0307404815745
-0.0268660064497 0.0208029707621 -0.0122210430572
-0.0230261322409 0.0246421995672 -0.0169708023551
-0.0244266897475 0.0232418774655 -0.0314326632672
-0.0247306682907 0.0229379500148 -0.023599668748
-0.0256431731797 0.022025598499 -0.0260386648452
-0.0248123163189 0.0228563157099 -0.0282872395627
-0.0263268418619 0.0213420447275 -0.00558587935227
-0.0267354396397 0.0209335156265 0.0105919066624
-0.0223583763939 0.0253098431782 -0.0318226160137
-0.0266524820859 0.0210164592368 -0.00130159219921
-0.0230092868343 0.0246590421425 -0.0274600158886
-0.0327116459542 0.00905142232695 0.0247243289217
-0.0326943032677 0.00792975675897 -0.0244804353665
-0.0323869643818 0.00910728298801 -0.0334628953584
-0.0328847385223 0.00820738840547 0.00624343779418
-0.0325236803357 0.00853419926806 -0.0306979042963
-0.0325817228093 0.00861593675835 -0.0214055906289
-0.0326038784706 0.00868718690444 -0.0168582628923
-0.0328950571713 0.00682371483223 -0.027027312711
-0.0325085042805 0.00839384533329 -0.036099320366
-0.0325963264296 0.00938458761466 0.0136224970051
-0.0324062980317 0.00921383563559 -0.0278659415537
-0.0325317742717 0.00974431090649 0.0201946338768
-0.0323826929166 0.0102065481091 0.0171408447052
-0.0324283617574 0.0095813739004 -0.00584690712626
-0.032497303124 0.0092105364719 -0.0122057078297
-0.0327106204448 0.00863992751051 -0.00334426181312
-0.0330416288938 0.00763672760736 0.022617707596
-0.033075913232 0.00746561551103 0.0195467731579
-0.033255509048 0.00625168309165 0.00795669721894
-0.0331284982653 0.00617018558017 -0.0116865463293
-0.0333411368427 0.00613883128393 0.0170087261463
-0.0330816213262 0.00600313382809 -0.0223575889721
-0.0331744567417 0.00608841089524 -0.00735772627811
-0.0332916236333 0.00629889938457 0.0141426292215
-0.033125481505 0.0065864771088 -0.00170712302845
-0.03310801076 0.00684627804641 0.0023598844574
-0.0333051968412 0.0060688871129 0.0102793266921
-0.0331441552949 0.00637778001496 -0.00433093877507
-0.0331923085508 0.00571762633149 -0.0141439250637
-0.0330059574338 0.00574912915366 0.0302357941335
-0.0323185440509 0.00768248585056 0.0318081462531
-0.0315519362279 0.00691642943017 0.0365938118159
-0.0328382610074 0.00782379398227 0.0289560025412
-0.0311402892484 0.00947882671649 0.0353781873376
-0.0304907275267 0.00874004787069 0.0399049727787
-0.0321898360514 0.00464416781658 0.0356254754619
-0.0316069561763 0.00506215341331 0.0382251104464
-0.0298881219435 0.00698079200316 0.0451832237634
-0.032655298919 0.00486993558314 0.0329721812224
-0.0308342141954 0.00633684661946 0.0409280694741
-0.0317253368019 0.00956891143228 -0.0441997772419
-0.0312923848486 0.0112931578189 -0.0424942442477
-0.0291305000046 0.0167783213014 -0.0397412455787
-0.0291762374306 0.0162547848496 -0.0423349695419
-0.0307011048209 0.0117879685486 -0.0461649422762
-0.0303506498375 0.0136175135304 -0.0436956407745
-0.0300383368929 0.0151475559765 -0.037669879403
-0.0308231515292 0.0131555800947 -0.0395950762161
-0.0303963856093 0.0148984753982 0.0220562237172
-0.0312204648968 0.0130265391838 0.0261880771937
-0.0292657563976 0.0168034738206 0.028168256285
-0.0300686374235 0.0153483480668 0.0256458930148
-0.0315453644541 0.012598843311 0.0216932031363
-0.0318250902209 0.0118896829793 0.0241233474025
-0.031910585968 0.0112048223218 0.0286637886595
-0.0294533728176 0.00993980113341 0.0430259295075
-0.0294741928803 0.0114161614624 0.0403504486835
-0.0287969931329 0.0104061802769 0.0453985727007
-0.0302433630628 0.0111788363487 0.0370309328892
-0.0214548158736 0.0262127512315 -0.0135425153275
-0.0214089589334 0.0262578323672 -0.00584650164568
-0.0225009031895 0.024171297733 0.0323124941777
-0.0246051267789 0.022276993478 0.0315605535295
-0.0218665480464 0.0224093538485 0.0408708709526
-0.0203251351721 0.0233614086731 0.0424867862223
-0.0217469617317 0.0240980624175 0.0352133510008
-0.0184284538941 0.0245799683215 0.0439874433924
-0.0209474468995 0.0239413805725 0.0383436709405
-0.0246866762878 0.0229802002856 0.0280848157213
-0.0215844813848 0.026083453438 -0.0229488626507
-0.0247143259392 0.0229537239048 0.0252679975153
-0.0223318792342 0.0253356720896 0.00548523214002
-0.0225991322337 0.0250680636154 0.0246421705544
-0.0228477011055 0.0248204164647 -0.00910098093993
-0.0224872665987 0.0251801720305 0.0127539584314
-0.0249903650808 0.0226778668964 0.0224394990924
-0.023747954629 0.0239200601358 0.0103626513023
-0.0224445099958 0.0252231733185 0.00195654246167
-0.0261471692907 0.0215216697327 0.0170179940533
-0.022838362391 0.0248288718275 0.0271098782358
-0.0245970356212 0.0230714046265 0.00721013493181
-0.0231178869213 0.0245496127954 0.0209080871113
-0.0249994250822 0.0226690647076 0.0119782638759
-0.0240403940777 0.0236278867396 0.0043565415676
-0.0234997635304 0.0241684506588 -0.00204697067209
-0.0241124696931 0.0235555905774 0.0146561861367
-0.0242476844115 0.023420345886 0.0181778583819
-0.021534986162 0.0261328445638 -0.0195004286801
-0.0216025569204 0.026065454708 -0.0258052465892
-0.0196644283621 0.0273944648912 0.0174019578701
-0.0195678588487 0.027563621292 0.00149803535255
-0.0192933116985 0.0278112112035 -0.00818011962554
-0.0200520562345 0.0272713805498 -0.00342876084143
-0.019050526704 0.0280311334819 -0.0168872469865
-0.0203713875006 0.0269564743483 0.0119296545941
-0.0207590974812 0.0266814888982 0.0142262592911
-0.0212892697208 0.0262724616007 0.0223928491329
-0.0190788939232 0.0278350012968 0.0076259284671
-0.017824005622 0.028731695098 -0.0102439354274
-0.0184363605305 0.0282876308946 -0.000705840274623
-0.0177934918183 0.0287850679615 -0.0146517798634
-0.0169234984042 0.0289783838034 0.0268719313996
-0.0178408799605 0.0285518609527 0.0111130156064
-0.0185580841466 0.0280332350071 0.0220989477196
-0.018270460146 0.0283550835106 0.00336240063691
-0.017270043162 0.0288529638471 0.0164255573797
-0.0191026082189 0.027676746483 0.0257491081492
-0.0169992187164 0.0289577969735 0.0237313225396
-0.0179479156526 0.0286123503111 -0.00460243759302
-0.0185022430484 0.0281285783876 0.0143257830844
-0.017861938901 0.0256902225668 0.0408166415287
-0.0178831836514 0.0276814962799 0.0316849724307
-0.0191632470654 0.027435311518 0.0290513533126
-0.0174832146523 0.0273612523846 0.0343167891835
-0.0188634189607 0.0261186130724 0.0359254773031
-0.0198824664302 0.0263500203692 0.0317556959552
-0.0169854878539 0.0244435367887 0.046115697207
-0.0120953799338 0.0249805301567 0.046571337332
-0.00936844026634 0.0275514527142 0.0461622047153
-0.0157392026837 0.0214126497658 0.0464618062673
-0.0275851921959 0.00484366238828 0.0460503627944
-0.0229340361657 0.0106708870138 0.0462119101087
-0.0301384699874 0.00285313062156 0.045961680504
-0.0182073148279 0.0187216476045 0.0463760820118
-0.0267081565797 0.00737241028098 0.0460808246296
-0.0218130279905 0.0146800989563 0.0462467664969
-0.0264581910362 0.0114478951321 0.0460519063227
-0.01515828704 0.0259220470769 0.0457205130947
-0.0215723268703 0.0257592257483 -0.041467491156
-0.0229457189392 0.0246142971147 -0.038949842424
-0.0247173707667 0.0229499321888 -0.0377717806126
-0.0243357579861 0.0233325428373 -0.0344307248074
-0.0229785356934 0.0246890168881 -0.0365833611709
-0.0261146397189 0.0215133008522 -0.0353327587446
-0.0235192949461 0.0237084349216 -0.043522957654
-0.0248131553072 0.0225673285222 -0.0418391932861
-0.0216838660629 0.0254167784536 -0.0449237840798
-0.027278059453 0.0177483311681 0.0352100666583
-0.0270374644832 0.0159835943501 0.0410603764316
-0.0289875001462 0.0140750558186 0.0364539766543
-0.0296740088893 0.0147182237182 0.0315330271848
-0.0282753948093 0.0171916363909 0.0320657046701
-0.0268303443876 0.0153867310682 0.0435556310315
-0.0306101144758 0.0139842960794 0.0288644949716
-0.0276835821534 0.0159671178783 0.0379889466614
-0.0278787309538 0.0128010394064 0.0447621867228
-0.0311536456051 0.0121322033175 0.0308583531099
-0.0303393542981 0.0124795112958 0.0338870601398
-0.0282711992791 0.013543878488 0.0411480388575
-0.0219130001026 0.0191886388243 0.0461285767239
-0.00456143726193 0.0332410000265 -0.00672340359663
-0.00530564332147 0.0332410000265 -0.02175269565
-0.00338347760569 0.0332410000265 -0.00238549313222
-0.00422154544005 0.0332410000265 0.00026136993785
-0.00211550982046 0.0332410000265 0.0164024878086
-0.00222284524506 0.0332410000265 0.00745462735226
-0.00914099998772 0.0185231887725 0.0248447699356
-0.00914099998772 0.0299318926448 -0.021401546185
-0.00914099998772 0.027571320961 0.0362226068992
-0.00914099998772 0.0285111603696 6.7353469862e-05
-0.00914099998772 0.0257701206163 0.0391914401694
-0.00914099998772 0.0304214465461 -0.0146812828286
-0.00914099998772 0.00737911870261 0.0386791778705
-0.00914099998772 0.0260090551418 -0.0286183953125
-0.00914099998772 0.0260937525883 -0.00628420056324
-0.00914099998772 0.00884365236478 0.0409512107138
-0.00914099998772 0.0265162999076 0.0273072774186
-0.00914099998772 0.00771743810625 0.0271031969113
-0.00914099998772 0.00425267476161 0.0360569354201
-0.00914099998772 0.0207433216702 -0.00171035634526
-0.00914099998772 0.00422895426697 0.0312291059776
-0.00914099998772 0.0250181862712 -0.00907203915401
-0.00914099998772 0.0269864855521 0.01815753909
-0.00914099998772 0.0197712685173 0.0210143166319
-0.00914099998772 0.0210229058951 0.0245539886346
-0.00914099998772 0.0158285578419 0.028755537796
-0.00914099998772 0.0133441432757 0.0150859270842
-0.00914099998772 0.0130277189707 0.0277853694069
-0.00914099998772 0.0224441771054 -0.0203996835149
-0.00914099998772 0.0282443635805 0.00816716558531
-0.00914099998772 0.0286154807064 0.0119752174361
-0.00914099998772 0.0195507556266 0.00283236084932
-0.00914099998772 0.0211140179534 0.0359778726503
-0.00914099998772 0.0136856197595 0.0174718089424
-0.00914099998772 0.0155604587079 0.0357510645944
-0.00914099998772 0.0180366954456 -0.00632913689381
-0.00914099998772 0.0134644758941 0.0411246334317
-0.00914099998772 0.0265788965929 -0.016527634498
-0.00914099998772 0.0202327692446 0.0408576224466
-0.00914099998772 0.017291682016 0.0309434130261
-0.00914099998772 0.0100983407558 0.0224402775311
-0.00914099998772 0.0240258364423 -0.00131393853793
-0.00914099998772 0.0275377860883 -0.0120019822244
-0.00914099998772 0.0217088730555 0.0193369412976
-0.00914099998772 0.0226936295867 0.0262770903047
-0.00914099998772 0.024705883762 0.043696911342
-0.00914099998772 0.0294300237412 -0.0180259161898
-0.00914099998772 0.0292834805351 -0.037819287396
-0.00914099998772 0.0113441357723 0.0327027115577
-0.00914099998772 0.0246920239152 -0.0259963049287
-0.00914099998772 0.0224014903028 0.0392672474529
-0.00914099998772 0.0145183066349 0.00487574395647
-0.00914099998772 0.0200621753818 -0.00880192197432
-0.00914099998772 0.0271301855591 -0.0311213067473
-0.00914099998772 0.00421057260118 0.0387511783363
-0.00914099998772 0.0214230233898 0.0322154618379
-0.00914099998772 0.021951117156 0.00629919887186
-0.00914099998772 0.0239714928735 0.0413987988645
-0.00914099998772 0.0265157000732 0.024258636515
-0.00914099998772 0.018096009043 -0.00379088374018
-0.00914099998772 0.0245365268776 -0.0149016203685
-0.00914099998772 0.00561203877932 0.0335874265126
-0.00914099998772 0.0295798841046 -0.0317441076752
-0.00914099998772 0.0293873658435 -0.0344062988701
-0.00914099998772 0.0224709495829 0.0026245840393
-0.00914099998772 0.0134713375036 0.0310149058749
-0.00914099998772 0.0152816737103 0.0195374502373
-0.00914099998772 0.0148045504903 0.00921602684549
-0.00914099998772 0.0225410093915 -0.00921314582929
-0.00914099998772 0.0271062408343 0.0211202056709
-0.00914099998772 0.0255286494648 -0.00362458822921
-0.00914099998772 0.0106558838255 0.016738030583
-0.00914099998772 0.0108532326366 0.0298045214052
-0.00914099998772 0.0238486831709 -0.0229620843784
-0.00914099998772 0.00858584307995 0.0341694361136
-0.00914099998772 0.0153473539739 0.0134502087548
-0.00914099998772 0.0125332113798 0.0386174666
0.0248935332365 0.000178999995114 -0.00411219285739
0.0180325413099 0.000178999995114 0.0385993964721
0.00890594201085 0.000178999995114 0.0389858025957
0.0158218217631 0.000178999995114 0.0137111840301
0.00519049623731 0.000178999995114 0.0351161202244
0.00969898281992 0.000178999995114 0.0215471894149
0.00508424506329 0.000178999995114 0.0247369296213
0.0309398522048 0.000178999995114 0.0153026139106
0.0125529277705 0.000178999995114 0.0389758436799
-0.00705241859655 0.000178999995114 0.0392293727415
0.0026698488509 0.000178999995114 0.023747004956
0.0326625594321 0.000178999995114 -0.043479642736
0.0214027521988 0.000178999995114 0.0382132717904
0.0140781160013 0.000178999995114 0.0158837559405
0.0237970965421 0.000178999995114 0.0228638157024
-0.00737460114893 0.000178999995114 0.0363964302991
0.0155010287827 0.000178999995114 0.0386012910333
0.0290242943587 0.000178999995114 0.0408018873983
0.000869457707745 0.000178999995114 0.0404305770554
0.0170682868082 0.000178999995114 0.0218246593331
0.0170892764325 0.000178999995114 0.0161415716934
0.029582402886 0.000178999995114 -0.0177528551236
0.0243466621773 0.000178999995114 0.00342457453668
0.0192490210151 0.000178999995114 0.0202462336289
-0.000186031107083 0.000178999995114 0.0290409499607
0.0218096508362 0.000178999995114 0.0406168485788
0.0278737006009 0.000178999995114 -0.0320649038506
0.0299567874548 0.000178999995114 -0.0390117362291
0.0280725002111 0.000178999995114 0.016086614571
0.0262398370188 0.000178999995114 0.0364912383084
0.00697548110518 0.000178999995114 0.0269206218916
0.00783007587582 0.000178999995114 0.0361626666379
0.0209415106714 0.000178999995114 0.0273614263256
0.0292915391563 0.000178999995114 0.0377395325911
0.0252242827926 0.000178999995114 0.0294336134313
0.0111065947611 0.000178999995114 0.036385940618
0.0147844891756 0.000178999995114 -0.00752929877116
0.0106345538762 0.000178999995114 0.00202390413195
0.00495475059203 0.000178999995114 0.0163997582688
0.0221044051138 0.000178999995114 0.0148894083553
0.0299616445682 0.000178999995114 0.0344031542624
0.0197164115105 0.000178999995114 -0.0164028004763
0.0132915780979 0.000178999995114 0.0411541295009
0.0234885954636 0.000178999995114 -0.0214676298875
0.0194536188668 0.000178999995114 0.00803925738471
0.0223910403056 0.000178999995114 0.0296503041757
0.017215537788 0.000178999995114 0.000298763248764
0.0290635590702 0.000178999995114 0.00135427836493
0.00604994301147 0.000178999995114 0.039767361785
0.0068785695372 0.000178999995114 0.00961970843484
0.0281595512934 0.000178999995114 -0.00658197761833
0.0246895908739 0.000178999995114 -0.026359316442
0.0248236356802 0.000178999995114 -0.000907600341311
0.0253422400549 0.000178999995114 0.0416581612703
0.00924142734403 0.000178999995114 0.00890526739551
0.00827169034152 0.000178999995114 0.0298461965717
0.031397440259 0.000178999995114 -0.0194630573919
0.013989073676 0.000178999995114 0.0359677226659
0.00950552920384 0.000178999995114 0.0339001465296
0.0177243971841 0.000178999995114 0.0329820354566
0.0220959928354 0.000178999995114 0.0357894789148
0.019343154004 0.000178999995114 -0.00391712263719
0.0322790701538 0.000178999995114 -0.0252477208204
0.0306162092844 0.000178999995114 -0.0224718013698
0.0276350440567 0.000178999995114 -0.0293054826092
0.015858838501 0.000178999995114 0.0109871700559
0.0221678624905 0.000178999995114 0.00633402222465
-0.00512379256929 0.000178999995114 0.0372593003968
0.0279031950795 0.000178999995114 0.0309839560048
0.00938440305432 0.000178999995114 0.0122386100629
0.0269017752734 0.000178999995114 0.0233888130751
0.0222394836978 0.000178999995114 0.0248867219817
0.0204541141554 0.000178999995114 -0.00140096553822
-0.0056006889373 0.000178999995114 0.0343031919547
0.0233927087927 0.000178999995114 -0.00932229944932
0.0303715311523 0.000178999995114 0.0247199544108
0.00113473109968 0.000178999995114 0.0315082455244
0.0258896713439 0.000178999995114 -0.0234754075358
0.0280481428035 0.000178999995114 -0.0349373255784
0.0297661262823 0.000178999995114 0.0109357230593
0.023106928361 0.000178999995114 0.0180210132749
0.031363334183 0.000178999995114 -0.0136744729012
0.0115429905747 0.000178999995114 0.026897805383
0.0163965670681 0.000178999995114 -0.0102790605296
0.0285925690206 0.000178999995114 -0.00144407990968
0.0247592308626 0.000178999995114 0.00624326513319
0.0113917120441 0.000178999995114 0.0110160878446
0.017917053381 0.000178999995114 0.0257433134364
0.00762826639765 0.000178999995114 0.0147957965955
0.0184678975875 0.0141733581416 -0.0459610000253
0.00880219570178 0.018891356203 -0.0459610000253
0.00806999919017 0.0269930004662 -0.0459610000253
0.025148950049 0.00718666579388 -0.0459610000253
0.0151185930801 0.0159199579345 -0.0459610000253
-0.000446050392402 0.0300682305852 -0.0459610000253
0.00272815442472 0.0250317459598 -0.0459610000253
0.0311446959326 0.00179914894213 -0.0459610000253
0.00626758851297 0.0234862984595 -0.0459610000253
0.00178142277171 0.0281703958358 -0.0459610000253
0.0049166028663 0.027594138351 -0.0459610000253
0.00876869255794 0.0214658627106 -0.0459610000253
-0.00307795903866 0.0302222280194 -0.0459610000253
0.0200744081378 0.0117895724579 -0.0459610000253
0.0136486016474 0.0200031501382 -0.0459610000253
0.00612941593418 0.0210639198858 -0.0459610000253
-0.000424541589839 0.0261700603953 -0.0459610000253
-0.00723847151161 0.0307901159579 -0.0459610000253
0.00895102305821 0.0242166655801 -0.0459610000253
0.0163187005516 0.0182941596094 -0.0459610000253
0.0334488419296 0.000982842910359 -0.0151958811718
0.0334859101371 0.00109326688416 -0.00258580874466
0.0335448969235 0.00126898499429 -0.0330561501348
0.0335478051391 0.00127764839446 -0.0380123754474
0.0335559500811 0.00130191168985 -0.00792194142535
0.0335252886892 0.00121057323647 -0.030569851697
0.0327967361253 0.000178999995114 0.0125601397889
0.0318656001606 0.000178999995114 0.0032013552866
0.0322213219477 0.000178999995114 0.0327729125076
0.0153782951638 0.0147684221825 0.0466220006347
0.0190293424605 0.014788935037 0.0466220006347
0.00646474043438 0.0267183383808 0.0466220006347
0.00980314644292 0.0258177857362 0.0466220006347
0.0128822579406 0.0179719649647 0.0466220006347
0.0126113441969 0.0210382250358 0.0466220006347
0.0211858380796 0.0109331763281 0.0466220006347
0.0155800844819 0.0194712878289 0.0466220006347
0.0120346945461 0.0243461216632 0.0466220006347
0.0148099696488 0.0232741537767 0.0466220006347
0.0186104898451 0.0124374687732 0.0466220006347
0.0101680482279 0.0214392102584 0.0466220006347
0.023360832709 0.00555690035948 0.0466220006347
-0.00063957736896 0.0332410000265 -0.038736865925
-0.000284103078032 0.0332410000265 -0.0314014513891
0.00111560029032 0.0332410000265 -0.0285914525508
0.00251937880835 0.0332410000265 0.00566396164196
0.00273030988929 0.0332410000265 -0.0151838597433
0.000830489017052 0.0332410000265 -0.00793018967075
0.00107698794706 0.0332410000265 -0.0170829122941
-0.00393605867468 0.0332410000265 -0.0267622389795
0.00286536746948 0.0332410000265 -0.0112187865517
-0.000965984889646 0.0332410000265 -0.041245902394
3.66487247376e-05 0.0332410000265 -0.0214645204495
0.00121389178228 0.0332410000265 -0.0433318230003
-0.00532367033275 0.0332410000265 -0.0332096208636
-0.00184444479075 0.0332410000265 -0.0240249450756
0.00168807765041 0.0332410000265 -0.000137557176478
-0.00124023339636 0.0332410000265 -0.0188419822365
0.00173431444775 0.0332410000265 -0.0249254892391
0.00261540775155 0.0332410000265 -0.0405928256233
0.00202616759451 0.0332410000265 -0.0322277772811
0.0013221723923 0.0332410000265 -0.0350670426918
-0.00138449127023 0.0332410000265 -0.0119992211875
-0.00148082512461 0.0332410000265 -0.0288100551
0.000945068406656 0.0332410000265 -0.0133696547834
0.00306205489954 0.0332410000265 0.00885825176149
-0.0027732754055 0.0332410000265 -0.0213372860123
-0.00431491701835 0.0332410000265 -0.0292668138243
-0.00261161154654 0.0332410000265 -0.0344750318656
0.0018088190791 0.0332410000265 -0.00366942086352
0.0111416095777 0.000178999995114 0.043855008827
0.0252216453979 0.00954438821289 -0.0459610000253
0.0127849992231 0.023435649091 -0.0459610000253
0.0229389076095 0.0120906594736 -0.0459610000253
0.0306132444258 0.00816938165126 -0.0459610000253
0.0213666248509 0.0161464743773 -0.0459610000253
0.00642102282982 0.0295612214951 -0.0459610000253
0.017327304186 0.0215655281377 -0.0459610000253
0.0287011153967 0.0106529569798 -0.0459610000253
0.0261868700699 0.0121988139627 -0.0459610000253
0.0151665051959 0.0225817735277 -0.0459610000253
0.0281590734268 0.00677098623992 -0.0459610000253
0.030872919148 0.0120207789954 -0.0459610000253
0.0300463409718 0.00403409358192 -0.0459610000253
0.0185233576017 0.0171566846157 -0.0459610000253
0.0231917971123 0.0145677402111 -0.0459610000253
0.00279203983891 0.0256133588389 0.0466220006347
-0.000362635395447 0.0239803994535 0.0466220006347
-0.000913680299174 0.0269057753918 0.0466220006347
0.00263531589449 0.0191350170676 0.0466220006347
2.405318819e-05 0.0211455087001 0.0466220006347
-0.00490087124713 0.0249172437848 0.0466220006347
0.0106008042849 0.0151321372392 0.0466220006347
0.0188704223548 0.00845052120989 0.0466220006347
0.007708810127 0.0180014226997 0.0466220006347
0.00564018681926 0.020716998318 0.0466220006347
0.00208163045298 0.0229288812174 0.0466220006347
0.0152816632494 0.0124019430443 0.0466220006347
0.0117171661053 0.0121025284452 0.0466220006347
0.00709652468902 0.0234848300775 0.0466220006347
-0.00799163030356 0.0121999213113 0.04324647819
0.00225193404851 0.00112117504097 0.0425904983825
3.70767400205e-05 0.00296829615141 0.0426300497711
0.0142029912751 0.00131209739709 0.0446639756158
0.00435835238095 0.0101971644277 0.0449917310294
0.00126204341773 0.0162344288608 0.0458248838737
0.0067260833117 0.00824522938571 0.0449545553757
-0.00616169550966 0.0206503682956 0.0455577812456
0.0195073833602 0.00208209273289 0.0457385509576
9.99596702055e-06 0.00607500283999 0.0433248866421
0.0108361371447 0.00957212055683 0.0459515902243
-0.00745621705769 0.00347585617212 0.0414712047643
-0.00213351521223 0.00729385741309 0.0432351130814
-0.0071023154099 0.00627931397356 0.0421624979607
0.0109814459573 0.00665378876382 0.0453192507419
0.00898605649709 0.00197309910779 0.0439264312319
-0.00427028085854 0.00586756264596 0.0425509618031
0.0234211469231 0.00196151325561 0.0463763552137
-0.00211670384086 0.00193408457996 0.0420312804927
0.00742689443174 0.0111702195335 0.0457321503012
0.00081353715046 0.00831448078311 0.0439656005931
-0.00677056035304 0.0144193643997 0.044051498541
0.00370060159718 0.00449721512334 0.0435967031678
-0.00294513844635 0.0101223419532 0.0437340172212
0.0116903888355 0.00275726554314 0.0445624449791
0.0193978487034 0.00553892345872 0.0464982050997
0.00593498300313 0.0136564709368 0.0460384232761
-0.00203048215291 0.0183841425572 0.0457494637456
0.00453527758957 0.0157126940519 0.046263546386
-0.00407231275858 0.016004498186 0.0448668067205
-0.000529838942584 0.0148702830542 0.0452133206138
0.0213534894897 0.00385302318177 0.0464509095803
0.0150017948211 0.00774218616446 0.0462473506262
0.0172206545703 0.000264655153104 0.0449408596981
-0.00434306519582 0.0221091807322 0.0461952020638
-0.00261021216691 0.0133286471017 0.0445127827585
-0.00543521492835 0.0118292095543 0.0436952322685
0.0135892577781 0.0100296714288 0.0465223595444
0.000529331148433 0.0117041083995 0.0446804479686
-0.00704797031842 0.0237981017351 0.046115877106
