-0.0216077830042 -0.00184001976999 -0.0201944981798
-0.0213459703586 -0.00224116801549 -0.0181275017342
-0.0218755454061 -0.00025200159499 -0.0203116311544
-0.0211618086018 -0.00427039164354 -0.0196356142917
-0.02154883237 -0.000551199516879 -0.0173907999091
-0.0208331767289 -0.00590524943232 -0.0135848115305
-0.0210785772119 -0.00318839045963 -0.0139703913657
-0.0210084394668 -0.00410720274324 -0.0174262301205
-0.0208264207564 -0.00606735881666 -0.0157621332648
-0.0212649121289 -0.00110374743316 -0.0137192408458
-0.0208490886342 -0.00590939177098 -0.018127984726
-0.0209984140504 -0.00413471687241 -0.0153186325783
-0.0211493132905 -0.00248213063146 -0.0160077304345
-0.021042845229 -0.0101415803094 -0.0155728163905
-0.0210910386311 -0.0105006193158 -0.0134926746669
-0.0207199994475 -0.00843562934354 -0.0200636062273
-0.0207199994475 -0.0084732860603 -0.0133480293341
-0.0207199994475 -0.00800406092564 -0.0159934951228
-0.0240796585184 -0.00673903607033 -0.0209714342133
-0.0241480004042 -0.00540274955383 -0.0196097656929
-0.0241480004042 -0.00347409208971 -0.0202668938728
-0.0241480004042 -0.000985860010764 -0.0202482111204
-0.0235325260915 -0.00233831125448 -0.0120793118856
-0.0235224651026 -0.00967372692337 -0.012039038645
-0.023790673925 -0.00519674097505 -0.0132844792988
-0.0237970665414 -0.000309541195754 -0.0134522603436
-0.024126075574 -0.0112311842491 -0.0163973522593
-0.0238890429479 -0.011026641262 -0.0140340958883
-0.023843929228 -0.00880830489238 -0.0136448628873
-0.0240363308502 -0.00937218223506 -0.0155520855158
-0.0239073213953 -0.00716964739252 -0.0143239467636
-0.0209214463172 -0.00662906402472 -0.0205943615082
-0.0227367784727 -0.00554383389626 -0.0216571337485
-0.0225229431091 -0.00786297162365 -0.0215657128612
-0.0224329162823 -0.00228236279442 -0.0216758956741
-0.0187512541839 -0.00374216648507 0.00343248311083
-0.0184841561397 -0.00149483860259 0.00377756642366
-0.0191208264769 0.000448000006145 -0.00787866071298
-0.0186249322819 0.000448000006145 -0.00162383264861
-0.0181565653546 0.000448000006145 -0.0062323171002
-0.0212271720407 0.000448000006145 -0.00612817475407
-0.0181488006191 0.000448000006145 -0.00337453418101
-0.020786677959 -0.0118960002437 -0.00827731350983
-0.0194690865002 -0.0118960002437 -0.0048155062834
-0.0193843792106 -0.0118960002437 -0.00732323033893
-0.0192647245571 -0.0118960002437 -0.00309003078038
-0.0195727332529 -0.0118960002437 -0.00074274491058
-0.0179769992828 -0.00757879473063 -0.000409142861892
-0.0179769992828 -0.00244264423677 -0.00611848987738
-0.0179769992828 -0.00882174101301 -0.0025260190703
-0.0179769992828 -0.00962401363951 -0.00616266532184
-0.0179769992828 -0.00657808302389 -0.00751703469262
-0.0179769992828 -0.0106677020621 0.000465184603577
-0.0179769992828 -0.0113843548212 -0.00628009222697
-0.0179769992828 -0.00491757703443 -0.0062163142342
-0.0179769992828 -0.00629454193327 -0.00394391624147
-0.0179769992828 -0.00345658344569 -0.00764434805648
-0.0179769992828 -0.00617316285711 -0.00227197055906
-0.0213791012617 -0.00509087020445 -0.0117969997227
-0.0214629902678 -0.00300067640447 -0.0117969997227
-0.0226712675241 -0.0118960002437 -0.0080515824561
-0.0209781841245 -0.0118960002437 -0.00222296166956
-0.0211489600965 -0.00712967544892 -0.00224106110176
-0.0213523172988 -0.00216509824187 -0.00274696034167
-0.0212805908914 -0.00908476771902 -0.00263483282267
-0.020891118309 -0.0104203031806 -0.00156107861302
-0.0219535583849 -0.00988407176413 -0.00453002652447
-0.0217167499292 -0.00717068577458 -0.00383193056476
-0.0215046840086 -0.0052339016815 -0.00321310003354
-0.0183256221541 -0.010579428797 -0.00881271652671
-0.0200331246667 -0.001080031513 -0.010948469324
-0.0190981392545 -0.00239698879808 -0.0101742638554
-0.0179769992828 -0.00303615401869 -0.00427832536521
-0.0179769992828 -0.00139166951651 0.000246828924601
-0.0179769992828 -0.00429170467839 -0.00195587912227
-0.0179769992828 -0.00701723839134 0.00201125021612
-0.0179769992828 -0.00343204229184 -0.000394098075727
-0.0179769992828 -0.00525737009237 -0.000403460454572
-0.0205126796643 -0.00707456777496 -0.000502030500746
-0.0206312173435 -0.00869705531749 -0.00081832333811
-0.0205719471407 -0.00239261956522 -0.00066017328197
-0.0206201985464 -0.00527572060881 -0.000788921998099
-0.0182236264807 -0.00988118632903 0.00426185143596
-0.0218770471923 -0.0038302627835 -0.00444101936241
-0.0219642155687 -0.000755567547955 -0.00483444507102
-0.0221234827474 -0.00596988154363 -0.0052305137868
-0.0225380893422 -0.00117409701887 -0.00680893266732
-0.0199293258482 0.00033206329089 0.000191442751572
-0.0233762660919 -0.00161742256544 -0.0106247740248
-0.0233631961786 -0.00571686914342 -0.0104451819313
-0.0231687297 -0.00350137180962 -0.00953458946446
-0.0229750191067 -0.000889445943385 -0.00863882400881
-0.0223041553248 -0.00851786904289 -0.00580091649716
-0.0223188321952 -0.0113950232116 -0.00590324608797
-0.0232508245716 -0.0104872133386 -0.00985024162382
-0.0225636429471 -0.00628009428038 -0.0068722694956
-0.0228804454995 -0.00529501525717 -0.00820453192827
-0.0229113985913 -0.0083481709622 -0.00837845703357
-0.0232747663528 -0.00864953096466 -0.00992642708233
-0.0233015590836 -0.00454255892285 -0.0117969997227
-0.0193312140214 -0.00882783556687 -0.0104405392301
-0.0206653815896 -0.00836737467902 -0.011727066128
-0.0190328860741 -0.00628380415452 -0.0102650941816
-0.0201057767328 -0.00410158814978 -0.0111172318346
-0.0197930545257 -0.0033836859622 0.00117441158073
-0.0193071284097 -0.0019211493151 0.00226818844175
-0.0196877069852 -0.00576947669903 0.00141153960982
-0.0200389596709 -0.00140244501814 0.000620900771296
-0.0196820629226 -0.0118952915397 0.00136609905062
-0.0188113805945 -0.00842673339657 0.00328720660447
-0.0200683303998 -0.00963455224267 0.000551216950978
-0.0187571849738 -0.0114862648295 0.00337455028367
-0.0196866445589 -0.007553099799 0.00139890391638
0.00729000735283 0.000448000006145 -0.00447933587508
-0.00876536078841 0.000448000006145 0.00435271688604
-0.0107070729375 0.000448000006145 -0.0022739986767
-0.00257606460194 0.000448000006145 -0.00123542898685
-0.000650143596228 0.000448000006145 -0.00461637403632
-0.00772470991695 0.000448000006145 -0.0011992565168
-0.00270739583692 0.000448000006145 -0.00475080310464
-0.0144605399924 0.000448000006145 -0.00269153585213
-0.00680103984706 0.000448000006145 -0.00727527004828
-0.00769405296922 0.000448000006145 -0.00346615146012
-0.00977488285519 0.000448000006145 0.00251527521623
-0.009415702229 0.000448000006145 -0.00353963926972
-0.0123413488315 0.000448000006145 -0.00566289524352
-0.0133238888582 0.000448000006145 0.000366292090876
-0.014005882027 0.000448000006145 -0.00913268665507
-0.0146296314916 0.000448000006145 -0.00454267921472
-0.0126451571336 0.000448000006145 -0.00343810869611
-0.00660317992706 0.000448000006145 0.000645521131361
-0.0144892808702 0.000448000006145 0.00798559194762
-0.00985425502365 0.000448000006145 -0.00799442494573
0.00113857079538 0.000448000006145 -0.00523322362998
-0.0153964777279 0.000448000006145 -0.00821111626282
0.0051416301613 0.000448000006145 -0.00390722732456
-0.00366585882813 0.000448000006145 -0.00262579598391
0.00297171833744 0.000448000006145 -0.00455291860749
0.00876799970865 -0.00544995851126 0.0126260150676
0.00876799970865 -0.00637922394764 0.00844878295421
0.00876799970865 -0.00848012457405 0.00954789755352
0.00876799970865 -0.00902803942228 0.00337015538602
0.00876799970865 -0.00979629259347 0.00617362111034
0.00876799970865 -0.00780296248466 0.0171347695636
0.00876799970865 -0.00938487249322 0.00142867260885
0.00876799970865 -0.0100743390034 -0.000722759258194
0.00876799970865 -0.00512921469318 0.0145591602259
0.00876799970865 -0.00689606635214 0.0150938475259
0.00876799970865 -0.0105388446409 -0.00272588316292
0.00876799970865 -0.0102922914045 0.0084207349044
-0.00479984198893 -0.0118960002437 0.00126345722166
0.00876666930671 -0.0118960002437 0.00720735046928
0.00240213541464 -0.0118960002437 0.00636113736412
0.00453094999449 -0.0118960002437 -0.00569190841347
-0.00241534818935 -0.0118960002437 0.00424469745436
-0.00685508993035 -0.0118960002437 -0.00441389400877
-0.00632567905113 -0.0118960002437 0.000501536169286
0.00700503002478 -0.0118960002437 -0.00667750026536
0.000708177897066 -0.0118960002437 -0.00765879717137
0.00574282336141 -0.0118960002437 0.0142571947706
0.00623524567759 -0.0118960002437 0.00663536541687
-0.0087936026376 -0.0118960002437 -0.000339111664318
-0.00267573834758 -0.0118960002437 -0.00200338092768
-0.0104171980007 -0.0118960002437 -0.0042154408643
0.00756552420635 -0.0118960002437 -0.00325016544594
-0.00680969473876 -0.0118960002437 -0.00153305464901
-0.00320688666384 -0.0118960002437 0.00253041430914
-0.0148749776245 -0.0118960002437 -0.00589136873759
0.00718924017669 -0.0118960002437 0.00861169143081
-0.000263883964657 -0.0118960002437 0.00563483947412
-0.00591120552393 -0.0118960002437 0.00280073078659
0.00129498004417 -0.0118960002437 -0.000827121772444
-0.0114133122894 -0.0118960002437 -0.00593186354879
-0.00516385785126 -0.0118960002437 -0.00546161586213
0.00532914007222 -0.0118960002437 -0.00368973873439
-0.00254733741513 -0.0118960002437 0.00627582998937
-0.000993459238425 -0.0118960002437 -0.00580007750754
0.00264140360226 -0.0118960002437 -0.00767660439028
-0.00267505442736 -0.0118960002437 -0.00651421246088
0.00689307182274 -0.0118960002437 0.0154762914247
0.0068569211966 -0.0118960002437 0.0040037642087
-0.00316046649962 -0.0118960002437 -0.00461136216859
0.00710486912431 -0.0118960002437 0.000297654508051
0.00305111562032 -0.0118960002437 0.000383433863253
0.00861085031353 -0.0118960002437 0.00520734835762
0.00192786704504 0.000448000006145 0.00732939277287
0.00671092583391 0.000448000006145 -0.00248452576105
0.00355673985582 0.000448000006145 0.00237025444554
-0.00330469817938 0.000448000006145 0.00308105734951
-0.00512397127028 0.000448000006145 0.0101915609786
0.00508640745881 0.000448000006145 0.00348153837753
0.00355627879558 0.000448000006145 0.00431164028245
-0.00182644056614 0.000448000006145 0.0103136186414
0.00422451242102 0.000448000006145 0.00985623087434
-0.00164532644363 0.000448000006145 0.0136722155581
0.00578223316218 0.000448000006145 -0.00113680376089
0.000812584609836 0.000448000006145 0.0133757307884
0.000197442138199 0.000448000006145 0.00747969368395
-0.00418375809414 0.000448000006145 0.00453134713146
0.00138964027582 0.000448000006145 0.0114845355086
0.00351654442029 0.000448000006145 0.0005610801009
-0.00200759986445 0.000448000006145 0.00425856175899
0.00360950928711 0.000448000006145 0.0115579003153
-0.00842094727549 0.000448000006145 0.0122612891168
0.00145972935703 0.000448000006145 0.0033543109026
-0.0104708350338 0.000448000006145 0.00769125998781
-0.000291395413859 0.000448000006145 0.00223951969849
-0.002225934013 0.000448000006145 0.00833639176351
-0.00721693027414 0.000448000006145 0.00930331489844
0.00435757615487 0.000448000006145 0.00811045865745
-0.0099393432191 0.000448000006145 0.0112636162396
-0.00397012146527 0.000448000006145 0.0126588171587
0.00239875561625 0.000448000006145 0.0159401069317
-0.0178260941583 -0.0118960002437 -0.00458663832067
-0.00707915298055 -0.0118960002437 0.00669317510999
-0.0108044312304 -0.0118960002437 0.00100668816424
-0.00642239678839 -0.0118960002437 0.00476112848815
-0.010745677685 -0.0118960002437 0.00699572636796
-0.016583130809 -0.0118960002437 0.00350979159455
-0.0150610415555 -0.0118960002437 0.000370658572855
0.000873295271588 -0.0118960002437 0.0130595113115
-0.000685167853149 -0.0118960002437 0.0113646236696
-0.0057598995747 -0.0118960002437 0.00811318797825
-0.0158510891049 -0.0118960002437 -0.00391884679227
-0.0164746317572 -0.0118960002437 -0.000795551016398
-0.0137322787256 -0.0118960002437 0.00514974884048
-0.00308923339439 -0.0118960002437 0.0090836271439
-0.00146895249106 -0.0118960002437 0.00782343621661
-0.00293240317069 -0.0118960002437 0.011143606393
-0.0140590401967 -0.0118960002437 -0.000869418259564
-0.0097845251027 -0.0118960002437 0.00265334297374
-0.00727753461946 -0.0118960002437 0.00910522356005
-0.0169381439712 -0.0118960002437 0.00149017152869
-0.0161019761998 0.000448000006145 0.00651399322443
-0.017976000905 -0.00533414056195 0.00322170261127
-0.017976000905 -0.0103275243237 -0.00327643861708
-0.017976000905 -0.0102839987692 0.00233735753723
-0.017976000905 -0.00904439800947 -0.00462826851504
-0.017976000905 -0.00897743534478 0.000935352666573
-0.017976000905 -0.00413783346248 0.00144128967872
-0.017976000905 -0.0095576810446 -0.00108188381913
0.0030458251453 -0.00600840861159 -0.00973999965936
-0.00760131688196 -0.00738464900282 -0.00973999965936
-0.00501648390369 -0.00603977063464 -0.00973999965936
-0.00525672518373 -0.00388705504578 -0.00973999965936
-0.000188094191622 -0.00770459542515 -0.00973999965936
-0.00122343996351 -0.00492066491362 -0.00973999965936
-0.00322678794824 -0.00366584352603 -0.00973999965936
-0.00428090787026 -0.0102705908566 -0.00973999965936
-0.00269514087929 -0.00918742496457 -0.00973999965936
-0.0111801919437 -0.00173628106257 -0.00973999965936
-0.0015933549982 -0.00673845674484 -0.00973999965936
-0.00950044656593 -0.00230441895918 -0.00973999965936
-0.00670064060463 -0.00274127259985 -0.00973999965936
-0.00838775601909 -0.00379143505803 -0.00973999965936
0.000895587071896 -0.0056219877892 -0.00973999965936
-0.00621299901729 -0.00956506950577 -0.00973999965936
-0.00466442311123 -0.00792390323935 -0.00973999965936
-0.0149378540185 -0.00126205750917 -0.00973999965936
-0.0136477068035 0.000448000006145 0.0106537869875
-0.00720030366766 0.000448000006145 0.016273847704
-0.00962107906802 0.000448000006145 0.0135896303666
-0.00697536991556 -0.000960448858422 -0.00973999965936
-0.00527763979241 -0.000653813787919 -0.00973999965936
-0.000137955027674 5.41851163243e-05 -0.00973999965936
-0.000117558641437 -0.00288104055458 -0.00973999965936
-0.00163288896265 0.000448000006145 -0.00743660382105
0.00561519533156 0.000448000006145 -0.00561321716501
-0.00354112794469 0.000448000006145 -0.0088707843308
0.00381429317903 0.000448000006145 -0.00652335341518
-0.00330461341071 0.000448000006145 -0.0071252726512
0.00162885124869 0.000448000006145 -0.00853956206245
-0.00987715212178 -0.0118960002437 0.0106390433506
0.000653696896806 -0.0118960002437 0.0147649922367
-0.00102257418705 -0.0118960002437 0.0137629401469
-0.00688482530147 -0.0118960002437 0.0143614379887
-0.00822413698387 -0.0118960002437 0.0109738311055
-0.013860256579 -0.0118960002437 0.00933248699594
-0.000632887520752 -0.0118960002437 0.0160454110544
-0.00303801931814 -0.0118960002437 0.0144100777313
-0.0114748604711 -0.0118960002437 0.00958612039525
-0.00963038993031 -0.0118960002437 0.0148509970232
-0.00449254025311 -0.0118960002437 0.0120226960953
0.00697621639474 -0.0104952613297 0.0189979326964
0.0059819078537 -0.00870383691231 0.0199168544598
0.00828280872177 -0.0102231001051 0.0177904039709
0.00746227321202 -0.00657144496222 0.0185487278779
0.00766357491006 -0.00864827530793 0.0183626885312
-0.00165876222179 -0.00831925312217 0.0214620009065
0.000264460940921 -0.00955027945943 0.0214620009065
-0.00108844540762 -0.00450497170956 0.0214620009065
0.00314224439234 -0.0088750877433 0.0214620009065
-0.00194931171782 -0.00989770153608 0.0214620009065
-0.000379165887203 -0.00662531754282 0.0214620009065
0.00126950835591 -0.00797361902708 0.0214620009065
0.00198920970965 -0.010201741981 0.0214620009065
0.00876602975893 -0.000847286447137 0.00314551624235
0.00876630031921 -0.00118758490492 0.0154541671774
0.00876650545866 -0.00144560000393 0.00908146292058
0.00876571897583 -0.000456397541048 0.0105663969256
0.0087669410773 -0.00199350140009 0.0116331601661
0.00605783382942 0.000448000006145 0.00907904413858
0.00851871220977 0.000448000006145 -0.00268648540597
0.00521519437514 0.000448000006145 0.0164625803169
0.00870898487819 0.000448000006145 0.0140027867314
0.00804924688552 0.000448000006145 0.00823136463775
0.00744596378222 0.000448000006145 0.00269972714492
0.00727892143295 0.000448000006145 0.0156995042888
-0.017976000905 -0.00134903153462 -0.00791233867595
-0.017976000905 -0.00129180750842 -0.00376404935873
-0.017976000905 -0.0012851117351 -0.00168133173447
-0.017976000905 -0.00874453191809 -0.00784635198555
-0.017976000905 0.000266477519469 0.000590196652505
-0.017976000905 -0.00458590072615 -0.00368688791324
-0.00440171929764 -0.00750222689511 0.0214620009065
-0.0037262315444 -0.0107333099249 0.0214620009065
0.00237765921775 -0.00634713305918 0.0214620009065
0.00116442753327 -0.0049489410179 0.0214620009065
0.00211718485938 -0.0118960002437 0.0177173526553
-0.00706660523762 -0.0118960002437 0.016040641586
-0.0013713798532 -0.0118960002437 0.0195071321098
0.00435454424407 -0.0118960002437 0.0174677086325
0.00563162658896 -0.0106859611972 0.0201082931766
0.00388559342618 -0.0111707685959 0.0210039927664
-0.000453208231414 -0.0113877684158 0.0214620009065
-0.0132668077127 -0.0118960002437 0.011605511343
-0.0111754221625 -0.0118960002437 -0.00792740883359
-0.00492305097415 -0.0118960002437 -0.00781146534252
0.00439156522308 -0.0118960002437 -0.00780249835958
-0.00921092633736 -0.0118960002437 -0.00820059409295
-0.00568414364097 -0.0115820462737 -0.00962066873464
-0.0164354133796 -0.010409008874 -0.00873462811394
-0.0132453972483 -0.00196356590949 0.0120079888763
-0.0138420905273 -0.00380112207698 0.0112328133409
-0.0126685604104 -0.00857727435022 0.0126931407912
-0.0112881689767 -0.0105249264718 0.0143392605418
-0.0135140549525 -0.00646095224913 0.0116903286258
-0.0117430882037 -0.00757965946192 0.013810343393
-0.0126143021096 -0.00418239027038 0.0127841961746
-0.0138651258188 -0.00946886342663 0.0112510295941
-0.0125408692388 -0.0105805536524 0.0128346683381
0.00876748969027 -0.00532173992785 -0.00539314162803
0.00876651784724 -0.00295338204709 -0.00424348737713
0.00876605850554 -0.00117727818358 0.00103077670195
0.00876574732975 -0.00111570522452 -0.00362055540825
0.00876754785385 -0.00332692030703 0.0099299110886
0.00876683993477 -0.00268001655095 0.00299940955984
0.00876799970865 -0.00543988186881 0.00564783079023
0.00876799970865 -0.00877154962088 -0.00194455146518
0.00876799970865 -0.00725799039929 0.0018284127368
0.00876799970865 -0.00475813094142 0.0110061819838
0.00876799970865 -0.00699506052892 -0.00225788817361
-0.00556201730688 -0.00144754920698 0.0190174240364
-0.00478922060477 -0.00304529686194 0.0202513073863
-0.00289590824741 -0.00315626192543 0.0209733958104
-0.00289456694895 -0.00473722294008 0.0214620009065
-0.00782250696091 -0.00183030630581 0.0180538273407
-0.00478185569091 -0.0053454423204 0.0209378624235
-0.00653690971175 -0.00319147314352 0.0192407955544
-0.0175337671574 -0.00691345534572 0.00554288752443
-0.0172460583324 -0.00942747211338 0.00611662678048
-0.0176819963566 -0.0051763446299 0.00524729384398
-0.015566932947 -0.0105422315214 0.00878405131108
-0.0147591146167 -0.00264768320109 0.00999604839697
-0.0163392321431 -0.00903056471283 0.00762497817588
-0.0166814185017 -0.0109769507627 0.0071115278794
-0.0150723414388 -0.00854810504764 0.00952621853494
-0.0155681905412 -0.0039447192771 0.00878189701398
-0.0151151829852 -0.00636824306339 0.00946183676016
-0.00177244465483 -0.000947559817209 0.0190187880395
-0.00365370592029 -0.00129597035875 0.0194374091907
-0.000223570003733 -0.000447501260667 0.0184179592365
6.24794441477e-05 -0.00160628029069 0.0198102518159
0.00266629198672 -0.000476356829158 0.0184526296895
-0.00554617108847 0.000448000006145 0.0171691944141
-0.0101369064919 -0.00721200284861 -0.00973999965936
-0.0146093738266 -0.00348716408194 -0.00973999965936
-0.0167997801564 -0.00509327239107 -0.0094076791577
-0.0165380070814 -0.00289278491578 -0.00956958283903
-0.0100333640266 -0.0109484729102 -0.00946188042211
-0.0132772815947 -0.00906695340715 -0.00937605641248
-0.0118074373625 -0.0102839496306 -0.00937942540812
-0.0142055201825 -0.00566996192735 -0.00963007962138
-0.0101455023614 -0.00931372289945 -0.00961188768737
-0.0131215106351 -0.00722718813809 -0.00956827473343
-0.00825672052754 -0.0115896658281 -0.00954682234574
-0.0154470703718 -0.00910933520465 -0.00918349076113
-0.0174419041386 -0.00760908407342 -0.00915113107936
-0.0156726210578 -0.00684209035273 -0.00938686498628
0.00447844278549 -0.00798239213453 0.021306329371
0.00468003519066 -0.00603416770929 0.0211200213581
0.00622425382652 -0.00557849579223 0.0196928827453
0.00751272229702 -0.00336056596257 0.0184354449793
0.00546051864099 -0.00299751551959 0.0199091921571
0.00697915111184 -0.00151966591387 0.0186041667208
0.00577413195135 -0.00115712250377 -0.00780210274309
0.00747365454116 -0.0012202784201 -0.00641246329624
0.00452554535923 -0.00188192801438 -0.00916614072493
0.00561463024566 0.00041069483095 -0.0072376282651
0.00326973382095 -0.000754649803227 -0.00971220364691
0.00826103546394 -0.00370214767667 -0.00664579043587
0.00759548703062 -0.00521839854486 -0.00784298208383
0.00645754201924 -0.00372349149082 -0.00832924649381
0.00750464185829 -0.00810122658736 -0.00836366467292
0.00870975320876 -0.00672124968053 -0.00738012587112
-0.000819095256048 -0.00288434610365 0.02134586948
0.00543875201286 -0.000678455962592 0.0185152728483
0.00335579260012 -0.00160962832004 0.0197146487111
0.00308739723895 -0.00450112232465 0.0214620009065
0.00174896432527 -0.0101585517743 -0.00911768347513
0.00421734036262 -0.00836431470097 -0.00918863903496
0.00633964337929 -0.0113016240888 -0.0081764346486
-0.000790476132485 -0.00988251609976 -0.00955300748358
0.0060933229054 -0.00875737114546 -0.00882173906433
0.00367269310314 -0.0107784550045 -0.00868949921358
0.00555652125691 -0.00679447793557 -0.00937000657372
-0.00217230927193 -0.0111805039885 -0.00944296419864
0.00174560319198 -0.00751885169997 -0.00973999965936
-0.00867497862119 -0.000481247022908 0.0171228837236
-0.00666725361371 -0.00556375898713 0.0195271880572
-0.0089329128359 -0.00398411345136 0.0169835716259
-0.0098239969253 -0.00623155284571 0.0159930709121
-0.0101041541922 -0.00346774778192 0.0156696757544
-0.0102778794451 -0.00020616589441 0.0154637952587
-0.00585829504491 -0.00690606754444 0.0204380788414
-0.00935785918631 -0.00184966914424 0.0165001455974
-0.00782408363885 -0.00660023927567 0.0182347979138
-0.00851280378015 -0.00836054871476 0.0174693188287
-0.00957079551977 -0.00844181913688 0.0162843570307
-0.0106800141932 -0.00796528952957 0.0150397487956
-0.0115217738528 -0.00347109624012 0.0140568447082
-0.0117506564856 -0.00572735885797 0.0138040487299
-0.0117588514164 -0.000936840505857 0.0137747392038
-0.00540371425412 -0.0112982045817 0.0199889118757
-0.00765053974391 -0.0113395737259 0.0179897073058
-0.00586063134129 -0.00925319905309 0.0203027356493
-0.00914217667149 -0.0108659827313 0.016751808209
-0.00707807584105 -0.00961533246232 0.0190247427915
-0.0164756307845 -0.00475236978147 0.00736953037864
-0.0169576949517 -0.00133693991604 0.00657204266485
-0.0164978126418 -0.00317185749632 0.00731609857765
-0.016101954675 -0.00128613928233 0.00791582383135
-0.0162344628615 -0.00676850237632 0.00777211404849
-0.0150171418575 -9.67253017739e-05 0.00960609283684
-0.0176281153068 -0.00284598460308 0.00535474162001
0.00392535319442 -0.00305244226428 0.0206184446816
0.0019121668927 -0.00269291057027 0.0209227077436
0.00912275426526 -0.00630594298662 0.0179498358413
0.0101840195327 -0.0080523781112 0.0197703486106
0.0168661695027 -0.0105250002816 0.0136065284694
0.0119329436007 -0.0105250002816 0.0180332233809
0.0178135408262 -0.0105250002816 0.0180348174994
0.01640474137 -0.0105250002816 0.0154809043138
0.0157958994914 -0.0105250002816 0.007410060533
0.0130223426678 -0.0105250002816 0.00880349213591
0.0111107662307 -0.0105250002816 0.0109715710808
0.0151316043066 -0.0105250002816 0.0142855093682
0.0112049990497 -0.0105250002816 0.0130776598412
0.0142755604362 -0.0105250002816 0.000441994944676
0.0104005980461 -0.0105250002816 0.00910211572412
0.0132370942276 -0.0105250002816 0.0119151777181
0.0150206180194 -0.0105250002816 0.012685478559
0.011117168959 -0.0105250002816 0.00338544167965
0.0145102246295 -0.0105250002816 0.0103446161694
0.0123112955916 -0.0105250002816 -0.00068726950193
0.0138747158369 -0.0105250002816 0.0181548087476
0.0127642991937 -0.0105250002816 -0.00719448411195
0.0109654364694 -0.0105250002816 0.00711189576942
0.0138517970526 -0.0105250002816 -0.00327338535898
0.0152776763193 0.000448000006145 0.00933137748859
0.0181777493708 0.000448000006145 0.00602568427198
0.0177466543558 0.000448000006145 -0.00485608954624
0.0166641401994 0.000448000006145 0.0125567934821
0.0121287664133 0.000448000006145 0.0126929293899
0.0120725613356 0.000448000006145 0.0153410951955
0.0172104402338 0.000448000006145 -0.000314514099937
0.0157059925693 0.000448000006145 0.014579846912
0.01363531948 0.000448000006145 0.0118840476372
0.0173105979817 0.000448000006145 0.0109042157007
0.0146564604805 0.000448000006145 0.0132664537627
0.0187110006809 -0.00132503748737 0.00477384819248
0.0187110006809 -0.000785538325874 0.011014870701
0.0187110006809 -0.00654447167161 0.0134041946991
0.0187110006809 -0.00186806732251 -0.000457177744386
0.0187110006809 -0.00687015736868 0.0178075274079
0.0187110006809 -0.00598355000842 0.0191175190981
0.0187110006809 -0.00414527758984 0.013181193539
0.0187110006809 -0.00526225036155 0.0148247694921
0.0187110006809 -0.00251812023024 0.00318545194049
0.0187110006809 0.000153246547021 0.0125517874349
0.0187110006809 -0.00559002265279 0.0116390614088
0.0187110006809 -0.00204004275078 0.00806633773964
0.0187110006809 -0.0038942040715 0.00687101503121
0.0187110006809 -0.00180692054225 0.0125014757137
0.0187110006809 -0.00623183659186 0.00999724696017
0.017680356936 0.000448000006145 -0.00697120130227
0.0112184595669 0.000448000006145 -0.00450271760855
0.0128324210333 0.000448000006145 0.00420408410394
0.012955914473 0.000448000006145 -0.000161683539506
0.00927883617881 0.000448000006145 -0.00475775625591
0.0111582495332 0.000448000006145 0.00998856543685
0.0144148517305 0.000448000006145 -0.00540534381481
0.0159567316154 0.000448000006145 -0.00385380571392
0.0149333722294 0.000448000006145 -0.00158718602277
0.0087689999491 -0.00892734887825 0.0142520287991
0.0087689999491 -0.00655282115905 0.0111270736703
0.0087689999491 -0.00147957532071 0.0132582756407
0.0087689999491 -0.00337578552166 0.0130314712801
0.0087689999491 -0.000131173636331 -0.000994317441924
0.0087689999491 -0.00306060888291 0.00635270317226
0.0087689999491 -0.00512542610996 0.0165241817954
0.0087689999491 -0.00311697705409 0.0162609717849
0.0087689999491 -0.00742219155112 0.0134511065484
0.0087689999491 -0.00393564642624 0.00479172153335
0.0087689999491 -0.00458093639571 0.00762479942747
0.0087689999491 -0.00139738734204 0.00480985135871
0.0087689999491 -0.00114732641144 0.00679310556996
0.0087689999491 -0.00926929838813 0.0159639809326
0.0164167455842 -0.0105250002816 -0.00816981270446
0.0157618049914 -0.0105250002816 0.0051365167557
0.0174180888643 -0.0105250002816 0.000743318015297
0.018156189478 -0.0105250002816 -0.00126442844184
0.0146272868808 -0.0105250002816 -0.00778645692221
0.0145301514869 -0.0105250002816 -0.00151798565262
0.0179858898192 -0.0105250002816 -0.00323823323685
0.017712941744 -0.0105250002816 0.00664831389382
0.0176508163788 -0.0105250002816 0.00833097624741
0.0187110006809 -0.00384626005705 -0.00730487513842
0.0187110006809 -0.00894326761463 0.0170565517731
0.0187110006809 -0.00403139829049 0.000258638078321
0.0187110006809 -0.00905690715561 -0.0019672246487
0.0187110006809 -0.00173216996615 -0.00458633350357
0.0187110006809 -0.00348055507529 -0.00370389605047
0.0187110006809 -0.00937167673855 0.00788659517249
0.0187110006809 -0.00884208893042 0.00413639145513
0.0187110006809 -0.00723293916186 0.0019466123556
0.0187110006809 -0.00906905310732 0.00973885551296
0.0187110006809 -0.00517977583348 -0.001079590156
0.0187110006809 -0.00417792329886 0.00256292554349
0.0187110006809 -0.00730443449834 0.0115430678675
0.0187110006809 -0.00319506750673 -0.00198984894365
0.0187110006809 -0.00553428982986 -0.00374044112344
0.0187110006809 -0.00868617216758 0.000582804344199
0.011647978657 -0.0091049996006 -0.00868302286582
0.011793776867 -0.0105250002816 -0.00263933228738
0.0102560669294 -0.0105250002816 -0.00445296954894
0.00965833527526 -0.0105250002816 -0.00692916264385
0.00937560310884 -0.0105250002816 0.0124326348314
0.0087689999491 -0.00507310599534 -0.00116999542925
0.0087689999491 -0.00879307502097 -0.00394208786098
0.0087689999491 -0.0082382979524 -0.000407847878179
0.0087689999491 -0.00662226244984 0.000257961771898
0.0087689999491 -0.0100016066611 0.0102803471453
0.0087689999491 -0.00467276746402 -0.00325629217186
0.0087689999491 -0.00281758778663 0.000413588492857
0.0087689999491 -0.00778619457888 -0.00611758016418
0.0087689999491 -0.00219077807059 -0.001628345869
0.0087689999491 -0.00870732855687 0.0118158119194
0.0087689999491 -0.00833427314236 0.00774257154279
0.0087689999491 -0.00710313700461 0.00662318473557
0.0087689999491 -0.0061210987212 0.00331436673212
0.0087689999491 -0.00734899216233 0.00454439421715
0.0087689999491 -0.00464937606447 0.00101986684269
0.0087689999491 -0.00675592988312 -0.00416941191505
0.0129887880109 -0.00725972226682 -0.00917960473544
0.0145025495735 -0.00648039149616 -0.00934518403452
0.0139480660961 -0.00914167147067 -0.0089433954475
0.0166243402096 -0.00798008373701 -0.00920508408197
0.0170092830639 -0.00709650344234 0.0216312139163
0.0167527265503 -0.00501221195261 0.0216570266221
0.0127387471784 -0.0105250002816 0.0195429093678
0.0100161506643 -0.0105250002816 0.0183623156988
0.0106467662082 -0.010011169445 0.0201906069761
0.00898520135874 -0.00877105195543 -0.00770150460201
0.0106101046956 -0.00656678015263 -0.00878982713808
0.0106295408556 -0.00403664071409 -0.008223248075
0.0124757849833 -0.000889135647941 -0.00883825541183
0.0110166783846 -0.00175234985784 -0.00772402985774
0.00919360774329 -0.00191777652255 -0.00596673085803
0.0139861640893 -0.00476168544112 0.0217911600561
0.0118916932323 -0.0048124366593 0.0210956115323
0.0110625078049 -0.00298399790807 0.019845874108
0.0111052600103 -0.00116431089488 0.0189055134831
0.0126098907427 -0.0028983898272 0.0206055430643
0.013075460933 -0.00416119640449 -0.00939673860948
0.0153225548714 -0.00130544229172 -0.00939665211871
0.0165113279304 -0.00265988352569 -0.0093958545742
0.0147848725093 -0.00390403081898 -0.00939617027695
0.0164102892999 -0.00580032432506 -0.00939506815063
0.0187110006809 -0.00660357513508 -0.00883526459588
0.0169433434353 -0.000339612591816 -0.00909468280592
0.0186306754826 -0.000971773314101 -0.0086417572321
0.0181511310364 -0.0025838235309 -0.00908708024522
0.0153163092416 -0.00791384596 0.0216964612395
0.01841524377 -0.0101298958096 0.0214848182849
0.0164671496774 -0.00920914734008 0.0216059816532
0.0154529421809 -0.00618226252862 0.0217331491277
0.013441807685 -0.00713815272097 0.0218049995601
0.0120402085849 -0.00935882217625 0.0217673976226
0.0148819720243 -0.01014551625 0.0216502933787
0.0137497905747 -0.00166939818238 0.0198844953222
0.0141184586837 0.000234262222272 0.0175995472931
0.0128430298699 -0.000818472792328 0.0188631365293
0.017890888207 -0.00315604326747 0.0211765289447
0.0158614654269 -0.00235975628665 0.0206817902194
0.0174189953281 -0.000796835011686 0.0188270407802
0.011286725232 -0.00637932849031 0.0212749666203
0.00897248099487 -0.00121982504138 0.0174834273724
0.00956858641639 -0.00229092935651 0.0185108919953
0.0102919920641 -0.00466888480123 0.0198643289111
-0.0165855621321 0.0060006925148 0.00724279363367
-0.0165048156426 0.00912749724977 0.00728262130896
-0.0175109376642 0.0110354150766 0.00554742301447
-0.00317808361174 0.0110769998282 0.00805482383715
-0.00240499404137 0.0110769998282 0.00993523353685
0.000896122156697 0.0110769998282 0.0124304612641
0.00458826224578 0.0110769998282 0.0202562766031
-0.000778092053385 0.0110769998282 0.0122069610124
-0.000700315859927 0.0110769998282 0.0105248316992
-0.0126342661853 0.0110769998282 -0.00122312312558
0.00431593206947 0.0110769998282 0.0183149350231
-0.00520593865873 0.0110769998282 0.00684437719628
-0.0092716315173 0.000448000006145 0.00601873340612
-0.00806417845951 0.000448000006145 0.00775510005643
-0.000283956032909 0.000448000006145 0.0118506518079
-0.00789972655437 0.000448000006145 0.00253637883298
0.00261783967188 0.000448000006145 0.013926201576
-0.0135029692712 0.000448000006145 0.00613746785439
-0.0147716841293 0.000448000006145 0.00485495112953
-0.00448162243266 0.000448000006145 -0.000462025573915
0.00623327981012 0.000448000006145 0.0131638695027
0.0003590050415 0.000448000006145 -0.00329030353933
0.00560178546293 0.000448000006145 0.0113335889802
0.000124844348849 0.000448000006145 -8.95319313349e-05
-0.00543609650795 0.000448000006145 0.00291796287222
-0.00366724453421 0.000448000006145 0.00613214832221
-0.00464725437627 0.000448000006145 0.00834427523005
-0.00126794259499 0.000448000006145 -0.00250510454472
-0.008681358143 0.000448000006145 0.000796785809213
-0.000346865227104 0.000448000006145 0.00494742028009
-0.00385977705614 0.000448000006145 0.0013572857253
-0.00610696266388 0.000448000006145 0.00465703090605
0.00162846584057 0.000448000006145 0.00118484642773
-0.0104043886746 0.000448000006145 0.00489704806267
-0.0119157713274 0.000448000006145 0.00210767754279
-0.00197973484017 0.000448000006145 0.000312876847355
-0.0123346736327 0.000448000006145 0.00736157284241
0.000544779068964 0.000448000006145 0.00990687304463
0.00420419023879 0.000448000006145 0.0134214839578
0.00342135562242 0.000448000006145 -0.002642785812
-0.00931809502039 0.000448000006145 0.00916798319712
0.00388677619179 0.000448000006145 0.00629489905976
0.00110789544161 0.000448000006145 -0.00157926078116
0.00137700474943 0.000448000006145 0.00559150526006
-0.0124788318141 0.000448000006145 0.00398113680079
0.000655051008965 0.000448000006145 -0.00690071620268
-0.00654919783431 0.000448000006145 0.00703022759899
-0.00175712126884 0.000448000006145 0.00670817848072
-0.00555515569962 0.000448000006145 -0.00230493529695
0.00229843289247 0.000448000006145 0.00902379786228
0.00393290266106 0.0110769998282 -0.00462742487459
0.00294337195397 0.0110769998282 0.00532524038595
0.00610596900745 0.0110769998282 0.00242386196287
-0.00439326067214 0.0110769998282 -0.00233259691561
-0.00408428487839 0.0110769998282 0.000897080704489
0.00611237378814 0.0110769998282 0.000754574973888
0.00237903883672 0.0110769998282 0.00692309602125
-0.00561412621974 0.0110769998282 -0.00767962007091
0.00688573138249 0.0110769998282 -0.00142139983548
-0.0111447164354 0.0110769998282 -0.0021695720547
-0.00741965882807 0.0110769998282 -0.00629844900679
-0.00969462212105 0.0110769998282 -0.00624718264749
-0.00328633332896 0.0110769998282 -0.00780361743476
-0.00609233552498 0.0110769998282 -0.00187928357572
-0.00225039036282 0.0110769998282 -0.000309097736774
0.00267964613608 0.0110769998282 0.00343547909683
0.00555617555398 0.0110769998282 0.0118506137678
0.0026108139585 0.0110769998282 -0.00112327834048
0.00133808883054 0.0110769998282 -0.00439132642759
-0.00125746188347 0.0110769998282 0.00812155307974
0.00219594054563 0.0110769998282 0.000733829937935
-0.00718826687395 0.0110769998282 0.00123187471916
-0.00553308649728 0.0110769998282 -0.00393249330967
-0.00217208989697 0.0110769998282 0.00262851089507
0.00249144903301 0.0110769998282 -0.00296395814335
0.00653925902282 0.0110769998282 0.00543742882475
-0.0127672323842 0.0110769998282 -0.00410445672155
-0.0073786213117 0.0110769998282 -0.000586592875092
0.000663346626148 0.0110769998282 -0.00117156158615
0.00490487724473 0.0110769998282 0.00451280183015
0.00330862182771 0.0110769998282 -0.00630637494522
-0.0001888196218 0.0110769998282 -0.00678249492765
-0.0136000870494 0.0110769998282 -0.00586426798673
0.00597594292793 0.0110769998282 0.0141671294157
0.00684883423161 0.0110769998282 0.00889780504946
-0.0149659854505 0.0110769998282 -0.0044731277044
0.00424180441654 0.0110769998282 0.002566451418
8.92236203066e-05 0.0110769998282 0.0069007945704
0.00439807097793 0.0110769998282 -0.000413977768782
-0.0174969289749 0.0110769998282 -0.00869294911777
0.00398155480569 0.0110769998282 0.00844618863119
-0.004142102716 0.0110769998282 -0.00517812467039
0.00153603300864 0.0110769998282 -0.00619738055856
0.00739399995655 0.00895942229704 0.00938667558119
0.00739399995655 0.00896104237272 0.00366136155159
0.00739399995655 0.00721343191866 0.00673881234627
0.00739399995655 0.00491577601999 0.0146686853482
0.00739399995655 0.007558121967 0.0133691130796
0.00739399995655 0.00688313098929 0.00897928967606
0.00739399995655 0.00979497763732 0.0108414888169
0.00739399995655 0.00402682927883 0.0125905366166
0.00739399995655 0.00971434445659 0.0130108937656
0.00739399995655 0.00595051317492 0.0133299030984
0.00739399995655 0.00553905685337 0.00547685549988
0.00739399995655 0.00785917909182 0.0114195903623
0.00739399995655 0.00967533177011 0.0168317390447
0.00739399995655 0.0071449094059 0.00392164576411
0.00739399995655 0.00851363704731 0.0148757828307
0.00739399995655 0.00888605712474 -0.00138979271819
0.00739399995655 0.00902157624514 0.00610085541952
0.00739399995655 0.00965618993346 0.0018853764988
-0.0165448390658 0.000448000006145 -0.00481569527045
-0.0109468585529 0.000448000006145 -0.00467600097493
-0.00454715315101 0.000448000006145 -0.00448364512833
-0.0173550100903 0.000448000006145 -0.00790330581131
-0.0145417363087 0.000448000006145 -0.0068360879529
-0.0163274202844 0.000448000006145 -0.00312091986056
-0.0151505509827 0.000448000006145 -0.00102734407247
-0.0170371561133 0.000448000006145 0.0021881633425
-0.00990858642061 0.000448000006145 -0.00591935734333
-0.00625002890594 0.000448000006145 -0.00436365191889
-0.0130007866777 0.000448000006145 -0.00762344387287
-0.00183200304353 0.000448000006145 -0.00910183438691
-0.0152989482041 0.000448000006145 0.000884786131641
-0.0166831503362 0.000448000006145 0.00459477513909
-0.0104486604873 0.000448000006145 -0.000386656663727
-0.00805179596918 0.000448000006145 -0.00515789261889
-0.00504245072936 0.000448000006145 -0.00759200183801
-0.0141313888182 0.000448000006145 0.0031141765168
-0.0169550634928 0.000448000006145 -0.000807719649968
-0.00482291361436 0.0110769998282 0.0133521294338
-0.015118193208 0.0110769998282 -0.000260026837493
-0.0120555871972 0.0110769998282 0.0019183690676
-0.0169885212289 0.0110769998282 -0.00501823131388
-0.0131104688223 0.0110769998282 0.00372357550384
-0.0169010762929 0.0110769998282 -0.000927750179786
-0.00592875009239 0.0110769998282 0.00872852167345
-0.00187454875986 0.0110769998282 0.0160268770111
0.00277626625736 0.0110769998282 0.0198009218057
-0.0117942746751 0.0110769998282 0.00737559510558
-0.00187855504343 0.0110769998282 0.0136769970735
-0.00921287195122 0.0110769998282 0.00660310847483
-0.00692649946716 0.0110769998282 0.00732048946266
-0.0196880009025 0.00854083243708 -0.0037559284232
-0.0196880009025 0.00450893707698 -0.00763682256376
-0.0196880009025 0.00664276400489 -0.00722872092435
-0.0196880009025 0.00418407022988 -0.00569997311329
-0.0196880009025 0.00861917532803 -0.00702089981517
-0.0196880009025 0.00994026813068 -0.0051416869102
-0.0196880009025 0.00674545061973 -0.00370702537398
-0.00367435959431 0.000448000006145 0.0152628125886
-0.00580379843933 0.000448000006145 0.0152583006662
-0.00173203315565 0.000448000006145 0.0155820213942
-0.011575898733 0.000448000006145 0.0102749496747
-0.0078882293647 0.000448000006145 0.0146307278572
0.000464154449752 0.000448000006145 0.0151978419552
-0.0114943939086 0.000448000006145 0.0124758052783
-0.000820627121921 0.000448000006145 0.0169435788703
-0.00672263555401 0.000448000006145 0.0110615718456
-0.00654296431205 0.000448000006145 0.0129270129242
-0.00280970255114 0.000448000006145 0.0168945351958
-0.0128771094039 0.000448000006145 0.00901508570832
0.00739399995655 0.00221343244832 0.010643077496
0.00739399995655 0.00764918277118 -0.00771900014121
0.00739399995655 0.00609389567921 -0.00649357021993
0.00739399995655 0.00827061463823 -0.00589028659213
0.00739399995655 0.00279715521132 0.00887642382182
0.00739399995655 0.00362389320024 0.00240823126958
0.00739399995655 0.00603238052643 -0.00857356264014
0.00739399995655 0.0036069115728 0.000506365570997
0.00739399995655 0.00454287219177 0.00382813342401
0.00739399995655 0.00745454241996 -0.00328318855751
0.00739399995655 0.00458889177878 -0.00552331694754
0.00739399995655 0.00530960263131 0.000832337282618
0.00739399995655 0.0018442766898 0.0130504545091
-0.011480021352 0.0110769998282 0.00943502885714
-0.00753902195696 0.0110769998282 0.0115922585851
-0.0123314254898 0.0110769998282 0.0110944845256
-0.00910338614651 0.0110769998282 0.0126643426028
0.000523984415216 0.0110769998282 0.0189077981288
-0.00636732141877 0.0110769998282 0.0145817932325
-0.0143719482776 0.0110769998282 0.00974105101338
-0.0196880009025 0.00480717424965 -0.00936423251615
-0.0196880009025 0.00651651972736 -0.00924138075526
-0.0100090450584 0.00247319746104 -0.0104250004515
-0.00822040090524 0.00267718559506 -0.0104250004515
-0.00546692265809 0.00280781971312 -0.0104250004515
0.00372614417879 0.000448000006145 -0.00870307314408
0.006846841565 0.000448000006145 0.00477914565612
0.00539233304816 0.000448000006145 0.000748179505748
0.00707791413358 0.00379657286767 -0.00938607573815
0.0050062347582 0.00149946283597 -0.00909239670376
0.00696094321296 0.00251447020687 -0.00786198783552
0.00739399995655 0.00232113135412 -0.00245578595453
0.00739399995655 0.00356981971133 -0.00371136390385
0.00619940758568 0.00505083829615 -0.0104250004515
-0.000313553247789 0.00473772174329 -0.0104250004515
-0.00232915367728 0.00534334716125 -0.0104250004515
0.00318764430119 0.00629766882741 -0.0104250004515
-0.00923398882624 0.00428421206355 -0.0104250004515
-0.00408959306779 0.00459176224665 -0.0104250004515
-0.0194854966948 0.000448000006145 -0.00443461302161
-0.0181305792365 0.000448000006145 0.0037396687838
-0.0196880009025 0.00181090703614 -0.0060090193792
-0.0196880009025 0.0047183911124 -0.00305308967568
-0.0196880009025 0.00499927234608 0.000887154232185
-0.0196880009025 0.00190831320228 0.000494235964103
0.00231090758401 0.0110769998282 -0.00805018346119
-0.00160980113732 0.0110769998282 0.018955780293
-0.00563764763599 0.0110769998282 0.0164091133926
-0.00362154489693 0.0110769998282 0.0213768799538
-0.017492113571 0.00353727779121 -0.0104250004515
-0.0153278893354 0.00467341841186 -0.0104250004515
0.00192103614045 0.00745946997631 -0.0104250004515
-0.0173143987256 0.00574954703822 -0.0104250004515
-3.51161560973e-05 0.00658784639716 -0.0104250004515
-0.0184664808129 0.00922621240139 -0.00975920631201
-0.00858642772597 0.000448000006145 -0.00986041051331
-0.0191864209322 0.001418090659 -0.00974579313681
-0.0170204987796 0.0008710858944 -0.0102757792541
-0.0151802584901 0.00193550768463 -0.0104250004515
-0.011086638868 0.000557816137469 -0.0104250004515
-0.00671678825164 0.00105314459007 -0.0104250004515
-0.013033033108 0.00143110725485 -0.0104250004515
-0.00265821061456 0.00932983432867 0.0215319579432
-0.000271088436595 0.00792516619448 0.0216415409047
-0.0143915342344 0.0107376604909 -0.00981351881451
-0.0119991299326 0.00882640436566 -0.0102388617414
-0.0101929540108 0.00875007286933 -0.0102558490314
0.000421261546232 0.00859772646418 -0.010289753156
-0.00404853789742 0.00850933328504 -0.0103094247286
-0.0059654805722 0.00825136631155 -0.010366834317
-0.00819093857558 0.00697163289779 -0.0104250004515
-0.0130334040294 0.00653047374288 -0.0104250004515
-0.0147578854943 0.00638632425817 -0.0104250004515
0.00557917590515 0.00795331494201 -0.0104250004515
-0.0025062869775 0.00750980982777 -0.0104250004515
-0.013904038558 0.00829012060518 -0.0102457470822
-0.0181450339474 0.00726570574841 -0.0102347067451
-0.0161495485911 0.0107351995182 -0.00979336411641
-0.0164868433557 0.00840599520589 -0.0101284530314
-0.0121054082961 0.00360911640175 0.0133346898882
-0.0111316665366 0.0019839403063 0.0144707222348
-0.0127506539971 0.00675878020325 0.0125508108552
-0.0133321261977 0.00365964121533 0.0118030654615
-0.0125627633182 0.009097359065 0.0127924292673
-0.0133907687361 0.00174799086775 0.0117276539664
-0.0136266072332 0.00761718671079 0.0114075996109
-0.014815091435 0.00516065589028 0.00984936153114
-0.0147887020587 0.0022863600597 0.0099151393612
-0.0146256476252 0.00869753060333 0.0100642612596
-0.0134871545755 0.00995168116969 0.0115686549644
-0.0084262009104 0.0101381524665 -0.00994693709081
-0.00277326136735 0.00697635315325 0.0215375500877
-0.00426552751539 0.00800642949724 0.0214751533587
-0.00397714240056 0.00517723655242 0.0214631670745
0.00117093281599 0.00615191439148 0.0216986313651
-0.00524473614978 0.00683006570585 0.0207822249866
-0.00655186580291 0.00534189747479 0.0193974927497
-0.00866507651265 0.00199933664256 0.0170905393829
-0.00700687168779 0.00320736800931 0.0187300479934
0.00603648104677 0.0102742900945 0.0191326617483
0.00480098713738 0.00910642679881 0.0208608530038
-0.00174643868722 0.0110751055033 0.0213793606076
0.00286402924158 0.00692985611057 0.0217573695458
-0.000646718436658 0.00978536851471 0.0215500506579
0.0032346883367 0.00847361361003 0.0216373056639
0.00287531821241 0.0107504050794 0.0214634188758
0.00159105952702 0.0093936575543 0.0215723108262
0.00253042358589 0.00195249761385 0.0195132335563
0.00410031297915 0.000735180672702 0.0176217711015
-0.00564090317158 0.00950311907166 0.0203569911068
-0.00807344020767 0.00817294676604 0.0177703196124
-0.0098379212966 0.00291825158249 0.0159104914569
-0.00913866296217 0.0105633802026 0.0166261955281
-0.00786295594688 0.00623818923491 0.0180020047091
-0.00683984239221 0.00877310413147 0.0190823681413
-0.00928418561561 0.00827053968814 0.0164799426897
-0.00846401255607 0.00454907312851 0.0173680819672
-0.0102466219879 0.00668429970651 0.0154473974699
-0.0109983642022 0.008072340776 0.0145897405968
-0.0114044843903 0.00991027372201 0.0141179497569
-0.011051693054 0.00553722844198 0.0145493543589
0.00629538093357 0.00102873765022 0.0178192926114
0.00291957578958 0.0032487903598 0.0206422154102
0.00458150015871 0.00196526928517 0.0191148123107
0.00448425956856 0.00600396623202 0.0211126739376
0.00492591431846 0.00370267912532 0.0199619595057
0.00269725340647 0.00501707776305 0.0216274120599
-0.00539693481656 0.00328211373083 0.0198877757639
-0.00650487371678 0.00176103628533 0.018513277244
0.000106362191175 0.00363547180281 0.0215105623492
-0.00133958870125 0.00487269728398 0.0215476014352
0.0012864729766 0.000892277796618 0.0180133362428
0.00605539442751 0.00967903565205 -0.00909062496793
0.00432057995097 0.010979571396 -0.008151009664
0.00194273772375 0.00964526685816 -0.00954895358003
0.00397737372069 0.008610452154 -0.0102216052838
-0.0050941648011 0.0106240485446 -0.00937798465539
-0.000823620943312 0.009582629791 -0.00985263083389
-0.00288961267415 0.00975654366158 -0.00989648073643
-0.00342194973572 0.00188451239335 0.0195001460725
-0.00151332871858 0.00239045006732 0.0202598181828
4.91548196433e-05 0.0019898255324 0.0196593965624
0.00695890761876 0.00710832043151 0.0179997977612
0.0056891364557 0.00754184116635 0.0199049176992
0.00659601790917 0.0053847226205 0.0185442647022
0.00681211300854 0.00891431617466 0.0182200432249
0.00730868775723 0.00272348062003 0.0173715784945
-0.0175486428145 0.00205959956433 0.00551207925333
-0.0193215020516 0.000800705097745 0.00196772433122
-0.0190319785568 0.00555463235345 0.00254656529202
-0.0175045359283 0.00398940660232 0.00560033440456
-0.0183823044857 0.00407974105026 0.00384543869944
-0.0192278400247 0.00261502562117 0.00215498547768
-0.0184352577824 0.00214878997571 0.0037395708005
-0.0196312578347 0.00799032833854 0.00134844464616
-0.0166982132757 0.00408000370773 0.0070881702001
-0.0156448363984 0.00677233971234 0.00866824338801
-0.0155968747586 0.00967218177163 0.00874052370167
-0.0157901303134 0.0026888684444 0.0084498503293
-0.0178275872859 0.00639078718492 0.00495435298706
-0.0193364747353 0.0110528913953 0.00193754571139
