-0.012545711164290377 0.01633171315210424 0.0019002032426051864
-0.013662835105841716 0.01629275068148803 0.0038029906767434434
-0.011404710130756961 0.01640920374175476 -0.004119988442637485
-0.01495300139107827 0.016326806969592027 -0.0025491389874165377
-0.013982657188226787 0.016321450570222634 3.749711677436497e-05
-0.01570702012083641 0.016284853226927146 0.0004283062533452231
-0.014081924930238009 0.016266194834485794 0.005808025449812827
-0.01656215281221688 0.016292569543691945 -0.002175216638636565
-0.018501697033510223 0.016255934169164675 -0.0022254383961105586
-0.018326814284860583 0.016240848314704022 -0.00023213141150727466
-0.016261755477108186 0.016245490676240006 0.0035377713096974997
-0.015584440657367069 0.016243227655542543 0.005183672175335223
-0.011173145181859866 0.01636967883078394 0.0006336494822171625
-0.011357815144381313 0.0162975843978026 0.006572407277067543
-0.008637235811560328 0.01633413795960519 0.006771292018344441
-0.013033367420653494 0.016223380442955793 0.010777363667584366
-0.008326608153290907 0.016376704761387105 0.0035798320659873027
-0.006623372045781934 0.016452744948465395 -0.0007456852261560176
-0.006675011162588325 0.016518424234903822 -0.006306021819481061
-0.010050838978106316 0.016275447232521514 0.009991321118820187
-0.006491446466703276 0.01649553514261154 -0.004169918066449668
-0.008267159611704144 0.016298330614934246 0.010212300136617633
-0.012798445240023878 0.016267094752224594 0.00739914850853104
-0.011363028065423404 0.016273193065604125 0.008608133300385705
-0.009266002792421818 0.016238118463993523 0.014056548446783574
-0.014893938015081423 0.01622832210540751 0.008134843927968467
-0.009407423883410803 0.01641360287930768 -0.0008039028379010623
-0.009795550218330284 0.016366155981088017 0.0027032670932063373
-0.008655382625994988 0.016447159637149517 -0.0027122893536245976
-0.01068216197183363 0.01633198484997045 0.00450188219004099
-0.009882237974628894 0.016254726152412698 0.011927999924258761
-0.01338799463281861 0.016238946400472284 0.009049411714798304
-0.008454628273199635 0.016316484659856138 0.008467923996931685
-0.011904200031304059 0.01578534670218464 0.013223093515782462
0.001062634079049179 0.01593071518918989 -0.021273164019407705
-0.011146883252751826 0.01571327467177175 -0.02152498466096527
0.006393560616673432 0.01573940300209724 -0.021430855473484754
-0.0009644973849483769 0.014802640807541883 -0.02168721028267947
-0.009175965554591891 0.01552989738811432 -0.02163011730893424
-0.017805239305399755 0.015430037510967737 -0.02173740919835052
-0.019166162005095612 0.013316639026756361 0.002276727489978625
-0.01995512902342978 0.011455111763385562 0.0006996562505913676
-0.019401958340082223 0.014973842915877032 0.0018053926817816067
-0.010504856027283313 0.01638831971646381 -0.01563813156613409
-0.008090173808941687 0.016314332957542265 -0.017694050388031013
-0.011658531894257066 0.01631789124952885 -0.017684485999809162
-0.002994966070891667 0.016296434502073902 -0.018074701354338037
-0.008001004986944484 0.016233281781465794 -0.02001240071354724
0.00025461119301064335 0.01637806665723638 -0.01565334007970319
-0.0012615129640788612 0.016501738256360646 -0.012151598453189267
-0.004747728438102245 0.01622528239441583 -0.020157273973769936
0.0018561719513802422 0.01625426452881003 -0.0191566086995604
-0.001086421439006037 0.016428874409662328 -0.01423330627366048
-0.0064001926198064924 0.016274806168111423 -0.018782060059193913
-0.00445496067373448 0.01642000015610956 -0.014574541025586817
0.006434315131375688 0.016243365016923878 -0.019350242843284196
-0.017527039730780087 0.016251389172667555 -0.01974039696904057
0.0006966981032916683 0.0164549664929467 -0.013440106865556536
0.0021826127474248967 0.016401243021359216 -0.01493987531246959
-0.009676165518403557 0.01632947673950069 -0.017301484664485375
-0.013210251432862039 0.016276698938544634 -0.01890404858859815
0.003034435502111006 0.016315111422342415 -0.017383957761778892
-0.006320735725937484 0.016372434293318236 -0.01598471604205049
-0.0156886369121978 0.016233434147990715 -0.02020692408982402
0.0045092261519008876 0.016271858589906582 -0.01858421866532076
-0.006547802702135588 0.01643844349197034 -0.014100615150025142
-0.0008439754759360143 0.01628936114083009 -0.0182215777709729
-0.002841361950380833 0.01637611779111826 -0.015789235615321407
-0.010222091149860672 0.01624235537278074 -0.01981006714648106
-0.005037142355588552 0.0163197730200062 -0.017459305861719853
-0.0087063037899586 0.01638810444818803 -0.01559776496735712
-0.0027600713051457323 0.016462341347447496 -0.013318379763569772
0.0033535747750958766 0.01642172745243306 -0.013246142127256607
0.0024213155023464585 0.016494755124636107 -0.01024070764685885
0.005626171527587647 0.016342625714186824 -0.015141574372704051
0.0030290073172684062 0.016514394082090503 -0.008508011646649523
0.0045467852141440395 0.016433115902377896 -0.011335844982630258
0.0020890903308556255 0.016469864691703612 -0.011965059496525519
-0.0005220581481753851 0.016551742277989574 -0.010281830734217045
0.002419778218181056 0.016560177989726726 -0.006650451736068642
-0.006893014428208175 0.016507739356552364 -0.01100551550163643
-0.009825517674946126 0.016430088689704928 -0.013859240039710343
-0.01630801500767873 0.016303176686219542 -0.017872453348796804
-0.008420380777885294 0.016470180081155618 -0.012343886114747333
-0.012651547174894195 0.016369787632396757 -0.015863957625735704
-0.004014499506680262 0.01652295421445877 -0.01133391219097062
0.0004999339548932542 0.016561999917030334 -0.007642856661070145
-0.0022170709223500776 0.016561999917030334 -0.009969620612764794
-0.004629278049778284 0.016561999917030334 -0.008530202710312866
-0.0048343314211520575 0.01214243379385871 0.020280230965389286
-0.00823615070941678 0.014564736859279958 0.01726750799087416
-0.009313402800220794 0.012886019639917382 0.016373791766025433
-0.0068385744837754165 0.012637335016982457 0.018574247403139815
-0.00867333435156205 0.011174079824919898 0.01692655694669007
-0.01101239578934666 0.01352318168091816 0.014560138487283499
-0.010656620634682 0.01508957471605036 0.014939433499511956
-0.017353024837126415 0.01265795958474289 -0.019982490745387868
-0.018511331278621007 0.01262621956574895 -0.01810851328867688
-0.018924452279680863 0.012193364079740896 -0.015595714042296689
-0.018876717171102394 0.013280659208150313 -0.02042468058631989
-0.020034000277519226 0.012918189986172468 -0.017061442107674876
0.0034981760327190046 0.011679954599408952 -0.01340962200682055
0.002594898050357527 0.01193156120377207 -0.01578312417535694
0.0055410773003464016 0.011334045117714147 -0.00996871032377767
0.0014897500515864202 0.012230715846152448 -0.018612084277202536
0.0010136316191052136 0.011959949503840297 -0.01637929377777007
0.0011954023981096884 0.011544825428471338 -0.012753725387977349
0.0041073606579889906 0.011445709380424964 -0.011251341456005056
0.005077588252566601 0.011076999828219414 -0.00781439509928594
-0.008405563176853948 0.011076999828219414 -0.009380440168884195
-0.00753127906239691 0.011388791967206855 -0.012063346083253617
-0.0036802467362307837 0.011139412229844329 -0.009609334878682083
0.0008690616200389262 0.011750394904571505 -0.014598996025466951
0.0004795877938522171 0.01124040841481441 -0.010184914601170457
-0.0038003123851890154 0.01146129493552199 -0.01242208086235976
-0.0012240725086096042 0.011803412375272885 -0.015213911341797169
-0.006183210819238492 0.011512733110933614 -0.013044429425581388
-0.004362357482127674 0.011793747593730627 -0.015359225520757119
-0.009312229398084917 0.011237474253352682 -0.010875438627117899
-0.0018074896589018556 0.011580743108995688 -0.013316873865767003
-0.0009005047728381688 0.012049913698869976 -0.01733755622673619
-0.005206730510741015 0.01129116146917281 -0.011042876883168424
-0.006739507956784968 0.0111365011065623 -0.009807702049521893
-0.01155281407749322 0.011187544718500902 -0.010604351295964912
-0.0018556837210264372 0.011343684278066651 -0.011255345550387456
0.002910757150169148 0.012007319379510953 0.02139394568814673
0.00471304559103508 0.013992628997508902 0.019450090615474227
-0.0006300699634750047 0.01232666758265868 0.021462000906467438
0.0013889190686133365 0.013199356873559265 0.02097604858183512
0.002678490336211377 0.014043875005720982 0.019884193424049762
-0.005147114852087605 0.012694797560114433 -0.020872153250912042
0.002090425539682617 0.013478333763452956 -0.02133412656624492
0.003582997441799249 0.013960072070197862 -0.021624232716422317
-0.0012551011097119151 0.012961215079548295 -0.021028317181146988
-0.013334338637870695 0.013303679264295983 -0.02127678434777066
-0.005908768756767066 0.01424408147898257 -0.021713574116099643
-0.008141865145475814 0.013907486433206554 -0.02158459726437029
-0.011171711108276965 0.013912961671522447 -0.021572472232198776
-0.015003658836145382 0.014093361927002262 -0.02161827115853421
-0.0031330126060947054 0.013927074360836709 -0.02161473472620102
-0.01972877000285837 0.014456521779658827 -0.021724332590604533
-0.009938762551866775 0.011191675179457392 0.015755566130893007
-0.01231610086977834 0.01262287627973717 0.013095706296835815
-0.013431193598621351 0.012405945771292268 0.011663776996952391
-0.013358180858190861 0.014424768516479452 0.011813642889865108
-0.01630618467529172 0.012945680324263926 0.0076123003072209264
-0.015105143695920392 0.012750443481256398 0.009401004855316558
-0.01454376047427959 0.014752540908693764 0.010155364998073374
-0.015744049639984797 0.014437331080821108 0.008476282148023881
-0.018378090086645097 0.015106640573677634 0.0037617305931919127
0.022192161264524148 0.0048435797251339665 0.01936948352775224
0.021432473853035854 0.006391829818982765 0.020266966394626315
0.02128991221878884 0.008336121513506496 0.02043538648725311
0.023175777829821713 0.011761000379920006 0.00838862573269419
0.023220542887159797 0.011761000379920006 -0.0029810766256828944
0.023149820613606535 0.011761000379920006 0.004417349273603117
0.02151915528344217 0.011761000379920006 -0.007722969368751633
0.022225373048847707 0.011761000379920006 -0.01452756430954983
0.020052284041223216 0.011761000379920006 -0.006501713599931756
0.022935091058145285 0.011761000379920006 0.001951322367743663
0.02115921756422291 0.00044800000614486635 -0.006850163126116033
0.022720510124012338 0.00044800000614486635 -0.013264477208850767
0.021452178003067347 0.00044800000614486635 -0.004545998752004667
0.02244339201773455 0.00044800000614486635 -0.015184505704831859
0.0204963918049139 0.00044800000614486635 -1.585068107352709e-05
0.019398000091314316 0.0037701284154009313 0.0009949564898280305
0.019398000091314316 0.0028969176254063523 -0.00854603045253633
0.019398000091314316 0.004478819947864625 0.008155644974806515
0.019398000091314316 0.004380789492995258 0.004835681690633472
0.019398000091314316 0.006025189172694812 -0.00685184154571201
0.019398000091314316 0.009735876654182591 -0.006441987459908692
0.019398000091314316 0.007485582239733284 -0.005997875633043578
0.019398000091314316 0.004144019328933346 -0.006637245012451318
0.019398000091314316 0.008272404396183746 -0.0015698237855376919
0.019398000091314316 0.0065366685854540574 -0.001210772407818009
0.019398000091314316 0.006039013676506479 0.0014188781045362437
0.019398000091314316 0.0018254575124777898 0.0074408394530664215
0.019398000091314316 0.002291273433977058 0.004688981802344583
0.019398000091314316 0.004161829061357546 -0.0010601484677351925
0.019398000091314316 0.005229496936548639 -0.002674964532275113
0.019398000091314316 0.00516324204935212 0.0029180281130750385
0.02419699914753437 0.008321230037182136 -0.00710830380329695
0.02419699914753437 0.0012728743726681806 0.014511973869387764
0.02419699914753437 0.006701046542073779 -0.0032408334525202403
0.02419699914753437 0.003341715832834729 0.013883720290401413
0.02419699914753437 0.0029236876264023127 0.010269539693796199
0.02419699914753437 0.005270125924140532 0.005385252277427013
0.02419699914753437 0.010097186199321262 -0.013131509198542743
0.02419699914753437 0.0020664205891394883 0.011883129568089833
0.02419699914753437 0.006155714412450888 0.0006509218818050774
0.022253797814732197 0.00044800000614486635 0.005680207585685592
0.02075652185193499 0.00044800000614486635 0.012266914044572426
0.021283597307090545 0.0004480000061448664 0.00834630342029006
0.019525908850719947 0.00044800000614486635 0.017025899630131392
0.022640849603123833 0.00044800000614486635 0.010768424753436695
0.022720506984775644 0.0004480000061448663 -0.00599096328950645
0.020921963159248623 0.00044800000614486635 0.010091023104292761
0.02273180477353839 0.0004480000061448663 0.0154723674158549
0.019398000091314316 0.009761471749319784 0.01672949761631251
0.019398000091314312 0.00844381209872163 0.0008902487623311248
0.019398000091314316 0.007879353770748016 0.009649469124415638
0.019398000091314316 0.002855173281499131 0.014855165249604839
0.019398000091314316 0.006166148613157677 0.013113882480482212
0.019398000091314316 0.003550579405697545 0.01069913813056456
0.019398000091314316 0.004058535354084011 0.013171781782733545
0.019398000091314316 0.0023015616891300765 0.016611759322753487
0.019398000091314316 0.009900638605107015 0.014843631628586268
0.019398000091314316 0.01090258386458736 0.00824714902403696
0.019398000091314316 0.004665823596539207 0.01498786900280321
0.019398000091314316 0.007964831714567255 0.006903683807646667
0.019398000091314312 0.0051920122682935 0.01159412893384845
0.019398000091314316 0.006798491085491909 0.004894530527379431
0.019398000091314316 0.010501180210477854 0.013062674577591759
0.019398000091314316 0.009833660853194582 0.0066570917387225315
0.019398000091314316 0.009826742568287502 -0.00029184119343961127
0.019975638012241063 0.011761000379920006 -0.002175289736947701
0.021423636087477264 0.011761000379920006 0.016371409798418446
0.01970928775196252 0.011761000379920006 0.014603077800809527
0.021761683026539615 0.011761000379920006 0.01117846789394525
0.022734210112370146 0.011761000379920008 0.01260071527563813
0.020836340451997004 0.011761000379920006 0.01303241205922913
0.020442565992083862 0.011761000379920008 0.003986291060237459
0.023844667895591327 0.011761000379920006 -0.019744843072792544
0.019398000091314316 0.004586103431432431 0.01923184353748697
0.019398000091314312 0.008787228790768545 0.01999839094720202
0.019398000091314316 0.006268295882840425 0.020011485466435747
0.02392452189012612 0.002658622082777777 -0.02083589405079446
0.02419699914753437 0.007904798691775579 -0.018639995834295674
0.02419699914753437 0.006387307764120513 -0.0064708820001986665
0.02419699914753437 0.005394109561117388 -0.01746359710582952
0.02419699914753437 0.005356870199674773 -0.014178172905965597
0.02419699914753437 0.004243890407769548 -0.006930549731225319
0.02419699914753437 0.005733335833524802 -0.01923267381372554
0.02419699914753437 0.005190789063080468 -0.004699452720927995
0.024196999147534367 0.008758236668491053 -0.0106008389414186
0.02419699914753437 0.0063564160791488265 -0.015906722431303477
0.02419699914753437 0.005040013672484772 -0.011461605188706278
0.02419699914753437 0.00548744187781324 -0.008317651275299142
0.02419699914753437 0.00883833160224228 -0.014485879977203258
0.024196999147534374 0.010279604759745162 -0.019234901919202522
0.02419699914753437 0.006345201709858951 -0.01010789505922502
0.024196999147534367 0.003998666775168645 0.0013772302861174762
0.024196999147534367 0.003456538175048129 -0.0019519837699173218
0.02419699914753437 0.003926068515951366 0.0038386136020053113
0.02419699914753437 0.009993826443015323 -0.017240293120226072
0.02419699914753437 0.0034531643816438683 -0.004766690748191523
0.02419699914753437 0.006533867163328352 -0.012750189089453117
0.02419699914753437 0.002489289993650617 0.008409437935175075
0.02416357924640499 0.0017618177921215168 0.0030415525171639986
0.024114714472767612 0.003373242529078771 -0.01452759361160065
0.024176267685719673 0.0015726905021347516 0.0058681291005943095
0.024088405784025803 0.0004919828809711449 0.004386858173548006
0.0241044902044557 0.00378820736762035 -0.018792506385806658
0.02418470808786768 0.00235324641241357 0.0008884434367121396
0.02398217445266415 0.001954849535135832 -0.018365576557148173
0.024108355684236697 0.0021895082646716346 -0.006267518399887428
0.023991717240958048 0.0015104077306173475 -0.013952494804168027
0.02397065813692361 0.0014993193605294904 -0.01618409913874477
0.024023809348465243 0.000573432921386532 -0.0033322294858587785
0.02401317324450039 0.0014092474096596233 -0.010827680925687297
0.024167701861493418 0.0010050177658193723 0.009222789905938791
0.024144719087373992 0.0020431152038460514 -0.001161229642475648
0.02413992162897078 0.0031419356157860005 -0.010005294758181682
0.024076296304522588 0.0019398994680528258 -0.007903371504343655
0.024090775313756984 0.00271239706260834 -0.012158099066072212
0.02390212843984261 0.000987064858513973 -0.019842133067206905
0.02419699914753437 0.00795687412767881 -0.00036776310171306864
0.024196999147534374 0.00840414492949425 0.0012892570608103691
0.02419699914753437 0.007659860327763909 0.013276450750330598
0.02419699914753437 0.008093278903791714 0.00976585753543995
0.024196999147534374 0.01005202720394498 -0.00604642043836174
0.02419699914753437 0.007415351001084168 0.00798462166807357
0.02419699914753437 0.007158710067184293 0.004387065902983416
0.02419699914753437 0.010632287467246336 -0.010505060979355194
0.02419699914753437 0.008816678903957884 0.006879879031615953
0.02419699914753437 0.004743061038708336 0.009598975207163763
0.02419699914753437 0.008529028876444363 -0.004598615771714643
0.02419699914753437 0.008703508249508397 0.015288512440632942
0.02419699914753437 0.010308612313198191 -0.0031522091955099845
0.024196999147534374 0.005936075373488514 0.011968656549191247
0.02419699914753437 0.0056227618352949205 0.01409124440865269
0.02419699914753437 0.010791851077319208 -0.015335497529091082
0.024196999147534374 0.009824989396487469 -0.008544074510679907
0.02419699914753437 0.009145199995233107 0.004930303070549047
0.02419699914753437 0.0041645235616384465 0.015629787087016404
0.02419699914753437 0.005520851143164971 0.007286912559857503
0.024196999147534374 0.008534698016392615 -0.002745736275418177
0.024171229691238964 0.007138585256795681 0.01638886087807235
0.02391310347793243 0.01112063158289249 0.017129561268617224
0.020049786151482167 0.006127133969933992 0.02148051369454032
0.023872541452275162 0.00957981286177614 -0.021255089518131546
0.023879856395147225 0.0059179081736208655 -0.021115451338154484
0.024119520338747022 0.0011101166331960537 0.016908090525524215
0.021243998270830067 0.0025040886446128156 0.01923943063674221
0.021953687069290927 0.001445950513990123 0.018262943353631395
0.023463299509264405 0.002397059891340135 0.017841303072199884
0.020493642481924035 0.003879529339454415 0.02047202629349154
0.019585779545918967 0.009159206527561588 -0.011062999452809925
0.019740009966309986 0.008957112982117819 -0.012729244690341094
0.019816444363953623 0.007683283131206101 -0.014058365040049047
0.020018631986159763 0.0078094312199454095 -0.016074998344104835
0.01959127030889515 0.010959044903822053 -0.010347338923203183
0.022069349371069108 0.003164253021715503 -0.021704649552487604
0.02192172553280774 0.0011979914812021914 -0.021499035395304015
0.02419699914753437 0.011470927823330878 -0.007842100761597814
0.02419699914753437 0.010427753749831278 0.000612185570673164
0.02419699914753437 0.009854603200432894 0.002915150170667862
0.024182672324233837 0.009700827168385108 0.00895736742232387
0.024123928267420974 0.009740343948885854 0.013049297387578538
0.024128220585902613 0.011482994477092237 -0.0010165873869112411
0.023944511783550015 0.011307443262590434 0.014139220298656222
0.02411661005879919 0.010654205176404342 0.006390349493512914
0.024156189047239433 0.009666083457971139 0.011216637672005427
0.020049951653637134 0.0059412372836684085 -0.016080233330924478
0.019615839547527446 0.006886757483173255 -0.012143210888727374
0.01982818444223565 0.006009586694354822 -0.013981565891728194
0.01951159169943948 0.005218894054238252 -0.010798244637826653
0.019628844025705916 0.0036539997994741785 -0.011585522483975545
0.019925006294453644 0.0037416077175471203 -0.014177482170762864
0.020345262197387422 0.006553069255749371 -0.018692268342384487
0.020746714106631398 0.0024183745700418645 -0.01729840415112845
0.020315780098640192 0.003969770544429401 -0.016379105732614037
0.02074928481158113 0.003914035753433108 -0.018563061254668133
0.021156137570126504 0.0035959894777753657 -0.020390401965047853
0.021195521650107792 0.000819559747513071 -0.0182699947989962
0.0198766860273514 0.002432984757670836 -0.012833917795419068
0.021182115401608158 0.0020745414786844966 -0.019251064743464292
0.020925477694903556 0.005647919108769576 -0.020592534282657803
0.021028070635192193 0.010179317001873984 -0.019670639811587662
0.020384750914645686 0.008823980431517782 -0.018863210303488726
0.02063812010224749 0.010583647574622112 -0.01683481416352492
0.01999080490319758 0.010101789204645434 -0.014334364413548416
0.020732027279654574 0.008689473274320604 -0.02058476857777745
0.023698202924570505 0.0042213077974161215 -0.021323533468600192
0.02343063910299103 0.0005910573067455854 -0.02148167313169401
0.0194569550631139 0.009407052762770159 0.02151616108438452
0.02167103437027137 0.007252324882417558 -0.021465580454824783
0.02192668625238973 0.009602543390315375 -0.021525178179949027
0.02328251178039364 0.007690570602976297 -0.02159688532513113
0.022239822218033216 0.011098361081383392 0.019182044549628408
0.023606618680367994 0.0046645693583811315 0.01769352725681773
0.02093936090806663 0.010105986633811036 0.02084207266510951
0.02313463101891515 0.009156769697890609 0.018225373490608134
-0.0222901947751339 -0.0034686839698953734 -0.02161519959040521
-0.022374231766715078 -0.0031082121751156433 -0.011796999722719193
-0.021971955050165373 -0.008083320679275295 -0.011796999722719193
-0.02249745523763145 0.00044800000614486635 -0.016278761687057042
-0.023566037324371396 -0.011685715048388319 -0.021165830256719753
-0.022803269174885593 -0.007233795713488136 -0.02162636496524957
-0.02127266643075361 -0.009942125509060264 -0.020284165020300983
-0.021307415514176836 -0.011348033055153639 -0.01332100613014354
-0.02113089782587838 -0.010096385636516816 -0.017483067026413023
-0.02224080646677351 -0.011896000243723394 -0.01698010328198861
-0.0237491638262862 0.00044800000614486635 -0.019495572152373516
-0.021403886765950043 -0.010150201158179847 -0.011796999722719193
-0.0241480004042387 -0.01030637669230091 -0.018408648670302914
-0.0241480004042387 -0.004321748646933557 -0.018354457111744216
-0.024148000404238704 -0.009845097078606972 -0.020502014729989238
-0.0241480004042387 -0.007752501450928425 -0.01871044167174052
-0.024108223329107524 -0.0033908113914234797 -0.01702473887929558
-0.024057928981662934 -0.008202504588842804 -0.015838009439698254
-0.02403338087679383 -0.005062493033014143 -0.015867482776125742
-0.024050433002740353 -0.0015757098356545894 -0.0164756104140033
-0.024095207498837718 -0.006634119200869953 -0.01649602661880837
-0.021225166830138684 -0.0015401127285063585 -0.013344653328446913
-0.021283992503528987 -0.002775233221886664 -0.018382672328658055
-0.021527857303798165 -0.002381102413884749 -0.020273244774828256
-0.020982057230442018 -0.004852320033014041 -0.018736170019568836
-0.02158494369670206 -0.0007236304829889594 -0.018062056229226936
-0.020827649173988463 -0.006551975256615008 -0.019997709318838253
-0.02079842148968684 -0.0064410905907962696 -0.017315580111023333
-0.02073848816153643 -0.006894218985288276 -0.011949082274386695
-0.021027769289070814 -0.0037190503457308396 -0.013092675919141063
-0.02081538453202515 -0.006135149073204789 -0.014381782544889555
-0.021166362163795693 -0.0022983768515817014 -0.01615972026550578
-0.020952282842688873 -0.004710119492277058 -0.016866891773464943
-0.021007713290694598 -0.004013724991562143 -0.014881217454349456
-0.021030961426688404 -0.010145561569536533 -0.01492829711035603
-0.02075030971327781 -0.00876245235835294 -0.01818744872616945
-0.020719999447464943 -0.008790319566335792 -0.015971416650317545
-0.020719999447464943 -0.00898820811613127 -0.0133919048605999
-0.024119443803304216 -0.000883182683785008 -0.02052664836715854
-0.024070859445781898 -0.00306691426934486 -0.020793758760527505
-0.02399894689448567 -0.005845358192527667 -0.021163903848466704
-0.0241480004042387 -0.002162023793557484 -0.019144304343624012
-0.0241480004042387 -0.007723089088506917 -0.02064121090494086
-0.023468004234312192 -0.005631037471786741 -0.011821036651838873
-0.02363445338810287 -0.008719895810005256 -0.01248731775356086
-0.02380233374151857 -0.001014473165575048 -0.013459023896563565
-0.023898887549539553 -0.010004566449049564 -0.014160884459571543
-0.023869669942814538 -0.007626224568569651 -0.013934965652998076
-0.023811728077476 -0.0054724163964820485 -0.013415733195795747
-0.024059070465720762 -0.009957030479066969 -0.01576309764731284
-0.023842619072117245 -0.0026447817308292666 -0.013803033236388863
-0.021068735136628887 -0.008083479108277492 -0.020913537921231823
-0.022960355987100035 -0.001994728692141507 -0.02168277024735795
-0.022439400639440294 -0.005247341034642548 -0.021609846023542486
-0.01853723791306034 -0.000245948299440017 0.0036617360493939673
-0.018805584774641428 -0.0028548258520832816 0.0033248220665352407
-0.01922957767289534 0.00044800000614486635 -0.0016565920739104816
-0.01877630524202402 0.0004480000061448663 -0.00919579904622896
-0.019919595300225856 -0.011896000243723392 -0.00824032091520952
-0.01902855282916681 -0.011896000243723392 -0.0016123495668898965
-0.017976999282836914 -0.006744400308108884 -0.007861906276661635
-0.017976999282836914 -0.006923701658249324 -0.0041342704353539116
-0.017976999282836914 -0.008803960492293093 -0.0026197697284171457
-0.017976999282836914 -0.0029650753760986984 -0.007403562924773646
-0.017976999282836914 -0.006081290835922757 -0.002489538683669616
-0.017976999282836914 -0.007941234912448632 -0.0009004286415614285
-0.017976999282836914 -0.010119185602516654 -0.006012958020661241
-0.017976999282836914 -0.010992486659077972 -0.008096142142313129
-0.017976999282836914 -0.008684978447512582 -0.007157697975441209
-0.02149849512529768 -0.0052914377738634295 -0.011796999722719193
-0.02004987827745741 0.00044800000614486635 -0.010781471836415507
-0.022096314789143874 -0.011896000243723392 -0.0053641810548041265
-0.02172711018780546 -0.010128403763863177 -0.003898894053227758
-0.021516522787400655 -0.0042928819884280826 -0.003234187202915555
-0.020743786120051524 -0.008687729627517949 -0.0011261830128118724
-0.021667623081081985 -0.006202614398359648 -0.003681909826503407
-0.021093182491700828 -0.01055058450497675 -0.002128718982894169
-0.021402905111090123 -0.008069840941234998 -0.002964406533513128
-0.01931644805846772 -0.010714424947752807 -0.00986173266354371
-0.019092802635330725 -0.0020728787791273427 -0.010155459270104326
-0.017976999282836914 -0.007401815506625635 0.00355335447172491
-0.017976999282836914 -0.0017553669213393394 0.0021793218489497427
-0.017976999282836914 -0.00412067029470037 -0.0018820875839560473
-0.017976999282836914 -0.0025289834632266266 -0.002634480895358558
-0.017976999282836914 -0.003327310307520742 0.0001523787654173043
-0.017976999282836914 -0.006180288605440293 1.4047430809227155e-05
-0.020820041465646803 -0.0016584211294087044 -0.0013221607486819144
-0.020926304356841213 -0.0034601586276417355 -0.0016057008988325956
-0.02048226513450066 -0.004759909391030337 -0.0004208757321157355
-0.020771108047329328 -0.006676764421643418 -0.0011915922254545673
-0.022125253209543286 -0.005618901014339322 -0.005247101998499714
-0.02186374052779968 -0.002412257229809985 -0.004437199447810472
-0.0221644335342603 -0.00047111842773733684 -0.005536147876723354
-0.022181430895889385 -0.008813702281497336 -0.005346413391406474
-0.02235172530599796 -0.002272916232036036 -0.0061309312415919835
-0.02156363661802657 -0.0007989284927765066 -0.0035248984636275845
-0.023461999371647835 -0.010876817157337806 -0.01091130317331818
-0.023247800825794224 -0.002263325767294603 -0.00996444711153386
-0.023456233170073608 -0.008412636832036503 -0.010835242345736537
-0.02342266725106143 -0.003988301655025861 -0.01079070894701645
-0.02251722156548445 -0.007653149235266606 -0.006694123129421016
-0.023149313130283754 -0.01034602497895995 -0.009417004416330877
-0.022985100634692925 -0.004340004172374562 -0.008635894991202138
-0.022633335068488244 -0.0035486474974731085 -0.007130409488579951
-0.022611790139210844 -0.006059822151382912 -0.007073764450198594
-0.022848746307554638 -0.0016614780211524846 -0.008019373342243298
-0.02261650015322902 -0.009775707505574724 -0.007145402510767111
-0.023159725456020522 -0.0070643582078883365 -0.009415647144731249
-0.02255433405391087 -0.0012860177985993836 -0.011796999722719193
-0.020806002038061436 -0.0008851862465324696 -0.011618538666343794
-0.019459422548223183 -0.0052868737677580265 -0.010599909480603987
-0.018892857954951752 -0.00710827973932395 -0.010170392191847812
-0.02026212884986122 -0.008508804869814883 -0.011386013357960485
-0.019996143722322134 -0.006447656798939198 0.0007172756981048937
-0.019827010897119638 -0.003879559879580044 0.001097978781448327
-0.019884816515291618 -0.001842552565364241 0.0009678634295271531
-0.01994403996958847 7.146064148800551e-05 0.0007890046867698613
-0.02007593966157469 -0.010169551415468044 0.0005294606346472808
-0.019136703859474316 -0.006141544543457037 0.0026046454184828413
-0.01854795944210004 -0.010357735522902024 0.0038390972900066113
-0.019366616490755478 -0.008457386571652173 0.0020835795355248488
-0.003368954402015834 0.00044800000614486635 -0.0006714209557101829
-0.013494769797344815 0.0004480000061448663 -0.006338740854541785
-0.011558548781516003 0.00044800000614486635 0.00011415260288694887
-0.009411084158565567 0.00044800000614486635 -0.001572555466374967
-0.012366737432124056 0.00044800000614486635 -0.00821705456873082
-0.009214547124117763 0.00044800000614486635 -0.0047780696542465235
-0.011922785056514585 0.0004480000061448664 0.0018615414049396749
-0.0007554881752943401 0.0004480000061448664 -0.003590570525410947
-0.008072617585671156 0.00044800000614486635 -0.00013423677911599246
-0.012090834618907953 0.00044800000614486635 0.004343321359625854
0.006105254471687103 0.00044800000614486635 -0.0039076899531930885
-0.012186940496381726 0.00044800000614486635 -0.001753872273696346
-0.011672298653859051 0.00044800000614486635 -0.004964206365242816
-0.009821519863138397 0.00044800000614486635 0.0007100160932597018
0.0029109039228728015 0.00044800000614486635 -0.001258431192747171
-0.009940771016736747 0.0004480000061448664 0.0049301739964095
-0.0007507643739664751 0.00044800000614486635 0.00025704630915751895
0.004293693308556468 0.00044800000614486635 -0.0041037712898614786
0.0008454605304277964 0.00044800000614486635 -0.001049652693136709
-0.00010954544701577071 0.00044800000614486635 -0.006209411988447983
-0.0021110467235858268 0.00044800000614486635 -0.006552355018354118
-0.016268998779409693 0.00044800000614486635 -0.006009198193287387
0.001105654073798164 0.00044800000614486635 -0.0031284776894462286
-0.007608668328273333 0.00044800000614486635 0.003295351993781497
-0.005682314936828414 0.0004480000061448663 0.003103533763859392
-0.015382343424094306 0.00044800000614486635 -0.004293269495098359
-0.012088038165475849 0.00044800000614486635 0.007649339557889292
-0.007109254857441677 0.00044800000614486635 0.0016094818482046576
-0.014221070813542895 0.00044800000614486635 -0.0006639719724435739
-0.00838589727805298 0.00044800000614486635 -0.0067785746542203705
0.008767999708652496 -0.00946254677232788 0.004268872155891519
0.008767999708652496 -0.00873719186107811 0.010071638008923649
0.008767999708652496 -0.009801446737506495 0.00887098642221735
0.008767999708652496 -0.008335883839533546 0.012987272975802343
0.008767999708652496 -0.008033267004183324 0.007764516219887762
0.008767999708652496 -0.004899209759195256 0.013399173639661392
0.008767999708652496 -0.006672033157003885 0.012434030714811767
0.008767999708652496 -0.011578076846094876 -0.0012432961130644593
0.008767999708652496 -0.010579021477451865 0.012905734363580973
0.008767999708652496 -0.009264483536373245 0.002095451317466978
0.008767999708652496 -0.007710209988656494 0.015085747340500881
0.008767999708652496 -0.006914494528468369 0.010774269261663527
0.005227875754175641 -0.011896000243723392 -0.0003192809056713087
0.008659726358383548 -0.011896000243723392 0.014457069936294765
0.006899698500989454 -0.011896000243723392 0.0014274022317869754
-0.00937524650704594 -0.01189600024372339 -0.0036281182357353245
0.006962536825117807 -0.011896000243723392 -0.0010133401224986741
0.005145794640457805 -0.011896000243723392 0.002633829802200396
0.005596271085793016 -0.011896000243723392 -0.007555623653444156
-0.0027218398695093605 -0.011896000243723392 -0.0047594067350162075
0.004644728092878025 -0.011896000243723392 0.00962891044498843
-0.007484997003113955 -0.01189600024372339 -0.0043056663067704126
-0.006001665481290555 -0.011896000243723392 0.0009968421422853354
0.005085183145428632 -0.011896000243723392 -0.0038718468800362756
-0.004066108662535607 -0.011896000243723392 -0.0037828804148644043
-0.005355828163870082 -0.011896000243723392 -0.005114696050921994
0.005291884259978771 -0.01189600024372339 0.012339448936369107
3.581456331922146e-05 -0.011896000243723392 -0.00044546031800922524
0.00019797860160324868 -0.011896000243723392 -0.0038755845255704774
-0.008725909261454624 -0.011896000243723392 -0.0016874895333615033
-0.0004115860090291245 -0.011896000243723392 0.007276973648377542
-0.005494164592403636 -0.01189600024372339 -0.006888259790075142
0.007666942034938295 -0.011896000243723394 0.00868695798196935
-0.0010939091778208558 -0.011896000243723394 0.001076662154766692
0.0036704534139538705 -0.01189600024372339 -0.007113222457993048
0.0018528003826513125 -0.011896000243723392 0.0011069830625675889
-0.005734087429548794 -0.011896000243723392 -0.0008341289638891922
-0.009874761940432823 -0.011896000243723392 -0.00026379575815696087
-0.010275132552182108 -0.011896000243723392 -0.006605564901246367
0.0035648665436246118 -0.011896000243723392 -0.0007591393694224837
-0.013973448872916693 -0.011896000243723392 -0.006066995419882935
0.0010747448076869719 -0.011896000243723392 0.00846000007857762
0.0006127957456703156 -0.011896000243723394 0.0022396920439572694
-0.008588994709867551 -0.011896000243723392 -0.005996167499528137
-0.0010100801466893588 -0.011896000243723392 0.004775955691060947
-0.0017781651596983994 -0.011896000243723392 -0.006411601885925127
-0.006940727503470954 -0.011896000243723392 -0.002301846183558896
-0.0032041659614967834 -0.01189600024372339 0.005131106681349048
0.007122821523251146 -0.011896000243723392 0.005583344854559796
0.007177413714882426 -0.011896000243723392 0.012524364038866642
-0.007320749323307572 -0.011896000243723392 -0.007302031084048103
-0.0005274614445792175 -0.011896000243723392 -0.0022073818769633422
-0.0042995501330454055 -0.011896000243723392 -0.002119742092549607
-0.010530395459787368 0.00044800000614486635 0.010723670289597236
0.0036491777113312517 0.00044800000614486635 0.009207459906789521
-0.007587147846719114 0.0004480000061448664 0.01052252266191725
-0.0019185820088816247 0.00044800000614486635 0.0022858479467989692
-0.0029935060932584096 0.00044800000614486635 0.014419836162205574
-0.0028247159301831846 0.00044800000614486635 0.003942911143536293
0.0026861095534054923 0.00044800000614486635 0.0009647134868131684
-0.0062415800239760755 0.00044800000614486635 0.011983789237178022
-0.002160253683615234 0.00044800000614486635 0.007505706143432225
0.0012730932499460683 0.00044800000614486635 0.004791650951868499
-0.005837299015511716 0.00044800000614486635 0.010236687885074074
-0.012388501623004089 0.00044800000614486635 0.009805134196537887
-0.00039825731239943006 0.00044800000614486635 0.012975612348318215
-0.00045294664752959903 0.00044800000614486635 0.011314328527276516
-0.0003158679244960579 0.00044800000614486635 0.006620767838177432
-0.0021891229767902073 0.00044800000614486635 0.009825877383056125
0.005535619154066407 0.00044800000614486635 0.0032400507066720876
-0.0021838542730910964 0.00044800000614486635 0.01195160750241522
0.0026996312586284412 0.00044800000614486635 0.014934528580728605
0.0015564345663009486 0.00044800000614486635 0.002429342250572521
-0.006567316780356921 0.00044800000614486635 0.00544004579999297
0.00443871632685009 0.0004480000061448663 0.0009473472928824417
0.0032619046848756106 0.00044800000614486635 0.011591598488434919
0.005460628769101311 0.00044800000614486635 0.007718865557273423
0.006606300349645579 0.00044800000614486635 -0.0007783502448330008
0.0008632319210337787 0.00044800000614486635 0.01460570797316604
0.0038194443747549055 0.00044800000614486635 0.004704584987260728
-0.005003361930768412 -0.011896000243723394 0.005127067836509331
-0.01471914088500381 -0.011896000243723392 -0.0014019540274027532
-0.007532232738728733 -0.011896000243723392 0.006775069623078291
0.003204245422683812 -0.011896000243723392 0.013526335502350635
-0.008657645171715777 -0.011896000243723392 0.003989418195430254
-0.003960578752163628 -0.011896000243723392 0.008732806510941627
-0.015658591515886104 -0.011896000243723394 -0.004547268612356745
-0.012544733476811808 -0.011896000243723392 -0.0006933954720199965
0.0008898412607839197 -0.011896000243723392 0.010096206578171467
0.002204369360709335 -0.01189600024372339 0.011791275468992854
-0.011295735498675054 -0.011896000243723392 0.0015952377098758905
-0.01027689620230121 -0.011896000243723392 0.0034793811389684844
-0.0026805267173450878 -0.011896000243723392 0.010395401615849325
-0.009547175124928442 -0.01189600024372339 0.006574059800049466
0.000367392778163791 -0.011896000243723392 0.012151831600171397
-0.0008342420423450062 -0.011896000243723392 0.010679138772001402
-0.017463341413646246 -0.011896000243723392 0.0019796032432869443
-0.013887636078505704 -0.011896000243723392 0.005137925312964528
-0.016951016079467016 -0.011896000243723392 -0.006362534327539897
-0.013542469891093914 -0.011896000243723392 0.0014308884986041466
-0.015557342100303235 -0.011896000243723392 0.004376189734220365
-0.013769778782485734 -0.011896000243723392 0.003190770337939696
-0.004590458569202068 -0.011896000243723392 0.007017531324590135
0.005081080200832076 -0.01189600024372339 0.014407641053676024
-0.01740692783735628 0.0004480000061448664 0.0022092785305646346
-0.01746884501021667 0.0004480000061448664 0.0048063426431501025
-0.017976000905036926 -0.00982333032234016 0.002052147314110536
-0.017976000905036926 -0.010180659903680476 -0.00125692723604547
-0.017976000905036926 -0.007117159411092256 0.0017846024170309197
-0.017976000905036926 -0.005006826427491581 0.003141557310818444
-0.017976000905036926 -0.004754756697709292 0.0012047097429612392
-0.017976000905036926 -0.00989771088326315 -0.004234087697715147
-0.017976000905036926 -0.01145076188991954 0.0004201354316419923
-0.008652470513136359 -0.0057637680117683665 -0.009739999659359455
-0.0058024298126860465 -0.010005263709356265 -0.009739999659359455
-8.31572939719073e-05 -0.006107401014406569 -0.009739999659359455
-0.006361536242342296 -0.005827243047763799 -0.009739999659359455
-0.015393801547736709 -0.0007439384621475692 -0.009739999659359455
-0.008561802395445557 -0.003713738476667579 -0.009739999659359453
-0.006899799083819215 -0.0031212794842362507 -0.009739999659359455
-0.005202997813577734 -0.004407120636082891 -0.009739999659359455
-0.0015057246628377488 -0.007936110473765018 -0.009739999659359455
-0.011299983146686402 -0.0021333202600377294 -0.009739999659359455
-0.0019559735654601723 -0.005362196334832429 -0.009739999659359455
-0.013704647581648847 -0.0019225833802936647 -0.009739999659359455
-0.0034335082269695795 -0.006607006653080117 -0.009739999659359455
-0.010577391977374288 -0.0037317094030510575 -0.009739999659359455
-0.003128103420613269 -0.004216907066945719 -0.009739999659359455
-0.003911961673197254 -0.008289407227994636 -0.009739999659359455
-0.01087335336220405 -0.0054682549303369694 -0.009739999659359455
-0.006224451615379198 -0.00819109561524967 -0.009739999659359455
0.0024313882344900763 0.0004480000061448664 0.01695013011509737
-6.840745855875383e-05 0.0004480000061448663 0.0170741881685519
-0.006047080812705921 0.00044800000614486635 0.015971005152985707
-0.00904692813610273 0.0004480000061448663 0.013956565845474467
0.0009433498091408056 -0.0019606086190974313 -0.009739999659359455
-0.012718555370167738 -0.00020117690840855306 -0.009739999659359455
-2.7036371539460483e-05 -0.003872847597554412 -0.009739999659359455
-0.0018639054718985327 -0.002837794164754187 -0.009739999659359455
-0.004485895755126955 -0.0024789855630431338 -0.009739999659359455
-0.006350258920220862 -0.0012877360465942743 -0.009739999659359455
-0.010786615736662458 0.00027023310337524027 -0.009739999659359455
-0.008420079365642135 -0.0015674134072287598 -0.009739999659359455
0.0023112080192536177 0.00044800000614486635 -0.007171802505664586
0.00369242595905966 0.00044800000614486635 -0.00843876297951169
-0.0031821278779869556 -0.011896000243723392 0.014112971071652049
-0.00939057292204137 -0.011896000243723392 0.011733264707355771
-0.011032080853045717 -0.011896000243723392 0.012360161137631515
-0.011751025848781824 -0.011896000243723392 0.010500523057044363
-0.01159765559922146 -0.011896000243723392 0.008270474317390203
0.0011924413085398888 -0.011896000243723394 0.01397785832862828
-0.0054948211078473886 -0.011896000243723392 0.010858604950322221
-0.00710244013748902 -0.011896000243723392 0.01487224235251905
-0.004813314600378998 -0.011896000243723392 0.01301141480948783
-0.007379130818314153 -0.011896000243723392 0.012575646021062722
-0.0074051563767307165 -0.011896000243723392 0.010285602153967972
0.008545669018223645 -0.007112603889839356 0.017547473293785587
0.006964010894055484 -0.010700250353283695 0.01900921279680259
0.006872057669613874 -0.006201876874992712 0.01909419428461101
0.006138778159862926 -0.008161018649483973 0.01977187779268241
0.007282578067547495 -0.008052435558837584 0.01871479884302693
0.005718571616173878 -0.010159909125168351 0.020160224992972334
0.002077957137593341 -0.008925871809727043 0.021462000906467438
0.0005167685947092058 -0.010572934784347746 0.021462000906467438
-0.0016017182398078231 -0.010415412922474485 0.021462000906467438
-0.0020900099458108262 -0.008592918086955736 0.021462000906467438
0.0006416795971986183 -0.006095399608540624 0.021462000906467438
-0.0011051488792764678 -0.006752880034925258 0.021462000906467438
0.000446370016774076 -0.00797440109078662 0.021462000906467438
0.003981402279028338 -0.009443728729094342 0.021462000906467438
0.008766066238576042 -0.0008931688906635389 0.0075708297901925245
0.008765874604432995 -0.00065214014923843 0.005670229239968093
0.008766535426091189 -0.001483291686471568 0.015439275476810317
0.006960871008212961 0.00044800000614486635 0.0150222813294398
0.007409994138646934 0.00044800000614486635 0.00677388909195182
0.005120994979773453 0.00044800000614486635 0.016366228130579263
0.008426693152854737 0.00044800000614486635 -7.477474425313145e-05
0.007803986631163339 0.00044800000614486635 0.012394670858058114
-0.017003945882083538 0.00044800000614486635 -0.007495114736891643
-0.017256393640332997 0.0004480000061448664 -0.0033346365964826985
-0.017976000905036926 -0.003983354186895483 -0.003629060989677211
-0.017976000905036926 -0.004804740764580411 -0.0070358497064790665
-0.017976000905036926 -0.0018124312054403856 -0.0008231190248193705
-0.017976000905036926 -0.0016258040940965277 -0.008424938378233651
-0.017976000905036926 -0.0004156805639448856 -0.006374384064024862
-0.017976000905036926 -0.0011355682194966886 -0.004145138766379398
-0.017976000905036926 -0.005316446746569978 -0.0053240379989964864
-0.017976000905036926 -0.007423507939153166 -0.0061633484114669915
-0.017976000905036926 -0.0032946182704378557 -0.005284223509131884
-0.0030037981431770165 -0.0061582088379025235 0.021462000906467438
-0.004285645831487159 -0.009229787341613813 0.021462000906467438
-0.0017692700135333679 -0.0047223613198848526 0.021462000906467438
-0.017976000905036926 -0.003945571869715244 -0.008971123720556473
-0.017171808884103926 -0.0004364387903079294 -0.009455268046373658
0.0024157450167924185 -0.004563033828777223 0.021462000906467438
0.002874512331111845 -0.007250565953841463 0.021462000906467438
0.0007613879756961573 -0.011896000243723392 0.01814065385714413
-0.0018229126703434417 -0.011896000243723392 0.01784575726271964
0.0021044338264192687 -0.011896000243723392 0.01932550055309752
0.003968721217466426 -0.011896000243723392 0.01816480597079386
-0.00526149685423731 -0.011896000243723392 0.017585222061153906
0.004605992153658178 -0.011733078099610092 0.020210433590502154
0.002174098547978875 -0.010551680235274214 0.021462000906467438
-0.01588700547727405 -0.011896000243723392 0.007659131707228379
-0.01141956723669906 -0.011896000243723392 -0.00854360619915938
-0.0020094406799551134 -0.011896000243723392 -0.008275426166629187
-0.015745975835008526 -0.011896000243723394 -0.0077968651492003474
-0.009189786640997679 -0.011896000243723392 -0.00794836314021533
-0.0068161736097752165 -0.011752190992596364 -0.009112613235043237
-0.016046115628221193 -0.010349924827092186 -0.008885774567064905
-0.013645471636325332 -0.002683891388286497 0.011483331313758144
-0.014226301190189732 -0.00745999542381599 0.010757448038530067
-0.013834346255977573 -0.0008809854046947611 0.011215065498580402
-0.014134195795255234 -0.005391554886096187 0.010859967265599572
-0.012930097357106669 -0.0043875345942537185 0.012403774712888869
-0.012008413576865773 -0.008134677575066513 0.013488465071677117
-0.013377642738898434 -0.011346712357756108 0.011825340770847605
-0.013165155059939425 -0.007187690261969449 0.012105010713846197
-0.011772901615212597 -0.009645404411053455 0.013762368545002488
0.008767313583264645 -0.0036098093646347827 0.004056239947124718
0.008767533826742948 -0.004952703851686016 -0.0020119455714293667
0.008767047719386287 -0.002388878084144507 0.00849885278066786
0.008767844286683523 -0.0033518087369665685 0.0146041320195281
0.008767521861918644 -0.005296547017728936 -0.004684902277288788
0.00876799242260657 -0.005247855933170865 0.003370396424349717
0.008767766261735517 -0.004255039134304873 0.006819726634185749
0.008767827943565691 -0.004151829051892288 0.008573176338373706
0.008767019426653398 -0.0033461840851482048 0.0011391546763966525
0.008767999708652496 -0.006141848146210213 0.004838832900577803
0.008767999708652496 -0.008468119292170636 -0.004508082021375361
0.008767999708652496 -0.005056619763664576 0.011780856521656722
0.008767999708652496 -0.008194581555143582 -0.0028788979042028806
0.008767999708652496 -0.0053665670030743256 0.009958619159817675
0.008767999708652496 -0.007767379668074249 0.001105613960705204
0.008767999708652496 -0.007572722904453788 -0.0007607087477406859
0.008767999708652496 -0.005930792631773567 -0.0004895175903719537
-0.0032044362006266665 -0.002105595962701262 0.020231072166876255
-0.005793660473377514 -0.0021903511699969402 0.019386643923857715
-0.003678219047735775 -0.00413141289252598 0.02129267910187896
-0.004771180430806037 -0.005676474099020765 0.021030591864886383
-0.006906613724537469 -0.0037230070362144494 0.01913868671948452
-0.005623322346704575 -0.004269585076171985 0.020113018857427167
-0.017694972640931957 -0.008456273028917171 0.005221416974439708
-0.017130313155175516 -0.011696781606931475 0.006347441917526524
-0.017913038797478444 -0.005120600794462857 0.004786556783991515
-0.014825600939262823 -0.0010693765892879966 0.009896206559692857
-0.015180188409346332 -0.004705908098191228 0.009364213949968085
-0.014821107298202456 -0.0029853680851955784 0.009903027834577768
