-0.0156030160466 0.0205353497662 -0.0516106349538
-0.0129752543553 0.0215797255526 -0.062969583304
-0.0136879613797 0.0212814251427 -0.0602285972798
-0.0191058158092 0.0176258805325 -0.0707453031407
-0.00822007908273 0.0242994026346 -0.06477989402
-0.0178590626005 0.0185724605937 -0.0659449399562
-0.0153900545991 0.0201481843061 -0.0631892293243
-0.0110612952082 0.0228611738613 -0.059478940921
-0.0177693935797 0.0189915870251 -0.0576695752404
-0.0128164995616 0.0214528747588 -0.0679466978133
-0.0173550231862 0.0194075332349 -0.0537848375829
-0.0132986484049 0.0212826426383 -0.0653792658595
-0.0156524346192 0.019844978261 -0.0665487679788
-0.0160081445301 0.0204015921295 -0.0492436791583
-0.0116857918085 0.0226030649295 -0.0570033011828
-0.0158134004559 0.0200167086808 -0.0605284175348
-0.0254089349892 0.0043574186018 -0.0734101196515
-0.0266020297819 -0.00173171869623 -0.0636572507792
-0.0256056158253 0.00455377713737 -0.0538080499266
-0.0264646057497 -0.0011117042513 -0.0660003216397
-0.0260143300583 0.00216470211864 -0.0550121601571
-0.0251730584562 0.00555854520577 -0.0753788249979
-0.0261942301611 0.000986994973024 -0.0574332703141
-0.0251650899222 0.00666271543809 -0.0594984497256
-0.0256380637586 0.00410270780796 -0.0578229216072
-0.0255101453211 0.00453921691481 -0.0621122815032
-0.0259008643418 0.00208679106324 -0.0657903505026
-0.026118721747 0.0011193273318 -0.0618443818878
-0.0255781603373 0.00357217040094 -0.0708510367929
-0.0253714474953 0.00486078309623 -0.0690379934622
-0.0256934895209 0.00425855613928 -0.0507919101492
-0.0254680910157 0.00452176946879 -0.0659356895377
-0.0260243876445 0.00111907846789 -0.0698377892997
-0.0252640891526 0.00678787672187 -0.0492370640448
-0.0148910693057 -0.0231019187447 -0.0448051076459
-0.0159669462153 -0.0232365328186 -0.059771444987
-0.0189145238878 -0.0207855629465 -0.054061513492
-0.0141553896329 -0.024059352328 -0.0519572258097
-0.0179177699693 -0.0217118668196 -0.0576073186366
-0.0147672905443 -0.0237973848958 -0.0548611071173
-0.0146846241181 -0.0234397160195 -0.0479572496218
-0.0163563922658 -0.022352307524 -0.0497333873383
-0.0171829338304 -0.0219800793748 -0.0533515829624
-0.0168893851923 -0.0228394182268 -0.0641126024494
-0.0148166865228 -0.02425031684 -0.0629492637009
-0.0201140544127 -0.0198136915467 -0.0521613020771
-0.0183954622165 -0.0209996340068 -0.0514632019354
-0.0157054923372 -0.0232879116307 -0.0575274984725
-0.0162107785486 -0.021223346272 -0.0396900143567
-0.0165456961337 -0.0201581606828 -0.0357169324564
-0.0148242556368 -0.019727174394 -0.024641206408
-0.0177225615314 -0.0184394903709 -0.032551644474
-0.0164558030651 -0.0151772274383 -0.00869473368385
-0.0156536280795 -0.0221593409129 -0.0418409925602
-0.0155601030496 -0.0205221471098 -0.0326327986362
-0.0172191259197 -0.0212494145722 -0.0449703710253
-0.018471688513 -0.020490776814 -0.0473110028946
-0.0182899550097 -0.0195253617874 -0.0412357229593
-0.0152652570921 -0.0200231854934 -0.0284684306691
-0.0154117997759 -0.0178481561389 -0.0176159518159
-0.0161181589631 -0.0181224818187 -0.0226805235105
-0.0203029490669 -0.0190882050393 -0.049168113108
-0.0179933025921 -0.0193174757337 -0.0386144816634
-0.0194637719531 -0.0190595988371 -0.0447367818148
-0.0145227409907 -0.022694712268 -0.0389300523078
-0.0169532916074 -0.0181434340996 -0.0270504137939
-0.0161877279926 -0.0164857354119 -0.0143062947423
0.0166478754134 0.0161133962845 -0.0186590952872
0.0179262339448 0.0152280508492 -0.0204021282133
0.0145210556431 0.0172676090409 -0.0133600967928
0.0148674081425 0.0164178415401 -0.00924187046121
0.0164809455902 0.0157237383696 -0.0146285150225
0.0136366507903 0.0177420146977 -0.0111147748292
0.0145106908056 0.0160179107949 -0.00388589281683
0.0171300858953 0.0165961518438 -0.0254637322776
0.0164995846686 0.014834780424 -0.00806021254377
0.0200618525688 0.0151214513654 -0.0336440093624
0.0180464127132 0.0162645356588 -0.0289937054781
0.0178953717198 0.0142393644682 -0.0127576749608
0.0136194811716 0.0172246151477 -0.00710757829115
0.0126682604693 0.0174709391538 -0.00270617204258
0.0163195273823 0.0170173252365 -0.0233033766485
0.0159159067374 0.0158324559043 -0.0117309952547
0.0162030789447 0.019330078804 -0.0469819756269
0.0101999842204 0.0227363917771 -0.0375282479165
0.0152782957839 0.0182466747969 -0.0284056231384
0.0106405111864 0.0208125119596 -0.0204018990052
0.0163598973583 0.0176560769112 -0.0303551878286
0.0146390560711 0.0190717268413 -0.0323208087552
0.0158217895269 0.0184375596304 -0.0345767139991
0.0144780335484 0.017657765187 -0.016041832651
0.0137796331759 0.01896962753 -0.024688950574
0.0131065185991 0.020343825356 -0.0341922415682
0.0190398390892 0.0166038231018 -0.0395622247045
0.0110514140311 0.0199905856891 -0.0147810909243
0.0125653206985 0.019533819504 -0.0214476151579
0.0194750749987 0.016016623845 -0.0366255746417
0.013383999208 0.02147415926 -0.0483386682807
0.0155418957987 0.0194506018148 -0.0432297975393
0.0132154546215 0.0213562950594 -0.0458003624024
0.0117399327819 0.0217601591671 -0.0388629743982
0.0143271552416 0.0183515324709 -0.0222785058112
0.0171698290968 0.0176318562129 -0.0362653725752
0.00960002688598 0.0244042175687 -0.0507145632516
0.0145583016954 0.0197533343534 -0.0389620603759
0.0116614909237 0.0204463772421 -0.024279381383
0.021217725295 0.015470065677 -0.0440781905563
0.0124857609676 0.0205197797501 -0.0313380335836
0.0168077438724 0.0181870871752 -0.0394187743722
0.0110388340441 0.0191776753621 -0.00603123227033
0.0116216598554 0.0193637257632 -0.0124503901276
0.0105688725762 0.0217709758827 -0.0300599211909
0.0189293531073 0.0169649812294 -0.0425656251489
0.0115444949451 0.0228278168707 -0.0487406557421
0.0116346004614 0.0223334320996 -0.0441637478128
0.00975070730241 0.0240386458442 -0.0479702772681
0.0183397891297 0.0163947876865 -0.0320056535413
0.0121965276757 0.0193891796425 -0.0170992704066
0.0170215607295 0.0182772050133 -0.0420064697173
0.0119249975653 0.0213570230771 -0.0359806408888
0.010823688799 0.0218239013836 -0.0325639060398
0.0130919385097 0.0209782571797 -0.040835221771
0.0142936316362 0.0181544129326 -0.0199247177667
0.0126060099993 0.020046381094 -0.0272140968433
0.0240328823115 -0.000704877601458 -0.026771507744
0.025072834956 0.00148690426247 -0.0354566713511
0.0217493125709 -0.00334954769228 -0.00864454994128
0.0220502181908 0.000847506686752 -0.0127092779483
0.0233837535344 -0.000336218497162 -0.0221067045304
0.0244679202383 0.000638003191352 -0.0305902615038
0.0237378301063 -0.00158336207106 -0.0241956072588
0.0216638754404 0.00160954479841 -0.0101692465027
0.0230499069161 0.00127271429827 -0.020325750914
0.0255076548702 0.000704702335017 -0.0383482807699
0.0229166685284 -0.000586741493023 -0.018525473262
0.0221552524825 -0.00348582993013 -0.0116027902867
0.0221550570071 0.00427855257321 -0.0149829091875
0.0225439906646 -0.0020032363769 -0.0151382185223
0.0233311586252 0.00216178310598 -0.022803673776
0.0209946659215 0.00204703597872 -0.00538514910356
0.0211020206916 -0.000249109446169 -0.00518315583367
0.0211598092722 0.00444947431464 -0.0076590771779
0.0210028296829 -0.00287477768527 -0.00330226912053
0.0249823297953 -0.000274361404623 -0.0340168194869
0.0239088074648 0.00173173106792 -0.0269103857324
0.020864671061 0.00648340321518 -0.00635096217737
0.0226271413395 0.00259245448544 -0.0177578592153
0.0213898942671 0.000587460139675 -0.00768743834278
0.0207681671254 0.00459900923221 -0.00481289253591
0.0225041901695 0.000566251684903 -0.0159614303523
0.0213788494506 -0.00216115297129 -0.00640824967081
0.025977061981 0.00115021434571 -0.042031695956
0.0241253719744 0.00279863457435 -0.0289849011108
0.0214626027774 0.00621221870532 -0.0106776394655
0.0247215828681 0.00293638235137 -0.0334768861643
0.0243697459611 -0.00122054071256 -0.0290510335328
0.021887321167 -0.00145510207675 -0.0104955263043
0.0205452854539 0.00235179584147 -0.00217736507406
0.0229310047997 0.00395867115368 -0.0206116779295
0.0217204724558 0.00411609690289 -0.0116816286644
0.0174670905447 0.0125823187054 -0.00253311016735
0.020460698216 0.0116918157449 -0.0213593832488
0.0199683659894 0.0101052815642 -0.0110217999635
0.0192783255724 0.0107883368077 -0.008678732119
0.0204117376895 0.0111518803801 -0.0187344691577
0.0210739549583 0.0147615234464 -0.0388052775868
0.0208307822776 0.0131387088341 -0.0301927174612
0.0198078379977 0.00926220625895 -0.00628989201216
0.0189462642496 0.0131931603767 -0.016226408922
0.0179062442994 0.0127900910916 -0.00670892365114
0.0190487210588 0.00973210838084 -0.00253587951168
0.0181718822562 0.0132786547801 -0.0107511519991
0.0213660968329 0.0149213981635 -0.0416736817583
0.0204355174458 0.0105882405401 -0.0165583707008
0.0185387096493 0.011095113888 -0.00438996977959
0.0190954920006 0.0135550098667 -0.0188623744187
0.0191887833572 0.0144149529944 -0.023158351815
0.0194342618724 0.0146008861415 -0.0257841830088
0.0193714625806 0.0119660375373 -0.0143013163371
0.0134447337611 -0.0165160247556 -0.0904213813688
0.00830093744522 -0.0196074722938 -0.0909061288122
0.0192094987017 -0.0102685993367 -0.0911466009169
0.016702181652 -0.0173236337128 -0.0888538564854
0.0206920381085 -0.0159490456368 -0.0880113826535
0.0213416243591 -0.00959731658233 -0.090667549576
0.0141965090717 -0.0143719521155 -0.0911219231574
0.0164851373199 -0.0132134724212 -0.0908073294394
0.018820758192 -0.012568955987 -0.0902411503883
0.0100431709366 -0.0181043613396 -0.0909498120958
0.0177739292124 -0.0146834998922 -0.0896627072191
0.0211033221685 -0.0131202616838 -0.0891494086116
0.0208631061744 0.00633735706801 -0.0908674133098
0.0232070808233 0.00281660724974 -0.0896681280226
0.0212108849913 0.00197601051073 -0.0910276056416
0.0215549630075 -0.00237334347488 -0.0911891247904
0.0231884857803 -0.000830470195303 -0.0900013326708
0.0223016776966 -0.00742586452418 -0.0902893902601
0.02251944669 -0.00955628602961 -0.0887054667321
0.0228182113819 -0.00518278534617 -0.0906096150597
-9.32781821753e-05 0.00176633050277 -0.0920001310663
0.0116994165856 -0.00492885444581 -0.0917546568064
0.0164726415418 -0.00960186200107 -0.0916255905917
0.000405442582472 0.0155585137802 -0.092202757669
0.00120053370861 0.00805041670354 -0.0920794153179
0.0140317569589 -0.0115222732267 -0.0916263654251
0.0128214236967 -0.00938250094788 -0.0916735425445
0.0119346048813 -0.00160159915285 -0.0918021346385
0.000322858807236 -0.00100972718088 -0.091953032979
0.00400210226122 -0.00727863896223 -0.0918131880362
0.0109744081103 -0.0118553685328 -0.0916586974032
0.00451678556589 -0.0187255494378 -0.0916336656466
0.00391751572591 0.00104760162219 -0.0919402265329
0.0151576701297 -0.00161804451928 -0.0917624872063
0.00655529535488 0.00671118453941 -0.0919936918646
0.00806687545529 -0.0106431477497 -0.0917125839583
0.00634695723401 0.000537403885926 -0.0919028081468
0.0161631953003 -0.00718366051814 -0.0916659689087
-0.0024686225689 0.0163940338201 -0.0922505343478
0.00915005408571 -0.0131667428277 -0.0916611526169
0.00816324981888 0.00458185896296 -0.0919418123417
0.0101587860043 0.000703902768771 -0.0918587322771
0.00274944228426 -0.00201725114861 -0.0919081232814
0.00599499383097 -0.00946262589225 -0.0917557758517
0.00344026108176 -0.0125903982035 -0.091739670853
0.0138253383958 0.000639960692017 -0.0918129448967
0.0152794546079 -0.00417275316609 -0.091722337035
0.00694932701668 -0.00190341450564 -0.0918585068788
0.0177427132585 -0.00515067777208 -0.0916774269619
0.00732309555394 -0.0151909116645 -0.0916528526471
0.00411929758709 0.00767702705991 -0.092038085859
0.0096309082065 -0.0154075843316 -0.0916213630838
0.0105446385545 -0.00745263576051 -0.0917305792955
0.000518588312645 0.0056580402083 -0.0920515465337
0.00964297584419 -0.00351882639104 -0.0918011331656
0.00597552406458 0.00294870355698 -0.0919438397403
0.00262301896191 0.0110306848319 -0.0921071285994
0.0025980537338 -0.00427700026648 -0.0918757761081
0.00879432938251 -0.00611460720142 -0.0917722239219
0.0205735543467 -0.00636760315785 -0.0916244066833
0.00386769683471 -0.0159937457263 -0.0916829416081
0.00683625729165 -0.0178930490248 -0.0916179111429
0.00288738911572 0.00394539563029 -0.09199667228
0.00328806679208 -0.0097082213235 -0.0917851484671
0.00535583168716 -0.00373540603935 -0.091850261369
0.00390472648741 0.0133472414207 -0.0920379079683
0.0150475617954 0.00295578863433 -0.0916428877399
0.0159294975244 0.00800624762675 -0.0913503403366
0.0125542254046 0.00792728298056 -0.0916135465162
0.00578969554853 0.0154232004798 -0.0918005206842
0.00339946389947 0.0160475971137 -0.0919566459018
0.00658821284108 0.0125806108316 -0.0918655476515
0.0100254796713 0.00866747130853 -0.0917751775027
0.0108602379763 0.0142530628252 -0.0914624522572
0.00962230859973 0.0113153953615 -0.0916883931718
0.0188993987791 -0.00206392860048 -0.0915698514667
0.0176200649318 0.0115169626923 -0.0910640790139
0.0199764327214 0.00409087665914 -0.0912131616402
0.0134986521328 0.0114858681851 -0.0913825634737
0.018773011739 0.00735905192541 -0.0911603539183
0.0187114744729 0.00109546104033 -0.0914437513281
0.00739928827453 0.0093450377801 -0.091947091951
0.0122856333291 0.00409998834408 -0.0918044856012
0.0176880563139 0.00416327892539 -0.0913860079656
0.0138354713641 0.00610573345761 -0.0915960070336
0.0260892699088 -0.0092916635684 -0.0726557068685
0.0232791099817 -0.0108880818615 -0.084323179299
0.0225223171319 -0.012122048146 -0.0863598835689
0.0254422335027 -0.0100393350583 -0.0748195624464
0.0257364455738 -0.00720812348746 -0.0772606598157
0.0218226384906 -0.015475438694 -0.0852010120331
0.0239675398797 -0.0054877248799 -0.0883517595996
0.025029024268 -0.00980543616954 -0.0771794565688
0.0238451112052 -0.00729860727651 -0.0864660437083
0.0228734652593 -0.0130347456925 -0.0833729022723
0.0240429422962 -0.00822463398043 -0.084217036383
0.0249290796433 -0.00188147475673 -0.0885665312001
0.0242062285248 -0.0100743702712 -0.0808684971494
0.0253056573599 -0.00435429283813 -0.083309215992
0.0253377273093 -0.00619560590207 -0.0806195353831
0.0266803587125 -0.006303748845 -0.0606048073139
0.026309404679 -0.00650616503443 -0.054643355686
0.0255698693489 -0.00912250741414 -0.0543047074204
0.0263824333514 -0.00878550299552 -0.0679181826021
0.0262990276094 -0.00801759096843 -0.0623334659461
0.0257906112213 -0.00768949612459 -0.0510033928338
0.0250349446442 -0.0115175742806 -0.0566822546867
0.0262357270464 -0.00879091848719 -0.0651710800048
0.0244482154552 -0.0120705697594 -0.0484680893079
0.0264242345187 -0.0067242941569 -0.0579538521886
0.0243209235214 -0.012962721079 -0.0507151346315
0.0264881517068 -0.00532341658228 -0.0518534297435
0.0269522692672 -0.00404554810641 -0.0539657615017
0.0255511082043 -0.0102801970014 -0.0599904597741
0.0162644124828 0.0195903076696 -0.0697903679632
0.0207673181251 0.015852184614 -0.0580468688811
0.0175304020801 0.0185268467989 -0.067669524027
0.0180201550365 0.0181496386519 -0.0636159860636
0.0193289254177 0.0170033716267 -0.0658547865175
0.0217262767976 0.0151460794537 -0.0470384639966
0.0225472046061 0.0143190190594 -0.0586596991106
0.0185430769018 0.0177394227835 -0.0599933279843
0.0208736702107 0.0158242195235 -0.0520661063487
0.0166246076401 0.0193282557726 -0.0653558979364
0.0199126085626 0.0165497212621 -0.0614111823263
0.0219052852214 0.0148186188803 -0.0634816982942
0.0197435891607 0.0167673896669 -0.0545383057237
0.0218116466143 0.0149767339881 -0.0561262587809
0.0152405048698 0.0201585290195 -0.0493289969189
0.0133897025595 0.0218307930981 -0.0656683557893
0.0151106448003 0.0203581341863 -0.0554024154499
0.0107449693622 0.0236265946738 -0.0534557932267
0.0112770305053 0.0233197576916 -0.0591727909589
0.0158724554501 0.0198988209501 -0.0623914892842
0.0153736683705 0.0203532666533 -0.0670209378634
0.0137609151286 0.0215038385875 -0.0628971712832
0.0145132467038 0.0208882830177 -0.060100228238
0.019878265945 0.0166090000611 -0.04676379908
0.0118571147447 0.0227477550807 -0.0511845132762
0.014205042389 0.0212754535534 -0.0693306235756
0.0176358652521 0.0183816264319 -0.0513814530944
0.0139047953524 0.0211970600282 -0.0510403719414
0.0177512772498 0.0183808958562 -0.0565636946788
0.0158900170271 0.0197168349955 -0.0522882122715
0.0121091043926 0.0226294767109 -0.0555116381938
0.0160760288389 0.0196675821923 -0.0577614755881
0.0121601035669 0.0227307333261 -0.0638848373015
0.0182455548952 0.0178770132598 -0.0487694552852
0.0200808183275 0.0164988708719 -0.0493403707511
0.0142026282901 0.0210763392702 -0.0572970699202
-0.000639981673271 -0.0258852805082 -0.0868582868164
0.000363857995191 -0.0222668456519 -0.0912696112948
-0.00379333618703 -0.0257295717778 -0.0867706277117
-0.00580155403953 -0.022571039277 -0.0903708775518
-0.00715084655714 -0.0241371754353 -0.0883821486585
-0.00241577509905 -0.0245378362726 -0.0883143859302
-0.00301355111223 -0.0230001119876 -0.0901001395493
0.000103921183708 -0.0239746686114 -0.0892061258928
-0.00987285033189 -0.022461822349 -0.0901479737285
-0.00991949869901 -0.0242924564599 -0.084960353917
-0.00362762840759 -0.0268891163019 -0.0832581272374
-0.00567757013978 -0.0266123804689 -0.0806827923524
-0.012559335879 -0.0230144996512 -0.0867109018431
-0.0108443144831 -0.0255887493675 -0.0759849562174
-0.00761188872888 -0.0256414702361 -0.0821551652001
-0.0128770597804 -0.0252111338655 -0.0739986341409
-0.00745139007298 -0.0250684079645 -0.085626672404
-0.0119990791101 -0.0238766299109 -0.0830905185733
-0.00969695510806 -0.0255262113111 -0.0786218185946
-0.00121823363198 -0.0275903820894 -0.0842177335122
-0.00997041501041 -0.0247164168404 -0.0825276248178
-0.0119421467174 -0.0247728070407 -0.0782770379095
-0.0134854761462 -0.024560860963 -0.0763579588858
-0.0132304532801 -0.023906024631 -0.0804679758055
-0.0147034821239 -0.023379799608 -0.0783458993387
-0.0154566527593 -0.0232886736912 -0.0757899383886
-0.0188435038286 -0.0181686704248 -0.0856257587793
-0.0165260946547 -0.0215367754123 -0.0795079151862
-0.0138577946216 -0.0218584390938 -0.0885683748075
-0.0168521810862 -0.0193597361336 -0.0880809904576
-0.0202104629407 -0.0167460635866 -0.0866799384545
-0.0165214775336 -0.0208189432946 -0.082776689863
-0.0146431300095 -0.0218723870815 -0.0854098283801
-0.016663706324 -0.020197230351 -0.0850314152408
-0.0220432895325 -0.00244165922765 -0.0913523255877
-0.0203160925536 -0.0127148272692 -0.0897142685055
-0.0148367234536 -0.018185685356 -0.0904326410138
-0.0180382534438 -0.0141611581043 -0.090193488669
-0.0177046148796 -0.0177514666822 -0.0895268224309
-0.00448012139338 -0.0209498984773 -0.0910572193778
-0.0193351528981 -0.00763613462327 -0.0911557594277
-0.00605172726526 -0.0167889443996 -0.0913556378473
-0.0112359297742 -0.0155558992777 -0.0910328849735
-0.0117079172358 -0.0179355405498 -0.0907427647808
-0.00800052447549 -0.0206960778827 -0.0907769966634
-0.0174629468173 -0.0102529971646 -0.091045099597
-0.00340736051875 -0.0185438009038 -0.0914024613663
-0.016511340417 -0.00770430584931 -0.0913947037819
-0.0132596861629 -0.0086271395461 -0.0915815057604
-0.0146759870168 -0.0127064185899 -0.0910312561118
-0.013793384945 -0.0202320249076 -0.0903207410035
-0.00869113060754 -0.0145164598409 -0.0913634079375
-0.0121021355045 -0.01253989827 -0.0912729744823
-0.00819762713583 -0.018403433899 -0.0909997070956
-0.0143513825193 0.0135491244303 -0.00176799995825
-0.020691774636 0.00969000532657 -0.0130152243516
-0.0209577638016 0.010143181041 -0.0172417106108
-0.0194961935361 0.0108373647276 -0.00768082613559
-0.0215037221535 0.00865073868325 -0.0155220625559
-0.0217852401622 0.00911844402307 -0.0199441199908
-0.0194146809201 0.00995133734414 -0.00317979601714
-0.0229053412181 0.0094903210667 -0.0311495663917
-0.0211211918167 0.00836508120575 -0.0110144943278
-0.0226883779849 0.00932704238783 -0.0285875625758
-0.0199087720973 0.0106110536785 -0.0102494754557
-0.021913162006 0.00951519028092 -0.022743944595
-0.00311228173007 0.0201926121872 -0.0910618033774
-0.00309889856347 0.0215302866471 -0.0886079540856
-0.00696954376195 0.0220598226842 -0.0872640356974
0.0041770080632 0.0222054477156 -0.0880680913914
-0.000928559654657 0.0211107407263 -0.0895865771297
-0.00791005464648 0.0185814803917 -0.0915052172525
-0.00577949819593 0.0196949844377 -0.0909754002926
-0.0116119795456 0.0186668354187 -0.0898525072714
-0.0075213203143 0.0205769848849 -0.0891254067053
-0.0172401715794 0.0177529960998 -0.0777849035509
-0.0171648259113 0.0171392989559 -0.0812972847767
-0.0128566690587 0.0197932535128 -0.0828780373109
-0.0108110019959 0.0202265004172 -0.0879940843761
-0.0156797355275 0.0184735431293 -0.0796282673779
-0.0120406027518 0.0198087920308 -0.0857493094437
-0.0152989505706 0.017539009377 -0.0859397144905
-0.0152461084265 0.0182793184425 -0.082222853289
-0.0142060266548 0.0175649377822 -0.0897580711516
-0.00769880065579 0.0231952171827 -0.0801042986663
-0.0136601447388 0.0208091288431 -0.0699973408809
-0.0130097606562 0.0208584892995 -0.073298783238
-0.0158603651528 0.0191079407528 -0.0748190616924
-0.00769030430128 0.0244187020783 -0.0674022861439
-0.0110814815289 0.0217470727662 -0.0753509721573
-0.0088188727811 0.0223576940778 -0.082261806525
-0.0115553114931 0.0219023580249 -0.0709524653628
-0.00957892315883 0.0227292842615 -0.0739295455896
-0.0101861369406 0.0219321313847 -0.078675312056
-0.00878696873757 0.0235380130122 -0.0701470310124
-0.0105060322649 0.0227027068644 -0.0687670560138
-0.0168221254093 0.0188216870694 -0.072159763717
-0.00917506979041 0.0219151353132 -0.0847845443431
-0.0132629508418 0.0205078750111 -0.0754675801241
-0.0134856395208 0.0200908661428 -0.0785073365574
0.0141180431575 -0.0197730629225 -0.0239033149473
0.015627597297 -0.0196985611868 -0.0301126316509
0.0115181597319 -0.0180252801901 -0.00400483893452
0.0138497114116 -0.0155529594982 -0.00203047803726
0.0161394796592 -0.0203600254579 -0.0355873134631
0.0137892450458 -0.016069499072 -0.004301297699
0.015457834167 -0.0152391436854 -0.00749501632345
0.0152219595797 -0.0176502777054 -0.0182968632649
0.0162038210918 -0.0181599061644 -0.0250736110056
0.0133047867448 -0.0173114100582 -0.00828415366822
0.0157179964377 -0.0191415762518 -0.0277737556972
0.0155970824756 -0.0180325594676 -0.0218062034146
0.0111573107203 -0.0190287844958 -0.00735643230087
0.0142253162994 -0.0188806047361 -0.0199920779336
0.0164431437596 -0.0195970433977 -0.0331666716231
0.013391417884 -0.0182958940505 -0.0134914212852
0.0129801848245 -0.0191800202869 -0.0160378909117
0.0153210118868 -0.0159269049056 -0.0102732950442
0.0120389083106 -0.0188800084216 -0.0104663039303
0.0158492985019 -0.0140812514297 -0.00351932913054
0.0154296577533 -0.0166266097512 -0.0141793007562
0.0186838251433 -0.00844505413027 -0.00176799995825
0.0181408194096 -0.0201780844397 -0.0444694090104
0.0208337429159 -0.0155722727629 -0.0368729213533
0.0202486814875 -0.0141278920999 -0.0267158691409
0.0178087965608 -0.0193794270107 -0.038806829652
0.0201430287997 -0.0157983195583 -0.0342080263238
0.0194803146444 -0.0181860544363 -0.0421345458011
0.0174877517024 -0.0178197752406 -0.0295289928529
0.0172118922535 -0.013163364292 -0.00554216030798
0.018051136461 -0.0184783965219 -0.0357735980147
0.0176451448402 -0.0141028002474 -0.0124351285021
0.0179747455793 -0.016699788488 -0.026768959377
0.0189569458101 -0.0164017281574 -0.030671363075
0.0176063476268 -0.0201634622052 -0.0414920230847
0.0176008496038 -0.0156954004513 -0.0198851435592
0.0207513415485 -0.0174997390363 -0.0457328140901
0.0195679839672 -0.01757184347 -0.039645221236
0.0205791912411 -0.0147365948301 -0.0314528980615
0.0177767527748 -0.0145348916238 -0.0152375277936
0.0215644411093 -0.016221926417 -0.0439841695788
0.0224455594704 -0.0157105410387 -0.0463066499919
0.0185687732498 -0.015235511467 -0.0229284065616
0.0174155235145 -0.0153958001286 -0.0174304135409
0.0199906249239 -0.0148536331505 -0.0288171238258
0.0197943578891 -0.0189927789577 -0.0477382987335
0.0185295543295 -0.0174244876059 -0.0332860234874
0.0189531767891 -0.0136988587947 -0.0175982805782
0.0209080174642 -0.0164065375977 -0.0413056672116
0.0191452336586 -0.0205029093723 -0.051500637256
0.0227313074112 -0.0132854593763 -0.037951988451
0.0215828154098 -0.0126491822006 -0.0294145273725
0.0219031330076 -0.00969587770433 -0.0226917524063
0.0195047251454 -0.00822510291064 -0.00444987495459
0.0210063575562 -0.01052669651 -0.0198860870862
0.0205616583995 -0.0081602090418 -0.0104152999143
0.0219421108757 -0.0109831581785 -0.0266619675135
0.0210917332885 -0.0093837396167 -0.0170596128297
0.0204283822735 -0.00739106594247 -0.00740270422647
0.0179498754883 -0.0113201358538 -0.00439655924441
0.0206267347961 -0.00932385841666 -0.0141779722162
0.0184684216638 -0.0125789796471 -0.0110764314749
0.0183486019295 -0.0118572881945 -0.00828017119966
0.0200184556346 -0.0117354216111 -0.0176487336992
0.0209703546608 -0.00507553017995 -0.00382509966114
0.0210474465323 -0.0119906289135 -0.0243822775989
0.0216093194374 -0.0139272760111 -0.0332853982053
-0.0221686267323 -0.00495910377727 -0.0906581732581
-0.0222744814421 -0.0105248007239 -0.0890834654644
-0.0219555667688 -0.00752120398058 -0.0902448394001
-0.0234219986315 -0.00582463015287 -0.0889412015332
-0.0260252270164 -0.000823728089251 -0.0741296143147
-0.0257241609809 -0.000152248718804 -0.0770687586373
-0.0264654552926 -0.00136903008546 -0.0691569050216
-0.0259774566535 -0.00231126025685 -0.077060716849
-0.0258476717603 0.00134531777812 -0.0731215354039
-0.0264342135181 -0.00254976166843 -0.0713952762734
-0.0252935397322 0.00345373674605 -0.0771821483568
-0.0256027594192 -0.00110835262028 -0.0801509124272
-0.025181457994 0.000233774089343 -0.0836415361185
0.0271511881317 0.000648933606973 -0.0549949489629
0.0270281977216 1.33818967474e-05 -0.0590428715402
0.0268615199601 0.000783018342296 -0.0644103200558
0.0269486199955 -0.00210429001651 -0.0609583509639
0.0267984365638 -0.00296623095718 -0.0652874022125
0.0271081571647 -0.0024620227874 -0.0560058112781
0.0265733712851 0.000576376902059 -0.0731183861472
0.0267621553449 0.000517199829718 -0.067359123791
0.0266352351528 -0.000435008100866 -0.0709554213552
0.0268797083013 -0.00431043592243 -0.0624415587084
0.0266685684602 -0.00581079024557 -0.0684474907097
0.0267994769598 -0.00551987121256 -0.0645460964582
0.0265827372472 -0.00281544843996 -0.0718908846942
0.0266868407681 -0.00212362483239 -0.0689163101559
0.0270316283631 -0.0044737820277 -0.057774751746
0.0266579875368 0.00230488089098 -0.0710247085326
0.025456981992 -0.00251673871865 -0.0848355926619
0.0260291261888 -0.000538943279242 -0.0791230419631
0.0258766329089 0.00122228846669 -0.0812815439136
0.0261263203427 0.00176674016689 -0.0786999910693
0.0263937562554 4.17908515873e-05 -0.0752935124372
0.0256649959997 -0.00157601525448 -0.082820283945
0.0259114543932 -0.00406840152635 -0.079430135729
0.0264960443989 0.00245198406242 -0.0748437505487
0.0261282866292 -0.00237267041829 -0.0775281272452
0.0263891759849 -0.00260660235932 -0.0746076552627
0.0262785401369 -0.00534189726375 -0.0750584378894
0.0265247453685 -0.00689216031076 -0.0719328766937
-0.0215642262583 -0.000100688489918 -0.00953675978817
-0.021245636937 -0.00355174598837 -0.00526322642335
-0.0240179491544 -0.000676890425401 -0.0293383955463
-0.0230884305667 -0.00148829395961 -0.0213399533047
-0.0219006492445 -0.000554406335168 -0.0120707699512
-0.0237329659704 -0.00247131178948 -0.0261398005034
-0.0212478078781 0.000798485307654 -0.00738154915203
-0.0224486224535 0.00194435803937 -0.017761624322
-0.0202011996891 0.00693057168162 -0.0017776531668
-0.0219105239208 0.00181105390468 -0.0132937671136
-0.0222503595797 0.000790649003823 -0.0155820735608
-0.0214511750953 -0.00215604534903 -0.00761916224616
-0.0208743432798 -0.000322909631828 -0.00378385115673
-0.0209198373081 0.00262521826767 -0.00557968415443
-0.0206025692667 0.00468632006622 -0.00397857008332
-0.0225551558553 -0.00264772134907 -0.0164160965938
-0.024095290738 -0.00404278463062 -0.0283460557094
-0.0252829127671 -0.00543039967581 -0.0373948482276
-0.0222396338326 -0.00144516142723 -0.014414714558
-0.0217318467572 -0.00383371116159 -0.00910593881204
-0.024746709338 -0.00293888896286 -0.0342099201577
-0.0243443222536 -0.00292231894534 -0.0309250160067
-0.0233832964591 -0.00318120929272 -0.0229355239158
-0.0226857374438 -0.000265587491286 -0.0186349409511
-0.0214432345831 0.00360602840258 -0.0103364622857
-0.0205011641145 0.0073152489782 -0.00441813568234
-0.0210499229233 0.0047440318985 -0.00766732268498
-0.0233635299424 -1.99817216564e-06 -0.0243088831072
-0.0255586002488 -0.00419470030349 -0.0402475875188
-0.025831135699 -0.00378694336041 -0.0427966419139
-0.0233138417748 0.00253940330699 -0.025382495507
-0.0225157740584 0.00508163336194 -0.0202163789276
-0.0255425342732 0.00151860498127 -0.0438284777469
-0.0229666917094 0.00791095464854 -0.0259556568021
-0.0242502521582 0.00605620229472 -0.0357415624272
-0.02530666122 0.00446417413519 -0.0437523448159
-0.0238843499118 0.00652244333954 -0.0329105956588
-0.0248627485034 0.00249917944473 -0.0386446322698
-0.0251952040015 0.000933665983033 -0.040461838928
-0.0208181361327 0.00730026245379 -0.00711851044844
-0.0248005173865 0.00810477442501 -0.0418169774546
-0.0243105588133 -0.000698436887579 -0.0317929926525
-0.0216387166291 0.00492754652403 -0.0125898514633
-0.0236548568277 0.00499982569499 -0.0299349671411
-0.0246318778254 -0.000614059442928 -0.0346055133842
-0.0243762858079 0.00175637022397 -0.033979937944
-0.0244356548406 0.00367762296634 -0.0357595653063
-0.0236327846173 0.00122540834023 -0.0272500678669
-0.0260433607492 -0.00261342478083 -0.0453933066952
-0.0227687135761 0.0025652956351 -0.0207227273767
-0.0246768106253 0.00128367979609 -0.0362457397194
-0.0255354698471 -0.00199420789856 -0.0414453017452
-0.022858044985 0.00556132923896 -0.0234700278486
-0.0262359111585 -0.00504670319081 -0.0454364675683
-0.0249925036745 -0.00173351399842 -0.0369593263676
-0.0249979675593 0.00396895416051 -0.0407765055116
-0.0221057095941 0.00750521700166 -0.0183006622925
-0.0215759759951 0.00728581143318 -0.0136107873358
-0.0221203548183 0.00392901206781 -0.0160618297043
-0.0258620915655 -0.000206236776118 -0.0454296820697
-0.023215198018 0.00489503240044 -0.0260936604501
-0.0239354318439 0.00195869274455 -0.0303314333457
-0.0244054189425 0.0081383425044 -0.0384494535703
-0.026490479569 -0.00804580821839 -0.0603776791376
-0.0264413383364 -0.00694927246811 -0.0518502667168
-0.0268883756865 -0.00630525138335 -0.0621926707936
-0.0266936271987 -0.00358984745078 -0.0569674447052
-0.0252409623868 0.00703126389668 -0.0456523709056
-0.0264198705425 -0.00230684813434 -0.0532671632722
-0.0255439880713 0.00465929423459 -0.0476714055629
-0.0264232146776 -0.000925340604458 -0.0563610798906
-0.0271061340547 -0.00464838875544 -0.0644518725483
-0.0266579548894 -0.00499270398725 -0.0530593705152
-0.0269373907096 -0.0053376791022 -0.0589413074497
-0.0264810337141 -0.00416957702535 -0.0506548056449
-0.0262318128705 -0.00226212848307 -0.0488996603587
-0.0260374692022 0.0014660209386 -0.0524203300439
-0.026903528606 -0.00354835178208 -0.0620417129155
-0.0260989889129 -0.00030334344216 -0.0500201636613
-0.0265230223296 -0.00583748901627 -0.0480122833737
-0.0257364068841 0.00214436898741 -0.0467523475889
-0.0258473667407 0.00210452269937 -0.0492999386653
0.0239585264876 0.0112645473985 -0.0518800030578
0.0220500630944 0.014715007425 -0.0492799528365
0.0241662737864 0.0111369449283 -0.0558731764073
0.0231620043213 0.0133822036661 -0.0609313277462
0.0233065349895 0.0122028940577 -0.0473947063075
0.0253475192619 0.00854722363488 -0.0506897000788
0.0226654801053 0.0136942368615 -0.0514930798674
0.023321469293 0.012322746547 -0.0496120154336
0.023125787471 0.0129709927853 -0.0537505840331
0.0242926747269 0.00424091161805 -0.0316562034222
0.0268712390072 0.000961666332676 -0.0487334452788
0.0248320204928 0.00430667448868 -0.0362641194335
0.0252028103369 0.00677341289709 -0.0427693395254
0.0259273277656 0.00316409679214 -0.0438631380296
0.0243181111899 0.00633557083259 -0.0347561200756
0.0256412975865 0.00618064251458 -0.0456249216326
0.0235916126715 0.00630239480606 -0.0286256208288
0.0257618364258 0.00702430767319 -0.0477972378315
0.0217251620432 0.00668609111383 -0.0135220087117
0.023468546907 0.00500515334704 -0.025807018379
0.0266200945457 0.00361369993652 -0.0502850404533
0.0246310198219 0.00633000374672 -0.0373692083306
0.0222327460929 0.00582002575945 -0.0165796528327
0.0255273266929 0.00336579612171 -0.0407909193712
0.0237831416659 0.00689882529929 -0.0310517733005
0.0232067750825 0.00448053165486 -0.0228915156865
0.0264310482571 0.00291715658533 -0.0477417055993
0.0228244407154 0.0106002935903 -0.0363442548545
0.0210175979229 0.00901926224527 -0.0148503895213
0.0230620871433 0.00754601803177 -0.0260382061105
0.0225675606208 0.00779216474471 -0.0228884018713
0.0229840949634 0.00908126607638 -0.0315657648489
0.0221860230482 0.0129435805149 -0.0404322922349
0.0215759293108 0.00914800821797 -0.0200436832025
0.0217914848139 0.0130526603078 -0.0375679004837
0.0223141665714 0.0133508235617 -0.0431447344598
0.0209407437932 0.0113226051686 -0.0234796720854
0.0210955152782 0.011833728716 -0.0268332759397
0.0208719567193 0.007764513445 -0.00857954981694
0.0202920295643 0.00784415242058 -0.00404434738716
0.0215594178167 0.0126645629959 -0.0340623690357
0.0220122416642 0.00931674804598 -0.0243763012699
0.0247093041131 0.00925924177162 -0.0467276815123
0.0226894055233 0.00887206296675 -0.0282560786559
0.0231988153299 0.0112968332515 -0.0422830748656
0.0218465256025 0.00801187590642 -0.0177355854768
0.0218653543209 0.0109458545906 -0.0297048463241
0.024201020859 0.00851937533879 -0.0394932005193
0.0246479165687 0.00868317638388 -0.0438945519973
0.0235415380664 0.0111462573164 -0.0445465529744
0.0228428290483 0.0100199891218 -0.0341620344647
0.0264818989486 0.00432448682015 -0.059832654373
0.0263441339922 0.00501134680071 -0.0629574695296
0.0264537568645 0.00446576188531 -0.0526268553725
0.0263045943888 0.00520831031556 -0.0652395269754
0.0267470480932 0.0030024437705 -0.0544589884577
0.0261684293845 0.00588941477008 -0.0502898090511
0.0263130714171 0.00516723467845 -0.055395586551
0.026269151441 0.00538604417264 -0.0577234990352
0.0264533247887 0.0044660211123 -0.0680242656852
0.0269481449493 0.00199885604421 -0.0577862784486
0.0245970181886 0.0101285837546 -0.0584151757605
0.0252250935049 0.00886090468994 -0.0529306115416
0.0255244056239 0.00760684156168 -0.0600717617905
0.025640603683 0.00753194888306 -0.0566611447259
0.025495064954 0.00740632337347 -0.0642263113015
0.0243894843359 0.0104946136367 -0.0610205990804
0.0239266582913 0.0113603019919 -0.06608963324
0.0252459112408 0.00782884497758 -0.0676080922674
0.0239822695594 0.0113981898587 -0.0633507400258
0.0261258152075 0.00535500096516 -0.0703988429138
0.025124669897 0.00850287085435 -0.0622233005867
0.0262384850025 0.00489501568862 -0.0729056654863
0.00903361387821 0.0228471234742 -0.0777714316828
0.00567558545373 0.0242983239277 -0.0757424676802
0.00788752734491 0.0226504742106 -0.0824967641411
0.0067084297559 0.0235961626801 -0.0783694791585
0.00875891960661 0.023439681873 -0.073895290878
0.0109765979596 0.0225642299361 -0.074585856931
0.00977925167809 0.0237372432614 -0.0631834923997
0.00838085863871 0.0237870867129 -0.0716666200222
0.00809467551159 0.0241052451447 -0.0678427485162
0.0110765687679 0.0228105207458 -0.0712099828825
0.00733365688703 0.0246652047532 -0.0628394102465
0.00888677986482 0.0242940680576 -0.0591187827512
0.0106508133759 0.02310477398 -0.0687542120069
0.0132975629533 0.0218595819614 -0.0734759408755
0.0092053289374 0.024384540406 -0.0553479522038
0.0104838136694 0.0233165020885 -0.066052159004
0.00477286131134 0.0251601309019 -0.0701712229457
0.00475115825091 0.0252003310077 -0.0636582450665
0.00527101380486 0.0251724891412 -0.0533095002414
0.00197561614993 0.0257075057078 -0.055127360687
0.00366447791359 0.0254126968406 -0.0578637145278
0.0015410329749 0.0257936930103 -0.0525861550431
0.00496907250445 0.0251497243348 -0.0662471253221
0.00615508066848 0.0249915994604 -0.0594681909172
0.00579684077912 0.0250691298237 -0.0562199337711
3.94466211854e-05 0.0255478362507 -0.0587192460412
0.000515059060275 0.0253654782012 -0.064116070639
0.00142923254091 0.0254633982013 -0.0618769123163
-0.000677400098719 0.0254449418425 -0.0612094563575
-0.0036387197407 0.0253995615359 -0.0608178545287
5.47995077466e-05 0.0252459322028 -0.0672191394211
0.00255870984937 0.0252516436767 -0.0684688186581
0.00038975738961 0.0236118845969 -0.0802540016952
0.00467838872538 0.0228503276997 -0.0849883598598
-0.00265493062122 0.0226466792198 -0.0854393228603
0.00249859252096 0.0240702796658 -0.0778550994063
-0.00341611972424 0.0233180829766 -0.0815556568769
-0.0013215574649 0.0238310006333 -0.0788459436013
0.00347448118193 0.0231860605324 -0.0829672198232
0.00202181657137 0.0224908059521 -0.0867734686192
0.0032447356785 0.024461816325 -0.075704674511
0.000396135356102 0.023060712467 -0.0833827539787
0.00556613872983 0.0235827925095 -0.080916631149
-0.00527651882034 0.0251533542821 -0.0663796181973
0.000707306263967 0.0243773581437 -0.0757835895854
-6.6621528756e-05 0.0247199793826 -0.0726836940533
-0.00275196584467 0.024294769213 -0.0744773214029
-0.004295408714 0.0235342738607 -0.079521064013
-0.00670716037003 0.0240439896006 -0.0741994601185
-0.00128686304872 0.0249877443873 -0.0699144438135
-0.00607417453848 0.0229488097212 -0.0830713413134
0.000906516490499 0.0250966703206 -0.0703029245983
-0.00359616275532 0.025014250222 -0.0684076485335
-0.00620794042751 0.0244699301688 -0.0711688273337
0.00384597126842 0.0250172903275 -0.0725757649116
-0.00548597625301 0.0237286746608 -0.0773389563776
-0.00440327510058 0.0243893794599 -0.0728116044077
-0.00869760593919 0.0243164018557 -0.05544817693
-0.0123947911512 0.0223189550241 -0.0539809043219
-0.0121815631402 0.0224935459262 -0.0516842212408
-0.0138923914708 0.0216071302711 -0.049486510086
-0.0117467654967 0.022800951377 -0.0489498690315
-0.014169995234 0.021537783944 -0.046143411721
-0.00966544038374 0.0237279753621 -0.0576919993123
-0.00697063985208 0.0248615475594 -0.0533722303751
-0.0066190679909 0.02481565863 -0.049245762113
-0.00478495550506 0.025184213091 -0.0544094304201
-0.00226268016714 0.0255576798474 -0.0556551503664
-0.00562975436176 0.0251936477767 -0.05989812776
-0.00545537487163 0.0252816683286 -0.0627150551271
-0.000935129617268 0.0256225964837 -0.0505309473292
-0.00823365594818 0.024644698913 -0.0514384985897
-0.00452082346077 0.0251567080922 -0.0516153025826
-0.0040814288414 0.0251543615159 -0.0488729523715
-0.00154779082431 0.0255931441048 -0.0529179902518
-0.0074111749891 0.0248967236965 -0.057562752394
-0.00269885231009 0.0235518132003 -0.0278532668053
-0.00827136583872 0.024018633224 -0.0410613793934
-0.00367808058128 0.0236404815566 -0.0302518539953
-0.00668638213117 0.0224327047946 -0.020314135851
-0.00819311907377 0.0238244533461 -0.0386821758099
-0.00623911430021 0.0220191200906 -0.0148563999366
-0.00444320176716 0.0247397937761 -0.0441692792554
-0.0055565255809 0.0228991611001 -0.0241966674744
-0.00833605370939 0.0245107039277 -0.0469047125318
-0.00321983283832 0.0244873941149 -0.0395167808996
-0.00498894515316 0.0237476276359 -0.0333277091811
-0.00297856294824 0.0250902820785 -0.0462302958668
-0.00551946324909 0.0218590060922 -0.011983466305
-0.000755207093488 0.0255046785137 -0.0479833499402
-0.00652853559613 0.0238448095704 -0.0366051627598
-0.000718412551924 0.0249795766346 -0.0417926037589
-0.00438506622435 0.022770497269 -0.0210631012864
-0.00225238282251 0.0240636387176 -0.0332166837047
-0.00487411233517 0.0223493410405 -0.0168190175214
-0.000162338973883 0.0253300665498 -0.0451172273027
-0.00712099743097 0.0229656125353 -0.0271494190425
-0.00630312303948 0.0214923309925 -0.0087861187931
-0.00305485549573 0.0247290168166 -0.0421124292884
-0.00454476773396 0.0231927638864 -0.0262224143381
-0.00739877869355 0.0244150285676 -0.0444825448798
-0.00336961723333 0.0230944304777 -0.0234383427783
-0.00323117144623 0.0241395303302 -0.0354652717491
-0.00571744019388 0.023292221358 -0.0290161822803
-0.00143364946417 0.0245535924504 -0.0378066458699
-0.0203711029724 0.00891996814481 -0.0894144297795
-0.0202062081251 0.0047653526082 -0.0911411878774
-0.0189423918934 0.0126287166378 -0.0892187188615
-0.0210132429376 0.0122665342513 -0.0871250057361
-0.0197884672102 0.0138068681045 -0.085355588854
-0.0174528413054 0.0156193931835 -0.0866756300693
-0.0167421348412 0.0156878111328 -0.0890934391953
-0.018405900525 0.0153798906 -0.0840499488638
-0.0190561421844 0.0171992452315 -0.0739840734222
-0.0189710747342 0.0157151604967 -0.0805010330111
-0.0243613290793 0.00479360530178 -0.0820611582204
-0.0235958469911 0.00724085711287 -0.0826196477718
-0.0229445754043 0.00822807058761 -0.0847877448953
-0.0236813357873 0.00579650877052 -0.0843679274113
-0.0239098590546 0.00383275116644 -0.0861079104883
-0.0247548218287 0.000676253243665 -0.0861951747816
-0.02208471913 0.009927681534 -0.0870375936301
-0.0232036029835 0.0060521272824 -0.0866827634716
-0.0247520090639 0.00554061018627 -0.078689906011
-0.0249930455866 0.00378776961586 -0.0800327861748
-0.0249199320151 0.00249820918738 -0.0824414498128
-0.0219238540011 0.00672107125274 -0.0888744090565
-0.022689891065 0.00199552981645 -0.0897718838268
-0.0243411246152 -5.70365872343e-05 -0.088374334763
-0.0239985802866 0.00939650483313 -0.0649986667902
-0.023879207427 0.0105134419084 -0.0525505398783
-0.0243532544411 0.00906215817502 -0.0572399968171
-0.0250491615645 0.00689394581363 -0.0646895686002
-0.0245593759561 0.00764407026614 -0.0710796186974
-0.0237859200486 0.0101772323013 -0.0609507064686
-0.0246570927377 0.00896629563767 -0.0477362148594
-0.0250038105457 0.00717947919213 -0.0620415211855
-0.0231136334623 0.0121274912176 -0.055918434028
-0.0239482627508 0.0101734410031 -0.0551616591668
-0.0226627390667 0.0135688225223 -0.0505444819488
-0.0249547633881 0.00784441764093 -0.0538379952716
-0.024962736479 0.00691352741329 -0.0675081043296
-0.0241626718901 0.00999101355734 -0.0501760861559
-0.0206647699422 0.0161479638741 -0.0603264843924
-0.0186317833302 0.0181784039059 -0.0554527575506
-0.0204496335086 0.0163622941136 -0.0555721745031
-0.0190509265068 0.0177591917592 -0.0517665540453
-0.0209535053313 0.01585849948 -0.0524051876882
-0.0191100762908 0.0177021697034 -0.0681265923303
-0.0198376726682 0.0169739709631 -0.0579161179705
-0.0181685074686 0.0186404036155 -0.0488468676734
-0.018980467125 0.0178311626229 -0.0642313267709
-0.0193530688878 0.0171821871578 -0.046093666774
-0.0191826388435 0.0148104022786 -0.0279219811277
-0.0177446614017 0.0183032790361 -0.0412484926182
-0.0185397729974 0.0131713381158 -0.011187414547
-0.0193131298372 0.0142682190192 -0.0251158479662
-0.0200314100432 0.0151961636307 -0.0374084214378
-0.0182353520018 0.0142952397891 -0.0167344596035
-0.0183964858001 0.0161089724601 -0.0308755912927
-0.017825616581 0.0188978387355 -0.046107882451
-0.0185919036365 0.0135997265556 -0.0146393655899
-0.0202355685733 0.0164754002327 -0.0481021896557
-0.0194331076143 0.013504191786 -0.0206532083409
-0.0179992526693 0.0149462818322 -0.0194723649443
-0.017710081503 0.0186680743533 -0.043559844799
-0.0193965000392 0.0154395930376 -0.0340840804477
-0.0175635607551 0.0167017857243 -0.028453322823
-0.0209054951194 0.0139821812536 -0.0357539792678
-0.0213312424424 0.0146148199804 -0.0436259302809
-0.0176318032959 0.0157275074945 -0.0220884790825
-0.0200985383108 0.0157011075182 -0.0415224487819
-0.0200318620865 0.0141694013748 -0.0301322383489
-0.0187324009163 0.0168866511845 -0.039061328566
-0.0202427563406 0.0118563902594 -0.0189898582584
-0.0215828890659 0.013852615837 -0.0410230408909
-0.0218641438108 0.0104496217127 -0.0265592326562
-0.0234384766647 0.0115812205623 -0.0463824032927
-0.0218138264592 0.0128468038876 -0.0380785375753
-0.0216225397448 0.0123579935966 -0.0339153725119
-0.0220647281903 0.0144168394092 -0.0481782998249
-0.0236269411878 0.0102920514025 -0.0416404024383
-0.0217150025521 0.0116351022843 -0.0311373567815
-0.022855448536 0.0102312541199 -0.0343920391274
-0.0229336379812 0.0107736088798 -0.0378045568187
-0.0204207414295 0.0122627785549 -0.0226216463467
-0.0206260621791 0.0124516439584 -0.0254131266518
-0.024429198231 0.00930356322536 -0.0439252510869
-0.0231855363891 0.0115671511883 -0.0440352513352
-0.0198893625705 0.0118751361701 -0.0159023462867
-0.0206085976526 0.0129546854509 -0.0277682564801
-0.02250143001 0.0112563451775 -0.0750176146773
-0.022034688917 0.0124837696492 -0.0723265894007
-0.0234646075626 0.00874155259119 -0.0804128887147
-0.0223106242845 0.013593464218 -0.0579404295637
-0.0247374045399 0.00702566969372 -0.0735505420523
-0.0225886813239 0.01200103905 -0.0670405079591
-0.0236419682706 0.00990589371618 -0.0672393301731
-0.0237029273161 0.00907658344313 -0.0734146072953
-0.0223467593245 0.0104434737358 -0.0847429308793
-0.0220483300242 0.0128018832664 -0.0693237023002
-0.0226774972957 0.0123047728052 -0.0628752626688
-0.0223014114157 0.0140942704477 -0.0537385866695
-0.0238384484786 0.00853229870432 -0.0758316277552
-0.0233731116452 0.0100704624731 -0.070411494007
-0.0229497968963 0.0101375177875 -0.0770779767768
-0.0224139270429 0.0106684903062 -0.0816337117771
-0.0211636659256 0.0142355915819 -0.0712552581768
-0.0206311093547 0.0143454635464 -0.079006050581
-0.0210589042435 0.0130581105631 -0.0834403873755
-0.0205088753018 0.0160198771683 -0.066123021824
-0.0206351484312 0.015497403906 -0.0686986418756
-0.0215863990449 0.01243260755 -0.0803567164704
-0.0212038543027 0.0138308663679 -0.0741948173066
-0.0203534602222 0.0151188518526 -0.0766804617058
-0.0220331553519 0.0138451795534 -0.0604768858735
-0.0215823129264 0.0139834395101 -0.0666361566866
-0.0212538832129 0.0149062460077 -0.063814377665
-0.0195576311516 -0.0134523180619 -0.0196976371315
-0.0219347660586 -0.0111857141766 -0.0270431981772
-0.0208247747108 -0.0134112577525 -0.0266448528734
-0.0161249865959 -0.0142074445242 -0.00255036351352
-0.0202534015414 -0.00565287098826 -0.00331229126163
-0.0194197843053 -0.0102924339021 -0.0107226985399
-0.0179643897987 -0.0134502510093 -0.0108230972833
-0.0188631525904 -0.0121316343946 -0.012401266683
-0.0182121004737 -0.0117456340268 -0.00777441534504
-0.0186868879084 -0.00959656453729 -0.00483537758927
-0.0196546578039 -0.0124069760351 -0.0175225564389
-0.0175797334206 -0.0109774530788 -0.00225889144713
-0.0187857262475 -0.013631805921 -0.015866845437
-0.0227953682461 -0.011509779167 -0.0326756888007
-0.0192954586274 -0.0077248573892 -0.00336150693364
-0.0230280672236 -0.0121536822118 -0.0356435585712
-0.020469818415 -0.00790601464071 -0.0103694136494
-0.020875621135 -0.00941795312217 -0.0165555699781
-0.0211162114483 -0.0113503361303 -0.0229141062324
-0.0203515595527 -0.00706000328781 -0.00751364067168
-0.0209131577819 -0.0108069715898 -0.0203724061927
-0.0205089499162 -0.00873890025126 -0.0127506114563
-0.02162993652 -0.017875951292 -0.0525822766442
-0.0235569025454 -0.0134191547701 -0.0433716529242
-0.0217037451935 -0.0174811316937 -0.0502770661207
-0.0233916681709 -0.0141041764276 -0.0467999005829
-0.0231252172151 -0.0149864886353 -0.0503912759456
-0.0242245253803 -0.0133384399703 -0.0529294212314
-0.0203671751999 -0.0155884410701 -0.0335472360658
-0.0167832737718 -0.0142810483866 -0.00644126254675
-0.0193776068406 -0.0151119692023 -0.0255415041403
-0.0177880178645 -0.0161994336723 -0.0210466701026
-0.020485175035 -0.0184265169565 -0.0470585862379
-0.0196305136239 -0.0175040774674 -0.0378375670141
-0.0180429505902 -0.016421937007 -0.0235594757117
-0.0196365007706 -0.0142368593866 -0.023122286572
-0.021959731212 -0.0135703304415 -0.03385798086
-0.0211603664354 -0.0136658735945 -0.0295600589945
-0.0187279207538 -0.0170459498173 -0.0304292272814
-0.0181413955442 -0.0151684216035 -0.0184825849774
-0.0209743004542 -0.015986777206 -0.0389375585584
-0.022127464634 -0.0154151738559 -0.0431793642826
-0.0219519156305 -0.0143063364812 -0.0371346314647
-0.0179573284006 -0.0142869797605 -0.013414092365
-0.0204746870919 -0.0175428457971 -0.0430069741957
