0.023057885161664737 0.00024547020017700477 -0.03983069396275754
0.027943850204292107 0.004194609815689216 -0.03994291760398104
0.03484292948331896 0.002526710532302338 -0.040293882678465044
0.019682788604559777 0.000750899550134451 -0.03966725014249183
0.03749601075916087 -0.0012711853595646899 -0.04051272762195743
0.017187460038530177 0.005601769908790279 -0.039427435563318056
0.03425076090411179 -0.0023218320860890745 -0.04039640554890467
0.02064484395663229 0.004392322106282452 -0.03961324507185785
0.03007468644459167 0.0019000774908412457 -0.04009860064666118
0.03787881524194664 0.00461488283676299 -0.04037332842271777
0.027530550404011863 -0.002742592428944218 -0.040108893736286816
0.034095760231254234 -0.009891917871098159 -0.040590680250138844
0.03190522224074052 0.004281023955651562 -0.03713537334650163
0.02515627577830073 0.0033739599720759702 -0.036802758879028896
0.01979793760518691 0.007337227262581482 -0.036817890111706796
0.023378879247430786 -0.006664701495565984 -0.0367950014770031
0.021086352879969225 -0.00149349697658004 -0.0367950014770031
0.02478539804455061 0.00017890455119819876 -0.0367950014770031
0.012521540086405184 -0.007120224930104668 -0.0367950014770031
0.012482999823987484 -0.015151882432889348 -0.03705249836405969
0.038621724954362585 -0.0021624950671292782 -0.03776356136763666
0.038529075831344343 -0.009026481548843168 -0.03791557961927111
0.039480393393167175 -0.01217717033289546 -0.03809701493381784
0.037104452343296124 -0.0061375765179044065 -0.037687164196995096
0.032078413297858106 -0.011601840737898661 -0.03747071498873114
0.03554423601892543 -0.011916463715446737 -0.0377607165818501
0.034383978785124086 -0.008550669225075008 -0.03750237608999116
0.026571491376639143 -0.014913126874446181 -0.03719841943553217
0.03342972213246849 -0.015206262012454614 -0.03775598590253506
0.03897677406830467 -0.015272655645727107 -0.038198512565675795
0.03525156561556761 0.000299419824351335 -0.0373537678787262
0.03172805284394328 -0.0005105443828898116 -0.037143498799314806
0.03302044750989947 -0.004125498519366432 -0.0372722980246998
0.02802233457816222 -0.0011345880242695698 -0.03692825876023307
0.027181474499689426 -0.01027899813019794 -0.03704351621513312
0.02322615485402297 -0.012114303171608092 -0.036848343304298155
0.0261928362931236 -0.0049698853223431455 -0.0368914561430855
0.029124395631903128 -0.006731385649066558 -0.03709200911301401
0.04130003510870138 -0.014548652879138639 -0.040751364042494756
0.03900967657925636 -0.0070267868083305745 -0.04072788339831362
0.03920435630262232 -0.010317877755131051 -0.04082058399741979
0.04990594024941626 0.0015796767390711343 -0.03934812191279734
0.04680329065254126 0.0036406303590689193 -0.03620100021362305
0.04429184087430131 -0.001153846452811413 -0.037268111726218245
0.044960227925923926 -0.014505875223402267 -0.03638919975572567
0.05006269290333519 -0.007214236135793888 -0.036360533061897446
0.04275299981236457 0.0017832815751611377 -0.03856099844583874
0.04336185085414379 -0.010677728625197174 -0.0376750132135012
0.04397775296722371 -0.00617408735789333 -0.03732335088242101
0.045422405130437334 -0.007558903480465938 -0.04081819972284227
0.044708024608551736 -0.012039271418661377 -0.04059408651413053
0.04370873511733564 -0.0036879875186441036 -0.04054521035900913
0.04457662260279878 -0.00045591908765280813 -0.040718846660124694
0.04466570444569623 0.004404126837606043 -0.04039457245279753
0.04681302936692379 0.0015193339480061119 -0.040399479225098234
0.04861216013365703 -0.0017135411514500808 -0.04026116193910789
0.04908399629096991 -0.00533593370163864 -0.039750389501327414
0.048734147934567866 -0.008973261315450641 -0.03938647511348997
0.04582155748397479 -0.014884838915480876 -0.03997260522148504
0.04778422989479467 -0.012319585411392381 -0.03930759943049092
0.05103426881601966 0.004437288043991493 -0.038442978222539476
0.05155846329311877 -0.004133590054892623 -0.03720999146007219
-0.01948185287686814 0.028193819710069554 -0.003767045099257289
-0.0206061297973066 0.02664048579484436 -0.02166231101620911
-0.019718604365994607 0.02786568378717639 -0.007626542178089999
-0.02653418886696378 0.007495999801903963 -0.021833151838173526
-0.0035449999850243334 0.03863065823265598 -0.005032316289055257
-0.003544999985024333 0.029816793058038443 -0.004146877605844057
-0.003544999985024333 0.03292176594613336 -0.029615142949783377
-0.0035449999850243326 0.021817819537353428 -0.01148994648382144
-0.003544999985024333 0.032995625918595346 -0.0030837673144198698
-0.003544999985024333 0.030598813708547536 -0.012609479728890836
-0.0035449999850243334 0.03618161194162074 -0.009236090751270016
-0.003544999985024333 0.034695760799585154 -0.0222823109184233
-0.003544999985024333 0.025488453592546707 -0.02211382677185171
-0.0035449999850243326 0.03642153203701153 -0.02948234716243637
-0.003544999985024333 0.024715846084158458 -0.010258336308254469
-0.003544999985024333 0.037696104214872905 -0.020449354150968692
-0.003544999985024333 0.03401698665270868 -0.01842063958104441
-0.003544999985024333 0.02810276338966908 -0.016103756999270347
-0.02126103552935892 0.02099089079895234 0.0011879999656230211
-0.020954699632261146 0.01763609258844185 0.0011879999656230211
-0.01811962642657465 0.025649172940027186 0.0011879999656230211
-0.012521477524665195 0.024051968666534897 -0.03673127593318669
-0.022340125396242992 0.010355541817687872 -0.03674486996379304
-0.006877126517758091 0.0320507667224479 -0.036731362938387094
-0.003544999985024333 0.021426478586856822 -0.02022352595832507
-0.003544999985024333 0.02876327039165899 -0.031181054270884828
-0.003544999985024333 0.024647416037778272 -0.027187432303775155
-0.003544999985024333 0.0319898009240718 -0.03269631954481644
-0.022819971340879583 0.014919089076047425 -0.03679399937391281
-0.01660683751532716 0.025192896319482863 -0.03679399937391281
-0.003544999985024333 0.02623229439127898 -0.0026970871350743245
-0.003544999985024333 0.016439489149068502 -0.008831793719432119
-0.013594875800684953 0.011459876235192953 -0.002411061045056706
-0.00845379532905565 0.014827732667155064 -0.0037916648239761136
-0.011535023561993192 0.014361729757731895 -0.002190332546674758
-0.012531486834472281 0.008576504657434272 -0.004481207589098548
-0.02433924011527108 0.007495999801903962 -0.03529975499234655
-0.015435700449014288 0.016207742139486343 -0.0364780702018816
-0.008719110649545763 0.022508653816838 -0.03626652233355765
-0.018958222844659985 0.009647790772124933 -0.03626061252190514
-0.005571838484429527 0.0114605707281934 -0.009468861649844278
-0.00409522274573417 0.017952639080307344 -0.005297533459771048
-0.009598247073784635 0.007756383745904174 -0.007969323767481041
-0.005338770994428497 0.015317506809552647 -0.006117515732881312
-0.008832288338033973 0.01109065779160112 -0.0060346968844526006
-0.0071356158196926815 0.036964732442577294 -0.03360329024328002
-0.003544999985024333 0.017548995907836817 -0.019173445148131428
-0.0035449999850243326 0.02622314571106165 -0.033942998409278294
-0.026214067582103255 0.010513874368050086 -0.03679399937391281
-0.006384286943921689 0.009090270364429658 -0.013048092397709099
-0.019681540556151737 0.007495999801903963 -0.019610693009136346
-0.01989525960118621 0.007495999801903963 -0.027181474891531894
-0.013692957275147704 0.01376209444549202 -0.03517579865856127
-0.016180890168147465 0.012082027861788271 -0.035977592495590904
-0.014581530345851017 0.009688162750152501 -0.03351528522115681
-0.011671150980234659 0.009490886697764715 -0.03069557605460278
-0.008689101925362989 0.011323600634439608 -0.028669970293723705
-0.010030473044364564 0.007961750646106398 -0.027224223430773502
-0.007508093148695801 0.014845442302786702 -0.030464794567264995
-0.009006226200226628 0.017231554958410885 -0.03377181750347316
-0.004390541071775126 0.019719383961111746 -0.03093465169201244
-0.004777928269060817 0.021847205604457007 -0.03284142334946856
-0.01066702283621297 0.013852655775704598 -0.03301896068519804
-0.012263621482162354 0.02685664464987457 0.0011879999656230211
-0.014652390038204033 0.024765275335067012 0.0011879999656230211
-0.010077001266422903 0.03023414770837913 0.001187999965623021
-0.007077831122357798 0.02585163220745197 -0.00046871511108915673
-0.007234748104306262 0.01870351127881927 -0.0027757183993918763
-0.010479126254856285 0.023736322500453468 0.00048300795250727534
-0.01604729040406667 0.01430385898884602 5.0576236853268076e-05
-0.004850745416183127 0.028504457096479245 -0.0006691580704905101
-0.004726535924890634 0.023396521405333142 -0.0024328469367822718
-0.012985154208770722 0.01805727419139452 -0.0001897095480563201
-0.01788216778411385 0.011370985030752338 -3.3436045522569793e-05
-0.00798572923662014 0.022120983645270542 -0.0012703418718848863
-0.028323147034937567 0.0076226844693500825 -0.0108262487554457
-0.028471000492572784 0.010185740762817724 -0.0006415284308331885
-0.028471000492572784 0.008108310872877961 -0.026337840321485246
-0.028471000492572784 0.00974690832542393 -0.006051356309778839
-0.02818257227172878 0.010297779215916736 -0.029543796492701516
-0.028321355119459612 0.010868721350992646 -0.012400022433996231
-0.028121308308680593 0.011229297568664852 -0.023387186298345054
-0.016144922146348745 0.031007186873149933 -0.0322126624352875
-0.02366209965112388 0.021357244681377306 -0.033726813273849826
-0.003923923102913127 0.03853948806820871 -0.03174866988668548
-0.003975731199213996 0.038797319985316735 -0.026201100940293615
-0.006759918701029916 0.03780568546900977 -0.007099656997504806
-0.00717309677949476 0.03762820863245836 -0.004003965232539517
-0.0053483219329392585 0.038279342246577974 0.0007107175840551879
-0.0069700759929718385 0.03772109403830095 -0.010598744479193907
-0.010428475148741782 0.035017372390561165 -0.034450967168103884
-0.012106046814436585 0.03421501400724635 -0.03180999603628579
-0.012658322848321234 0.03336616750492086 -0.03607828190477004
-0.012839113384029547 0.03403666105011921 -0.019776021950349658
-0.009928437049285074 0.03587289155020337 -0.029915676190424303
-0.013943319668691969 0.033133810640653995 -0.025754062868715632
-0.011332541907819408 0.034982961455647804 -0.0252213384697052
-0.013675801874264874 0.03325087942540264 -0.02914858673210824
-0.009554625139391325 0.03624677748207894 -0.01949537235642603
-0.01113940912701556 0.035297420152855294 -0.015612730497911766
-0.009901731364908245 0.03613435104680766 -0.005066378168842995
-0.010654010147125262 0.035623055067188866 -0.011845843352497078
-0.008523489389984491 0.03701044686602881 -0.0012679011595756746
-0.007787689920230002 0.0372160482415605 -0.021755844668930827
-0.0066930381857937885 0.03769457177003657 -0.029756579295903092
-0.008037536880167668 0.03716090736343075 -0.013975358605165892
-0.005729465135864598 0.012570227759402164 -0.023869946083424486
-0.006566993557142247 0.012817796170123415 -0.026763179537128548
-0.005100303755227617 0.015896723906229523 -0.02778845286570384
-0.008243595217344583 0.008534889375361327 -0.024125160848399683
-0.005818616589459182 0.009714606057213504 -0.015946994936027227
-0.005937269223163813 0.010198093158886317 -0.019466146900463152
-0.00426924477343871 0.012411284246920049 -0.013139162980833658
-0.004533266592496128 0.012869637175848747 -0.018012981822891766
-0.019005955338245194 0.008460356944557346 -0.0013848498351156258
-0.015394249759179916 0.00887989845746051 -0.0026282002502825263
-0.021217554788972158 0.007495999801903963 -0.01508188811033328
-0.02477344446838721 0.007496144904535349 -0.002011405717058868
-0.012629022334256737 0.007498089755302561 -0.00888136003252705
-0.01773074488013868 0.0074973805175306794 -0.004581340578210506
-0.014510722465991338 0.007496428774451082 -0.025656522608827816
-0.00980746788080267 0.007498198748325416 -0.014976103945416798
-0.021878630327902573 0.0074960008260976044 -0.011622039499189015
-0.015985375814029337 0.007497303562042612 -0.010245800235660837
-0.012723746900628531 0.007497501288438681 -0.01634992468426764
-0.016232096131696537 0.02132268421320178 0.0011879999656230211
-0.021385677489294798 0.013270083306527888 0.0010624639420085819
-0.006247364244580338 0.03150493028109871 0.0009957661197488952
-0.013141135180700052 0.02127712386482168 0.000704724978727312
-0.016095574846673306 0.017394833867372107 0.0006636936928288372
-0.021922720907212145 0.009169473706641883 0.00048784439838134904
-0.021725098899821736 0.0250448453563989 0.000871924269415923
-0.022211606942556982 0.02425944648755717 -0.02303585331014464
-0.022625226914680517 0.023545051672906065 -0.027049531066847814
-0.02152246015761006 0.025594173826430543 -0.010850705321136344
-0.022747663115303376 0.023935313377885226 -0.005335385108069443
-0.021142464655462007 0.02609266632416656 -0.0021968505340162602
-0.014271688399136779 0.03315914418649851 -0.004345867400680749
-0.014457405653813704 0.03292552851945741 -0.011582234216631754
-0.014467152087653807 0.03287809545798355 -0.015338085861249736
-0.014057008467428469 0.03330711239131238 -0.007698877716335308
-0.014370248074828706 0.032959026030834546 -0.0008640429315157983
-0.011433719404948918 0.03516776193412451 -0.0025737519482697696
-0.01827448646733287 0.029107870258768574 -0.025468811560439925
-0.016680268926429553 0.031148757629365562 0.0009513389313456061
-0.017665495155034384 0.029965768618394693 -0.010753128122865286
-0.01799262440162741 0.029532932060674068 -0.017004378236510156
-0.0180623821121865 0.029412208127114606 -0.020016193446518706
-0.016546909215117298 0.03119841850077683 -0.0036857337314790085
-0.015663425160278004 0.03179514897856754 -0.0189253040106751
-0.01601370779049899 0.031293293973408284 -0.027784359860376376
-0.01641355012627982 0.03098947154611018 -0.022783645158446584
-0.016924170202738457 0.030764033092335698 -0.007265702125364293
-0.027488173376917613 0.013931152418332583 -0.0016694423133470897
-0.026478293689139277 0.01677053308867719 -0.002013575887556614
-0.02662107660326394 0.016537697451537877 -0.005983816854094155
-0.02775236712431004 0.013049048244002945 -0.009995770221712625
-0.027660869024849252 0.013210476576967766 -0.01580555988760649
-0.02771645469143135 0.013229798496201414 -0.0066533604847661635
-0.02681270308429999 0.015973131771125988 -0.009010649460693193
-0.02779348224959739 0.012707857439403062 -0.0202528751656657
-0.026587863636226207 0.015809921216528654 -0.024709913355394637
-0.02610903421044162 0.017183180568380932 -0.0216491898651034
-0.026198148221824608 0.01666777217618101 -0.027627614122860383
-0.026578524203348323 0.016422522411673128 -0.01245564195974622
-0.02763961796357288 0.012935952217207784 -0.02846834747891164
-0.028039628235006064 0.009936681293864763 -0.0331562896492183
-0.02655693944236489 0.015127353464713496 -0.032812025645790624
-0.02633808027013327 0.013794667374176168 -0.036644440642372
-0.02526291434325926 0.016752562704828448 -0.03673246436817641
-0.024176947191277692 0.020884722984815834 -0.028944903893070292
-0.023686704759603612 0.022256207040977312 -0.012436006714416192
-0.02369136823072263 0.022007202842394574 -0.020824572322773155
-0.023040305161532857 0.02320634604447159 -0.015650313327345646
-0.023758176754142615 0.022236164592680116 -0.009127403373826865
-0.024637928452432678 0.020538810974651014 -0.017999019001493262
-0.02530095062499082 0.019613443679338594 -0.004779930832277434
-0.02460830615405727 0.020881117287640017 -0.0019312573729243152
-0.025284929397431544 0.01953639494392599 -0.009485235599854851
-0.025289530686768695 0.01942466087766547 -0.012778593691301209
-0.02514629293652757 0.019318536376968107 -0.025725271156261297
-0.026030184954573043 0.01760118708946501 -0.01616196150563142
-0.0253950608926925 0.01852560887290424 -0.030917581117248457
-0.0203875615724452 0.025850513592157925 -0.03556084847188018
-0.017875686826709924 0.02818688929348178 -0.036767370491920325
-0.02046600294260538 0.0265987298933223 -0.03078034787896105
-0.018432321932654046 0.028814717296829308 -0.03336997816302967
-0.01914115572660887 0.02843080163674153 -0.013395464275196481
-0.021107436392318754 0.02600371982091222 -0.018384433588601628
-0.02229329430808362 0.023904822171321467 -0.03192145615324006
-0.0007839718622677703 0.014396206702083837 -0.013004848648158398
0.005519975605428758 0.018026519923295913 -0.011512323840741388
-0.003541999962180853 0.027154428939508254 -0.019356067418013205
-0.0035419999621808525 0.024586630010941263 -0.013952738369547283
-0.0035419999621808525 0.030219405353526903 -0.027061850089449425
-0.003541999962180853 0.027765285362578725 -0.024981994054090174
-0.003541999962180853 0.027792905775243976 -0.010580873298556765
-0.0035419999621808525 0.035172497678074295 -0.03369865512790284
-0.003541999962180853 0.03550220186699002 -0.005124021321920185
-0.0035419999621808525 0.018689783091767997 -0.012422059599802282
-0.003541999962180853 0.03707999302180759 -0.015947750545541647
-0.0035419999621808533 0.03815207594265247 -0.035936469651018196
-0.003541999962180853 0.035403409264511285 -0.02577362203280841
-0.0035419999621808533 0.03671299463282227 -0.001528578460521132
-0.003541999962180853 0.017489151134686607 -0.01585217639665369
-0.003541999962180853 0.03387817566243223 -0.012211028660168478
-0.003541999962180853 0.0309712016430192 -0.0173390455514697
-0.0035419999621808533 0.029992518793337974 -0.02143799186919456
-0.003541999962180853 0.032584561883771686 -0.008832301329162887
-0.003541999962180853 0.022138773398863634 -0.017151049422097712
-0.003541999962180853 0.03205225659146979 -0.02451361304991272
-0.003541999962180853 0.02278767977313514 -0.024268397045179455
-0.003541999962180853 0.01950701552437429 -0.022792651214029742
-0.003541999962180853 0.024663660634331397 -0.03065422208601372
-0.003541999962180853 0.02317231189269635 -0.005501289078356161
-0.003541999962180853 0.02614334755241925 -0.007109304133823158
0.010108999907970428 0.02468567773739751 -0.025972014491813918
0.010108999907970427 0.02447843647483398 -0.019367314731196857
0.008521983602790793 0.03692512165005217 -0.03679399937391281
0.010108232381938368 0.03185893404892004 -0.035132242243646666
0.01010811433137121 0.03590092253547488 -0.03349576828899852
0.010108999907970428 0.026163259687467327 -0.014821810219092678
0.010108999907970428 0.02564596704323867 -0.02248777863775384
0.010108999907970428 0.025619618225794408 -0.008511160148294358
0.0088815479290315 0.025359008430248103 -0.004343890824395824
0.001941551665649919 0.021779194010440185 -0.004765181130702283
0.005756200299606604 0.023441609944630605 -0.004788320668068733
-0.0011837759542579155 0.02037229697718875 -0.00478367407942172
0.010108318537920411 0.037565507707873466 -0.020999024608232643
0.010108729033682833 0.031962356743270186 -0.0038985797535763967
0.010108259528818154 0.038370965250893445 -0.0023862628776656807
0.010108010368089197 0.041771938675242724 -0.020063222985991707
0.01010831768632272 0.03757713177532877 -0.011278505226161445
0.010108405532671127 0.03637805398481746 -0.0172759078734744
0.010108870007088057 0.028487544901643406 -0.020599366852436678
0.01010879695186477 0.028753785880191805 -0.029520899186016518
0.01010899228367538 0.028022997529504757 -0.005845153286939141
0.010108776763257908 0.02965784162798863 -0.024164221868754467
0.010108193866973978 0.03879211862276782 -0.02932225273078782
0.010108925450289548 0.028449317483309193 -0.012285554956614517
0.010108550596528269 0.03396154720019891 -0.019011438225753356
0.0033742065095982033 0.01975234083233824 -0.007525299634142996
-0.00011207865888890204 0.01812618255996562 -0.007654243084412425
0.00951534976135933 0.020501346337011964 -0.01038252864893194
0.004117664886672818 0.022143890221728527 -0.029279895135756746
0.0002955797858013782 0.02106862667118345 -0.029593178130081468
-0.002426571470613734 0.016629169340790506 -0.026146102969879632
-0.0019226246207145964 0.019110716782606604 -0.028442379889524992
0.00955517915941976 0.029219435546464573 -0.033504238787255156
0.0036592996496144247 0.02642581662993424 -0.03304902738258751
0.007245679670562729 0.02698206267110405 -0.03242714029001314
0.005843144945402447 0.02437224179791131 -0.03078931287147429
0.00982051446486338 0.02168375180255368 -0.025040031997496926
0.007077238077256177 0.02104123490412246 -0.026072251137611246
0.00832795245523231 0.023683848363458666 -0.029127147037550497
0.0012874579741614554 0.018857337438719236 -0.02700867205670691
0.00428024131741483 0.04068152990135797 -0.03520649361932195
0.008454064692649536 0.04078627087237395 -0.036361456883737944
-2.3581061052655502e-05 0.039021149887877624 -0.036756238550046894
0.006690723671072343 0.04144492665806309 -0.03350545657490782
0.0007760268534565927 0.040374046945914774 -0.033188632715190625
0.003262173850617559 0.040950822088565 -0.03141273092134779
0.002437317850102447 0.04090412572788977 -0.024830947344634806
0.0036543987432676424 0.04128657605797564 -0.017758263682750866
0.0018763907515056619 0.04085675710194426 -0.02119092776083698
-0.0005016909405370579 0.04020680898608537 -0.02688768339240116
-0.002379953535821442 0.03972302155705858 -0.022548894921657847
0.0021428217765026647 0.041084806082713234 -0.009040743489991829
-7.85975386211528e-05 0.040435764844006655 -0.012998307654897255
-0.003137175185152384 0.039288801461299705 -0.011445957047051132
-0.0002786948690429882 0.04040412093226107 -0.0028880092857768193
-0.000827878811466046 0.04022108310953155 -0.006911028172701071
-0.0029231771438312454 0.039461829453481485 -0.017622228272251884
0.004240609476522212 0.041461794710432244 0.0010072143397687847
0.003748661716707109 0.04140833184119393 -0.002641725604797646
-0.000661494477679598 0.023566286332836965 -0.0029811226610096486
0.000703053390965959 0.02688415358292328 -0.0016885730102231817
0.002186716096072809 0.029941051064681094 -0.00068596476691941
0.004323677954301189 0.026341929118750884 -0.002372049366413164
-0.0016053647129581595 0.033002981061847944 0.00029322764447576926
-0.0018411284630783303 0.029789575093283456 -0.0006709526702125852
0.0071345216630473865 0.03080125642280055 -0.0011668292059752604
0.007550270801780793 0.03939703589502921 0.0011879999656230211
0.0047664483152746575 0.036542821581768505 0.000759768776175378
0.002528286393629081 0.033134330379582536 0.00010871519049118978
0.0012622328976533352 0.03610687018274505 0.0009558117686454232
0.0008142650810836385 0.015474603095429173 -0.019155013269759137
0.006362643747924641 0.01824137675663454 -0.01874519055048595
0.006151355071440156 0.019321775538459367 -0.023508827026415154
0.009224958963876907 0.020471233166978554 -0.021685227062021913
0.004152450790046823 0.017684407946025327 -0.021141497283242723
0.000657470856561738 0.016385244845212758 -0.022870732159041486
-0.002093643891602692 0.030796972888525554 -0.03641678798068609
0.001228538614459751 0.03138571911748402 -0.03668250139060321
0.003992486765768093 0.033180135653536655 -0.03679399937391281
-0.0002048876871384496 0.02755157778286344 -0.034784006245141386
0.004552552942279845 0.029849911400352182 -0.03539594892344318
-0.0013195994069440157 0.022847578360230908 -0.03169849724254402
-0.0032913605734361437 0.014431995524909305 -0.02176470972795391
0.009392507434063673 0.04191872241713049 -0.012516553399317901
0.003618259951546647 0.04135616745234987 -0.013563288855134916
0.004811002333703669 0.04143121401220431 -0.022498937145942102
0.006550124522406244 0.041675891282429274 -0.026842369387187134
0.007147521189840998 0.04163854925824827 -0.029945636811844693
0.007148207008478108 0.04192097629584327 -0.019952668704069275
0.007605756212372005 0.0419205079428141 -0.016334053178428593
0.008539071223678559 0.04191938332829835 -0.0015334601116633625
0.007511665853629178 0.041920318186113165 -0.004538859131231643
0.005341519589993906 0.04168579114612718 -0.010011856044775336
0.004290414409667944 0.04153533041234159 -0.006828517801455166
0.0011675160381288295 0.01508314231212083 -0.01621921523720815
0.0085887007231707 0.019388742574217528 -0.014327439627752457
0.0026864868719300005 0.01612664471529097 -0.013222225877801825
0.0048710527918464095 0.0171443526182295 -0.015889703342159684
-0.025253508089351666 0.0160656677033362 0.0011919999960809946
-0.02876110374028832 0.007642458464841968 0.034970833794019066
-0.027860771529882814 0.012900460653184915 0.002230485524374139
-0.028263085493799293 0.012568798938524965 0.009109921510272768
-0.029308455327043882 0.010086171008080121 0.016872828595230198
-0.023723000660538673 0.01662879956479294 0.009338984470221362
-0.02491935676457986 0.0135320142954166 0.03380064955501812
-0.026597936787272188 0.008330372725428605 0.02826962138646656
-0.02625720303094839 0.009573441593436339 0.031450835425461
-0.0256643142318358 0.010272127492522582 0.011131335070567185
-0.02468655918867951 0.013614827070029482 0.021903285284622306
-0.02459642641259309 0.014149027432380348 0.02971593530680031
-0.025849770976745717 0.010059280494726191 0.021794235637840012
-0.025543189891077966 0.011151242741469015 0.026494342893319697
-0.025875957440205433 0.009861640421534684 0.018244166060583815
-0.024693440025349726 0.013185083096645813 0.009572796033090967
-0.02497113900982064 0.012582690166973214 0.016981242921068528
-0.02406933545380238 0.015277510086203712 0.0063722489053451795
-0.02411254709625686 0.01534274917062592 0.01869656010553987
-0.024382766813089866 0.01428666167135254 0.012381084509100708
-0.023811491835961474 0.016343355596406938 0.015709062372210664
-0.024746725006554886 0.012876029723761034 0.0045473854231388045
-0.023992608819719142 0.015902152950492722 0.026662884604901158
-0.02959026346470191 0.008695813954442785 0.029902730183816666
-0.026508053179933082 0.016777162538238164 0.004022569857939872
-0.028286144952295374 0.012827037069283466 0.013636678935816288
-0.028402276923719456 0.012678525932746766 0.028952265583976622
-0.028498239446900348 0.01246945847040756 0.03239214097590429
-0.02849282203643786 0.012372282410745564 0.01877015970985323
-0.02727670229226712 0.015357515990190343 0.01654656986692479
-0.02870741849764466 0.011881423193748176 0.023587800390096867
-0.02699681564861595 0.016079586105807973 0.03276670294150841
-0.02719330066501245 0.0156209370142682 0.027992258879117396
-0.027128750099940313 0.015771615465845257 0.024369481250222903
-0.026588198508952367 0.017033408862023085 0.020430739242637913
-0.026152558403373997 0.018050310518577944 0.011904121003480329
-0.029995422020947505 0.007962210740686796 0.021068975737781274
-0.02887816063518912 0.01036815961996619 0.006877983245726601
-0.02934153456357144 0.00929727874470614 0.01253823176867371
-0.02587278147414048 0.009678222433714592 0.007691745656981308
-0.025810672130036807 0.00984387043795357 0.0029013227031110724
-0.016231105483975525 0.02741834230653913 0.004735589190079112
-0.018380213183327686 0.02468632865192042 0.021980936422742847
-0.016793465506813807 0.026871676479813124 0.01882933531641032
-0.021078406047659388 0.020927437858831537 0.024902129275640478
-0.01667323988337205 0.027267532919135362 0.03170580579219299
-0.017672017664663964 0.02550074338009839 0.011407623793296875
-0.01907036028281956 0.02376590723774314 0.025065101667840727
-0.018451310109519527 0.024690844986147965 0.02795626882816649
-0.01817844587243343 0.024867219847913322 0.016056000490121968
-0.01643454198858786 0.027308476172930272 0.01483997745904476
-0.021164326227687345 0.020877781654791556 0.028984274830832605
-0.01901861249831879 0.023957901549491324 0.03183814686231652
-0.02062720840448213 0.021715971974823323 0.03352434273107435
-0.024856226314017654 0.019410520963271487 0.0011919999960809948
-0.021166605259939058 0.025368245810611856 0.035023000091314316
-0.019559765194867875 0.022936479217467824 0.013015864322487539
-0.018497079769098042 0.02435314443034265 0.008193059678386724
-0.022974138911627057 0.01838477995539997 0.018576944041097426
-0.02029115078449048 0.02196146958913338 0.01776846213786627
-0.020266066918234682 0.021994908874049944 0.005775624874785478
-0.023065411005039154 0.01826310519021769 0.024293431101864462
-0.02220975338923894 0.0194037817714905 0.0057357605528531265
-0.021408464295855356 0.020471979712786414 0.013884498801132327
-0.022064889904350092 0.019596899183926236 0.009826106026291432
-0.01816321135924867 0.02479822417872519 0.005155966151906741
-0.020745067560402848 0.026605206979124205 0.0046587594809191935
-0.020901041470932684 0.026667253759804527 0.0211450980856604
-0.022227547396721666 0.0247211079705488 0.007987861968292605
-0.02199373885146515 0.025129352198962486 0.014350243090347672
-0.019079946306965433 0.02874347782426281 0.002286585910070251
-0.020724407365705647 0.027082744383708175 0.03258998053369843
-0.020726214358471388 0.0267206702459913 0.010289223993593354
-0.02376413965864213 0.021967445069644348 0.003703821405980159
-0.019770207514302203 0.028067346213514963 0.026822465870918546
-0.019325286570153255 0.028512517173409548 0.01352823581787059
-0.01866420324600364 0.02886299975216389 0.007459257990123172
-0.016006000339984894 0.028195408412597725 0.024180654581358672
-0.016006000339984894 0.028318577892688632 0.02870658698205684
-0.025442270184152745 0.018180999904870987 0.03051667498393119
-0.025503000244498253 0.018652214034622472 0.02736332067211384
-0.021778720121312635 0.02559343285507543 0.028319487388855577
-0.02311575342674362 0.023581162869563223 0.01160951248217022
-0.02278879315153269 0.024132623108665416 0.022629494995020212
-0.023457912316932138 0.02323723497357341 0.027305347279055446
-0.023252475372225113 0.023556930189754854 0.031099843529288074
-0.023433463316096997 0.02318879855624999 0.019168129026108597
-0.024685771366380293 0.020884144814238302 0.01194681309317295
-0.024745748434424047 0.020838000260699784 0.015608281618725125
-0.025098546180495156 0.020012588843430358 0.005966909387877071
-0.025026241811252896 0.020321981923837676 0.02247294826453254
-0.02466804889737803 0.02103796541685979 0.032713788099836216
-0.013013537324971514 0.034233573197391676 0.0030917872896889585
-0.013308787977056404 0.03409044254835013 0.010075550623342696
-0.013692678307570314 0.03395183045899285 0.025934225051306232
-0.01221944235211396 0.03482996459615269 0.014486967678604894
-0.008607362015553689 0.033797667503875264 0.0011919999960809948
-0.005915999878197908 0.03586954961744146 0.021271648337830854
-0.005915999878197908 0.03556045074619854 0.017635366958394797
-0.013365618009719325 0.02988662207332006 0.006314396123539029
-0.01429262552218168 0.02942292292894387 0.016613376718143044
-0.014462433596670425 0.029337983100743932 0.0026445940157051803
-0.010548366569879846 0.032047909096692875 0.021798034788276216
-0.013105289241509315 0.03013510674565118 0.012523558177914632
-0.010539941998871014 0.03200137094210713 0.018232255391522727
-0.006379631900503475 0.035068237360897404 0.030231904699034324
-0.010456865250663066 0.03222481896224699 0.029511668051541474
-0.01263798220128396 0.030651254016477204 0.02555473766164056
-0.0100121178500011 0.032464935162929115 0.024822894143647283
-0.013051836190680611 0.03029891556600367 0.021144751518169337
-0.013187234627561278 0.030321626480606916 0.029093163537030196
-0.01029995483524617 0.032112338261280106 0.014436244574068807
-0.009164361548433059 0.0329550706005652 0.005972852435892392
-0.008029502954233447 0.033806094824597635 0.019268419376036624
-0.00838792782907034 0.0335373139804105 0.012384476399893292
-0.007319769092152324 0.034338320347966134 0.02432897480986931
-0.010664788143874393 0.03182990894110431 0.009517006047855398
-0.006135305531889728 0.035226543063482586 0.008464742099645841
-0.011042379430993541 0.03154675530966125 0.003911469312399059
-0.00721725120731033 0.03770887278242581 0.010844614850097509
-0.008792151341440044 0.036921423744796525 0.03454455791815089
-0.00956891387757848 0.036533042984459176 0.02884492174981415
-0.008129569899978178 0.03725271403243022 0.014048574332515947
-0.008554107492242733 0.03696153318323986 0.007486951993136337
-0.01126755080952462 0.03547605447878343 0.021041752951651338
-0.012348344567300475 0.03467718030082778 0.006782119270729401
-0.010400041918409274 0.035900348989843844 0.01190485049609041
-0.008535786455107944 0.03691864408377359 0.00237440577365575
-0.01098532953770896 0.03567986384054029 0.02431024318848849
-0.009457720719428929 0.036518845611186235 0.0169344178712213
-0.005915999878197908 0.03706604737031606 0.004059017290276639
-0.015121638828048652 0.02912527747038286 0.03502300009131432
-0.008957714833220758 0.033420833426282416 0.03311080839537707
-0.0120068037917618 0.031238312145496435 0.033694906801973006
-0.017502980529860313 0.030335771873235506 0.01116885081380972
-0.01832817323230006 0.029510810892075207 0.016690255139238098
-0.015773764090227408 0.03206450273387015 0.028231925279570826
-0.015806732927890255 0.03203154315414332 0.03371257992085906
-0.016183936793130814 0.03165444521102496 0.024544217256957504
-0.01629208412669851 0.03154607079331878 0.019071885041530026
-0.014799376533361153 0.03302110564680549 0.02230280142674618
-0.015468146705353396 0.03211585735110442 0.00508725614405698
-0.015261324482457386 0.03249351415179449 0.01581634418466361
-0.016363532120403968 0.03138011574838699 0.00838537541078085
-0.014397649456327762 0.03340371164174303 0.03087071538944789
-0.0002741120509879779 0.04046662196689037 0.005620769500752789
0.001171428020943035 0.04099811099891121 0.010405735251473196
0.007119101973089566 0.04192100092768669 0.0281463109911359
0.007129371687115681 0.04192100092768669 0.02255993287647196
0.008586537484749801 0.04192100092768669 0.03206043739774883
0.0071204043243442375 0.04192100092768669 0.009594781005369027
0.007507071800556007 0.039532349751326266 0.035023000091314316
0.010108999907970428 0.04126644900757602 0.028028271873099794
-0.0006835505921813792 0.03701496370301621 0.01803287754811756
0.0038436665807873457 0.038276127153641745 0.021315225841262567
0.0016286466869782647 0.03782973656259786 0.03290674314454266
-0.0021432979761161946 0.03648984015648196 0.007812283053631819
-0.0026593549374687667 0.036676795476157424 0.03301362432282849
-0.001132380875967147 0.03704832122600488 0.029956366353542874
0.002092437428502703 0.03784258587875367 0.02424516017630086
-0.0007975137844643985 0.03708648071848588 0.02593607142959909
-0.001180493466792486 0.03679272531083727 0.01119175316950402
-0.002852099639474839 0.03648656264252277 0.022314767825720002
-0.004477758701839444 0.03591588780328143 0.012025490391973903
0.006713763623835146 0.03915646436447948 0.029644990856156808
0.004591991450585794 0.03864858927587546 0.034540426054360376
0.0002976195630270441 0.03732239458832081 0.021381547778096078
0.0017556211177820833 0.03781212406753357 0.02890132597235788
0.006344266436489556 0.03901235005640188 0.024784773445041795
0.004905417268824451 0.03858137211269197 0.00560769337132761
0.005765366854367971 0.038838952484839775 0.018646713657423732
0.0020761607399507223 0.03773392598112801 0.0036876856490952563
0.008342051647558819 0.03961074590051797 0.01410676565643526
0.0069322984299517755 0.039188483055657974 0.010874928429054192
0.004706246990528147 0.03852171471501799 0.015569745486569283
0.008180660266963579 0.03956240440169755 0.007267520489774049
-0.001818252687877972 0.03656743380891131 0.003846091730295564
0.001579792857355987 0.03758524909812194 0.008488739792393351
0.001462272598060004 0.03755004829957137 0.01416165404748924
0.009075602771043086 0.0419210009276867 0.018811121196951407
-0.004748226067949416 0.03887391978083536 0.007861320711971004
-0.0035948838280245167 0.03930908145820329 0.004243266338608668
-0.005053875669384436 0.03879115635806777 0.01985589082012477
-0.005111135013075816 0.038762586959676326 0.01595112177769734
-0.0057711479822006575 0.03843327523092024 0.02938792079326842
0.001319930619351109 0.04085283569219647 0.034299848630715356
0.0035078403949213156 0.04149195608827314 0.03028053083474028
0.0009055534464181412 0.040840382757880704 0.027182509882913257
1.2512379848888134e-05 0.04064667167328162 0.023950566911647986
-3.865299036269563e-05 0.04052926899067455 0.03147794631710435
-0.0010070530594092802 0.04033621746079838 0.014211891138041844
-0.0020029965143712847 0.03995514260735678 0.01135266909922002
-0.0027829653032272984 0.03977613396659134 0.027816631422665064
-0.0029187285865528633 0.03975314191890912 0.03196132883430597
-0.005915999878197909 0.038108473129549264 0.02597457544963585
0.0009845990770607506 0.040580087496564984 0.0017300079851444365
-0.0023489599893529163 0.039713089678161416 0.0013760624930721688
0.0025731121228368984 0.04136169785454643 0.0074475933493528285
0.004496256136120314 0.04170309415263282 0.017963188942002762
0.004971335951865186 0.04170129956434987 0.004067748640743336
0.003884714272206404 0.04158184430390406 0.012189513587245888
0.0057607962663345546 0.04187494498497635 0.01479945644967025
0.004003103499822882 0.04163242376015493 0.026686887850481362
0.0007795120031260695 0.04090897919881337 0.018238296485412392
0.003851860196623749 0.041607355826302025 0.02366778144366444
0.021443517666420206 0.03820180179067613 -0.03946137710194895
0.013035993751826253 0.010225655433603823 -0.039362031767834565
0.02237966413335625 0.015137729878342637 -0.03971299234190527
0.014956550988053666 0.013237570075524624 -0.039577228687928616
0.020983913558673607 0.019495574738532237 -0.04002435401833128
0.02201857655620833 0.009445177595759111 -0.03930626776158812
0.018711663303761505 0.016050234444647017 -0.039778189465856706
0.018839788254742154 0.024708360242971118 -0.040396799960209215
0.019014723915009996 0.009157270309539521 -0.039285697204771944
0.020387313215811505 0.012543589477865987 -0.03952764478367629
0.018431843259175334 0.02171842480009496 -0.0401831734219164
0.018379821485173347 0.02957346527408268 -0.040741175721702015
0.01483576812405229 0.02880213698763008 -0.040609943421708504
0.011029824583259637 0.028512350767695316 -0.04050268769103938
0.014551939675948792 0.019545468575947734 -0.04002449092752642
0.012965668418459569 0.01658268326802478 -0.039802081793781516
0.016669000331244643 0.03242685180372265 -0.04087952585308027
0.012803676952974402 0.03150879664330497 -0.04073159474969797
0.012066896709872842 0.02425879340824977 -0.040261007722581066
0.015620745973689216 0.025293672782917304 -0.04040894888691009
0.011504203251918916 0.020551507414712546 -0.04001601847681423
0.02093029419884626 0.03208637596981041 -0.040696995290222325
0.023092482115249082 0.024344603784662543 -0.03998832739573407
0.022742159349939797 0.02783888586152123 -0.040196494474401656
0.014591408246070282 0.035072922623423916 -0.04085821794033781
0.02240468952491523 0.035269480480003085 -0.040495400609855986
0.023154713186683898 0.023781113500955534 -0.036609697494910914
0.022920345646661712 0.01644253546556191 -0.03685416077166059
0.009980682279495149 0.03444267478783359 -0.037845566120669014
0.015726219964644326 0.026704832986950047 -0.03635438938868393
0.022552349725103456 0.032249089120046544 -0.03629991796931536
0.018257240913285188 0.02406410978585652 -0.036440667160116465
0.018831951605940568 0.018414912784652026 -0.03657473885035341
0.02089013600013632 0.02115837772435317 -0.03653401601358856
0.01736697580274131 0.029688339341375984 -0.036303868989716284
0.02052291168469466 0.0276780777628957 -0.03638237375062847
0.019562788772027356 0.015118917003692566 -0.03665708925716904
0.010162539527631407 0.01650247034440917 -0.03689812329225947
0.015324897022563334 0.0191769412010708 -0.03652824480856391
0.011170920930710732 0.013070492387109483 -0.03665569381626428
0.013983944782916313 0.02389258440990492 -0.03640316676773785
0.012759956782962748 0.020699797944991938 -0.03647535918031835
0.014008338947397996 0.01533519781598283 -0.036616026292803125
0.01694718243254001 0.01287396370279464 -0.036694428918414734
0.015415368474082694 0.00907709505791739 -0.036779833486279355
0.011792097281521875 0.00915998988189554 -0.03675653993929678
0.01903825974043121 0.03623355001924683 -0.04049579275602734
0.01187846295364732 0.037907694318558366 -0.04038862643822474
0.01382666428851736 0.040322472982001124 -0.03753002497621422
0.018921339437018722 0.037274262269309306 -0.03617654597961992
0.016190680662783216 0.03834096464410893 -0.04002057090270307
0.03913038602696736 0.023823283048322593 -0.03620100021362305
0.04497616315230569 0.012534992869410528 -0.03620100021362305
0.04264104806283669 0.02030217457402519 -0.03620100021362305
0.04562018360055627 0.015506449909498633 -0.03620100021362305
0.035256678831809364 0.026285694328963376 -0.03620100021362305
0.03822590645927386 0.027012780947458032 -0.03620100021362305
0.03769494946532518 0.017022689847850696 -0.040355000644922256
0.04250919450642935 0.017565600456104155 -0.040355000644922256
0.04381191844049494 0.014287162500988954 -0.040355000644922256
0.03451057018416652 0.023795526955072574 -0.040355000644922256
0.03858225870621884 0.01316460815079958 -0.040355000644922256
0.025929648193366517 0.03244773520696644 -0.04035500064492226
0.029895818695487207 0.027671752164328735 -0.040355000644922256
0.04214986835996963 0.007499000057578087 -0.0379048274805444
0.04222380490421793 0.011372905180337862 -0.040355000644922256
0.046890467033600836 0.010599477246782023 -0.040355000644922256
0.044027901877207384 0.008037615181405108 -0.040355000644922256
0.04714675619979993 0.007499000057578087 -0.03873806010484016
0.04442854523662831 0.023661983533909515 -0.036201000213623054
0.049220252740580867 0.014265763844706503 -0.03660071478440033
0.033137150985595054 0.03454812060099587 -0.03656587227271382
0.0353462408083002 0.033105454666995895 -0.03780567369617404
0.031197377224774336 0.012416929755294081 -0.04005176224682831
0.034968595216597675 0.00875130116942273 -0.0401148459410916
0.025446018944861454 0.0124327750470797 -0.03960707676953794
0.025418132751585457 0.01794321318880033 -0.039949390906837454
0.038334291774397414 0.008162157200359808 -0.04033882640981847
0.024395153983917617 0.021135648563903098 -0.040069689013636736
0.028255232009999128 0.007934524580742253 -0.03954356430814312
0.02944613962690538 0.016924729071782448 -0.04019785475664252
0.02747507534092037 0.02020934133604351 -0.040250447449771284
0.026480114731832004 0.02738903545844764 -0.040355000644922256
0.03183181596572233 0.019498631618856486 -0.040355000644922256
0.03522151598847303 0.012707435014126993 -0.040355000644922256
0.029569376798144028 0.02266316357041209 -0.040355000644922256
0.033491014052211394 0.01637050182670253 -0.040355000644922256
0.029792309813685375 0.028610586280143888 -0.03620100021362305
0.035846268870333924 0.023030687621360214 -0.03620100021362305
0.023977519738985705 0.02752622876637092 -0.03660890182274692
0.025730782728460685 0.032710070612019033 -0.036225888915989754
0.041834250561460035 0.013198999711370054 -0.03625586765441649
0.026158396826828474 0.014827407623032278 -0.03692478663423935
0.03738652775080369 0.013178256125739519 -0.03646865194052909
0.028042213073979808 0.02434510954321242 -0.036381814551908545
0.03900448217306973 0.010033789264502078 -0.036541357058547434
0.03830588173209804 0.017187115735623048 -0.036233957138190984
0.034245799772237184 0.01812469882992606 -0.036382643434885426
0.03323704103120702 0.015091634039747105 -0.036575124819549824
0.03006270423671613 0.01628224263591114 -0.03666958279301987
0.03400788641132353 0.008069984185632878 -0.03687281359879071
0.026385809973219407 0.009405509191817535 -0.03717216734703521
0.030904155310509447 0.01955047021397104 -0.03647386916224951
0.030398076302867498 0.00838830998863779 -0.03702954958569742
0.02641690107209941 0.01841024745570622 -0.03674184944212379
0.03326731364321338 0.011416580449110893 -0.03674870227179696
0.028864849875709083 0.012263252116110512 -0.036918021992795834
0.04135669163096903 0.021775373114822843 -0.040355000644922256
0.03422308687044077 0.02771654210807071 -0.040355000644922256
0.037566962725151185 0.02596143192922231 -0.040355000644922256
0.029733046740250273 0.03156358468545934 -0.040355000644922256
0.033225974673328294 0.03165481085600888 -0.040355000644922256
0.03746657294028384 0.030292947814301675 -0.039220721491397034
0.04053889137596667 0.02594637083503086 -0.039412359863874306
0.04460234106340782 0.021660555998836685 -0.03904606600338207
0.0240469356059443 0.038685283036314994 -0.03661720176431233
0.025373290862008777 0.036168072628274026 -0.03992720973025954
0.029703162360730485 0.03529230575033717 -0.039275763328873656
0.04941944306535634 0.009690760642469886 -0.03898802782657153
0.04597401004292573 0.018193122906578527 -0.03946248097392363
0.05169705725738763 0.012666493623807503 -0.0017802570129379425
0.04010944898067183 0.018773000687360764 -0.032295410431680265
0.03456365089493339 0.018773000687360764 -0.02026344863111661
0.04673520228293361 0.018773000687360764 -0.03357780764152243
0.0353356439983265 0.018773000687360764 -0.024182807067249807
0.035486933333148674 0.018773000687360764 -0.03001602947900928
0.03197845421570482 0.018773000687360764 -0.024255166466750248
0.03991881677730571 0.018773000687360764 -0.018153716645139928
0.04293560566921723 0.018773000687360764 -0.01955244978937074
0.0378428054439529 0.01877300068736076 -0.01094095002742548
0.04614164475630199 0.018773000687360764 -0.01342334736995353
0.035538129427504686 0.018773000687360764 -0.008513535387765689
0.045310906186239605 0.018773000687360764 -0.03041471314588453
0.03805036169571136 0.018773000687360764 -0.0018995764312432703
0.0265905790621071 0.012317783434014429 -0.014247729640418288
0.029119718789351365 0.009889512979426926 -0.016165169000804534
0.029650230801041625 0.00958271986265893 -0.012984617098323777
0.04430306641073274 0.007497504543796193 -0.001981977004962398
0.05018899618017415 0.007497109581454334 -0.0005077995570057768
0.04196266371975273 0.007497549173760533 -0.007178989262400108
0.036782873027674814 0.007497795506886175 -0.012628913975992586
0.032692779037223535 0.007497970539500388 -0.017731219208295627
0.023182727385487323 0.018773000687360764 -0.020356616221130525
0.02750989007866833 0.018773000687360764 -0.022990919973865216
0.02945273646544631 0.018773000687360764 -0.019523604681943002
0.031044242235606548 0.018773000687360767 -0.011890619012981734
0.03053515423886047 0.018773000687360764 -0.015936491007832593
0.05085919870574544 0.012290133662718994 -0.03474380190235865
0.04697228557305151 0.007497688279246298 -0.03485181799857892
0.044392396567159244 0.007497489888085197 -0.03138498534215662
0.04275976535648364 0.007497456859772473 -0.01609602958532827
0.046243466481633515 0.00749728917001909 -0.02248411118654057
0.04383009749947439 0.007497405338781822 -0.019263113008035994
0.03906468606600688 0.007497634724323044 -0.01902803733417189
0.05009445887627399 0.007497103800510702 -0.006241368470200154
0.04318489598487692 0.007497436395890047 -0.024715233220311418
0.046667514886557585 0.00749726875823005 -0.010519831824310625
0.047261880961388905 0.007497240148111981 -0.025571220012699743
0.04913524810248396 0.007497149972616839 -0.02844945024077333
0.039133639455578455 0.0074976314052160155 -0.01542409306798293
0.05160824186835911 0.008950549141987731 -0.035433722918727796
0.03296552348399876 0.008235121700495352 -0.023853010678732824
0.02826027743678803 0.013423288404700646 -0.023955348796817353
0.031219630936014188 0.011340724846532643 -0.02573664623664354
0.02660189990689383 0.01852413301554888 -0.026436499810999325
0.04548227100067191 0.011002078439464047 0.0007194015005428689
0.047132632748457075 0.014205950691552774 0.0009241740200912375
0.043438178816015 0.013968555386773805 0.0004919422842877932
0.026362387318298614 0.013351511642638147 -0.011112208674649807
0.029340479330008627 0.010840388459771361 -0.009972906300093998
0.02421517894628414 0.016106059908366544 -0.01039054954245548
0.032105658987331906 0.010065490590898736 -0.005822260746267783
0.037532047748482844 0.008822928173943687 -0.03095917138624159
0.03908757302833233 0.012160282858261278 -0.03354085677420815
0.03392745180912227 0.016068414945668862 -0.031908317051690095
0.040605005282322526 0.008331737672784032 -0.032781084330649725
