-0.0137949383898 -0.0319992778171 0.0408489326675
-0.00507194207585 -0.0353380214384 0.039418721677
-0.0189584684559 -0.032233123524 0.0367404509734
-0.0154301100614 -0.0334391507661 0.0361530494653
-0.0121412091529 -0.0333634860881 0.0351844238426
-0.0185432637745 -0.0346754817155 0.0384000333144
-0.0218006972503 -0.0306049918636 0.0400746335893
-0.0230348011434 -0.0244951066632 0.0357916380077
-0.0211413904535 -0.0207627278404 0.0350239984691
-0.0187595143317 -0.0280236315987 0.0403372081273
-0.0276027795072 -0.0190072326739 0.0409579984844
-0.0231191348041 -0.0241182359316 0.0409579984844
-0.0254823753673 -0.021644002327 0.0409579984844
-0.0241764488955 -0.0267620585517 0.0397763391052
-0.0166195919473 -0.0281160008162 0.0363053753876
-0.0190575417186 -0.0248604180607 0.0400607122045
-0.0244837984558 -0.0179538394884 0.040475842574
-0.0290502250933 -0.0154618161942 0.0408369057721
-0.0270106461742 -0.0246384482989 0.037767342033
-0.0305626594367 -0.0175804402997 0.0394581229988
-0.0167232311616 -0.0250097580617 0.0376873675545
-0.0221976924923 -0.017467919122 0.0376337817363
-0.0188799879164 -0.0224381391489 0.0381892330549
-0.0212937569578 -0.0202086159918 0.039297729962
-0.0286666945255 -0.0215262259408 0.0373953836499
-0.0270684708885 -0.0182370001968 0.035887447253
-0.0218129611981 -0.0270927736363 0.0362026848459
-0.0343793041412 -0.00201101470718 0.0399073382419
-0.0276611788911 -0.0138710001484 0.0369167288442
-0.0305805459985 -0.0098853155741 0.0362526877773
-0.0328846241591 -0.00796202816329 0.0372026491693
-0.031109926424 -0.0138710001484 0.0376594194919
-0.0277938798405 -0.00111551129204 0.0391896839471
-0.0279053253196 0.00265708345117 0.038627543246
-0.0267152556896 -0.00424804116988 0.038365300005
-0.0264340717654 -0.00870124974275 0.0390243836821
-0.0269448647523 -0.00210153707525 0.0362568125009
-0.0304504907779 -0.00245900294953 0.0356855630341
-0.0332941350157 -0.00264863883756 0.0369225659767
-0.0257910618864 -0.00848847692088 0.0359128562263
-0.0250784579777 -0.0120870375564 0.0366920376997
-0.0267867499358 -0.0119461034141 0.0399356153944
-0.0300758201912 -0.00304225693054 0.0406404076327
-0.0299986989334 -0.00771861754396 0.0408105307723
-0.0318031146379 -0.000561621617475 0.0407666288826
-0.0306319437864 -0.0124194665914 0.040763334667
-0.0322389688381 0.00099229493847 0.036314526981
-0.0342731231744 -0.00580369175889 0.0394890722656
-0.0329261566652 -0.0114404618656 0.0382862046111
0.0368852363255 -0.0358319990337 0.0375071941983
0.0252015290246 -0.0402606932067 0.0409579984844
0.0289313447358 -0.0388093181712 0.0409579984844
0.0180708486822 -0.0457465642933 0.0388721986386
0.0143701349261 -0.044984373591 0.0404344551273
0.0218776094532 -0.0442683689483 0.040332625588
0.0224800275866 -0.0389901356652 0.0350239984691
0.0351891514649 -0.0391195740201 0.0378584126808
0.0324885310997 -0.0409521319462 0.0379573292218
0.0315153492315 -0.0374164354711 0.0357181676448
0.032385072774 -0.0393496526841 0.0407018859189
0.0357222648781 -0.0378732749268 0.0405706257627
0.0392938605519 -0.0369732215657 0.0388333351294
0.0250193082217 -0.036499140146 0.0395197893034
0.0144437766588 -0.0417755109911 0.0409579984844
0.0212227377405 -0.0407208888045 0.0409579984844
0.0183645494711 -0.0423111143577 0.0409579984844
0.0258896581142 -0.043444579657 0.0378778814259
0.0228458126516 -0.0416791604981 0.0362585631633
0.0255141827293 -0.039765178406 0.0356405641066
0.028863856549 -0.0397794791976 0.0362267556378
0.0145190781595 -0.0444569672127 0.0371846506393
0.0205386576641 -0.0441264514024 0.0373115155237
0.0177619962864 -0.0425485206435 0.0362085735526
0.0215614443524 -0.036817797173 0.0379501457056
0.0164960255141 -0.0383918903679 0.0391808655406
0.0188996741508 -0.0372223352243 0.0366545697726
0.0296140791899 -0.0426573645918 0.0387178817868
0.0250103316923 -0.0433063689589 0.0409071052547
0.0309973066793 -0.0358319990337 0.0382141761703
0.0357235964335 -0.0292864483964 0.0364484311299
0.031759230273 -0.0320950746969 0.037578745294
0.0276265309332 -0.0350418497754 0.0375892008628
0.0346953019151 -0.0307187330955 0.0388861301629
0.0399318682769 -0.0270909675594 0.0386262575158
0.0354677665651 -0.0336674936602 0.0406219945177
0.0390199873582 -0.0329621742244 0.0406839382495
0.033785447651 -0.0343095293878 0.035218637931
0.0402336529686 -0.0341801217224 0.0368100768475
0.0371412921676 -0.03333330094 0.0353127572556
0.0415659993887 -0.0288821755926 0.0405886869719
0.0498760007322 -0.0245070082492 0.0409294307008
0.0498513612815 -0.0232111908351 0.0372059169245
0.048072221524 -0.0203927210304 0.0350508001675
0.0437591312947 -0.0241012413469 0.0350239984691
0.0488450939772 -0.0166275819511 0.039999245924
0.0466817082298 -0.0225966353148 0.0409579984844
0.0423976649875 -0.0307576680037 0.0362832611733
0.0457545156668 -0.0314989447475 0.0377766177965
0.0470211878636 -0.0241644019355 0.0356961918202
0.0461400287658 -0.0275836417578 0.0364891498021
0.0490891859469 -0.011795799137 0.0384301521377
0.0464499891441 -0.0165528124555 0.0382898211795
0.0449006843567 -0.0193917872457 0.0383465889714
0.0433803333268 -0.0236815113354 0.0398126368576
0.0434289920872 -0.0315985552348 0.0405339144521
0.0451983507554 -0.0270864083965 0.0409375052023
0.0479661116077 -0.0292521391494 0.0393622567225
0.0417417251414 -0.0351000908696 0.0397421914164
0.0537232766333 -0.00666708689896 0.0407710548499
0.0542082695016 0.000557321465306 0.04051387602
0.0530812100918 -0.0104066255238 0.0408735669141
0.0515435256081 -0.0149145793816 0.0409373602847
0.0543423083029 -0.0064354607601 0.0358123415461
0.0557984875043 -0.00212126076265 0.0362146032825
0.0583134483767 0.00159553685956 0.0372487754759
0.0555261907914 0.0025790156267 0.0363873181128
0.0521377173334 -0.00231832911313 0.0402018566234
0.0511922001965 -0.0185864934138 0.0364247768632
0.0542620738687 -0.0177395380346 0.0375031529293
0.0528677708891 -0.0212604111034 0.038589258603
0.0567153371315 -0.0116653285928 0.0386006510046
0.0569796863141 -0.00842371577711 0.0374699096192
0.0528448891797 -0.0103350732154 0.0355719381166
0.0532759984559 -0.0141364652196 0.0363371486673
0.0569721605305 0.0020014294288 0.040421458974
0.051666716508 -0.0188003235007 0.0409579984844
0.0547610876021 -0.0144499437354 0.0406706542296
0.0506563415643 -0.00251204931332 0.0354487381126
0.0498760007322 -0.0156369282105 0.0367954867793
0.0512483896177 0.000812773158045 0.0381560145219
0.0506980341461 -0.00436338877726 0.0387637810407
0.0504855681532 -0.00821157810241 0.0393823769418
0.0582039336764 -0.00582585326848 0.0391521150528
0.0569622606132 -0.00852676434867 0.0404899136384
0.0575314756596 -0.00221025502682 0.0406905373074
-0.0348285146645 0.00274799996987 0.038285944973
-0.0278857504631 0.0245936648359 0.0374943142811
-0.0291650258485 0.018969972925 0.0365648081525
-0.0263935841152 0.0191285417518 0.0354032552842
-0.0255030002445 0.0162950068847 0.0374308029712
-0.0261687184135 0.0125573176432 0.0383170852043
-0.0267879719639 0.00866957009189 0.0381150510726
-0.0256508756774 0.0181875404499 0.0403610436605
-0.0258952856795 0.0109637146988 0.0351970386929
-0.0337252337011 0.0103555548638 0.0394612488317
-0.0292028681576 0.00513062393686 0.0404207620988
-0.0309505041716 0.0124640576203 0.0409579984844
-0.0329963211621 0.00349961057929 0.0409579984844
-0.0325597412519 0.00680305824363 0.0409579984844
-0.0278161491941 0.0159006148107 0.0408073543972
-0.0285127939575 0.00911127049104 0.0405359869326
-0.0315545301777 0.0157603188672 0.0408038480762
-0.0306841239448 0.0199404932968 0.0392990036907
-0.0293596648433 0.0224563095135 0.040421529651
-0.0326339423245 0.00567769154795 0.0367137020417
-0.0316764614729 0.00973517723726 0.0366242561503
-0.0296649446071 0.00572923220562 0.0353299542646
-0.0288063225859 0.013559775529 0.0357482056244
-0.0329419468906 0.014128789369 0.0387206270598
-0.0255030002445 0.0239357657149 0.0401882863242
-0.0178799103802 0.025422736035 0.0350239984691
-0.020941937473 0.0209898795028 0.0363885092688
-0.0231689612986 0.0182115090911 0.0370174467479
-0.0213777213572 0.0278994842083 0.040748391149
-0.0183093252327 0.026948230916 0.0390494290716
-0.0203328563947 0.024020002206 0.0391690653302
-0.0224237359083 0.0205934021603 0.0390323650616
-0.0236808167221 0.029242407549 0.0371002707823
-0.0250339746105 0.0220571431347 0.0356015958456
-0.0229872650816 0.0264587835457 0.0359661899241
-0.0243114431 0.0277805835761 0.040515512664
-0.0154047169602 0.0351339696907 0.0408699099491
-0.0199936030661 0.0348118915557 0.0386682038168
-0.0201569340189 0.0294569991529 0.0376991264266
-0.0106368607149 0.0327983545072 0.0350239984691
-0.0140924496953 0.0363781630834 0.0365606709818
-0.0169887277353 0.0347587424517 0.0366386610808
-0.0196515632388 0.0323652976154 0.0367179413328
-0.0172613904283 0.0302924889784 0.0356644811865
-0.0106084241595 0.0350404677489 0.0400700021604
-0.00775600412667 0.0344386299644 0.0367703135155
-0.0164769855289 0.0294569991529 0.0385310171939
-0.0108115659241 0.032586900479 0.0383188642907
-0.0135684763987 0.0311033794158 0.038972978051
-0.017594809907 0.032785508055 0.0408903883629
-0.0175786528093 0.0372900455559 0.0383597174258
-0.0220903118707 0.0312707046929 0.0407203527947
-0.00675768724622 0.0409919348749 0.0365117857735
-0.0137015380784 0.0397919300041 0.0378231575273
-0.0109654799805 0.0377670004964 0.0385818555493
-0.00439449205213 0.0384423399163 0.0403246076585
-0.00665811622602 0.0377670004964 0.0376718046058
0.00875414442143 0.0429118283871 0.0359365872175
-0.00168870564702 0.0400665227298 0.0408798374397
0.00798415660655 0.0438529012918 0.0409579984844
0.000715518879252 0.0432662758314 0.0409579984844
0.00754005183759 0.0409837435016 0.0394572330891
0.00329122933701 0.0398202499286 0.0395810236909
0.0083629915876 0.0471528070935 0.0392823025536
0.000993330942874 0.0464387045715 0.0383757921674
0.00456178506008 0.0464143148226 0.0404911050897
-0.0101643060601 0.0396508741514 0.0409579984844
-0.00774690884745 0.0420516184074 0.040707790359
-0.00277209702549 0.0434310898531 0.0409022851065
-0.000478530342221 0.0383030448671 0.0383552715549
0.00384016914116 0.0389460861655 0.0367852369983
-0.000711455884973 0.0426560602906 0.0360071708663
-0.00349414238144 0.0435249818111 0.0369064043955
0.00395320529013 0.0427800954378 0.0355912781286
0.0541246821719 0.00670762283019 0.0408639928203
0.0504197146129 0.0148253898681 0.0401263156379
0.0537659913117 0.0146925005393 0.0408688703997
0.0563903744488 0.0125236935087 0.0376899042285
0.0580737239817 0.00819727376961 0.0386274298778
0.0526234510785 0.00730902085883 0.0353265963547
0.0558340189994 0.00581595211813 0.0364683226183
0.0555489605681 0.0095522658665 0.0367102615094
0.0581840015948 0.00485821975468 0.0380860552717
0.0478515135842 0.0152168288825 0.0374704876773
0.0490657763107 0.0110009641285 0.0375389836696
0.0511077819602 0.00661817048531 0.0394824460829
0.0523224326843 0.00390783896897 0.0398227789111
0.0501635486821 0.0135753623212 0.0350239984691
0.0532968875552 0.0132383632998 0.0358763808783
0.051636525426 0.0170005601246 0.0357408854438
0.0526899585789 0.0175850000232 0.0397288239128
0.0560240311465 0.0098136825911 0.0406781094491
0.052159629668 0.00993782802794 0.0404388240769
0.0533135853312 0.0216620493811 0.0404806302784
0.0438985635405 0.0279401426596 0.0355645032104
0.0481650787606 0.0305375446688 0.0396588818627
0.0472451891855 0.0223104667692 0.0351648421144
0.0497910314353 0.0212621133182 0.0360437979705
0.0507524748034 0.0267741783338 0.0379812404286
0.0517855656492 0.0237820033177 0.0374875024709
0.0471715592601 0.0276057559046 0.0365553996547
0.0398335523897 0.0304439310611 0.0375483521063
0.0422529059109 0.0259971128234 0.0391857562735
0.0440510046533 0.0224912462317 0.0380691452524
0.0399536537819 0.0274695965277 0.0368010158067
0.0469745189319 0.0210444543811 0.0400778722429
0.0451884567778 0.0245497323002 0.0406250807087
0.0489968528176 0.0181821583613 0.0398658899203
0.0452492513326 0.028143399608 0.0407779684879
0.041782553922 0.0290213536224 0.0404684685745
0.0503215720732 0.0233716083653 0.0409579984844
0.0546061077335 0.0176128359838 0.0374949380944
0.0321013070396 0.0381205500533 0.0405268293545
0.0402934753462 0.0326050112873 0.0409001653341
0.036110149366 0.0373763194188 0.0407848925717
0.0300076361564 0.0383579991758 0.0379301044502
0.0430827592633 0.0354850406911 0.0381115029969
0.0452100522055 0.0323796270583 0.037089658772
0.0409918955405 0.0340461305657 0.0364185105679
0.0394328061398 0.0370254309517 0.0369398331099
0.0364926469956 0.0312163610546 0.0363249303817
0.0337247410892 0.0329717084748 0.0378555790422
0.0263500467058 0.0372205497924 0.036807737356
0.0442965590358 0.0324112243169 0.0408718921214
0.0413219267405 0.0360078726096 0.0407155683588
0.0373386114801 0.0325136941026 0.0401388022427
0.0310184549611 0.0353097318167 0.0392940919984
0.0136365149939 0.0473309331269 0.0379159368693
0.023586656774 0.0398527110925 0.0404842441712
0.0110659740794 0.0457862724383 0.0371102471092
0.0186321556293 0.0431621582992 0.0357238916762
0.0156199261517 0.0451848520209 0.0367227437249
0.0202478739724 0.0465560829175 0.0394143748434
0.0172707314724 0.0471632138081 0.0397176583485
0.0233616779901 0.0450358782742 0.0403883902932
0.013353572129 0.0459164581333 0.0408211613692
0.0150094485246 0.0426394872544 0.0406207075352
0.0208299961828 0.0424967623129 0.0408774842116
0.0176738386381 0.0441994304121 0.0409579984844
0.0287538072259 0.0415957274603 0.0409579984844
0.0319933246879 0.0416781782466 0.0409579984844
0.0116450205083 0.0412342014327 0.0394284296808
0.0317402211819 0.0409896668893 0.0366905183577
0.0241129509053 0.0427803003823 0.0362464700711
0.0221037074534 0.0454540865815 0.0372065925074
0.0272505899652 0.0447905098161 0.0386164449836
0.0299284348533 0.0436517802268 0.0386097520005
0.0272810238991 0.0383620001376 0.0394952629
0.0169980192393 0.0392781390381 0.035931939755
0.0159975546288 0.0399568914834 0.0390843668899
0.019710101101 0.0392316117782 0.0385681468261
0.0111261717551 0.0401659966637 0.0361807475376
0.0338918530601 0.0386390463419 0.037325913276
0.0366516294367 0.0404531167488 0.0396637091367
-0.0205426062289 -0.0199561141956 -0.0394440281346
-0.013949566053 -0.0168389994651 -0.0372103792497
-0.0190435627295 -0.0168389994651 -0.0371947327224
-0.0156918329964 -0.0168389994651 -0.0405437003353
-0.0111315125098 -0.0168389994651 -0.0386869424245
0.012482999824 -0.0319078039856 -0.0377983406874
-0.0121421283055 -0.026582229643 -0.036795001477
0.00195200115076 -0.0343929582276 -0.036795001477
-0.00583714297223 -0.0277746401105 -0.036795001477
0.00684046505423 -0.0358007777575 -0.036795001477
0.000694901450851 -0.0260521506687 -0.036795001477
0.0078486076713 -0.0198120498779 -0.036795001477
0.001111662007 -0.021934945782 -0.036795001477
-0.00547913802494 -0.0220769186704 -0.036795001477
-0.00427865825633 -0.0188399494905 -0.036795001477
0.010452919629 -0.0240023636048 -0.036795001477
0.0117478367043 -0.0199366199853 -0.036795001477
0.00705976467711 -0.0264758495351 -0.036795001477
0.000969786812251 -0.0311971806011 -0.036795001477
0.00430384021157 -0.0237010464269 -0.036795001477
-0.00768743795609 -0.0169707240013 -0.036795001477
0.00533441496323 -0.0176070092357 -0.036795001477
0.00911644023099 -0.0292096648362 -0.036795001477
0.00483877940378 -0.0332929914168 -0.036795001477
-0.00212494673259 -0.0237771418797 -0.036795001477
0.000678872298403 -0.0185264623869 -0.036795001477
0.0111913020254 -0.0322974711887 -0.040948998183
0.00571021009907 -0.0291594917913 -0.040948998183
-0.0018830647065 -0.0268294862595 -0.040948998183
-0.0005985622509 -0.0308590009733 -0.040948998183
0.0039838788778 -0.0320358001159 -0.040948998183
-0.00658677563848 -0.025460912285 -0.040948998183
-0.0104758110324 -0.0241935598744 -0.040948998183
-0.00607673663611 -0.0293887184076 -0.0409216539555
-0.00987634917724 -0.0278371173417 -0.0406715471707
0.00868264137011 -0.0344727933296 -0.0407550969499
0.00486954466531 -0.0353460040911 -0.04024553736
-0.00126602135175 -0.034444036628 -0.0398978018567
-0.00446924104601 -0.0331073928961 -0.0398108070126
-0.0118486085831 -0.0304156530452 -0.0383197648511
-0.0134849084294 -0.0277303806106 -0.0397059115438
-0.0095519212921 -0.0324986127843 -0.0380379584457
0.00152865862733 -0.0367900881616 -0.0389685287793
-0.0125501233402 -0.0192085917313 -0.040948998183
0.00266509980788 -0.0264595819193 -0.040948998183
-0.00754007250531 -0.0217759558241 -0.040948998183
0.00881685000292 -0.0217491358269 -0.0402194647873
0.0112698818782 -0.0240440542543 -0.0403121592717
0.0103348083188 -0.0289337238681 -0.0408539516139
-0.00175421576995 -0.0210053479177 -0.0407356769099
0.000489076652696 -0.0234115476318 -0.0408512322343
0.00774729031156 -0.0256776822606 -0.0406725461934
0.00506563500372 -0.0225586127009 -0.0405101142249
-0.0049382700994 -0.0202017734147 -0.0408331398868
-0.00817713471376 -0.0170589168795 -0.0406646999826
0.00684124454614 -0.0184552739387 -0.039964946999
0.0028337397706 -0.0180314353053 -0.0401388873974
0.0116015386003 -0.0368756984854 -0.0398064539626
0.00425062136155 -0.0379085760535 -0.0376084635246
-0.0172943991734 -0.0218038152941 -0.0402544318293
0.0101660889924 -0.0218527205788 -0.00725151461104
0.00680046714883 -0.0217870343821 -0.00514608207584
0.000440387533869 -0.0193783334663 -0.00436273193931
-0.0142196941334 -0.024279264134 0.00178599997889
0.00170361228531 -0.0329845535365 0.00178599997889
0.012482999824 -0.0280681178054 -0.0111755693253
0.012482999824 -0.0353672988176 -0.0100788975543
0.012482999824 -0.0295826971319 -0.0141972967821
0.012482999824 -0.0373309928898 -0.00400125688057
0.012482999824 -0.0325893060779 -0.0195660969714
0.012482999824 -0.0396087184686 -0.0223796451344
0.012482999824 -0.0392999275673 -0.035718591314
0.012482999824 -0.0390581748772 -0.000966300781537
0.012482999824 -0.0323903382449 -0.0124538008146
0.012482999824 -0.0370896634974 -0.0199615775545
0.012482999824 -0.0384648706637 -0.0288402288551
0.012482999824 -0.0325122915398 -0.023139179236
0.012482999824 -0.0279357952939 -0.00657404261552
-0.00550481547471 -0.0168389994651 -0.0191082693928
-0.011005037094 -0.0168389994651 -0.0267901367814
-0.00952568831206 -0.0168389994651 -0.021153359138
-0.0141361654555 -0.0168389994651 -0.0282010412867
-0.0176972186819 -0.0168389994651 -0.0325616519274
-0.0030642342153 -0.0331476083517 0.00178599997889
-0.0109865110193 -0.0278667436907 0.00178599997889
-0.0176558759478 -0.0237231181551 0.00178599997889
0.012482999824 -0.0321868856419 -0.0303402708632
-0.0106395665471 -0.0168389994651 -0.0111024015968
-0.00620080842614 -0.0168389994651 -0.0102663167075
-0.0140215845649 -0.0168389994651 -0.0165899790432
-0.0172794020949 -0.0168389994651 -0.0153426696714
-0.00953457029246 -0.0168389994651 -0.0179258783715
-0.0196144826257 -0.0168389994651 -0.0234187094313
-0.013830064032 -0.0168389994651 -0.0126885830199
-0.00796908538534 -0.0168389994651 -0.0139581789868
-0.0144401352233 -0.0168389994651 -0.00516636375027
-0.00453344715088 -0.0168389994651 -0.0126640058228
-0.0160255531348 -0.0168389994651 -0.0239634558435
-0.000555353353548 -0.0357526165227 0.00178599997889
-0.0101273641605 -0.0309900268173 0.00178599997889
-0.00207342678783 -0.03351665205 -0.0367939993739
-0.0048279793169 -0.0309635122955 -0.0367939993739
-0.00884624283787 -0.0289181964144 -0.0367939993739
-0.021891791966 -0.0182993632599 -0.0367939993739
-0.00563900023591 -0.0348466970372 -0.0367939993739
-0.0157172559853 -0.0244296873994 -0.0367939993739
-0.0187580766531 -0.0201539375742 -0.0367939993739
-0.0191557696839 -0.0263614006389 -0.0254909680994
-0.0189642135117 -0.0269022008356 -0.0137563386472
-0.0207515549628 -0.0245041008498 -0.0226814709164
-0.01854094477 -0.0269308906064 -0.0321218961639
-0.0176496152402 -0.0281196960975 -0.0279408004634
-0.0209822372774 -0.024055294325 -0.029123823611
-0.0190771606925 -0.0266100170308 -0.0196618259516
-0.0135275217511 -0.0317243884836 -0.0310323113226
-0.0134148338925 -0.0312696943351 -0.0352837643486
-0.00902885186604 -0.0342018719288 -0.0339538405972
-0.0104889957612 -0.0340091703912 -0.00563238550193
-0.0107650790882 -0.0338627922742 -0.000313262936644
-0.00799830552529 -0.0354649873728 -0.0166382050187
-0.00833382295374 -0.0352905687517 -0.00922499575732
-0.00952873630658 -0.0345611706632 -0.0124112203809
-0.00794142983287 -0.0355488890909 -0.00303992577199
-0.0123266120874 -0.0327425888807 -0.0259516749645
-0.00972368232096 -0.0343794603521 -0.025288760517
-0.0110381506746 -0.0335794753303 -0.0217970494076
-0.0110415936923 -0.0336616856931 -0.00967306607503
-0.0118743687058 -0.0330881380256 -0.0170488021098
-0.00991300293086 -0.0246705568758 0.00178599997889
-0.00665845684915 -0.0270417534499 0.00178599997889
-0.00177005706743 -0.0301355651564 0.00178599997889
-0.0183879543882 -0.017359070017 0.00107948297104
-0.0135141857643 -0.017540593033 9.72430145646e-05
-0.0141354352788 -0.0209470721118 0.00142893888462
-0.0107217818537 -0.0215079685393 0.000893553806063
-0.0168378914114 -0.0168389994651 -0.00298680951806
-0.0214404913984 -0.0168389994651 -0.0207008098598
-0.0212228657165 -0.0168389994651 -0.00723636727958
-0.0173253019943 -0.0168389994651 -0.0114705988789
-0.0116513926791 -0.0228572578771 -0.0367939993739
0.00726787640914 -0.0291472613845 -0.000464200616318
-0.00278507146938 -0.0258304913687 0.00070463333096
0.0061009583435 -0.0323604410062 0.00107273271547
-0.000461587474896 -0.0231428157557 -0.000910724578577
0.00122445893575 -0.0261004932169 -0.000171567747819
0.0117973192141 -0.0349799678115 0.000698660571786
0.0103448105114 -0.0317217559075 -0.000214694280139
-0.00703956086369 -0.0209725152828 -0.000145929542127
0.00388673686537 -0.0296823642429 0.000571735292313
-0.00564122689583 -0.0235577044462 0.00051858605348
0.00445365545931 -0.0267321100461 -0.000715953247485
0.00846496991127 -0.026557751571 -0.0017656405327
0.00186556298542 -0.0219930209065 -0.00239000099426
0.0111099417719 -0.025951980577 -0.00301738123508
0.00554027787136 -0.0234938608981 -0.00269397935304
0.00492617275477 -0.0233704425319 -0.0284125721025
-0.000735174925827 -0.0213244152687 -0.0297255958294
0.00753339631256 -0.0249089630724 -0.0284787742501
0.0101208729648 -0.0241880925473 -0.0260154134094
-0.0161423717309 -0.0280096932308 -0.0367178918921
-0.0161908788228 -0.0293441226962 -0.0328487729192
-0.0206419127947 -0.0242792483299 -0.0337083496403
-0.019087097572 -0.0255536602338 -0.0363001150274
-0.0218524412902 -0.0216789291443 -0.0354289025876
-0.0056703697352 -0.0184498934453 -0.00237878204243
-0.00313456771527 -0.0180281149406 -0.00398390738064
-0.0238763601611 -0.0201144135439 0.000938681452069
-0.0236804778455 -0.0206227527667 -0.00314177299669
-0.022104983607 -0.0229973063949 0.000788276127857
-0.0237690830729 -0.0205642147501 -0.00954488195519
-0.0226568987765 -0.0218797963884 -0.0257631775376
-0.0224913271865 -0.0222030525271 -0.0212293155619
-0.0213045350558 -0.0240911816302 -0.0121234745884
-0.0219089797726 -0.0231204082356 -0.0172591448751
-0.0230241745009 -0.0215608422472 -0.0141089613643
-0.0218765260609 -0.023383706865 -0.00546645473294
-0.0252537459426 -0.0176963373164 -0.00643166405875
-0.0246591462067 -0.0188156327272 -0.0129629798129
-0.0242996866483 -0.0191785345638 -0.0210405804869
-0.0238427730591 -0.0195873248993 -0.0293580186564
-0.0241254707226 -0.0196802768645 -0.017165881922
-0.0242947188383 -0.0189653712544 -0.0255640400811
-0.0227978040485 -0.0213127485877 -0.0322760916212
0.00865646676374 -0.0400233760235 -0.0300887459305
0.00907609476901 -0.0401094796936 -0.0250484560001
0.0104316720136 -0.0402855099838 -0.0150607397268
0.0115487454766 -0.0400225877449 -0.0319775120046
0.000736852516607 -0.0388692484818 -0.0321117737686
0.00195601428338 -0.0392221742234 -0.0204823322644
0.00319593586084 -0.0394840666545 -0.0167136948509
0.00317257886756 -0.0394961361792 -0.0122038810871
0.00346202609322 -0.0395669511582 -0.00871653039352
0.00235303507534 -0.0392839548646 -0.0252234153275
0.00019315772217 -0.0388410631451 -0.0282020398216
0.00513340734568 -0.0398198987461 -0.0305983902479
-0.0131976130264 -0.0322080564063 -0.0118851653069
-0.0138339452274 -0.0317383342153 -0.000923618305174
-0.0132250849076 -0.0322039473178 -0.00699836951313
-0.0178311887137 -0.028066492634 -0.00550847060693
-0.0176315013262 -0.0282656869486 -0.000115600604775
-0.0161536458744 -0.0297423246385 -0.00303175513869
-0.0192170518481 -0.0266817777036 -0.00288382851265
-0.0178925743227 -0.0280057935378 -0.0165889851647
-0.0194161597766 -0.0264831364878 -0.00782192856653
-0.0172747622594 -0.0286233389949 -0.0220791587925
-0.0158743934375 -0.0300215627434 -0.00738354517052
-0.0163490144725 -0.0295436504233 -0.025288195471
-0.0154311101665 -0.0302881316542 -0.0284493539117
-0.0150272008301 -0.0306895948066 -0.0174086767545
-0.0159098412245 -0.0299862197516 -0.012264393749
-0.014970745723 -0.0307109419156 -0.0217166647312
0.00664883236943 -0.0195043280928 -0.0192223360095
0.00129456870284 -0.0175627694045 -0.0161585038908
0.000401877069323 -0.0173356133025 -0.0204060306143
0.00204040062348 -0.0177248967656 -0.0107420536562
0.00349058893538 -0.0183216927259 -0.0192230803161
0.00676346958464 -0.0193296393834 -0.0154758794067
0.0117500710707 -0.0209540338394 -0.0152620069708
0.00563279479321 -0.0189152939129 -0.0117565469959
0.00938362401709 -0.0202335332543 -0.0129295752023
-0.0234596236715 -0.0168389994651 -0.00984686103673
-0.0248206352524 -0.0168389994651 -0.00166749455652
-0.0246123930598 -0.0172182450122 -0.0323429092876
-0.00113462950638 -0.0376437239664 -0.0354341623712
0.00388527251089 -0.0391378780591 -0.0346991124208
0.00821811571093 -0.0394562543726 -0.0366002531219
0.00892792236301 -0.0398839754916 -0.0336182937756
-0.00144676821656 -0.0280883222103 -0.0365593959755
-0.00792549502044 -0.0241141468946 -0.0363667202874
-0.0142411251629 -0.020869543478 -0.0367223707511
-0.0045899499158 -0.0246646699405 -0.0351747823748
-0.00522423375126 -0.0203451113775 -0.0314181126634
-0.00826084178804 -0.0176240740109 -0.030361474368
0.0031284566101 -0.0245263059931 -0.0308258331585
0.0018238067609 -0.0262252778615 -0.0331700745979
0.00375442317777 -0.0298672362763 -0.0354723662988
0.00794923526141 -0.0299449374751 -0.0332882772703
-0.00891506796403 -0.0209260650405 -0.0340835878227
0.00499615053198 -0.0268732082412 -0.0320587158615
-0.00102353144029 -0.0253302109849 -0.0338800269426
0.00983247567586 -0.0282725000778 -0.0307418381327
0.0113243783029 -0.0336347315447 -0.0348577879964
-0.00257892557367 -0.022844386994 -0.0324363672117
-0.0120699964825 -0.0184260969559 -0.033486950366
0.000852914885793 -0.0197144699553 -0.026492291055
0.00735961106091 -0.0221667010431 -0.0251860455855
0.0123536707027 -0.0225277222086 -0.0213762470168
0.0102839271665 -0.020922922932 -0.0191675542949
0.00254264289026 -0.0187157089269 -0.0221953233886
-0.00217616458784 -0.0182200343942 -0.0259802326512
-0.00558368440821 -0.0177022526651 -0.0283033881253
0.00380850575651 -0.0202271204851 -0.0247154583322
0.00660144190412 -0.020626482839 -0.0227471073079
-0.00304608499783 -0.0376056118677 0.00070392817995
-0.00672619738231 -0.036197436484 -0.0130583866488
-0.00641387284408 -0.0364146931068 -0.00633464400347
-0.00196980113996 -0.038069015022 -0.00464324325156
-0.00165071123079 -0.0381807844818 -0.00754995385824
-0.000546231971988 -0.0385927702618 -0.0232703423637
-0.000330466122607 -0.0386222498492 -0.0148477538793
-0.00337135511795 -0.0376669655788 -0.0119050967769
0.000172462426545 -0.0387114694765 0.000163544778122
-0.00464302410351 -0.0372308165601 -0.00241351918737
0.00640380032398 -0.0400263663542 -0.0271446438839
0.00601998301906 -0.0399995260651 -0.0236590192652
0.00702170093189 -0.040089531481 -0.0196914676429
0.00618186576153 -0.040028244204 -0.0137390480144
0.00945487680565 -0.0403053997188 -0.0118580700995
0.00712365191767 -0.0401136109377 -0.00952030860633
0.0110143079738 -0.0404487367867 -0.00357311107166
0.00703463952367 -0.0401140996407 -0.00431679631441
0.00398391964727 -0.0396910923459 -0.00317270518181
0.00500994648764 -0.0399089590322 0.000542995220645
-0.00463978343671 -0.0365734332647 -0.0339327370438
-0.00257969464029 -0.0377912350371 -0.0306927900838
-0.00737616327475 -0.0357699256589 -0.0237013248956
-0.0048918927873 -0.0369691231515 -0.0270763957202
-0.00577756594762 -0.0365968400591 -0.0205501517831
-0.00582550841849 -0.0364732581076 -0.030162478803
-0.00405991278903 -0.037385343508 -0.0153130849577
-0.00459817052642 -0.0372306338303 -0.00927799344693
-0.00249788287285 -0.0379287568655 -0.0207821641707
0.00745361879774 -0.0199267983047 -0.00889707110072
0.00257519882672 -0.0183885333736 -0.00774738496915
-0.000889324406798 -0.017290627228 -0.007064411998
-0.0142063114524 -0.0276267429629 0.00178599997889
-0.00977992337781 -0.0301842450445 0.00507874971956
-0.0211116233622 -0.0188532511275 0.0039395443679
-0.0129469796857 -0.0270173860729 0.0135561159154
-0.0106689889505 -0.0292952348687 0.0153021195515
-0.0113227189061 -0.0286415456463 0.00797448721203
-0.0146029223792 -0.0253615465596 0.0114968317919
-0.0149509913589 -0.0250134992677 0.0157477186909
-0.0185175700087 -0.021447142848 0.00833505009144
-0.017554317358 -0.0224103354793 0.00559659817113
-0.0109526351786 -0.0290116063143 0.0186899051138
-0.0088697005619 -0.0310944111453 0.0233625125254
-0.0163977032173 -0.0235668775525 0.0132675920535
-0.00863708911618 -0.0313270080972 0.0141986701764
-0.0135081953924 -0.026456205335 0.0190200151192
-0.0161884333705 -0.0237761343599 0.00886603471456
-0.011098789475 -0.0288654611245 0.0114516108822
-0.00734475845901 -0.0326192582305 0.0267271478859
-0.00808024286031 -0.0318838196565 0.0190376422634
-0.0116050784927 -0.0283592036533 0.0216912498752
-0.0152533170121 -0.0247111924521 0.00469105229755
-0.00875315710947 -0.031210947336 0.00971827775945
-0.0178622213665 -0.0221024506561 0.0296746329022
-0.0220324592122 -0.0179324726539 0.022505161894
-0.0115296877037 -0.0284345897447 0.0262741649977
-0.0196681771327 -0.0202966074172 0.0177734012148
-0.0160035187697 -0.0239610374389 0.0321378506676
-0.0210097958829 -0.018955072262 0.0294648201762
-0.00868091024784 -0.031283189696 0.0298669150958
-0.0135455465187 -0.0264188565359 0.0280062223185
-0.0217251741168 -0.0182397386026 0.0266648152903
-0.0193139357039 -0.0206508267735 0.0318461318944
-0.0172071062286 -0.0227575249743 0.0163959843332
-0.0193361942681 -0.0206285695963 0.0255260511851
-0.0108774221786 -0.0290868146278 0.0320448687484
-0.0157965579393 -0.0241679853738 0.0222177666372
-0.0215474363689 -0.0184174652758 0.0116764400116
-0.0200618574946 -0.0199029515852 0.0213693877874
-0.0174777386929 -0.0224869093729 0.0197358824607
-0.0163425538567 -0.0236220234769 0.0266527272895
-0.0138951922825 -0.0260692325583 0.0241826193079
-0.0212907125169 -0.0186741731316 0.00737504255309
-0.0227042864617 -0.0172606872653 0.0155221740605
-0.0196559342017 -0.0203088495854 0.0136324659522
-0.0251454154232 -0.016928264959 0.0117486545477
-0.012381939246 -0.0328361205023 0.00993869625261
-0.0143037129563 -0.0313270767037 0.00238941048703
-0.0149253891012 -0.0309573701603 0.0131340941775
-0.0111735746116 -0.0336850290676 0.00355970268231
-0.0127496433555 -0.032626276889 0.017276581959
-0.0131188632538 -0.0322461643188 0.00578614617495
-0.0141419024684 -0.0316196949748 0.0214555945924
-0.0200871749656 -0.025815858108 0.00234989237795
-0.0188728800282 -0.0270303233799 0.00517859951884
-0.0166429903916 -0.0292605164829 0.0102181986505
-0.0150807268952 -0.0308236671723 0.0249516113646
-0.0153866761709 -0.0305166517657 0.00724661684421
-0.0150255720632 -0.0308791633528 0.0306203084605
-0.0185130629781 -0.0273903435401 0.00855160313788
-0.0152746050741 -0.0306292945894 0.0167411554215
-0.0175804714739 -0.0283232124687 0.0131587285808
-0.0170017984009 -0.0289022405389 0.0190540850685
-0.0254070788505 -0.0170830378456 0.0022975202022
-0.0253114528062 -0.0176764656618 0.0220879183099
-0.0248949570892 -0.0186458692265 0.0252297420907
-0.0251869273681 -0.0180620206503 0.0303373999995
-0.0237364858509 -0.0209616185331 0.0325239733123
-0.0237385874685 -0.020957545303 0.0282565898809
-0.0239780424959 -0.0204723121068 0.0107697148482
-0.0231096583132 -0.0219113723811 0.0184435502451
-0.0240810583731 -0.0202310091772 0.00589408817675
-0.0228153576845 -0.0222572537956 0.0130772568975
-0.023041288029 -0.0221277900342 0.0248402965803
-0.0218302339298 -0.0235780806078 0.00427348978465
-0.0223115969831 -0.0229303862731 0.00844631475012
-0.0101331358708 -0.0344813316819 0.0175165189412
-0.00982807608474 -0.034726846685 0.0262944172617
-0.0126663584103 -0.032776291518 0.0319403061951
-0.0111688556731 -0.0337507325953 0.0134781097497
-0.0103786517164 -0.0344010410618 0.0302176274704
-0.0109788688967 -0.0339326096904 0.0224687671919
-0.0128104713397 -0.0326558862743 0.0285361474674
-0.00782766398582 -0.0356441070117 0.0215688415688
-0.00948213538633 -0.0348922820082 0.033448149024
-0.0151722191624 -0.0307327519185 0.0345357867203
-0.0209247492623 -0.0249797999672 0.0275397091147
-0.0205598089884 -0.0253442478985 0.0193592067122
-0.0174898974403 -0.028414367915 0.0228159984527
-0.0189644158131 -0.026940518824 0.0339385560154
-0.017389148757 -0.0285152995212 0.0258548341167
-0.0174811412282 -0.0284236511826 0.0315724051984
-0.0189298835179 -0.026973979682 0.0161377748795
-0.0207592332097 -0.0251451200292 0.0242831898326
-0.0197159936709 -0.0261887526452 0.0308114514177
-0.0219823791897 -0.0236895401274 0.0317500512681
-0.021072216827 -0.0248010950794 0.0146033702424
-0.0178078121924 -0.0222241612419 0.0343731873436
-0.0111184010356 -0.0292793038574 0.0349609132135
-0.00873557909368 -0.0317459326212 0.0349383080409
-0.0138641435252 -0.0269350400525 0.0350230000913
-0.00760345771385 -0.0357841870969 0.00594046637085
-0.00674520923893 -0.0334579981863 0.003381862295
-0.00142016971071 -0.0374380054248 0.0350230000913
0.00307737247056 -0.0366754894311 0.00178599997889
0.0113916788349 -0.0382132388604 0.00178599997889
0.00636735271502 -0.0364986866609 0.00178599997889
0.00543164785889 -0.0360033522948 0.00878032591629
0.00794063450456 -0.0367871798252 0.0183087361076
0.00807427943506 -0.0368289315722 0.0113414610568
0.00597301909172 -0.0361724810055 0.00476187818055
0.0104001432152 -0.0375555500522 0.0145880990274
0.00986129908188 -0.0373872108277 0.00798965238623
0.0102732808209 -0.0375159172238 0.0237962301268
0.008367647617 -0.0405789986253 0.0275207790177
0.00987529825748 -0.0405789986253 0.0311076055286
0.0108631623421 -0.0405789986253 0.0113933447845
0.0105200337901 -0.0405789986253 0.0346018113747
0.0102584487776 -0.0405789986253 0.0220718529884
0.01133883263 -0.0405789986253 0.0145577795176
0.00957151904684 -0.0403883688817 0.00398672136263
0.00602352413182 -0.0405126161859 0.0302694343508
0.00832510014344 -0.0403505731091 0.00783463888964
0.00732129776758 -0.0404558266845 0.0199058257742
0.00709210856603 -0.0403115077131 0.0115302311388
0.00643059582257 -0.0404395848625 0.0233675431771
0.00898222828684 -0.0405436626626 0.0172558842126
0.00137912711812 -0.0395183788775 0.0306192525965
0.00464738970305 -0.0399843308112 0.00437283689988
0.00443433391635 -0.0402314573227 0.0340105105988
0.00399403858135 -0.0399873789935 0.019300452874
0.00268604667872 -0.0397339094119 0.0230628317812
0.00354840593107 -0.0398594218652 0.016395823711
0.00368269503121 -0.0400031158026 0.0278514701956
0.00409342946616 -0.039943054062 0.0126155684529
0.00140032101307 -0.0395665782262 0.0349955662987
0.000664819030199 -0.0390914952863 0.0121167629467
-0.000325095533275 -0.0388968045112 0.0161439249376
0.00132809775442 -0.0391450985577 0.00380040707086
0.000102672229359 -0.039136021672 0.0257415423451
0.00345912341348 -0.0397449200262 0.008341638102
-0.00157805731014 -0.0384595653774 0.00729143137248
-0.00677693101382 -0.0334579981863 0.0320882005173
-0.00384809061093 -0.03407629082 0.032353164491
0.0107888981796 -0.0377414926263 0.0322040553303
0.00430428575844 -0.0360988545086 0.0312218926977
0.00417943498482 -0.0358780933359 0.0206837544001
0.00635952216143 -0.0365042588597 0.0251252392189
0.00886005397402 -0.0371629149061 0.0269076627325
-0.000625230827303 -0.0349084485547 0.033718096244
-0.00359444580379 -0.0340728001231 0.0286239172188
0.00242382567899 -0.0353842056052 0.0176832047636
-0.000220213117415 -0.0348108310433 0.0226440224998
-0.000633543108271 -0.0348285385008 0.0293895393921
0.000156120289822 -0.034769571607 0.0151042300873
0.00513133819404 -0.0360046124157 0.0144535616376
0.00351760186574 -0.0358188824407 0.0266146979809
0.00287392004964 -0.0353765737988 0.0109856784134
0.00755304519784 -0.0369179031015 0.031496756047
-0.00691551202596 -0.0364422995151 0.026807871112
-0.00588039894873 -0.0368767735923 0.0176496515253
-0.00654319295945 -0.0366969868494 0.0341101258556
-0.00355170440716 -0.0379473151823 0.0255699491576
-0.00154686288015 -0.0385822741126 0.0204557011701
-0.0024843156734 -0.0383421550285 0.0319431475304
-0.00214459274786 -0.0384319201515 0.0282204944318
-0.00615083687397 -0.0366605995913 0.00907434476586
-0.00364713348404 -0.0376659690267 0.00410518917528
-0.0032892757751 -0.0379326965029 0.0125369967947
-0.00463483724746 -0.0374825812056 0.0219100896854
-0.00683629445689 -0.0362776631274 0.0124716617505
-0.00629149252709 -0.0364436716184 0.00271485382894
-0.00314114309233 -0.0340555430235 0.0137331814596
-0.00517114859611 -0.0336797371749 0.0222637391065
0.0017382020996 -0.0350022418737 0.00536370544676
-0.00213579208742 -0.0342269526199 0.00539720912527
-0.00450410290271 -0.033824511788 0.0254116120866
-0.000636290260899 -0.034549635778 0.0117001639275
-0.00513296901596 -0.0336743383173 0.0186181528491
-0.00580365275012 -0.0335134984063 0.0111827490008
-0.0050505818643 -0.0336490100821 0.00692764208654
-0.00280203924895 -0.0341072243177 0.00920641607397
-0.0296580009162 -0.00319051643469 0.0237539809801
-0.0296580009162 -0.000197559806133 0.0222978730987
-0.0296580009162 0.00207095757854 0.0279008369149
-0.0349990017712 -0.00289058668943 0.0248921455082
-0.0349990017712 0.00194319989607 0.0226238882009
-0.0321921463474 0.00546855107242 0.021998174917
-0.0296580009162 0.00668113014058 0.0242961039918
-0.0345885724119 0.00532724195117 0.0275863187181
-0.033683087413 -0.000477788470328 0.0288216504068
-0.0296580009162 0.00587434206458 0.0284203271803
-0.0322282433698 0.0069188409928 0.0261875608932
-0.0305175636679 -0.00202782152187 0.0294124241105
-0.0300481755587 -0.00793599989265 0.0245465305266
-0.0327995689013 -0.00772637540186 0.0256299744579
-0.0339207462101 -0.00497309203654 0.0277959286828
-0.034975029666 -0.00511277717736 0.0220212515524
-0.0324885842514 0.00172414554927 0.0206693865356
-0.0330323978649 -0.00141816120992 0.020893388318
0.0201564538257 -0.0397219072356 -0.0111628443667
0.0211687455202 -0.0395519054677 -0.0021246278028
0.0229580908758 -0.0390291980134 -0.0223342076063
0.0222910083466 -0.0392168466085 -0.0159758170624
0.0345768123984 -0.029789160915 -0.0362010002136
0.0262949682664 -0.0323539828299 -0.0362010002136
0.0289454579834 -0.0320177872888 0.00119199999608
0.0456722083428 -0.0194897885492 0.00119199999608
0.039283597582 -0.027649558612 0.00119199999608
0.0417712871661 -0.0235033197557 0.00119199999608
0.0457233338858 -0.0168389994651 -0.0287772368332
0.0338554504465 -0.0168389994651 -0.0101762306202
0.0423312425569 -0.0168389994651 -0.016810207647
0.0430405154988 -0.0168389994651 -0.00304066634252
0.0260588625798 -0.0168389994651 -0.0105784446004
0.0454170879252 -0.0168389994651 -0.00999756082771
0.039532137825 -0.0168389994651 -0.0215277144315
0.0402427274743 -0.0168389994651 -0.0144456988894
0.0421847688949 -0.0168389994651 -0.0238127553453
0.042977325086 -0.0168389994651 -0.0200495825455
0.0470407300366 -0.0168389994651 -0.00479029077463
0.0459869291968 -0.0168389994651 -0.0221862950889
0.0402569904358 -0.0168389994651 -0.0263717784924
0.032679224947 -0.0168389994651 -0.0135823041571
0.0374482036314 -0.0168389994651 -0.0110637925613
0.0380597951726 -0.0168389994651 -0.0185497120969
0.0462498769743 -0.0168389994651 -0.00157616796628
0.0432278618825 -0.0168389994651 -0.0129479978417
0.0286248165232 -0.0168389994651 -0.0133129789042
0.012482999824 -0.025944649942 -0.0230259534602
0.012482999824 -0.0300392004133 -0.0249112662502
0.012482999824 -0.0238260676872 -0.0129336205918
0.012482999824 -0.0250168793839 -0.00975864762866
0.012482999824 -0.0264990382749 -0.0152403203082
0.012482999824 -0.0339450873139 -0.0265021455904
0.012482999824 -0.0270559359335 -0.0188909669665
0.012482999824 -0.0355016719041 -0.0324587093728
0.012482999824 -0.0233682211341 -0.017647247357
0.012482999824 -0.0300270587528 -0.0178036279409
0.0370787424263 -0.0168389994651 -0.0245006179582
0.0423175874638 -0.0168389994651 -0.0300848907786
0.0303777979025 -0.0168389994651 -0.020013828031
0.0255744189143 -0.0327329176041 0.00119199999608
0.019575272747 -0.0362488344967 0.00119199999608
0.0222635805805 -0.0336068943272 0.00119199999608
0.012482999824 -0.0346013561892 -0.00642268089673
0.012482999824 -0.0333182801708 -0.0161137955247
0.012482999824 -0.0337598107414 -0.00304185836929
0.012482999824 -0.0309655217467 -0.00475753339512
0.012482999824 -0.0359091915416 -0.0135069720934
0.012482999824 -0.0311896773795 -0.00858725072832
0.012482999824 -0.0292685455339 -0.0287139137954
0.0192591051483 -0.0204788845606 -0.023186905275
0.0161780903729 -0.0209322383267 -0.0211745398033
0.0148930007569 -0.0233437277211 -0.0247762301071
0.0220220773919 -0.0274869827718 -0.0330391595125
0.026368828899 -0.0243092098488 -0.0326532945455
0.0176300978174 -0.0264980833405 -0.0296256500304
0.0327726555903 -0.0176238987442 -0.0302702415157
0.0284121797195 -0.021952868113 -0.0316907912008
0.0188592620577 -0.0293537415353 -0.0329164911736
0.0227159770992 -0.0245688191474 -0.0307942109725
0.0197615938287 -0.02210299819 -0.0268673424482
0.015953135829 -0.029735002614 -0.0315956788801
0.0135243918321 -0.0263308908035 -0.0271204209512
0.0307535670706 -0.0197506509198 -0.0310387323429
0.0267468540174 -0.0202752223498 -0.0292167353891
0.0143303099509 -0.0326862982584 -0.0333380760836
0.0166510815731 -0.0244117957786 -0.0271749813075
0.0147912231849 -0.0402830376802 -0.0162855335094
0.0148020378335 -0.0400050602969 -0.0328257257203
0.0163487839378 -0.0401395148267 -0.0242442866873
0.012482999824 -0.0373843597742 -0.0260204148222
0.0383766101494 -0.0168389994651 -0.00345463738597
0.0326374432374 -0.0168389994651 -0.00375794831018
0.0300494094907 -0.0168389994651 -0.00540912197507
0.0488556007214 -0.0169494480003 -0.0152353396408
0.0455110654012 -0.0180552362857 -0.0362010002136
0.0384821034172 -0.0214510180746 -0.0362010002136
0.0164008198514 -0.0347520164386 -0.0362010002136
0.0235091077543 -0.0299571664208 -0.0359919857193
0.0311605424932 -0.0225763959187 -0.0337204512434
0.0341183300471 -0.0195197952682 -0.0326680274861
0.0279946660668 -0.0264377445805 -0.0353522209964
0.0134759552601 -0.0362949788865 -0.0361082743275
0.0371109377185 -0.0183786541309 -0.0332753550859
0.0186397953715 -0.032145632402 -0.0352880197535
0.0248328047822 -0.0267438585626 -0.0339397290192
0.0364374633122 -0.0233697466433 0.000906893018593
0.0269951793394 -0.0263988370947 0.000151942581514
0.0202261639418 -0.0301558794389 9.87628745169e-05
0.0237115739719 -0.0298997062499 0.000642745485432
0.0150442738986 -0.0330994359633 7.88056324834e-05
0.0188928288607 -0.0328027303036 0.000675205274495
0.0157838603832 -0.0299315795134 -0.000764104519624
0.031344263759 -0.0269052187271 0.00108497725607
0.012482999824 -0.0289588006113 -0.00200142661741
0.023915030913 -0.0238765869379 -0.00145297370287
0.0290956700278 -0.0218943727989 -0.00114447351692
0.032662215456 -0.0193738290236 -0.00142351473125
0.0189746137388 -0.0274621940166 -0.00102642755959
0.038193994124 -0.0200446926318 9.09416297027e-05
0.0249949942807 -0.0209703989081 -0.00254758925121
0.0163800204298 -0.0262905793174 -0.00222610190102
0.0291055554937 -0.0190927003822 -0.00236957181875
0.0167725952008 -0.0402098565105 -0.0114856261305
0.0150770974874 -0.0404439135473 -0.00490519360475
0.0166625222334 -0.0401602585331 -0.0189814449144
0.0211873200434 -0.0392975650954 -0.0295435693194
0.0202816705246 -0.0396216588737 -0.0187594907132
0.0189306828063 -0.0399241160264 -0.0152704678087
0.0181725190697 -0.0398410945676 -0.0309044751475
0.0179422998452 -0.0399312354609 -0.0276233657161
0.0203187300709 -0.0395442306523 -0.0236667603324
0.0386913365372 -0.0301541416987 -0.0328210256207
0.0421886296257 -0.0268734821265 -0.0331194743229
0.039760315419 -0.0296933038654 -0.025993623116
0.0406367946882 -0.0284966552837 -0.0308490751041
0.0354796742722 -0.0327125283688 -0.0345319382765
0.0371888428435 -0.0315792409911 -0.0302753426923
0.0406925361535 -0.0294498680414 -0.00412422320132
0.0412515916419 -0.0286619294453 -0.0135498496736
0.0437742428861 -0.0264244265571 -0.0019186695357
0.0433166053598 -0.0261562377477 -0.0231051534027
0.043657183214 -0.0264129667875 -0.00593304342987
0.0427022382286 -0.0269363586984 -0.0194970654087
0.0424421693062 -0.0275320348749 -0.0105855500881
0.0433253323462 -0.0264117127612 -0.0157412245361
0.0420539860573 -0.0273272871184 -0.0277136430186
0.0461014391899 -0.0218032001146 -0.0312608746877
0.0444380716897 -0.0242792541616 -0.0320734405747
0.0467528124554 -0.0211903377297 -0.0283422199606
0.0446575505044 -0.024325093359 -0.0268562981095
0.0457649593862 -0.023036318732 -0.0231032794314
0.0450328821316 -0.024558323542 -0.0105794422006
0.0469397374784 -0.0219768394934 -0.00391241796431
0.0458811619868 -0.0232233103807 -0.0140706882445
0.0457369888266 -0.0236686564691 -0.00710003597437
0.0461167212342 -0.0227030216746 -0.0191741784681
0.0469316907591 -0.0218200898037 -0.00902866530529
0.0478669546061 -0.0206745516304 -0.00139563566099
0.0301853124115 -0.0360727005794 -0.0322673934874
0.0257901120471 -0.0381484586264 -0.0241307042578
0.0280018967743 -0.0372778234247 -0.0269703124737
0.0249466269691 -0.0385298543778 -0.0199597334459
0.0254567944186 -0.0381642401954 -0.0309223412954
0.0241499181534 -0.0387033363152 -0.0277017932581
0.0305341268663 -0.036192859687 -0.0224856663188
0.0324492730649 -0.035378426495 -0.0151582913454
0.0317077778871 -0.0353605535389 -0.0289284767293
0.0314722243904 -0.0357853123519 -0.0191791054549
0.0321793604417 -0.0357117932412 -0.0090186452401
0.0281614756035 -0.0373170304248 -0.0198966265969
0.0288478187509 -0.0370782286589 -0.0159529876263
0.0292714316985 -0.0370544857914 -0.0041650655962
0.026899246302 -0.0381095966295 -0.000414786725713
0.0275888276259 -0.0377143353708 -0.0082035412471
0.0277873848056 -0.0375754139381 -0.0123458389712
0.0125033356853 -0.0402516526128 -0.0187173316531
0.012482999824 -0.0398585215605 -0.00909767853315
0.0202407588464 -0.0194905097134 -0.020283924115
0.0275648692006 -0.0176274499593 -0.0222167525731
0.0192779200499 -0.0189726775517 -0.0154556641892
0.0232374780447 -0.0183789349356 -0.0189801000787
0.0252484208786 -0.0188625581301 -0.0254786437855
0.0289079036978 -0.0178068009881 -0.0256954742672
0.0177302041279 -0.0199253159534 -0.0183991436225
0.0308766239644 -0.0168389994651 -0.0231242582934
0.0160702511573 -0.0202978092116 -0.00998222514046
0.0130842747662 -0.0216055864036 -0.00988621789027
0.0215132309373 -0.0176794991868 -0.0114904704827
0.0146181322362 -0.0204941200376 -0.0158550301752
0.0169720625298 -0.0193738776097 -0.0130944584848
0.0208815299698 -0.0388008205309 -0.0354598843083
0.0174507404402 -0.0395511102597 -0.0344612002666
0.0226602394895 -0.0388294240099 -0.0327695631075
0.0270743042815 -0.0370915175811 -0.0344792178605
0.033736695291 -0.034388499121 -0.022771198513
0.0345257289401 -0.0339516922161 -0.0199802208069
0.0387853143569 -0.0309901309343 -0.0115144853947
0.0372655917267 -0.0320557215135 -0.0185228637724
0.0391307296701 -0.0306229172616 -0.0150593181703
0.039544138419 -0.0301218782627 -0.0218310454136
0.0384614299578 -0.0313415751175 -0.00789800022332
0.0345939154787 -0.0335976047927 -0.0311454297546
0.0375150247714 -0.0316297900012 -0.0243440998615
0.0357976008079 -0.0328372460641 -0.0273449085005
