0.0985943255501 0.0605869526073 0.00783799961209
0.0939597929498 0.0576362272003 0.00783799961209
0.0937502649611 0.0376552506214 0.00252660685225
0.0869483553492 0.0367244621538 0.0013015954812
0.0900541912855 0.0408731988345 0.00165166626606
0.101890636409 0.0370903310307 0.00751207421685
0.0827033930355 0.043159704657 0.00114399997983
0.0861300014001 0.0475891929271 0.0011788421791
0.0957000974932 0.0513380339696 0.00453889597137
0.0940927508963 0.0473903643041 0.00344051602742
0.0812581202565 0.0598526572571 0.00179445238762
0.0932164953363 0.0658867882435 0.00634103296603
0.0893187043766 0.0634384580475 0.00476204381285
0.0872154826481 0.059630476787 0.00340882540312
0.0857281986338 0.0555076311518 0.00220210001763
0.0916350978556 0.0541867992823 0.00376979916524
0.0979815456174 0.0551737526995 0.00587262595871
0.102998946078 0.0494147354518 0.00644528732996
0.103268850334 0.042413402354 0.00570211825446
0.0981161921186 0.0446615821084 0.0043438762324
0.105961745499 0.0459340153467 0.00696744402599
0.0982826339933 0.0368837245562 0.00353625140127
0.10558273353 0.0388027283567 0.00601446968415
0.0904431399187 0.0598163999461 0.00766572124123
0.0792022309113 0.0628153153501 0.00501021459754
0.0828534545451 0.0564216290457 0.00513383638932
0.0989835979994 0.0420995998199 0.00757836210783
0.0961342239045 0.0489647165554 0.00773760965315
0.0842915612302 0.0627292120613 0.00638588015705
0.0918270817152 0.050571376931 0.00678249557954
0.0888912703467 0.0537399827847 0.0064141825707
0.0942817680449 0.0426589056365 0.00626266890183
0.0866770425246 0.0492574734597 0.00506514790781
0.0746453479806 0.0618190650951 0.00357382561421
0.0802682783318 0.0527527069627 0.00366331573364
0.0888849303576 0.0455996770464 0.00508169291663
0.0755661178122 0.0550478400081 0.00255687299723
0.0709046723284 0.0643743941685 0.00283591786252
0.0817289325944 0.0476389006775 0.00315495204528
0.129723669974 0.00888006819884 0.012038492292
0.127342715249 0.00446300022304 0.0094848482595
0.107597517946 0.023005902123 0.00783899985254
0.109019042693 0.0137762780133 0.00816504722847
0.126701612744 0.0281601592684 0.00889054429174
0.128887014823 0.021233454821 0.00991198790084
0.124111771667 0.0208421831694 0.0137900002301
0.126229548414 0.0137538590487 0.0137900002301
0.128764812268 0.0184182674927 0.0127236749606
0.126866618211 0.0244738756044 0.0132651053499
0.112178887298 0.0298760384632 0.0105630778299
0.12078521877 0.0296420020786 0.0134015342536
0.117413852046 0.0326504201767 0.0124281388598
0.12127865912 0.0250234917791 0.0133455801006
0.112495065235 0.0244259292105 0.0104089391546
0.119611142244 0.0193244985827 0.0125228172393
0.117960113682 0.023245307309 0.012162358138
0.122133104893 0.0158061516668 0.0131907569939
0.116967309759 0.0278301942849 0.012051375401
0.114982819448 0.019910258371 0.0110181895196
0.125362199713 0.00666573049618 0.0136674386877
0.122983284152 0.0116498696264 0.0132588288723
0.121092066466 0.0354779155132 0.0137774249368
0.121235645733 0.00772045388491 0.0125002243545
0.11425951867 0.0155746375559 0.0105195702661
0.117582942384 0.0120767795739 0.0114773669205
0.119260711079 0.00458158071437 0.0115190476315
0.126810108253 0.0303448994289 0.0125160362274
0.118336669067 0.00821186099416 0.00804062142895
0.127275792108 0.0115243710719 0.00852590415707
0.12141578192 0.0126621472488 0.00815630744779
0.118758308015 0.0162763210757 0.00801741797138
0.124072228398 0.0181485890196 0.00837949223795
0.12575632174 0.0239418010107 0.0085424433953
0.113964803539 0.0105392172367 0.00783899985254
0.115290834532 0.0334284499317 0.00799746337469
0.1202078084 0.0315317554918 0.00826897484007
0.117187801907 0.020611310485 0.00796727433313
0.121304838499 0.026660109146 0.00827988306602
0.117144902799 0.0281125372361 0.00804847480407
0.129970328381 0.0136185224603 0.0117290340408
0.112930165158 0.0364499986172 0.0108629659825
0.115116223592 0.062080787762 0.0105320171322
0.112064695863 0.0560152178309 0.0136203482043
0.110582844709 0.0600713256557 0.0136214383737
0.107874810057 0.0522844271528 0.012008561112
0.101329241332 0.0651728146371 0.0116652974159
0.112255440654 0.0462820653811 0.0125798661697
0.112720977582 0.0515440972307 0.0134088239217
0.0969651053733 0.0639174353974 0.0101540356462
0.105867091516 0.0621843947043 0.0126776111151
0.104304243071 0.0565403275357 0.0114600199266
0.104952897116 0.0650866526886 0.00823522281256
0.111021981846 0.0657199902214 0.00901671815472
0.118108274642 0.0535186115257 0.00882044376401
0.117069660335 0.0575199879468 0.00897564210667
0.109022106255 0.0364499986172 0.00940021929672
0.100852123143 0.0457117947474 0.00851304483275
0.104966319238 0.0427257759916 0.00949397475377
0.106708084913 0.0476206791043 0.0109080593624
0.115188754068 0.0396585265012 0.0124841387933
0.100456067469 0.0524731919092 0.00957630369966
0.108823382304 0.0406622833891 0.0104708933822
0.115009038934 0.0586313077484 0.0131461831535
0.122258397941 0.0365553337839 0.00850392743331
0.116098534606 0.0376594652962 0.00813992530616
0.103821441281 0.0538175022125 0.00783899985254
0.107932726483 0.0498495494297 0.0079467183832
0.102381775321 0.0581895800855 0.00786823246564
0.107664427253 0.0614844273208 0.00822983282434
0.112741102324 0.0593715753232 0.00844247963202
0.108194783236 0.0559414387799 0.00811609432469
0.113443308645 0.0503261879304 0.0082597678063
0.118497760756 0.0412468923266 0.00835607137687
0.1121405885 0.0399087021885 0.00792144702267
0.11235399038 0.0447405061566 0.00805366797534
0.116854190804 0.0452301137067 0.00835008862044
0.121463256142 0.0478816038664 0.00948565196912
0.124599511688 0.0378634801986 0.0127178761404
0.123725100074 0.041992654758 0.0112103090527
0.117751497807 0.0440342515686 0.0137900002301
0.120163442393 0.040157040037 0.0137900002301
0.117170926513 0.0494246172641 0.0136731021376
0.116741564156 0.0544984196146 0.0133248247139
0.0547258844862 0.0762348873203 0.00188817653776
0.0385695989972 0.0906349717377 0.00114599999506
0.0401920370842 0.110091000795 0.00715624434572
0.0584950000048 0.09331551065 0.00614271667065
0.0351064888902 0.109719321919 0.00873676255677
0.0479149281523 0.10994651894 0.0106184581825
0.0297891111874 0.107655009044 0.00808016501995
0.0371382194719 0.0987798470639 0.00651538107365
0.0522303385094 0.10339830219 0.00991378416817
0.0550214328907 0.0905654499219 0.00653655003434
0.0437322387968 0.103627079233 0.00882826066516
0.0483943760793 0.100176656029 0.00845069670163
0.0424861963391 0.107939452766 0.00992136637282
0.0546891446751 0.108302671934 0.0116825846364
0.0506452863963 0.0898045897594 0.00572039559389
0.0465958853157 0.0929467825176 0.00609084758295
0.0538875930721 0.0851865888991 0.00480856840545
0.0413277849644 0.0998754996784 0.00740421480742
0.0439741155031 0.097090383563 0.00694798841355
0.0381212981673 0.10562113928 0.00865092231043
0.0342253634727 0.104586140475 0.00781966099854
0.0569429439798 0.103793607963 0.0106685821771
0.0527453036236 0.0948653798123 0.00748631756345
0.0503293523775 0.078384548292 0.00126780371236
0.0521123151622 0.083411831165 0.00114599999506
0.0552649490052 0.0970248115671 0.0051359058364
0.0542001881457 0.106032586189 0.00763454104655
0.053486417035 0.0931149125433 0.00367396729755
0.0524825297044 0.100387132148 0.00567301909734
0.0498661438234 0.105380568416 0.00672950724288
0.0491813415891 0.0959131802658 0.00382678342461
0.0489487512904 0.0910909838192 0.00237823929788
0.0453565733178 0.108098746625 0.00687503346504
0.0459735056795 0.100801226442 0.0048173498795
0.0415224457011 0.104662303463 0.00533381400119
0.0314903527748 0.106056270788 0.0047723884706
0.0268929406156 0.105480993148 0.00422283295065
0.0292667537925 0.100525435608 0.00276145425199
0.0494187107444 0.0869501258375 0.00124768845755
0.0432411815132 0.090801731513 0.00157245894511
0.0359538117171 0.0971974993127 0.00247920387404
0.0438667629102 0.0948486668995 0.00279393332778
0.0316308950153 0.0965040949113 0.00174846835903
0.0352136302008 0.102041975702 0.00375721597855
0.0399843103139 0.0969211354267 0.00289960996005
0.0283861759156 0.0915266535986 0.00285654129076
0.0317256061103 0.0880028750681 0.0020991306352
0.0353898238013 0.0861730149338 0.00208380588054
0.0410523251944 0.086332762744 0.00325368000693
0.047383798959 0.0812865049822 0.0024750107592
0.0368888160514 0.0931461137487 0.00477346189107
0.0544201325237 0.0803700707645 0.00345723764342
0.045531594147 0.0863927272802 0.00398249591596
0.0413439454212 0.0917592346367 0.00501983929406
0.0284282479843 0.0962173168857 0.0044421956138
0.0325908358662 0.091911749814 0.00373238401614
0.0568961264699 0.0884413464506 0.00297908795018
0.0576973043988 0.0841237182014 0.00198732894393
0.0435737261257 0.112378619077 0.0114106019712
0.0398253533644 0.116673943537 0.0122787500553
0.0348080084817 0.116881709495 0.0117090784226
0.0308985542514 0.112425634666 0.00982213167056
0.0273476394937 0.118658609624 0.0113207499518
0.0584950000048 0.116321488137 0.0117494769124
0.0313226398872 0.121390899695 0.0123020000756
0.0440676839186 0.117785804497 0.0123020000756
0.0548788665156 0.113368873644 0.0123020000756
0.025026999414 0.126992357678 0.00831200194194
0.025026999414 0.120266651918 0.00800566539764
0.0332976013439 0.126691586877 0.0102510512806
0.0382213745137 0.123902545751 0.00808642997097
0.0434282056328 0.121571554044 0.00799108499975
0.0557081708816 0.116770600226 0.00794864886918
0.0498676041088 0.119750667218 0.00815129072568
0.0416724309475 0.115221100218 0.00717841043318
0.0354314249894 0.120149292491 0.00744261678884
0.0331089628716 0.115004601852 0.00682366375512
0.0308414321338 0.118657043762 0.0071110252287
0.030956739241 0.123029901631 0.00756495076408
0.0274616480316 0.114480819206 0.00671752430505
0.0283354071342 0.127673038716 0.0101013229019
0.0515577619199 0.118887903254 0.0123020000756
0.0365792403461 0.120689298789 0.0123020000756
0.0472039532283 0.12175634347 0.0120856516539
0.0421691788293 0.123208975139 0.0121666803632
0.0479515106309 0.113002140144 0.00720068819273
0.0517333118425 0.110288538322 0.00868216113143
0.0774529154054 0.0768248061124 0.00442361162644
0.0692704820544 0.0772480557638 0.00267282535137
0.0653175480368 0.0761343420761 0.00151214757225
0.0715450904285 0.071026711158 0.00170154318375
0.0797189560173 0.0706672669852 0.00363289259833
0.0807794867993 0.0739039511158 0.00709499977529
0.0882921262256 0.0700007004774 0.00609220315032
0.072835415285 0.0804515857529 0.00425109630028
0.0667949672098 0.082187965916 0.00331679288751
0.0664839013414 0.086275870874 0.00427038604749
0.0770349954274 0.0817147030403 0.00551953375133
0.074804758043 0.0868056310603 0.00628935045145
0.0742836880201 0.0665383375716 0.00197012954282
0.0821329157449 0.0663912805131 0.00360697945356
0.0672978935245 0.0715558619267 0.00114399997983
0.0665208161242 0.0669903347504 0.00157247322998
0.0624517625191 0.0877354892401 0.00380016597467
0.0632518399801 0.095895823627 0.00627441677709
0.0714820565387 0.0745641752868 0.00581739623441
0.0744263670644 0.0718126931234 0.00581784336109
0.0775132868225 0.0674388373906 0.00539906749993
0.0633602102416 0.080571491029 0.00535915785111
0.082737118754 0.0684750419089 0.00704553572225
0.0607468954975 0.0837077705963 0.00550789342679
0.0676516536994 0.0794176570149 0.00611389823953
0.0612236421073 0.0771998429218 0.00379468686216
0.0623792570475 0.0723646614311 0.00265132094698
0.0861696394056 0.0747826429853 0.00703690217881
0.0682036396037 0.0929801572319 0.00653085224561
-0.0720009342994 -0.0579508005776 -0.00554903241878
-0.0715716489119 -0.0642005112594 -0.00118629132706
-0.0719338309248 -0.0461623276277 -0.00699467044252
-0.071677672054 -0.0562572393159 -0.000733526607373
-0.0725116385222 -0.0523183663117 -0.00231353981086
-0.0802973474198 -0.0396287696298 -0.00230527419901
-0.0756189008053 -0.0447594411143 -0.00383898921241
-0.0763905156841 -0.0507853089541 0.000625444979621
-0.0749683725111 -0.0390405909103 -0.00799419574843
-0.0801400572514 -0.0476235145606 0.00124488597876
-0.0814197853021 -0.0436704355053 0.00115407269813
-0.0817351207563 -0.0414195359639 -0.0060326360099
-0.0791294416856 -0.0403605930905 -0.00916894054522
-0.0739840201454 -0.0438404701383 -0.0100140003487
-0.08092788728 -0.0510307828592 -0.00148163949897
-0.0793973720033 -0.0452116105337 -0.00643479804988
-0.0841431189588 -0.0442198499244 -0.00212806898217
-0.0811396129891 -0.0473508862615 -0.00340030774553
-0.0734660311413 -0.053900068811 -0.00693282675814
-0.0746711992737 -0.0597578025564 -0.00218176814853
-0.0757678605527 -0.0492391059014 -0.0077313328947
-0.0775345879593 -0.0551459498407 -0.00237986939184
-0.076535293457 -0.0335295561968 -0.0089657428113
-0.0779833575367 -0.0290645095366 -0.00924001366216
-0.0810239369098 -0.031213426325 -0.00530850583824
-0.084049655009 -0.0321376409168 -0.00189906903998
-0.0852442031462 -0.0279300248516 -0.0023877476275
-0.0895904451612 -0.0319868076905 -0.00141488283459
-0.0872497498563 -0.0356007567235 -0.00224989025148
-0.0842008122479 -0.0328449847628 -0.00709871332266
-0.0859053517843 -0.02807622137 -0.00698520115798
-0.0827866040037 -0.0369444927104 -0.00649154834634
-0.0779876425031 -0.0365405846915 -0.00662921077418
-0.0605721450173 -0.057884954764 -0.00796522578755
-0.0501995819893 -0.0677053382998 -0.00911919160295
-0.0640866675137 -0.0633034151687 -0.00786589973442
-0.0563450011506 -0.0664375008853 -0.00524763086728
-0.0637374817036 -0.0547952573121 -0.00784306148881
-0.0584908947657 -0.061996073797 -0.00657991559799
-0.0669306080293 -0.0567938236916 -0.00513330307721
-0.0514000420651 -0.0723651194203 -0.00480700004846
-0.0640650696013 -0.060589730359 -0.00480700004846
-0.0616172482544 -0.0648419532778 -0.00480700004846
-0.069715007209 -0.0515092047615 -0.0070056758628
-0.0483466629212 -0.0760687458178 -0.00676766271065
-0.0551021415606 -0.0678122789389 -0.0100140003487
-0.0555475937846 -0.0727458862809 -0.00657839728005
-0.0502831894241 -0.0733906750262 -0.0094986349383
-0.0585059155886 -0.069965304831 -0.00673968048755
-0.0599200389432 -0.0660871190589 -0.00900980119527
-0.0675753558193 -0.0589797432893 -0.00856889244639
-0.069485653527 -0.0550766893351 -0.00958657720032
-0.0553659797609 -0.0773853840011 -0.00294666616883
-0.0668447061186 -0.0692950909395 -0.00148787031127
-0.0673974060884 -0.0645450745472 -0.00393707212715
-0.0623186354452 -0.0704426510147 -0.00345776936891
-0.0622981832934 -0.0707919096026 0.00114399997983
-0.057045570764 -0.0691890784425 -0.00181617344642
-0.0507676313071 -0.0754287201396 -0.0011442640813
-0.0608533813098 -0.0674588713214 -0.000465352945267
-0.0684671806829 -0.0600179980035 -0.00117198079396
-0.0645082411794 -0.0641806697229 -0.000553219674313
-0.0604831429682 -0.0755920543923 -0.00119354180444
-0.0539726403586 -0.0812533807692 -0.00094225148978
-0.028730867348 -0.0882141434584 -0.00516891566867
-0.0357148408944 -0.0761828313394 -0.0100140003487
-0.0358978598298 -0.078514372233 -0.00550680320145
-0.0299432555749 -0.0842660744024 -0.00257492734249
-0.0399185033571 -0.0799714710981 -0.00263129072218
-0.046215759566 -0.0712926417754 -0.00809198851266
-0.040597501899 -0.0762597451836 -0.00574363622443
-0.0450572815712 -0.0754302235381 -0.0100140003487
-0.0358834179984 -0.0809317075367 -0.0100122599499
-0.0436505107308 -0.0798019212883 -0.00761247866616
-0.0400934647702 -0.0789197506968 -0.00979275181451
-0.0385668570457 -0.0829748126262 -0.00691127288642
-0.0423706702397 -0.083095253223 -0.00441275512201
-0.0395729069179 -0.0732645048176 -0.00912895435234
-0.0252624071261 -0.084879564614 -0.00397688008493
-0.0250380071099 -0.0813835067824 -0.00777913363958
-0.0294367585632 -0.0805854788018 -0.00643618033534
-0.0213759426938 -0.0896563173137 -0.00566232624159
-0.0253846669334 -0.0906537999115 -0.0019642849074
-0.0465505849798 -0.0774514360613 -0.00242786735064
-0.0243391147242 -0.0873294804144 -0.00802107012398
-0.0361882145734 -0.0863292378175 -0.00423599025193
-0.0300054319033 -0.0847645891581 -0.00903060368949
-0.0369647499894 -0.0827316649355 -0.00144654605068
-0.0215694370709 -0.0895507377848 -0.000720915704591
-0.0321671610757 -0.0904627101877 -0.00116098125003
-0.0464030447707 -0.0831119028816 -0.0018309999723
-0.0360929247476 -0.0866603059327 0.00114399997983
-0.0286969367447 -0.0893045064191 0.00114399997983
-0.0389388122057 -0.0897282948747 -0.000130681138583
-0.0448803168373 -0.0873487329803 0.000481975371595
-0.0277633945377 -0.0944608811338 1.00325714875e-07
-0.00728870577907 -0.0858397032821 -0.00664541276207
-0.00511892431499 -0.0901930089311 -0.00239905127767
-0.0152775262005 -0.0907341731571 -0.00685328419394
-0.0187962850557 -0.0927009103649 -0.00437311301414
-0.0201707225802 -0.0960140878237 -0.000990049975613
-0.0186599467114 -0.0883289064779 -0.00854445603445
-0.014470615916 -0.0870639772608 -0.0104105455325
-0.00334291835116 -0.0884839040637 -0.010051988404
-0.00614166014165 -0.0913853008963 -0.00715012642465
-0.00615074391914 -0.0981156389502 -0.000143285846453
-0.00822300633327 -0.0958694808194 -0.00233457009035
-0.0130969352129 -0.0950492935336 -0.00277203360044
-0.011068280174 -0.0908114135081 -0.007429497451
-0.0135625155847 -0.0909826034061 -0.000363928765621
-0.0174107006901 -0.0845353709279 -0.00652541375728
-0.0115877178901 -0.0883074516609 -0.00342273765923
-0.0167069356963 -0.0890403062153 -0.00194099792971
-0.0210970006883 -0.0818995738511 -0.00962206416524
0.00608090842648 -0.0939362640114 0.00114399997983
0.0190343037541 -0.0958117607469 0.00114399997983
0.00833606881411 -0.0848815685807 -0.00719341433031
0.017638145424 -0.0847793749664 -0.00633169461344
0.0198319059758 -0.0878533904302 -0.00278519332011
0.00418625829576 -0.0855223668967 -0.0069355335986
0.0148673854751 -0.0885310459324 -0.00257267014835
0.0128987784006 -0.084562475682 -0.00706098740117
0.0163268699453 -0.0823018448583 -0.00914229600329
0.0031372639364 -0.0890456709156 -0.00353181662308
-0.00202750276948 -0.0878023933377 -0.00546437362209
-0.00152001527893 -0.0841640292203 -0.00903602229549
-0.000601031551489 -0.0913890022785 -0.00168651719403
0.00863013839414 -0.0902680530005 -0.00157639341384
-0.00249999994412 -0.0926434326955 -0.0055944843289
-0.00076756897441 -0.0954335605676 -0.00277126834581
0.019553126302 -0.0853694040929 -0.010758000426
0.00154869283021 -0.0903681590835 -0.00816807062648
0.00495588940047 -0.0950925286163 -0.00344237124889
0.0133618096407 -0.0888895713607 -0.0090673504723
0.0102509216591 -0.0937224462004 -0.00449340202378
0.00837307133442 -0.0892972030749 -0.00907625945372
0.0189974208452 -0.089750557611 -0.00699914232759
0.0102135688364 -0.0971991124936 -0.000814783711668
0.0182340102861 -0.0933528125957 -0.00357009620885
0.0147338197832 -0.0957457254854 -0.00160443340999
0.00679838522249 -0.0987978520587 0.00031673110511
0.0287295317156 -0.0882676617306 0.00112603143342
0.0282449370373 -0.0851981470124 -0.00185604972773
0.0382573706347 -0.0817748755132 -0.00139197841855
0.0328374744426 -0.0844446613651 -0.000896044187919
0.03697182418 -0.0783854849963 -0.00495433210198
0.0242269448218 -0.0836678898875 -0.00518724280233
0.027409922044 -0.0787324985222 -0.0087648494871
0.0350665231676 -0.0754098049492 -0.00854624155131
0.0325882682116 -0.0792593319636 -0.00575366052062
0.0390519506443 -0.0728092799605 -0.00933147615527
0.0239542726093 -0.0870667207711 -0.00180893952541
0.0416172491861 -0.0805655986129 -0.00781515053265
0.0385393826812 -0.0863113085981 -0.00360510824826
0.0345710819566 -0.0837512882375 -0.00815280642819
0.0326788896409 -0.0906447716569 -0.00137653142166
0.0282733053688 -0.0925103924577 -0.00114083828906
0.0337502889757 -0.0877215733653 -0.00416800502257
0.0417737593352 -0.0803289436466 -0.00270951203244
0.0207649163719 -0.0815247177956 -0.00981920547284
0.025618557821 -0.0833618290986 -0.010758000426
0.0306893566316 -0.0822267808575 -0.0104340256826
0.0374626786489 -0.0793659838505 -0.0105189165734
0.0219842157142 -0.0940704803178 -0.00164484941363
0.0286604820104 -0.0885892442369 -0.00529733829684
0.0253449513365 -0.0869308871727 -0.00795386443713
0.0247157884642 -0.0912801375663 -0.00375101028758
0.0307053186965 -0.0857578070406 -0.0075487098302
0.0676428281192 -0.0625951913889 0.000863161267538
0.0497835714696 -0.0675996383811 -0.00727871034072
0.0635190452408 -0.0627177046833 -0.00210276207231
0.0536759029871 -0.0630028137145 -0.00918988084408
0.0579395225464 -0.0642217912423 -0.00470884011599
0.0507682851639 -0.0758364816621 0.000648176247658
0.0577703035982 -0.0694571347664 -3.10948621578e-05
0.0454566304851 -0.0777307271974 -0.00140608009067
0.049123462966 -0.0724562743718 -0.00344894542142
0.0452948983197 -0.0714660235706 -0.00698486654978
0.0427684511005 -0.0760492753096 -0.00474920141724
0.0554181437272 -0.0677141367142 -0.00319340871869
0.042132999748 -0.0767490347043 -0.009881252289
0.0477868487371 -0.0696996350013 -0.010758000426
0.0564370748739 -0.0738696876521 0.00130828512132
0.0647297341669 -0.0655665579489 0.00117106240986
0.0434452269166 -0.0869713928876 0.00119654269637
0.0518154416205 -0.0746848810033 -0.00723210279873
0.05549734868 -0.0727570444989 -0.00670652392799
0.0496741933253 -0.0778666338065 -0.00547655862678
0.0596603949928 -0.067889310439 -0.00797752254188
0.0607642354751 -0.0740842623864 -0.00121420372179
0.0592468882472 -0.0718750809079 -0.00464225653369
0.055319157161 -0.0767013054877 -0.00279370505686
0.0481216185593 -0.0738226826716 -0.0100673544826
0.0567403096191 -0.06567253526 -0.010758000426
0.0524409905552 -0.0710950202689 -0.0100389758051
0.0720230985969 -0.062661076747 -8.18632386677e-05
0.0630810746308 -0.0653731673966 -0.00700683371409
0.0669780877021 -0.0656594623782 -0.00295192385696
0.063898581081 -0.0685467971865 -0.00346371387881
0.0677601299947 -0.0683130660203 -9.75767325825e-05
0.0486174254204 -0.0812604329084 -0.00274612892697
0.045024824223 -0.0801742616438 -0.00622112324199
0.0430392814814 -0.0848675969151 -0.00247338345338
0.0585262837563 -0.00807391803999 -0.00918870865531
0.0613033959996 -0.0119047142393 -0.00922671680367
0.0672804866309 -0.0226315970647 -0.00922743667609
0.0669215493573 -0.0178892191552 -0.00936127771934
0.0617682964144 -0.0183530652999 -0.00904336869788
0.0650281948526 -0.0321330353717 -0.00878471115298
0.061810569407 -0.00471162457677 -0.00949150449387
0.0639878138467 -0.0269911674777 -0.00889156804844
0.0595130737699 1.52632760324e-05 -0.00951094842836
0.0696559995413 -0.0417798514515 -0.0122480291209
0.0562670007348 -0.0207872635776 -0.00945375620568
0.0675940025602 -0.00375894754544 -0.0124877735245
0.0666459630341 -0.00763370595098 -0.0125846522605
0.066013676922 -0.0120872400989 -0.0126960018504
0.0636902802822 -0.00188476922774 -0.012440914338
0.0580876492809 -0.0230656941549 -0.012720989292
0.0624137751351 -0.00825879717963 -0.0125752994641
0.0660826006233 -0.0267485269093 -0.0129714578327
0.0608278757686 -0.020220825859 -0.0127380842055
0.0583011607494 -0.00262256330007 -0.0123838222354
0.0616853956758 -0.0148890670472 -0.0126690850826
0.0662073418064 -0.0211265091578 -0.0128802936148
0.0591738935709 -0.0347053745713 -0.0129414869629
0.0623873821306 -0.0310964744364 -0.0129569694848
0.0618081275734 -0.0261811435031 -0.0128610084125
0.0572431234558 -0.0271319411084 -0.0127691111508
0.0680169939518 -0.0318608143138 -0.0129890004173
0.0691332797333 -0.0362881504568 -0.0129890004173
0.0653548146991 -0.0368793649785 -0.0129890004173
0.058542541881 -0.039704340501 -0.0129890004173
0.0696559995413 -0.0292173415362 -0.00950614615987
0.0593090264677 -0.0608779321135 -0.011648054792
0.0693997728393 -0.0505513679027 -0.0112878686598
0.0677314494085 -0.0549726631622 -0.0100501789539
0.0639800306431 -0.059912017108 -0.00923047223747
0.0586343531335 -0.058250665588 -0.00856484471096
0.059742899881 -0.051777163755 -0.00862596253558
0.0598209741318 -0.0322621819506 -0.00885618834066
0.0650640527131 -0.0516713598484 -0.00855225112307
0.0662341852459 -0.0365532947612 -0.00871497181261
0.0620587193903 -0.05515677572 -0.00855327567654
0.0604473120933 -0.036842048694 -0.00879307575264
0.0570797016295 -0.0287784372181 -0.00893610344007
0.0578498882464 -0.0438288693346 -0.00874684880679
0.0578539699345 -0.0156417841576 -0.00908091398844
0.0667721566782 -0.0419615900859 -0.00864328416591
0.0686269515597 -0.0466603238315 -0.0085614557835
0.0617867023828 -0.0473494478445 -0.00864965403227
0.062479449337 -0.0417534922153 -0.00870622752287
0.0657755460764 -0.0477005753789 -0.0128428564972
0.0564438917064 -0.0459671677259 -0.0129795381074
0.0582980033666 -0.0541074052021 -0.0129890004173
0.0632770483882 -0.0431570802958 -0.0129890004173
0.0608928832911 -0.0511499051507 -0.0129890004173
0.0562670007348 -0.0120950491251 -0.0114627175068
0.0606993322687 0.0038948156758 -0.00984592232448
0.0669774707575 0.00249803545324 -0.0101166315614
0.0786868321257 0.00595099991187 -0.00952216437946
0.0707372588175 -0.0260703934455 -0.0129890004173
0.0731105160713 -0.0196832712034 -0.0129890004173
0.0745531687039 -0.0048874683812 -0.0129890004173
0.0787873333596 0.00289765233689 -0.0129890004173
0.0701557006143 -0.01401151331 -0.0129890004173
0.0709252501798 -0.00672634737614 -0.0129890004173
0.0733704973261 0.00588424326187 -0.0129890004173
0.0716446462957 9.02566324517e-05 -0.0129890004173
0.0768031599637 -0.000605752761357 -0.0129890004173
0.0746054070302 -0.0147375721038 -0.0129890004173
0.0705959809002 -0.0381629444149 -0.00877944044228
0.0712069220182 -0.00998889837529 -0.00986151508663
0.0816355999184 0.00261859596891 -0.00882270805858
0.0752030592174 -0.00246769081569 -0.00957552711505
0.0726354321007 -0.0253295112994 -0.00900820414506
0.0777501301001 -0.0163275126697 -0.00861615024445
0.0752357547211 -0.00880651228923 -0.00930655542583
0.0739802510896 0.00309794689592 -0.0099907737149
0.073709231924 -0.0308154619433 -0.00861862445775
0.0792178007418 -0.011610489662 -0.00859254504694
0.0754800893796 -0.0196569673179 -0.00881789392621
0.0818304930053 -0.00257405010234 -0.00857715948501
0.0715552248297 -0.015948227301 -0.00956102002652
0.0781790628278 -0.00546850081328 -0.00900419621184
0.082755984076 -0.0169527452251 -0.0085270004347
0.0767944007348 -0.0269802090916 -0.0085270004347
0.0744010438347 -0.0356603061514 -0.0085270004347
0.082262161825 -0.000702083374069 -0.0124027601901
0.0854430754109 -0.00307914571943 -0.0108629821367
0.0730052384846 -0.0309503770699 -0.0129890004173
0.0748686079942 -0.0251268025616 -0.0129890004173
0.0791346700408 -0.00421718109268 -0.0129890004173
0.0736412572387 -0.036220522595 -0.0126795063483
0.0787573288806 -0.035009959718 -0.0085270004347
0.0744955503617 -0.0410444486971 -0.0114039162024
0.0719811713751 -0.0452821501653 -0.0113322850919
0.0879227715425 -0.00614517383223 -0.00853286375713
0.084724211368 -0.0220085706242 -0.0100575123059
0.0861456951208 -0.0105283124878 -0.0101422687907
0.0827137306996 -0.00719261852316 -0.0121891612018
0.0822131175763 -0.0125456929836 -0.0123134276241
0.0791423949988 -0.0172157233744 -0.0127212734995
0.0790616893838 -0.00885599892388 -0.0129250950326
0.0788066374102 -0.0221073787658 -0.0126621097169
0.0789170752075 -0.0301583565294 -0.0118407644332
0.0829433146062 -0.0284188252209 -0.00995389499461
0.092012909162 -0.0229881798465 -0.000789692972874
0.0888978250062 0.00569536580086 -0.00851522222824
0.091292628371 -0.0164616585847 -0.00355397871339
0.0946361848265 -0.00652738601225 -2.34624266969e-05
0.0916738250723 -0.0113275498386 -0.00409524973671
0.093271628393 -0.000579219424795 -0.00257457446502
0.0916884140498 -0.00495215751954 -0.00459448155094
0.0894450805013 -0.00117039128569 -0.00772619495194
0.0835403786303 -0.0282948665994 -0.0046281870882
0.0813714624712 -0.0250208009538 -0.008310871566
0.0882931034803 0.00137968029597 -0.00352284124293
0.0829649713113 -0.0205918163178 -0.00625292182661
0.0844833298448 -0.0106923402969 -0.00628331199955
0.0857829227436 -0.00282571371444 -0.00617455917733
0.0884082070702 0.00570971677923 -0.00432048907146
0.0866191680398 -0.00698838881435 -0.00405497469408
0.0857281278158 0.0026531675767 -0.00747018965016
0.091366504302 0.00118740382431 0.000401812896716
0.0895337097706 -0.0148464826826 0.000616286347979
0.0866593140087 -0.0127339295775 -0.00303995064336
0.0851163215973 -0.0164471951273 -0.0043196682231
0.0854653319247 -0.0234963018327 -0.00290728685237
0.0893871014518 -0.00833378811984 -0.000469518075312
0.0879159190941 -0.0194065177234 -0.000617534556392
0.0928518715093 0.00410297153036 -0.00279000312285
0.0905005276187 -0.0283499125607 0.000162756238285
0.0891587409217 -0.0260997360389 -0.00345744063705
0.0879670606642 -0.0133893778535 -0.00801230438269
0.0876485506583 -0.0180256080809 -0.00793237044273
-0.077952566133 0.0374349647734 -0.00543677667422
-0.0719014505892 0.0429580693077 -0.0084732177785
-0.0795785808125 0.0444750542798 -0.000531701659794
-0.0749952648593 0.0425642078967 -0.00565909240563
-0.0804210069877 0.0397962127641 -0.00176870749692
-0.0838985889706 0.043264938405 -0.00207296451853
-0.0778665369331 0.0421877595034 -0.00843016553267
-0.0842770851154 0.0391487513445 -0.00376527376562
-0.073060150315 0.0613804725221 0.00161822167248
-0.0749815083111 0.0533615431903 0.00116519307506
-0.0789230810333 0.0461260005832 -0.00447925269084
-0.0747106218948 0.0476405068593 -0.00825217363512
-0.0667219916804 0.0586979275762 -0.00867510876848
-0.0667634342497 0.0691242233529 -0.000504964789052
-0.0635309471583 0.0638281773551 -0.00657367172823
-0.0700674560431 0.0644029279416 -0.00140338697939
-0.0682631274558 0.061119502244 -0.00553633031751
-0.072773164189 0.057895383122 -0.0038094429822
-0.0699922300611 0.0542020931613 -0.00908200900321
-0.0822359556928 0.0475334912774 -0.00112806045926
-0.0762774306598 0.0591060746351 0.000542855972888
-0.0778577431723 0.0506979655807 -0.00396351742945
-0.0795234467608 0.0538113596092 -5.08885285844e-05
-0.0742960683833 0.0533765346189 -0.00558984193022
-0.0706581403575 0.0468334350616 -0.00747873854997
-0.074306991995 0.0469021248609 -0.00400896865332
-0.0657967119262 0.0642659930145 0.000781978302811
-0.0653455925677 0.0597836380282 -0.00287432907698
-0.0689569696481 0.0594101490175 0.000178619861206
-0.0680701571697 0.0519766740788 -0.00601255834598
-0.0721420663901 0.0560814976975 0.000702436129072
-0.0696989190961 0.0542618990552 -0.00286139266103
-0.0655383239305 0.0551168188276 -0.00629780903685
0.000750044531178 0.0872982333527 -0.00852600019425
0.00392730162836 0.0806195844122 -0.00955531348826
-0.00973770197711 0.0810443509932 -0.0102674908588
0.0203988875109 0.081185507625 -0.00852600019425
0.0161420882919 0.081416797446 -0.00854667873912
0.00998018378439 0.080578547984 -0.0092101043691
-0.000282705610408 0.0820137488541 -0.00889939295081
0.0295714290384 0.0774173452798 -0.0101810274836
0.0224326285024 0.0779838602963 -0.010553149368
0.0170525237737 0.0857169393958 -0.0101285640888
0.0243702383027 0.0828373825087 -0.00852600019425
0.0128112866036 0.0856126084521 -0.0107242092432
-0.00447948969496 0.0883099863522 -0.00927178185621
0.0498153652597 0.0722685702962 -0.00999502969518
0.0428869780946 0.0738718772655 -0.00852600019425
0.0385674564477 0.0795215104841 -0.00870512953233
0.0512389638457 0.0647202725845 -0.00852600019425
0.0606760813601 0.0560858357231 -0.00852600019425
0.0440518147113 0.0688496600129 -0.00852600019425
0.0665886264164 0.052308436367 -0.00852600019425
0.0586047468318 0.0665392378722 -0.00935030341988
0.033831757777 0.0797608072509 -0.0106494011109
0.0511132077389 0.0609114133111 -0.0102037530044
0.0551387114528 0.0585282347681 -0.00950421767122
0.0466350271014 0.0648383105731 -0.00973863336232
0.0393090827108 0.0717939823723 -0.00890240097433
0.065357850028 0.0565762266429 -0.010758000426
0.0704256378375 0.0499214166699 -0.00673196386962
0.0724205546369 0.045356189221 -0.00770431531476
0.0711546922575 0.0536890959599 -0.00343766660116
0.0760646145648 0.0541489243823 -0.003201710044
0.0719161630914 0.0550954530727 -0.00696211395395
0.0766561004484 0.0489274186804 -0.00658289412572
0.0768008097657 0.0459931291604 -0.00288005281121
0.0662624917478 0.0567141610941 -0.00677703521586
0.0597129060453 0.0651316626741 -0.00384117164315
0.0591196276228 0.0623772414319 -0.00792504879724
0.0648312751912 0.0604775144253 -0.004112797444
0.0707104194249 0.0586970190573 2.98210796115e-05
0.0539199677926 0.0696376513587 -0.00833800410252
0.0668079293707 0.0619087049404 -0.00053351056567
0.0574006084204 0.0694965582295 -0.00213587612976
0.0616841929552 0.0670323273466 -0.000576423431934
0.0761343648318 0.0592940905135 0.000569395177058
0.0634036765402 0.0716502585414 -0.00168278035392
0.0654988830404 0.0607347302586 -0.00852499995381
0.0654336501491 0.0683920562575 -0.00299850636905
0.0631872737724 0.0645698292168 -0.00777937527706
0.0614637628097 0.0682343984621 -0.00596058362663
0.0574782004444 0.0703363789076 -0.00705448765738
0.0706906267615 0.064411781326 -0.00164991457577
0.0675506634053 0.0640636379162 -0.0045967363693
0.0730396032814 0.0593705143418 -0.00319975837422
0.0700068540774 0.058778282057 -0.00636171976852
0.0866015604245 0.0100716923228 -0.00615550658257
0.0847912887352 0.0148042679447 -0.00732338367192
0.0877699476142 0.0156687833192 -0.00268144116404
0.0851010457544 0.0239594564448 -0.00431328753675
0.0906022978287 0.00807614291155 -0.000688230494058
0.0899108880192 0.0243935326034 -0.00336305616716
0.0879961539395 0.0221507096684 -0.00648014755764
0.0928393702265 0.0140105765574 -0.0023299302555
0.0919417423611 0.0196477044439 -0.00209220975708
0.0948396876763 0.00993016641996 -0.000607902888826
0.0896799569144 0.0130887834127 -0.00650105595906
0.0915085345618 0.00922153409703 -0.00477524627044
0.0853491867189 0.0337449151435 -0.00531211368719
0.0902612783131 0.030336102969 -0.00103529310836
0.087751808349 0.0283771596258 -0.00473171855578
0.0828156848988 0.0366526942043 -0.00704838064159
0.0796929269202 0.0378143071071 -0.00392845776705
0.0829590166363 0.0379221895336 0.00034457240042
0.0834350165533 0.034183410453 -0.00119377632628
0.081207185487 0.031480947173 -0.00554018428647
0.0856229117997 0.0291277636162 -0.00133189708525
0.08357384336 0.0277724696285 -0.00852499995381
0.0778419971466 0.0494299343074 0.000185447533524
0.0804361158285 0.0398214800529 -0.00815173944941
0.0778689399183 0.0438537715905 -0.00711757922964
0.0815529509447 0.0502302517927 -0.000784761861491
0.0790216815554 0.0544901133926 -0.000833871889038
0.0808485843331 0.0452941964463 -0.00449795339961
0.0833510323842 0.0419228587769 -0.00359284999777
0.0223236882273 0.0935778192833 -0.00126613815997
0.0187224578926 0.0956385716241 0.000144579773435
0.0291708698581 0.0862777558535 -0.000891124316175
0.0308071402951 0.0835823397778 -0.00341617347459
0.0354629655338 0.0813504126113 -0.00427929050022
0.0254169181465 0.0885459775371 0.000349629470152
0.0261835435493 0.0839806968618 -0.00495085381059
0.0295673020422 0.0811102879876 -0.0070863519365
0.0196363888649 0.0893893551933 -0.00101262424878
0.0229970124764 0.0898244511693 -0.00504441618878
0.0285936462765 0.0851808939769 -0.00818666870819
0.0340724622104 0.0868442255999 -0.00426360305462
0.0310443352449 0.0907196047769 -0.00145091915007
0.0288800429991 0.0878655685737 -0.00527653820704
0.0356472276901 0.0893409796494 -0.00108805371898
0.042882476305 0.0798059176458 -0.00175268976797
0.0408765223991 0.0773019430083 -0.00608828758712
0.0467385006366 0.0772135201962 -0.00198235831816
0.0558582862166 0.0736462953006 -0.00465949505964
0.0515672346299 0.0734760516619 -0.0029153796006
0.0466886651871 0.074210881982 -0.00563064977117
0.044725862681 0.0813407448739 -0.00499786025883
0.0396624195735 0.0871985650322 -0.00108556105504
0.0395533381155 0.0826820984037 -0.00598040740056
0.04943732937 0.0817701642676 -0.00173855333597
0.0523602086758 0.0779183930177 -0.00371901692757
0.0541543798655 0.0798878383724 -0.000696279469986
0.0438802187217 0.0847863211275 -0.00218541568031
0.0584072683097 0.0749911014917 0.00129359921016
-0.0983293077572 -0.0780914058825 0.0115579999983
-0.089137205548 -0.0885100875888 0.0115579999983
-0.076392084816 -0.0998107139615 0.0115579999983
-0.0683900041624 -0.108904182144 0.0115579999983
-0.0845956468402 -0.0900882681021 0.0115579999983
-0.0914647200701 -0.0853377834072 0.0115579999983
-0.081944516388 -0.0953877486866 0.0115579999983
-0.0997401316562 -0.073725032023 0.0115579999983
-0.0678162414439 -0.0926215493683 0.00840017250473
-0.0683467677266 -0.0991235617152 0.0103533340144
-0.0716146646453 -0.0911257979656 0.00903969788945
-0.0681305584153 -0.087808063982 0.00715060907261
-0.0761096501226 -0.0801230861813 0.00723229301458
-0.0756827366837 -0.0940810167493 0.0109703653555
-0.0902398655461 -0.0732047441212 0.00920222201817
-0.0801521995115 -0.088938705863 0.0107758505406
-0.0886040315588 -0.0770620001369 0.00981634269184
-0.0784517156262 -0.0853851315979 0.00933526338316
-0.0886245771317 -0.081468759157 0.0110332680279
-0.0849469529933 -0.0844933193718 0.0108616242633
-0.0938083171932 -0.0774067911417 0.0113305266853
-0.0845980808334 -0.0801041940443 0.00955999877968
-0.0756203860703 -0.0901592754453 0.0098753589529
-0.0951179999143 -0.0725613641529 0.0103558254312
-0.0936585055752 -0.0806884251835 0.00673731483623
-0.0892065377693 -0.0797903212226 0.00655278204383
-0.0836115228401 -0.0835007886771 0.00648778637885
-0.093984794997 -0.0849784942109 0.00689654543359
-0.0793191540816 -0.0888243727106 0.00652336170646
-0.0886566295754 -0.0856924620387 0.00673739618109
-0.0846144615496 -0.089226763611 0.00671988395879
-0.074737681909 -0.0924515107292 0.00649045030584
-0.0915007133542 -0.0936804974861 0.00921429511469
-0.0982605818089 -0.0865513319374 0.00739696060784
-0.0941162738764 -0.0886628641595 0.0110344541504
-0.104131759717 -0.0771238632803 0.011484275752
-0.0873611189791 -0.09362288043 0.0115579999983
-0.0962773725029 -0.0847758591873 0.0115579999983
-0.0825478688343 -0.100492672131 0.0109572677866
-0.107661417263 -0.0737853116955 0.00962262040865
-0.10024961256 -0.0830344941002 0.0103547264054
-0.0793038081287 -0.103684681005 0.0102659350999
-0.0751021174032 -0.105607574969 0.0115396555288
-0.104401353969 -0.0772856785742 0.0074120659844
-0.101249365115 -0.0804077008081 0.00705441902144
-0.0983792481803 -0.0774548573294 0.00683060760665
-0.0945035809544 -0.0751048733501 0.00657389721967
-0.097990843843 -0.0708137853392 0.00682752907571
-0.104761396153 -0.0722120019093 0.00722063558507
-0.0721338545194 -0.0961255560584 0.00653517451815
-0.0907275174245 -0.0897567161027 0.00695542001219
-0.0858222859255 -0.0963374218284 0.00703522311612
-0.0787379228475 -0.0939926501099 0.00668946233447
-0.0798746698096 -0.0987610194209 0.00691583084782
-0.0827262745345 -0.0933845840385 0.00680909946462
-0.0689992647922 -0.10036627052 0.0066117721304
-0.0734764833038 -0.100803093346 0.00677380644077
-0.0685284355167 -0.110671995767 0.00707210433695
-0.0745601316862 -0.107305222794 0.00758993975437
-0.0700259263538 -0.103167667442 0.0115579999983
-0.0729992496421 -0.0981260642135 0.0112386706563
-0.11676359428 -0.0547516177874 0.011865349468
-0.115208153108 -0.0583666615467 0.0118226302078
-0.0928979488915 -0.0583681595473 0.00733614200139
-0.102920843301 -0.0503380025226 0.00889818303343
-0.0872666237912 -0.0670168846298 0.00718629471546
-0.108821671936 -0.049022764743 0.0104181170838
-0.106275900043 -0.0537012745439 0.0104855956853
-0.101609982925 -0.0695034487745 0.0114416777052
-0.110372396582 -0.0527162334811 0.0114947704229
-0.105939332488 -0.0626977889751 0.0116746098897
-0.0954431916434 -0.0674684261566 0.00948123497126
-0.0947594223134 -0.0626537844708 0.00862665484836
-0.101182705595 -0.0652870640217 0.0107399555037
-0.101521268003 -0.0579501396685 0.00981330004972
-0.0909290270922 -0.067947922537 0.0083195957856
-0.119948920017 -0.0486590672341 0.00833113666271
-0.0999689732025 -0.0623732611249 0.00648741076517
-0.106984092412 -0.051443426287 0.00653511565482
-0.103951281889 -0.0604444224608 0.00662361368289
-0.102697490417 -0.0557640058935 0.00644578374176
-0.0984454822048 -0.0664110686224 0.0065195214693
-0.112411089629 -0.0537614229952 0.00684697181905
-0.10823163997 -0.0615802747292 0.00685204453485
-0.103870026487 -0.0664982610752 0.00677478333561
-0.107954525758 -0.0666887681798 0.00697024560346
-0.109555735796 -0.0700791032324 0.0102164460634
-0.11153101992 -0.0664425725713 0.0106245713417
-0.113950196006 -0.0621151255047 0.00797077491507
-0.117666604629 -0.0551158914313 0.00778017239044
-0.0998618922309 -0.0500880777736 0.00635199993849
-0.11030794637 -0.0575388870674 0.0120477282314
-0.106919289231 -0.067171614754 0.0118488078377
-0.112302470338 -0.0620801202527 0.0120412481529
-0.116915262385 -0.049226574325 0.0123020000756
-0.128502829583 0.0126147050475 0.012235230377
-0.12415156325 0.0362682694547 0.0122617859566
-0.1185582764 0.0208891883048 0.00857968386352
-0.121231814516 0.0408960436508 0.0079117474883
-0.118545003235 0.0260796687168 0.00992573479744
-0.121921888366 0.0359069130359 0.00789100299814
-0.124404621465 0.00755901469799 0.008110564078
-0.12333640314 0.01258872432 0.00811645730962
-0.122354765064 0.023528211279 0.00803341095295
-0.125559055029 0.0038804405794 0.00807959114271
-0.123292328414 0.0190127583278 0.00802965187104
-0.12278296191 0.0285639582333 0.00793230202627
-0.124959757572 0.0324162161368 0.0082196476177
-0.128476722191 0.0094336720715 0.00798852708253
-0.126863046854 0.0239589227426 0.00827719357864
-0.129722347418 0.0055929218097 0.0087784347018
-0.128858853979 0.014599903434 0.00875954737222
-0.128749744383 0.00822408223091 0.0119732670353
-0.124271548723 0.0185395998936 0.0130460001528
-0.12585249964 0.0238283847149 0.0128119350196
-0.120884684164 0.0402883471831 0.0129517719299
-0.12050466543 0.0346979026761 0.0130460001528
-0.125089209642 0.00971756390366 0.0130460001528
-0.121807667219 0.0261154251892 0.0130460001528
-0.119156337308 0.0161456131312 0.0117572518131
-0.120111869126 0.00913330397964 0.0115973248162
-0.121172113877 0.0207188676212 0.0127962446444
-0.122393536085 0.0129979171296 0.0126582503271
-0.123627466652 0.00480720369477 0.0124980377917
-0.125651568694 0.032391990074 0.0121674036078
-0.121931651553 0.0453485506736 0.0106310685521
-0.127307663051 0.0281208750165 0.00861295298379
-0.128538386619 0.0189750691219 0.0110099250124
-0.115890306612 0.0233372739174 0.0113825202285
-0.114387448751 0.0454301146375 0.0128298474632
-0.116786413812 0.0307373828768 0.0120949990389
-0.115101236227 0.0365598954958 0.0122667096522
-0.112594000995 0.0403608029451 0.0117119976999
-0.118543997407 0.0519686373587 0.00931995213368
-0.112994166192 0.0140801893331 0.0064768288881
-0.116766315728 0.016424527196 0.00745055215608
-0.118048417658 0.0456891217561 0.00832579601194
-0.115809124169 0.00698559871525 0.00703437425464
-0.11323531589 0.0444589025695 0.00850113910068
-0.115025439553 0.0333237785518 0.00748402900926
-0.114350893483 0.0377593908122 0.00769612131415
-0.116597587803 0.0415348477873 0.00794983322508
-0.115882225352 0.0493589605057 0.00833625976156
-0.11749228087 0.0294651202646 0.00788253970637
-0.115224854774 0.0534894062043 0.0127942820705
-0.116870464798 0.0487085200138 0.0130460001528
-0.117509727409 0.0426788402187 0.0130460001528
-0.113813175131 0.0279853834864 0.0112296473017
-0.115769130144 0.0103983259291 0.0102576710085
-0.113839760545 0.0162107071683 0.0101517333682
-0.106865560613 0.0635773971342 0.0130460001528
-0.103774769192 0.0680799877901 0.0130460001528
-0.103301819833 0.0781798944239 0.0124183181444
-0.0991654947567 0.0796782219479 0.0127530974141
-0.108711698339 0.0700255033317 0.0118919263603
-0.110994589572 0.066069311737 0.0121804745216
-0.115444306969 0.0577803915815 0.0125312860568
-0.113279948846 0.0620362351002 0.0124363573172
-0.110652472285 0.0649907608202 0.0080125759008
-0.112709563476 0.0594686586707 0.00779120564037
-0.105935611029 0.0601748311854 0.00746385279693
-0.103233239445 0.0717846047053 0.00768372925256
-0.10255993465 0.0758021135533 0.00777331439165
-0.102074805072 0.0618539222889 0.00731677437197
-0.106222096727 0.0657811220431 0.00765206958957
-0.114833598591 0.0558118071968 0.00828842287551
-0.0961007084558 0.0618906707832 0.00709600001574
-0.0916981315012 0.0717726249536 0.00716805427042
-0.0985383111358 0.0732664124376 0.00750791246622
-0.100838626585 0.0569063011943 0.00710475585803
-0.0951366551002 0.0767996265576 0.00747011702588
-0.0870513641024 0.0777874846556 0.00715289168439
-0.0946844840887 0.0669225380974 0.00714758810984
-0.0989980780863 0.0682406087489 0.00737345109636
-0.101875206716 0.0809998225634 0.00854053592929
-0.106539123939 0.0747489057733 0.00989014749669
-0.0932899171002 0.0818269997835 0.0118960053499
-0.0965079532473 0.0815603879984 0.0079456903772
-0.100401139838 0.0720216749165 0.0130460001528
-0.0865657434169 0.0814323780899 0.0109261036522
-0.089438091611 0.078332829225 0.0112873554193
-0.0970753031215 0.074102650533 0.0125790478444
-0.108109950538 0.0586637756809 0.0128196338221
-0.0933074260134 0.075240717547 0.0117763795851
-0.081294538786 0.0784187111914 0.00913876973698
-0.0936536105964 0.0690038506518 0.0107812383121
-0.0953917935275 0.0577383075671 0.00872525024583
-0.1003153748 0.0611041427391 0.0110316217821
-0.0976459581731 0.0646024391281 0.0110335886713
-0.103621410471 0.0581332833515 0.0113495693336
-0.082759654269 0.0743324184506 0.00874386774984
-0.0774082103013 0.0777509239771 0.00790208301655
-0.0868329906805 0.0715885580907 0.00935124083554
-0.061957033253 0.104379809436 0.00737387751061
-0.0634074064536 0.110231300474 0.00771115681657
-0.068160302965 0.110054295102 0.00782396158973
-0.0807583023376 0.100165112672 0.00782187244029
-0.0835475764163 0.0956591694112 0.00774392011321
-0.0766453599098 0.099652994829 0.00763237284539
-0.0843146938049 0.0906984864711 0.00756416501632
-0.0825191876741 0.0843870436623 0.00722245035464
-0.0904392487344 0.0892608297209 0.00778877686104
-0.0970410665602 0.0853746728191 0.00830229639921
-0.0866638452344 0.0855722605138 0.00747440404764
-0.0900374122717 0.0824301246722 0.00773276529711
-0.0602357861789 0.099698031931 0.00710564934503
-0.079751455784 0.0878379661121 0.00725889414308
-0.0731343904462 0.10199646346 0.00760719562646
-0.0750249857308 0.0952084353956 0.00739938521747
-0.0686221155047 0.104906028118 0.00757837174324
-0.0647466039828 0.097982268896 0.00718156349225
-0.0694393162412 0.0971505225845 0.00729817556746
-0.0783995076545 0.0922423899159 0.0073897439051
-0.059636341082 0.107873787004 0.011958304595
-0.0695862365426 0.10194267374 0.0127931047082
-0.0728709045789 0.0983229541624 0.0125999013736
-0.0648747758666 0.105497178879 0.0126877970174
-0.0779145289599 0.0922149794768 0.0121568478231
-0.087525898677 0.0870053910542 0.0128652590597
-0.0830270148763 0.0892547847176 0.012486468877
-0.0675438757651 0.0967811596552 0.0110171393692
-0.0595428046161 0.102098393368 0.0106437217391
-0.0604404912808 0.095929232195 0.00904620600717
-0.0729600130866 0.0934652342778 0.0113533047544
-0.0811876791827 0.0857075318013 0.0110636328127
-0.0769395441918 0.0875576903832 0.0105791181847
-0.0641822802091 0.100759880868 0.0113735337427
-0.0694242392295 0.0917189202925 0.00998325665144
-0.0610460680645 0.112597901605 0.0123624043012
-0.0729177013775 0.104682733034 0.0130460001528
-0.0763611053394 0.100809959996 0.0130460001528
-0.0960047716717 0.0853951852731 0.0130460001528
-0.0905238857727 0.0917020616911 0.012720971029
-0.0820859503588 0.0997280868234 0.0125933281973
-0.0850642834999 0.0953708459422 0.013009201065
-0.0726140991295 0.108534953564 0.00835230638606
-0.06761913041 0.110022142328 0.0125148128099
-0.0894595738449 0.093748870819 0.00836627812389
-0.0792986506062 0.103797319324 0.00917125283701
-0.0757586453129 0.106693812138 0.00955478662546
-0.0784050073829 0.0832130670448 0.00956154787133
-0.0654078823834 0.089691876886 0.00838072097408
-0.0714200456048 0.0870996202263 0.00905866316064
-0.0996275476984 0.0834744316501 0.0113552068545
-0.0951587252105 0.0888142477654 0.0108263196578
-0.0856376603163 0.0983651618493 0.00968395593284
-0.0590906003448 0.111867764786 0.00814074169201
