-0.0297711253114 -0.00618810370202 -0.00716250943848
-0.0163136904087 -0.00571921132744 -0.00740586895561
-0.0183235475186 -0.00562852995123 -0.00736505105734
-0.031353657961 -0.00714997382779 -0.00715912459029
-0.0228477718349 -0.00720614620415 -0.00732275275932
-0.0229355453024 -0.0044704391285 -0.00724494926613
-0.0270738458463 -0.00641070884347 -0.00722009624665
-0.0245909184627 -0.00605341263876 -0.00725746105622
-0.0271207262769 -0.00452121465174 -0.00716662088862
-0.0208178525403 -0.00630392003741 -0.00733632159989
-0.00770800001919 -0.0157227432616 -0.000374189325225
-0.00770800001919 -0.0156869038346 -0.0035519406085
-0.00935923719559 -0.0179752346148 -0.00160455632644
-0.0100681645446 -0.0176273423606 -0.00380612302878
-0.0114603435758 -0.0186117118908 -0.0026184145699
-0.013468874816 -0.0194053467279 -0.00236721839993
-0.0153110833063 -0.0199111301297 -0.00352154624489
-0.0379783458369 -0.00355097189575 0.00540302143271
-0.037463431878 -0.0019735073408 0.00427958262085
-0.0316979949055 -0.0150778150722 -0.00659008839244
-0.0284039400262 -0.0156953258182 -0.00698326949925
-0.0322761861312 -0.0120568307496 -0.0069072108759
-0.0337228228583 -0.0109076113915 -0.00685094346598
-0.0288515830806 -0.0176105769154 -0.00666479986022
-0.0349537700169 -0.00912391073593 -0.00690762537682
-0.0306345436482 -0.0170796948225 -0.00645703666774
-0.0367841941282 -0.00946742491186 -0.00646736921108
-0.0355645616008 -0.0118267919389 -0.00622251351758
-0.0382463486403 -0.00760205855865 -0.0064856735686
-0.0132654514081 -0.0190855138478 0.00417743886133
-0.00912741879373 -0.0176499606045 0.00339133278834
-0.00911144746287 -0.0179564265328 0.00114643459701
-0.0112354388616 -0.0185935365349 0.0026354940747
-0.0215739747103 -0.0148053720814 -0.00707358428084
-0.0257181554323 -0.0184964390493 -0.0067962268373
-0.0227334507879 -0.0162710940894 -0.00695226183897
-0.0201456634621 -0.0129933330771 -0.00722369031857
-0.0162858279986 -0.0111056164859 -0.00732550362667
-0.0250656963876 -0.0155110755836 -0.00708265141564
-0.0268256623814 -0.0203464553055 -0.00646480122429
-0.0205261967127 -0.0167568137865 -0.00679737589818
-0.0248739763297 -0.0203901787877 -0.00644517440772
-0.0234909431669 -0.0180282928388 -0.00675665545723
-0.0214686425748 -0.0184555468667 -0.00657036123937
-0.0185962939613 -0.0167770204303 -0.00668367576682
-0.00770800001919 -0.00897918462048 -0.00724310151885
-0.0121059089564 -0.0130201138679 -0.00692354130744
-0.00981359880603 -0.0117332928552 -0.00699606361202
-0.0487725289911 0.00107096009129 0.00601483513579
-0.0433529012488 0.000964469773038 0.0061023513111
-0.0508200631695 0.00133099575113 0.00598060341788
-0.0347711418635 0.000613390099106 0.00624189925226
-0.0170142298373 -0.000882000022102 -0.00493502973847
-0.0272151553904 -0.000882000022102 -0.00262411900351
-0.0211352743653 -0.000882000022102 -0.0048811426711
-0.0231275458251 -0.000882000022102 -0.00448680579206
-0.0363527393156 -0.000882000022102 -0.000701117343549
-0.0157272543268 -0.000882000022102 -0.00634779367497
-0.031311277809 -0.000882000022102 -0.00264565191958
-0.0347443610272 -0.000882000022102 -0.00170523212294
-0.00770899979398 0.000577706749894 0.00375617934555
-0.0093216301349 -0.000882000022102 0.00308587429242
-0.0279997319361 -0.000882000022102 0.00156944617522
-0.0198439629346 -0.000882000022102 -0.0024602758577
-0.0301800753328 -0.000882000022102 0.000663922756108
-0.0154528615119 -0.000882000022102 0.00355386529785
-0.037276693154 -0.000882000022102 0.00233033381978
-0.045950426755 -0.000882000022102 0.00439961741439
-0.0520717597968 -0.000882000022102 0.00397904682522
-0.035737571353 -0.000882000022102 0.00120356826099
-0.00916118973223 -0.000882000022102 -0.00515117970875
-0.0575225939678 -0.000882000022102 0.00482419522898
-0.0322361362339 -0.000882000022102 -0.000976917943292
-0.0300112379864 -0.000882000022102 0.00458890233003
-0.0148335233548 -0.000882000022102 0.00570389943161
-0.0395699881157 -0.000882000022102 0.00155916473685
-0.013166731613 -0.000882000022102 -0.00440677484531
-0.0251540114211 -0.000882000022102 -0.00236025595274
-0.0258266375478 -0.000882000022102 0.000464480496787
-0.0393863152485 -0.000882000022102 0.00341601819922
-0.0420605565241 -0.000882000022102 0.00434991430291
-0.0327836847317 -0.000882000022102 0.00308007590628
-0.0202793342622 -0.000882000022102 0.00509791481503
-0.0278568414193 -0.000882000022102 0.0046717993349
-0.0120456356169 -0.000882000022102 0.00559192989932
-0.0252967882389 -0.000882000022102 0.00221444128467
-0.00868542595852 -0.000882000022102 -0.00081637416715
-0.018337642859 -0.000882000022102 0.000233966419732
-0.017492111043 -0.000882000022102 -0.00155459735848
-0.0112303527547 -0.000882000022102 -0.0013951869386
-0.0307943648709 -0.000882000022102 0.00232959423561
-0.0432043799621 -0.000882000022102 0.00165985296225
-0.021279902872 -0.000882000022102 0.00319766364542
-0.0488527998399 -0.000882000022102 0.00388082737217
-0.0443268009677 -0.000882000022102 0.00323376766445
-0.0221973529054 -0.000882000022102 0.00561493834438
-0.0258051995791 0.00285400007851 0.00333285528451
-0.0351394694701 0.00285400007851 0.00135223576806
-0.03782971519 0.00285400007851 0.00456846822207
-0.0374041464665 0.00285400007851 0.00244033704871
-0.0319944860327 0.00285400007851 0.00471178580835
-0.0553481271468 0.00285400007851 -0.00284648209896
-0.0525966001999 0.00285400007851 -0.00318553605498
-0.0164840689776 0.00285400007851 0.0037712065182
-0.0411901174838 0.00285400007851 0.00522179599988
-0.0281791278662 0.00285400007851 0.0019462538489
-0.0193272591134 0.00285400007851 0.0037580843481
-0.0472521550434 0.00285400007851 0.00422149544509
-0.0516615560146 0.00285400007851 0.00147138719301
-0.0463449993588 0.00285400007851 0.000115317015105
-0.0571877216187 0.00285400007851 0.00271992982106
-0.0554502106934 0.00285400007851 0.00164199779495
-0.0333619232005 0.00285400007851 0.000859499619002
-0.0143686539423 0.00285400007851 0.00382131246941
-0.0421396473256 0.00285400007851 -5.60153645934e-05
-0.053940516212 0.00285400007851 -4.58232446711e-05
-0.0439829361842 0.00285400007851 0.000666601892979
-0.0557284339865 0.00285400007851 0.00408784259883
-0.0259425419217 0.00285400007851 0.00148264015075
-0.0513690276791 0.00285400007851 -0.000952478412372
-0.0496758989223 0.00285400007851 -0.00169246667075
-0.0223417851289 0.00285400007851 0.00226513489344
-0.0575192642885 0.00285400007851 0.00061884486316
-0.0505029453266 0.00285400007851 0.00412556041516
-0.00999309804665 0.00285400007851 0.00193193068326
-0.033605251619 0.00285400007851 -0.00353750702647
-0.035573436317 0.00285400007851 -0.00350617805642
-0.0187300557003 0.00285400007851 -0.00329080624505
-0.0467644909555 0.00285400007851 -0.0038434006685
-0.0233031552604 0.00285400007851 -0.00128736899562
-0.0256854122973 0.00285400007851 -0.00176999286771
-0.0206445089776 0.00285400007851 -0.00186780145626
-0.0400601683207 0.00285400007851 -0.00471002030219
-0.0118575248352 0.00285400007851 -0.00274523682437
-0.0114108590962 0.00285400007851 0.000699647182521
-0.0215868423849 0.00285400007851 0.000250246628828
-0.0350197788905 0.00285400007851 -0.000497187454009
-0.0273730248825 0.00285400007851 -0.00442333683664
-0.0377492235363 0.00285400007851 -0.00326424589766
-0.0149324916568 0.00285400007851 -0.00298265608314
-0.0324946271445 0.00285400007851 -0.00151392673376
-0.0151517857013 0.00285400007851 0.00173619210964
-0.0126229704535 0.00285400007851 -0.000956584808777
-0.0146660508069 0.00285400007851 -0.000740135613264
-0.00939826876865 0.00285400007851 0.00399157617288
-0.00770899979398 0.00207717803146 0.00173041619787
-0.0433823653026 -0.000882000022102 -0.00318831833481
-0.0481176279555 -0.000882000022102 0.00115473019133
-0.0324161095791 -0.000882000022102 -0.00412595201787
-0.0574206529891 -0.000882000022102 0.00248321752699
-0.0383462890295 -0.000882000022102 -0.00203129740824
-0.0521557200061 -0.000882000022102 -0.00199849856116
-0.0417485303569 -0.000882000022102 -0.002135788075
-0.0258335519072 -0.000882000022102 -0.00483219471473
-0.0559106167321 -0.000882000022102 0.003949210344
-0.0406095276272 -0.000882000022102 -0.00368065756666
-0.0576428734176 -0.000882000022102 -0.00135036420929
-0.0460962313485 -0.000882000022102 -0.000174075542834
-0.0280715908283 -0.000882000022102 -0.00436737324325
-0.0538333129384 -0.000882000022102 0.00314541764493
-0.057485917933 -0.000882000022102 0.000468182124703
-0.0445354707864 -0.000617952522602 0.00585780789657
-0.0504942389832 -0.000580861416757 0.00571416693681
-0.0382286560087 -0.000764352617045 0.00579584012475
-0.0301449254939 0.00285400007851 0.00523678573706
-0.0277849097065 0.00285400007851 0.00538689685023
-0.0449366050857 -0.000882000022102 -0.00419595523954
-0.0244093878459 -0.000497472475257 -0.00625984983693
-0.0137808081938 -0.000797304978183 -0.00639900006354
-0.0104593496514 0.000454350845565 -0.00608956487734
-0.012408588115 0.000509909768763 -0.00613801061568
-0.0179555435419 2.3202466973e-05 -0.00631531849721
-0.0338666302421 0.000686725032662 -0.00594330829035
-0.0201192481386 -0.00013511344936 -0.00629618863978
-0.0319160526547 0.000718119933335 -0.0059746445752
-0.00912379626494 0.00241759347109 -0.0054396454562
-0.0259195981612 0.00160340883823 -0.00570299221497
-0.0434194889875 0.00175438250585 -0.00559577540731
-0.0415160490176 0.00173776810192 -0.00560751101497
-0.0218308065301 0.00130933498915 -0.00582687196113
-0.0275740665914 0.000941789601031 -0.00595096194044
-0.0329083549411 0.00229536010762 -0.00541895981329
-0.0154981815245 0.00124836187945 -0.00586809152342
-0.0174202914504 0.0018357656197 -0.00563833309965
-0.0301376769895 0.0011117937251 -0.00587878094001
-0.0136426769748 0.00186949182229 -0.00563615301177
-0.0347646143421 0.00247512058945 -0.00534505649201
-0.0513830476698 0.00209861110983 -0.00544176858466
-0.0368569233926 0.00143811246622 -0.0057351376234
-0.0588879995048 0.00039996342661 0.000100598310562
-0.0516266420756 -0.000334993560661 -0.00392444132815
-0.0541437442887 0.000283316634981 -0.00417244885741
-0.057828970892 0.000647939892095 -0.00403140125953
-0.0491978041694 -0.000626415324292 -0.00396974280964
-0.0457200946063 0.000387065879218 -0.00536881535533
-0.0424582358845 -0.000629231185278 -0.00484689596839
-0.053944986136 0.00189607508872 -0.00537350574042
-0.0391933862246 -7.32010440196e-05 -0.00574901268936
-0.0487296828751 0.00123537891422 -0.00552105575332
-0.0588879995048 0.000413696806729 0.00509046934742
-0.0588879995048 0.00172540077884 0.00145971886759
-0.0148554758703 0.00106135340867 0.00607400767299
-0.0178596810737 0.00122154606164 0.00610261937242
-0.0128553021091 0.00179520358956 0.00559136535039
-0.0218895014323 0.00177919358437 0.00595194118736
-0.0198994692972 0.00100482119564 0.00630157602146
-0.00952047895862 0.00127923548819 0.00574611425771
-0.0310300928403 0.00113055971589 0.00628648960492
-0.0470840774071 0.00245995582602 0.00600852168511
-0.0390571586062 0.00164439744244 0.00615198987506
-0.0364354446216 0.00159250525072 0.0061924718871
-0.0453599818792 0.00186756738598 0.00605174158931
-0.0542085681803 0.00277124561092 0.00579399758069
-0.0237773574523 0.000856471162442 0.00637201770719
-0.0258756849348 0.00158942559006 0.00620872717685
-0.0333170978231 0.00193412265797 0.00613193418003
-0.0560690766021 3.24971743979e-06 0.0057418470518
-0.0321063829955 -0.000532550203834 0.00618152732941
-0.0399255615028 -4.82753071665e-05 0.0061119434424
-0.0524918487027 0.000157668797228 0.00586345401979
-0.0418741948347 -0.000144390086869 0.00604283540083
-0.046483894382 0.00019524118942 0.00601473870438
-0.0568092901031 0.00185316558124 0.00568982860237
-0.0167227342085 -0.00039590813797 0.00653469272159
-0.0463993866223 0.00422813206007 -0.00591517909612
-0.0420310572217 0.00514888617959 -0.00615129804539
-0.040232618679 0.00512753546457 -0.00616929064914
-0.0422846160699 0.00961343736975 -0.00663402625174
-0.0465364058823 0.0070279941172 -0.0062867754628
-0.0358823773384 0.0133140003309 0.00210209739976
-0.0243321556948 0.0133140003309 0.00218645810956
-0.0298785593313 0.0133140003309 0.00527556044936
-0.0411269744762 0.0133140003309 0.00362357963841
-0.0340308566689 0.0133140003309 0.00485635898296
-0.0243900664653 0.0133140003309 -0.00138053237013
-0.0260618442838 0.0133140003309 0.00354812843231
-0.0375450005655 0.0133140003309 0.00326106586414
-0.0214893021279 0.0133140003309 0.00211141491954
-0.0282412806552 0.0133140003309 0.00396571729625
-0.0265665997344 0.0133140003309 0.000152297202689
-0.0276578294166 0.0133140003309 0.00200332736007
-0.0392305635036 0.0133140003309 0.0040642558133
-0.0588879995048 0.00353891432482 -0.0031803273204
-0.0588879995048 0.00638664192779 0.00149530670002
-0.0515319098964 0.00640091285969 -0.00585949793646
-0.0448036203898 0.00970778605523 -0.00636697220349
-0.0469674812525 0.00888648225202 -0.00618919926133
-0.0532696665037 0.00556172813976 -0.00572753327991
-0.0296361361366 0.00285500008613 0.000743182332045
-0.0410069080221 0.00285500008613 0.00309994956039
-0.0344206821312 0.00285500008613 0.00482811178331
-0.04479087895 0.00285500008613 0.00263699117858
-0.0240954664094 0.00285500008613 0.000685138129802
-0.0356337125243 0.00285500008613 0.00333429870811
-0.0311324753265 0.00285500008613 0.00298502380094
-0.043163535212 0.00285500008613 0.00374980479176
-0.0176043169265 0.00285500008613 -0.00152582904316
-0.0489415137443 0.00285500008613 0.0053470607075
-0.027579785581 0.00285500008613 -0.000257806722654
-0.0449780007003 0.00285500008613 0.00452006549026
-0.0315834260578 0.00285500008613 0.000174972214849
-0.0393819059438 0.00285500008613 0.00227023534973
-0.0342989484226 0.0133140003309 0.0008659531
-0.0311168442329 0.0133140003309 -0.00630729081451
-0.0317064451947 0.0133140003309 -0.00415716706285
-0.0230470547185 0.0133140003309 -0.0027158108801
-0.0271213619693 0.0133140003309 -0.00404880993415
-0.0391355361934 0.0133140003309 0.000378697520017
-0.0359089406546 0.0133140003309 -0.000126082954086
-0.033385801554 0.0133140003309 -0.00557591275265
-0.0346088018801 0.0133140003309 -0.00408812554901
-0.0379072809274 0.0133140003309 -0.00105956006145
-0.0290241363057 0.0133140003309 -0.000845716903515
-0.0334360475663 0.0133140003309 -0.00142898658283
-0.0251045890873 0.0133140003309 -0.00444514052975
-0.0385954987341 0.0123357045146 -0.00677300011739
-0.039711750107 0.010822775305 -0.00677300011739
-0.00771600008011 0.0046102087963 -0.000610423666242
-0.0124503637869 0.00542872040374 -0.00526849696123
-0.0172769623191 0.00729440302354 -0.00564009495825
-0.0215963956499 0.0092553679713 -0.00597264649807
-0.014923953909 0.00605550480614 -0.00545893772996
-0.00958361268722 0.00438349013663 -0.00504778687742
-0.0434821015915 0.0133140003309 0.00155946868253
-0.0432588876125 0.0133140003309 -0.00204701693213
-0.036284478633 0.0133140003309 -0.00495560171127
-0.0452947105409 0.0133140003309 0.00127527954208
-0.0413309793531 0.0133140003309 0.00068577806321
-0.0588879995048 0.00408386224462 0.00473831986452
-0.00771600008011 0.00339686741058 0.00292053712311
-0.0133111264588 0.00285500008613 0.00104966405948
-0.0198658181285 0.00285500008613 0.000285763376463
-0.0179184625214 0.00285500008613 0.0011484747042
-0.0213379706727 0.00285500008613 0.00382443229643
-0.0240128798251 0.00285500008613 0.00286203182071
-0.00894667026004 0.00285500008613 -0.00338377521007
-0.0101474492185 0.00285500008613 -0.000625249061558
-0.0114290969787 0.00285500008613 0.00339549150351
-0.0156509274516 0.00888228554537 -0.00544333211235
-0.0285091326452 0.0129342060233 -0.00645283388688
-0.0182455853611 0.00911129612223 -0.00568535951429
-0.0210621912531 0.0113492717289 -0.00581858037675
-0.0105764188084 0.00630160551616 -0.00510883259044
-0.0241553278576 0.0116569461761 -0.00610484858887
-0.0180999753952 0.0111572939853 -0.00553774466691
-0.0134134772768 0.00757304253088 -0.00530700107126
-0.0369298844271 0.00982552855327 0.00667600007728
-0.0359930006654 0.0122240143547 0.00667600007728
-0.0326390380907 0.0118647626304 0.00667600007728
-0.047568428928 0.00508586919326 0.00612834892579
-0.0393368613092 0.00903766954834 0.00662470190498
-0.0383233233442 0.0115108312755 0.00665466936108
-0.0446252113434 0.00737132950109 0.00629214152185
-0.042684638354 0.00858492094512 0.00640473468682
-0.0535581601257 0.00285500008613 0.00399305628563
-0.0223110071884 0.00285500008613 -0.003303958237
-0.0242927343322 0.00285500008613 -0.00330399619591
-0.0466936622892 0.00285500008613 0.0021881542212
-0.0295052815394 0.00295915921069 -0.00514343182117
-0.0493834096512 0.00287638153721 0.00218488309289
-0.0489281773772 0.00308502225084 -0.00376406773976
-0.0482681181035 0.00292845480159 0.000447482765941
-0.0440003813168 0.00303142078228 -0.00350811517327
-0.0564309819585 0.00319928219179 -0.00506672215427
-0.0478378751504 0.00300305092486 -0.0017469326771
-0.0396621141719 0.00295881398741 -0.00257203437007
-0.0424726709734 0.00296108585549 -0.00192668640573
-0.0394186033975 0.00287898007216 -0.000401090104123
-0.0445952964625 0.00295338472361 -0.00117597683812
-0.0307168094784 0.00287794068654 -0.00256678220225
-0.0415459977236 0.0030090637029 -0.00350199522658
-0.0366466295694 0.00289622555475 -0.00158246220148
-0.0283064954613 0.0028595163014 -0.00265951535838
-0.0564410080964 0.00934963507063 -0.000411012399161
-0.052937073127 0.0103170173618 -0.00158068815643
-0.047612065496 0.0126470904062 -0.00156460612581
-0.0504348845469 0.0115592124226 -0.00126586924933
-0.0458950044363 0.0130342476379 -0.00231904513968
-0.0412938958853 0.0133140003309 -0.00364362707812
-0.0391597458529 0.0133140003309 -0.00413052859422
-0.0475879174151 0.0117724349127 -0.00340261740153
-0.0545035843278 0.00915956621023 -0.0025181748379
-0.0570265620041 0.00493008238085 -0.00522117184655
-0.049394217849 0.0123694607956 -2.2905202484e-05
-0.0475745777326 0.0131649538672 0.000477945362117
-0.0511132890383 0.011766579213 0.00112691334815
-0.0546189755151 0.0102523406496 0.000362275952602
-0.0484482402146 0.0128827426732 0.00272406833608
-0.050133866685 0.0117847138824 0.00340516155455
-0.0519105466705 0.0112684134472 0.00273921587313
-0.0465451093657 0.0130847443786 0.00419522001873
-0.0554387336785 0.00977620496891 0.0024247166392
-0.0579210464778 0.00887500448351 0.000446750686835
-0.00774243775779 0.00444737233837 0.00518170802339
-0.0110602186107 0.00563375550737 0.00539607275125
-0.0137287145976 0.0058556100801 0.00556848661505
-0.0182531617698 0.0092109329885 0.00580028777914
-0.025114048078 0.012067422244 0.00619200264504
-0.0307919608214 0.0121821185819 0.00666999828542
-0.0205918304266 0.00923396935404 0.00599882419575
-0.0146191714737 0.00741915758283 0.00561187439805
-0.0157658364636 0.00919990238575 0.00558821028438
-0.0231493092927 0.0105581524628 0.00612710156903
-0.0123459201058 0.00703714973207 0.00544348459439
-0.012520107331 0.00379735583858 0.00536046626208
-0.0284985942538 0.00712383900042 0.00630663480643
-0.0309856087025 0.00614701748724 0.00626074638238
-0.0251031340868 0.00366730801343 0.00575021195156
-0.0227372685522 0.0038404763988 0.00569615174284
-0.0221777287957 0.00580161188474 0.00593152739265
-0.0206636792757 0.00342150718848 0.0055750079075
-0.033683260347 0.00742727200037 0.00651336464208
-0.0195136642141 0.00524629219106 0.00577368379255
-0.0102814967669 0.00368147538496 0.0052731613811
-0.0179856678087 0.00335758576719 0.00548022125459
-0.0269743277848 0.00450385627333 0.00591878374339
-0.0321278088108 0.00428545016467 0.00605706430799
-0.0297127307469 0.0047438309738 0.00603827448105
-0.0313733349991 0.00813188479263 0.00650853590331
-0.0166355366002 0.00595582900741 0.00571131517792
-0.0290401985093 0.0109393175048 0.00653075291609
-0.0251383832434 0.00766613539853 0.006192683824
-0.0309220105168 0.0103959448158 0.00659387526158
-0.026987560648 0.0106861202158 0.00642206706394
-0.0185375968422 0.00694369014256 0.00584749818628
-0.0231417138984 0.00799618738106 0.00611410170573
-0.0291129502628 0.00886711641889 0.00643660206461
-0.0329170830173 0.00988305606812 0.00666377227886
-0.0252683638044 0.0098542456418 0.00630184980211
-0.0347412817151 0.010118957568 0.00667600007728
-0.0188472094231 0.0133140003309 0.00200647161098
-0.0169135604811 0.0121523346386 0.0012923232328
-0.0148204672855 0.0108246665112 0.00134418363939
-0.0163799989657 0.0118942140348 -0.000709528388516
-0.0156220619806 0.0112651872918 0.00302870583022
-0.0131643807628 0.00978707568239 0.00106209239091
-0.0122366518425 0.00909778963973 0.00361435940374
-0.0140414773956 0.010267569163 0.00294340701035
-0.0183123865704 0.013088525798 3.08198242061e-05
-0.0166473786747 0.0119815069808 -0.00272429546681
-0.00919336813009 0.0071851331668 -0.00112259499703
-0.0124999176836 0.00935194599554 -0.00112067442066
-0.0105816447459 0.00809488380939 0.000218211938938
-0.0143491515183 0.0105637662122 -0.00158086145327
-0.00836998292639 0.00664556114663 0.00229820532469
-0.0100487267376 0.00774565765732 0.00234532508589
-0.0337964800286 0.0119164535273 -0.00677300011739
-0.032274879418 0.0099100962906 -0.00660524343285
-0.0300985340651 0.00839483791143 -0.00640663691506
-0.0233187819883 0.00894952763059 -0.0060715075035
-0.0210366605179 0.00737634469158 -0.00586409329976
-0.0272235295233 0.0111594406734 -0.00640049492803
-0.0271989098883 0.00921911580887 -0.00629486352973
-0.0292452181994 0.0112393562223 -0.00651361661744
-0.025671011071 0.00714941291886 -0.0061004106431
-0.0225342864934 0.00534769216575 -0.00576782378244
-0.0201208122221 0.00559971951174 -0.00570446401814
-0.0148799990685 0.00345510830292 -0.00525051955769
-0.0169828434338 0.00380630015158 -0.00537280483416
-0.0122251958089 0.00343714249455 -0.00514613203549
-0.023879749688 0.00665664758026 -0.00597349084971
-0.0178047144846 0.0125229529118 0.00419184908418
-0.0159995651879 0.0109792987217 0.00482451681898
-0.0136395032425 0.00902881823609 0.0052554905344
-0.0105432357836 0.00733337936023 0.00485627373652
-0.0199806423476 0.012057135927 0.00571289198201
-0.00912613225539 0.00597402366841 0.00522776075187
-0.0535768719759 0.00369599571957 -0.00560137799303
-0.0483179566355 0.00587274373042 -0.00608498718045
-0.0447619974631 0.00312956047085 -0.00544084703062
-0.0386850108679 0.00360468922433 -0.00571847171352
-0.0484580050524 0.00342159971316 -0.0057074580005
-0.043078762201 0.00321386056925 0.00604772686472
-0.0430983308052 0.00626111061048 0.00639600220499
-0.0404368283707 0.00675710562287 0.00650847525275
-0.0404919451597 0.00426767644309 0.00632478445604
-0.0348311382295 0.00601400826715 0.00636778473796
-0.0362929740654 0.00477514499154 0.00625485055039
-0.038596146589 0.00443016406874 0.00628459844625
-0.038349032018 0.00647635970095 0.00651073543305
-0.0125287810307 0.00908635878433 -0.00368062095344
-0.0149686821785 0.0106765913952 -0.00378944034397
-0.0189770560705 0.0129499454875 -0.00498781026934
-0.00920996088399 0.00687182315888 -0.00345396358166
-0.0499664163305 0.0099404341149 0.00507068222557
-0.0521217520293 0.00898063875169 0.00489771651683
-0.0482779231628 0.0114002286935 0.00475562811713
-0.0443944039311 0.0118647433323 0.0057873514077
-0.0575705457947 0.00580355446186 0.00475236166332
-0.0464324598084 0.0109241109336 0.0056282939427
-0.055788572092 0.00565069083019 0.00521610012972
-0.0538821904743 0.00739275314367 0.00507786526407
-0.0523217751898 0.00354627940793 0.00577982117772
-0.0491170712677 0.00739947753756 0.00589630166769
-0.0470387384734 0.00889076532797 0.00601761314559
-0.0572667354105 0.00369639789514 0.00532318852603
-0.04442215967 0.00963203827583 0.00622195521876
-0.0495504119081 0.00553361799198 0.00594164029427
-0.0537148749223 0.00518271932874 0.00557876361308
-0.0416008695022 0.0105303291141 0.00643778609335
-0.0513060511686 0.00670958429006 0.00572852177922
-0.0420498202345 0.0124019260391 0.0060885138928
-0.0395669632016 0.012982094716 0.00639806020945
-0.0549052513305 0.00879496353011 0.00397572216469
-0.0566211626523 0.0078253169942 0.00396839082061
-0.0534278076209 0.0102498194016 0.00328786408572
-0.0570206402828 0.00902836174758 0.00238674386423
-0.0435272686443 0.0126628133749 -0.00491337679894
-0.04569939752 0.0121664585715 -0.00422480475736
-0.0497133876708 0.0105984106568 -0.0037571247683
-0.0567418986381 0.00807742988444 -0.00266038752333
-0.053740247561 0.00742011619398 -0.00488716304914
-0.0481388484238 0.0101495883901 -0.00507424907337
-0.0562407160179 0.0065758829102 -0.00442929962152
-0.051746157435 0.00896353573025 -0.00438181545416
-0.0407119760808 0.0127441887159 -0.00622474117927
-0.0495837479746 0.00901661914767 -0.00542588598632
-0.0427219799042 0.0115428671396 -0.00633702467858
-0.030485691145 0.00457178808666 -0.0058905130924
-0.0281806319262 0.00422367779348 -0.00577319526191
-0.0344473126967 0.00490403632315 -0.00603777685164
-0.0324815811406 0.00408461730482 -0.00583094227479
-0.024646626849 0.00348282427591 -0.0055509973581
-0.0364513102331 0.00938216098844 -0.00676207918471
-0.0393569197976 0.00825707683034 -0.00667284550216
-0.0367606619785 0.00598378549992 -0.0062967153563
-0.0199191552077 0.00326329284203 -0.0054100966075
-0.0346353368409 0.00842778480633 -0.0065782876001
-0.0218382672614 0.00359009890631 -0.00551349982061
-0.0300610527779 0.0064583943219 -0.00616377890584
-0.0277072562423 0.00660438647639 -0.00611414426741
-0.0447896788046 0.0061359345505 -0.00625956989226
-0.041528543674 0.00710810151169 -0.00648358730393
-0.0424918487402 0.0175635013431 0.00583077058647
-0.0418111980048 0.0238817516542 0.00621713277873
-0.0449643946421 0.0260140001774 0.000969192232565
-0.0427494790525 0.0260140001774 -0.000437940042488
-0.042653594082 0.0260140001774 0.00174405604354
-0.043031209314 0.0260140001774 0.00373009096477
-0.0407895277594 0.0260140001774 -0.00305667009265
-0.0449176035255 0.0260140001774 0.0031901184001
-0.0368292697631 0.0260140001774 0.00283858329626
-0.0385753508123 0.0260140001774 -0.00266989846434
-0.0394611903949 0.0260140001774 0.00241994306353
-0.0382343033075 0.0260140001774 0.000854760924086
-0.0352730776838 0.0260140001774 0.00046252675081
-0.0382922392322 0.0260140001774 0.00411011993038
-0.0351053615534 0.0260140001774 -0.00291676651827
-0.0413676173055 0.0260140001774 0.00468754637652
-0.0316000609562 0.0260140001774 -0.00299762585547
-0.032288548074 0.0260140001774 -0.00498715735885
-0.0430242122817 0.0133158712395 0.00398926183734
-0.02067281554 0.0145764437185 -0.00506716522377
-0.0287498822638 0.0218388426886 -0.00632656170295
-0.0467173968206 0.0225595973635 -0.00140284227174
-0.0466325955667 0.0206090386345 -0.00145719016055
-0.0317185977679 0.0250796254008 0.00627347055014
-0.0262035087994 0.0150600026218 0.0061716941584
-0.030178954357 0.0171576644969 0.00662223085194
-0.0280970781524 0.0180383280036 0.00637809331226
-0.0215975799773 0.0139464644273 0.0056442499917
-0.0248197679505 0.0172736309015 0.00600268035343
-0.0280164966278 0.0133667182148 0.00638813718158
-0.0288420009939 0.0201014082555 0.00645559720782
-0.0283534034561 0.0160934868961 0.00641575947525
-0.0297768892105 0.0145268487775 -0.00660506375627
-0.0318190171432 0.017453123391 -0.00689577684625
-0.0269800753957 0.0147815494818 -0.00631130575455
-0.0296161574558 0.0163527007222 -0.00663254007079
-0.0224263106256 0.0137543637227 -0.00579769645181
-0.0298978447485 0.0231020118585 0.00635622556072
-0.0256462581191 0.0190590060484 0.00580828311794
-0.0383146890856 0.0178748319367 -0.00706524783554
-0.0373142722341 0.0143082612476 -0.00707419138184
-0.0388884652544 0.0152201835922 -0.00683288503664
-0.0388980143774 0.0216252014946 -0.00714080679312
-0.0356061905066 0.0135821921232 -0.0069064529842
-0.0358778608389 0.0159547453323 -0.00714700017124
-0.0382210527553 0.0197711138675 -0.00714700017124
-0.0361495945344 0.0194184836848 -0.00714700017124
-0.0349013848907 0.0179814910753 -0.00714700017124
-0.0337957112785 0.0197856928942 -0.00714561444882
-0.0322679848693 0.015031592773 -0.00687658177572
-0.0208278746412 0.0156010994744 0.000922304893911
-0.0226501615951 0.017422647286 -0.00132324848256
-0.0265875204815 0.0213584091305 -0.00175969378858
-0.0246009823816 0.0193726767953 -0.000412482762638
-0.0200209926503 0.0147945447649 -0.000784078825951
-0.0203616681224 0.0134196874967 0.000567818228799
-0.0295224164443 0.0242920844277 -0.00136730913758
-0.028393908679 0.023163817777 0.00150033437645
-0.0277797205627 0.0225500584427 -0.000361537674394
-0.0259808464333 0.0207519432337 -9.89316615922e-05
-0.0233844339205 0.0181565940023 0.000649437244278
-0.0262019526975 0.0183391687241 -0.00623705511266
-0.0372596905935 0.0238963200146 -0.00714700017124
-0.0352020280907 0.0226409638059 -0.00714700017124
-0.0345516286915 0.0248785528723 -0.00714700017124
-0.0290055794355 0.0183736035153 -0.00660325784595
-0.0321411224043 0.0208432239776 -0.00698378617944
-0.0305145921346 0.0220353115305 -0.00678639106827
-0.0321738328232 0.023446826658 -0.00698775590376
-0.0308098401722 0.0194865120611 -0.00682222226077
-0.023766941967 0.0151957154613 -0.00596749874282
-0.0357824335685 0.0133155712982 0.00416275053117
-0.0472449083181 0.0142826704846 0.00274012819045
-0.0297306305922 0.013315334624 0.00262535408839
-0.0395493364867 0.0133157058811 0.00224408304611
-0.0232619097361 0.0133150867522 0.000279855718259
-0.0290341138051 0.0133153010238 -0.00309532813981
-0.0324237413353 0.0133154382698 0.0039577033684
-0.0211600609971 0.0133150037406 -0.00243814883749
-0.027213126834 0.0133152334736 -0.00199328600011
-0.0235047900148 0.0133151008002 0.00411941562104
-0.0320920779349 0.0133154206548 -4.45947547445e-05
-0.0324562799569 0.0133154372307 0.00216071277375
-0.030619722473 0.0133153626771 -0.00181218330375
-0.0413484700723 0.0133157825827 -0.00142063830807
-0.0449488467171 0.0133159227854 -0.00078271540103
-0.0473243982101 0.0212641481947 0.00286930808194
-0.0473769914735 0.0237691271403 0.00259428466823
-0.047614376219 0.0246374854355 0.000396889706704
-0.0475617521496 0.0228532099324 0.000708976168216
-0.0474367943071 0.018014664612 0.00169697043382
-0.0472373536607 0.0162069287862 0.000846508952429
-0.047398314043 0.0211306604395 0.000110998102574
-0.0461546676682 0.0245064321619 0.00439996715003
-0.0457853737294 0.0187195817209 0.00438820748214
-0.0452553994034 0.0166158043921 0.00466667559678
-0.045033577245 0.022904936447 0.00496516813987
-0.0450056793278 0.0204882629299 0.00494330493345
-0.0442594599217 0.0183171582778 0.00528262191684
-0.0385831187404 0.0229441211589 0.00687289237839
-0.0388330501188 0.0153407318145 0.00649541788576
-0.0386493893112 0.0190359446008 0.00668923465692
-0.0380005027309 0.0171451779204 0.00671387278814
-0.0373735251687 0.0144340450319 0.00669862626221
-0.0404890574127 0.0174399400584 0.00631213262106
-0.0267118269511 0.02062861548 -0.0055545108581
-0.0309138761866 0.0247137518829 -0.00584816653454
-0.0207390405346 0.0153220546269 -0.00251953521433
-0.0236308691077 0.0176574459898 -0.00518736239569
-0.0221585928487 0.0165028446956 -0.00367735427758
-0.0277039328286 0.0219053935151 -0.00470580394562
-0.0260857122359 0.0204679311528 -0.00377507196049
-0.0300213311069 0.0245175929886 -0.0034784500469
-0.0243704077379 0.0187801919496 -0.00354704132085
-0.029339363229 0.0234446333006 -0.00524648824735
-0.0466542938896 0.0170505322061 -0.00116254923971
-0.0373139733376 0.0133156519399 -0.00305585906025
-0.0296545129929 0.0133153705729 -0.00481051328052
-0.043758935606 0.0173248387246 -0.00400862255001
-0.0450799055689 0.0150861756809 -0.00274187340418
-0.043954020408 0.0195606504641 -0.00406306956355
-0.0454211392271 0.0168282143229 -0.00259389729808
-0.0438908941474 0.0228263576757 -0.00441221783607
-0.0455448487091 0.018807737789 -0.0026506135103
-0.0459001936215 0.0242887570088 -0.00279658089225
-0.0453810912134 0.0216485863107 -0.0030269696244
-0.037076561101 0.0213756594351 0.00693339922236
-0.0363432661796 0.0189803602979 0.00687569087178
-0.0364666672006 0.0234712940842 0.00701468412108
-0.0329981154565 0.0181725879901 0.00685515893805
-0.0337028919753 0.0163451784667 0.00678736968974
-0.0362044844495 0.0163983229152 0.00678934112645
-0.0326719597464 0.0143427339792 0.00671308737653
-0.0344721552675 0.0218336485293 0.00699096896792
-0.0340761402713 0.0240176909714 0.00691053027872
-0.0323921325466 0.0230474575441 0.00681531647086
-0.0308808343263 0.0210290041933 0.00668464729673
-0.0328399136521 0.0205818889439 0.00686400925712
-0.0305937121232 0.0152138638764 0.00667751099117
-0.0400632233255 0.0173622562649 -0.00641346528076
-0.0421334726097 0.0246775119733 -0.00578435158293
-0.0402214963038 0.0196221231483 -0.00649591684483
-0.0404698671866 0.0239552493634 -0.00668320277567
-0.0419515386376 0.0173181656766 -0.00525378741528
-0.0430326726546 0.0145799714162 -0.00426473093587
-0.042011497539 0.0207251750493 -0.00554778805259
-0.041176786314 0.0152417759745 -0.00556667699116
-0.026361537655 0.0205764185094 0.00485664152294
-0.0281574557375 0.0222045096072 0.00550674876326
-0.0300280398226 0.0243471626773 0.00488351151404
-0.0216010771047 0.0157833632472 0.00442948133499
-0.0232653689447 0.0174758853865 0.0045195283989
-0.0245635231789 0.0189516725527 0.00398781368903
-0.0200964765493 0.0142164933794 0.00449022416664
-0.0222049166397 0.0168192137989 0.00283064346047
-0.0312623068349 0.0257096135266 0.00434317046076
-0.0297356015368 0.0243930336594 0.00248733500823
-0.0258996452846 0.0205473779418 0.00271447524162
-0.0273188632298 0.0219046337543 0.00322663326362
-0.0309474279519 0.0256963559783 -0.000320438490579
-0.0312914406454 0.0258489200274 0.00254883457334
-0.0435323929184 0.0253721071835 0.00567979185269
-0.0439203712635 0.0155825497785 0.005357887339
-0.0429481748243 0.0214987568513 0.00580095844868
-0.0405270318793 0.0218204391498 0.00644304275737
-0.041184725239 0.0158343997117 0.0061174279192
-0.0392976285581 0.0250900675674 0.0068113567136
-0.0407028221503 0.0196002618005 0.00633718972386
-0.0600270162327 0.0417328267381 -0.00438786388808
-0.0396184286494 0.0260170008987 -0.00459808945212
-0.0368214988139 0.0260170008987 -0.00351791692575
-0.0436798473621 0.0260170008987 -0.00202093417361
-0.0363936620581 0.0260170008987 -0.00544696172902
-0.0363860425788 0.0260170008987 0.00516331313367
-0.0408182654905 0.0260170008987 0.00105331945765
-0.0333235816302 0.0260170008987 -0.0021955825603
-0.0470042519466 0.0260170008987 0.00201397095246
-0.0376326269454 0.0260170008987 -0.00116628375779
-0.0347469463793 0.0260170008987 0.00276370303531
-0.0395207732925 0.0260170008987 -0.000525905537193
-0.0615000016987 0.0370921841611 -0.00284185850559
-0.0615000016987 0.0358689870867 0.00117713579408
-0.0615000016987 0.0398370657282 -0.00387586899757
-0.0615000016987 0.0398307310009 -0.00175615554812
-0.0453970437416 0.0260170008987 -0.00107208821621
-0.0400314170942 0.0260170008987 -0.0064940025224
-0.0437188754139 0.0260170008987 -0.00431278732034
-0.0372730932046 0.0260170008987 0.00663742635027
-0.0375213114943 0.028685298221 -0.00729245420758
-0.0371631107986 0.0261854564788 -0.00731108624881
-0.0538372999905 0.0295878800526 0.000405149223337
-0.0563950019317 0.0311705827993 -0.000438877359678
-0.0511003857607 0.028028804622 -0.000507842268393
-0.0493666262887 0.0269225950966 0.000514688039334
-0.0599238870319 0.0332746234812 -0.000528345467004
-0.0581630415363 0.0322207718795 -0.000430024740672
-0.0454227176178 0.0260170008987 -0.00324593005245
-0.0523411077386 0.0304736725788 -0.00417454967136
-0.0489189363971 0.0285427295912 -0.00425489768659
-0.0475590679339 0.027065150246 -0.00292939129355
-0.0486644530779 0.0269913944892 -0.00157049820336
-0.05150481539 0.0291366197184 -0.00254071969037
-0.0548668307697 0.0317754190161 -0.00387945434056
-0.0542453826698 0.0305014529713 -0.00212947119787
-0.0583468962281 0.0331756701286 -0.00270095700844
-0.0606197630691 0.0345607600555 -0.00278065100888
-0.0443739547981 0.0274244360805 0.00613545434171
-0.0521762354696 0.0316079149365 0.00595012160399
-0.0485990714882 0.0310906351141 0.00662570712195
-0.0561125372503 0.0349734545393 0.00638575901603
-0.0467906132634 0.0299963759807 0.00661613305617
-0.0498861671547 0.0338605954641 0.00685906738953
-0.0441101114136 0.0332275120254 0.00699818399409
-0.0470521465984 0.0325931477737 0.00691450925193
-0.0449746056079 0.0315034714694 0.00695300178219
-0.0524928769769 0.0356418809946 0.00681631633729
-0.0392115485896 0.0275706904701 0.00704759024884
-0.0426101784095 0.0321649290975 0.00702227974084
-0.0427327856602 0.0286843759874 0.00695544292421
-0.0450684226203 0.0296369945713 0.00684986549377
-0.0542836347961 0.0361791023605 0.00676649681241
-0.0586704657582 0.0387468889037 0.00666139130717
-0.053992957155 0.0343256239897 0.00657197116116
-0.0341302528003 0.0286679416731 -0.00257480112226
-0.0364849839458 0.030707195409 -0.00331881563193
-0.0340310574534 0.0280060038177 -0.00467852297424
-0.0357953254811 0.029744584623 -0.00475667730985
-0.0516202040468 0.0399347282419 0.00351604575724
-0.0504530620638 0.0393006941418 0.00558355766648
-0.0354687463148 0.0295088427007 0.00507565598173
-0.0336503082279 0.0279226898295 0.00478351441288
-0.0369042434303 0.0308764956988 0.00491362644681
-0.0387424127443 0.0322537890005 0.00572429743362
-0.032858088866 0.0273236677565 0.00328496495549
-0.0337051331146 0.0282661525668 0.00121299856564
-0.0342457541925 0.028705009724 0.00302179696272
-0.0324113040902 0.0269963522335 0.00110934954165
-0.0327635931778 0.0274438259246 -0.000921539801131
-0.036574773159 0.031032205103 -0.000812761191133
-0.0360353421756 0.0304569707078 0.00266152609081
-0.034874362881 0.0294329365753 -0.000951264944726
-0.034307815445 0.0260170008987 0.00519977754592
-0.0376596655565 0.0306830855284 0.00670548929723
-0.0378205016284 0.028911305166 0.00699350748833
-0.0401944464905 0.0314896399487 0.0070167582384
-0.0352528732715 0.0266577148274 0.00690282869992
-0.0586505629333 0.0408225222058 0.00629341298837
-0.0534752886965 0.0398820694205 0.00612072677541
-0.0548559631521 0.0406719505406 0.00522860785333
-0.0567700372767 0.0394319837543 0.00671545720755
-0.0542992663411 0.0380905335034 0.00680011458221
-0.0456719545239 0.0351632903611 0.0069704046636
-0.0491441727589 0.0362887224663 0.00690562677569
-0.0605862996756 0.0406509533148 0.00652360089072
-0.0608736120815 0.0419849572592 0.00347409774784
-0.0587497099557 0.0417711357814 0.00279031200275
-0.057638579107 0.0414266647678 0.00472397227419
-0.0595184320003 0.0416030862462 0.00459961895303
-0.0559526936085 0.0405551114719 -0.00642653509762
-0.0610296262349 0.0339436957011 0.00106096963724
-0.0554989834671 0.0305655953936 0.00188868461969
-0.0539774766692 0.029857520971 0.00263333353922
-0.0523833880445 0.0287821795258 0.00243052276621
-0.0491927010494 0.0392209514233 -0.00342500846784
-0.053487296365 0.0404759124001 -0.00424512397302
-0.0491669486245 0.039277095241 7.1097888787e-05
-0.0473457138419 0.0384387035208 -0.000762401909205
-0.0498626724113 0.0384854788283 -0.00640001824476
-0.0481678054521 0.0381962490487 -0.00507396639159
-0.0517714981432 0.0396518716552 -0.00504670411886
-0.0417413683345 0.0350070087274 -0.00265334575033
-0.043127747048 0.036054541732 -0.00203735614679
-0.0399221692157 0.03358805672 -0.00345329944986
-0.0384029430209 0.032192143364 -0.00448706666888
-0.0460815800699 0.0373034188189 -0.00458653886526
-0.0433236652199 0.0359399841904 -0.00402783425802
-0.045392142034 0.0375237351437 -0.00192705438766
-0.0473544353312 0.0384103523747 -0.00285174958339
-0.047190386029 0.0275260568066 0.00529882770311
-0.0579991520491 0.0355069089206 0.00613041774374
-0.0598532839023 0.0367422769643 0.00616838481067
-0.0489536251825 0.0268636264668 0.00276386527325
-0.0566974105656 0.032161569425 0.00388672041053
-0.0587712070862 0.0333036652642 0.00365620664274
-0.0505592003448 0.0278440553576 0.00277007452128
-0.0596485247458 0.0349402489537 0.00471003757125
-0.0524168172774 0.0300244810103 0.00454061154699
-0.0548458733457 0.0322378302158 0.00508988605783
-0.0563446622396 0.0334314976065 0.00527814375139
-0.0489852782834 0.0278943890496 0.0046375683861
-0.0506800923449 0.029122321111 0.00474372906618
-0.0415269498764 0.0319196737147 -0.00751999998465
-0.0393686900861 0.0292226453121 -0.00751999998465
-0.0509188890354 0.0369725852211 -0.00705409964761
-0.0576645732306 0.0394275735868 -0.00681317229141
-0.0486110424132 0.0360622911355 -0.00714765344208
-0.0527133795659 0.0378467522643 -0.0069550574846
-0.0552970749345 0.0388644184222 -0.00685054793627
-0.0458082411204 0.0341013041517 -0.00739650598557
-0.050369767415 0.0319439353392 -0.0068315666693
-0.0459060254267 0.0293167875455 -0.00687348296184
-0.0438542544589 0.0285976619963 -0.00719641889796
-0.0422115408042 0.0270897258234 -0.00687543538913
-0.0406685388729 0.0336892791017 0.00601129928248
-0.0433491497228 0.0355771589766 0.00591440432482
-0.047379664937 0.0369271011248 0.00671958075174
-0.0518390421958 0.0387999459483 0.00668455657805
-0.0584338319186 0.0365761378744 -0.00665841400095
-0.056191526404 0.0352810036446 -0.00670931538165
-0.0420135337767 0.0292265342673 -0.00747536808326
-0.049546872436 0.0342461964983 -0.0072663203623
-0.0536783982548 0.0357336361922 -0.00709314715315
-0.0477601646422 0.0341988996676 -0.00736877105613
-0.0436456013783 0.0304592058277 -0.00743679283213
-0.0472136466217 0.0317313218152 -0.00728666180148
-0.052842575726 0.034089332259 -0.00706605415593
-0.0405075255275 0.0274510591861 -0.00748145814804
-0.0596687085084 0.0383531588069 -0.00685263543882
-0.0569309177186 0.0416541681646 0.000242111916735
-0.0578628822389 0.0417778931851 -0.00160747983511
-0.0549103231291 0.0412116089401 -0.000491338510263
-0.0528352715271 0.0406617312789 -0.0024187611091
-0.0511268384985 0.0400558680368 -0.000373671845383
-0.0560628846472 0.0412576035399 0.00385588275509
-0.0536045168292 0.040697569146 0.00216828806732
-0.0414479881993 0.0350501266534 0.000843212848285
-0.0402132520147 0.0340288901679 -0.00115981612187
-0.0385758758859 0.0328353684523 -0.00142477811882
-0.0438555893197 0.0366150024761 -3.03901029854e-05
-0.042920036644 0.0358708542835 0.00289416255606
-0.0402901774927 0.0338509093692 0.00342261809106
-0.041903659406 0.035018329373 0.00426890114791
-0.0379928901723 0.0321788113147 0.00172242622634
-0.0399012071273 0.0337873465765 0.00124124058245
-0.0575923798751 0.0336655563098 -0.00432796761288
-0.0495157552058 0.0300094579965 -0.00567467239593
-0.047832765551 0.0296010855405 -0.0062832250258
-0.0555811245269 0.0334970159097 -0.0055005471876
-0.0521047309129 0.0319606999553 -0.00606368464801
-0.0590002704167 0.0352058937429 -0.00514486241758
-0.0612305663374 0.0364187255282 -0.00501114552457
-0.0459823417657 0.0273780668225 -0.00507722059427
-0.0464866019037 0.0377923361441 0.00419719482361
-0.0444536169446 0.0367533068407 0.00289342155608
-0.0491895620134 0.0392844576478 0.00215000324232
-0.0458222657582 0.0376689482106 0.000597244933361
-0.0490819296124 0.0389909681629 0.00418527415375
-0.0450956881251 0.0367776601904 0.00547360604928
-0.0483659677824 0.0382508589875 0.00605037380359
-0.0599579640072 0.0420790016651 -0.00156325964908
-0.0613457089202 0.0420790016651 -0.00302033303546
-0.0607758235018 0.0420790016651 0.000471441175684
-0.0348123786012 0.0277181062628 -0.00695774718053
-0.0377148264672 0.0311374181114 -0.00602699406224
-0.0420248465632 0.0337384843605 -0.00700936622041
-0.0454292179344 0.0358941140618 -0.00678482952575
-0.0437496294191 0.0352486866324 -0.00659091042076
-0.0394080000968 0.0323179217199 -0.0065031454696
-0.0548609794743 0.0410753147019 -0.00253928722832
-0.0568934812393 0.0414364028705 -0.00313001241252
-0.0580367129246 0.0414891708465 -0.00468629337694
-0.0837665561639 -0.0426983210815 0.00484369119606
-0.0849940688745 -0.0423059100743 0.00327334823922
-0.0816357614105 -0.0434667846515 0.00478190059229
-0.0882333883949 -0.034129999578 0.00346781344761
-0.089325015777 -0.034129999578 0.00049398158448
-0.078313998878 -0.0405190928185 -0.000482777172034
-0.078313998878 -0.0424663146155 0.00467954253631
-0.0888952945465 -0.0399545035222 0.00479325589026
-0.0886047382925 -0.0403252118316 0.00264227321708
-0.0874271454393 -0.0409320111532 0.00451117899793
-0.090534417305 -0.038885997072 0.00483824479917
-0.078313998878 -0.0420238768834 -0.00251581598378
-0.078313998878 -0.0427025127553 -0.000700320141612
-0.0845749559125 -0.0350499825539 -0.0035171689016
-0.0828691467259 -0.0357763538112 -0.00325847011134
-0.0861255632642 -0.0341625787894 -0.00308576025648
-0.084966349312 -0.0415275990846 -0.00369607872014
-0.0833811687805 -0.0416784658976 -0.00511389380028
-0.0855855292521 -0.034129999578 0.00116653111672
-0.0810171215937 -0.0363111702732 -0.0019231326496
-0.0829433412438 -0.035424260399 -0.00122401829409
-0.0836536645875 -0.0350167666662 0.000319993389707
-0.0848774469726 -0.0345904049144 -0.0014285093126
-0.0796454154746 -0.0368344420078 -0.00063513217122
-0.0820316854909 -0.0356613143958 0.00149996151783
-0.0868119888787 -0.0383674857335 0.00686056254031
-0.0894529608615 -0.0368691119403 0.00693298251206
-0.091458456048 -0.0352428634432 0.00700771220529
-0.0842699269806 -0.0388053726155 0.0067363986829
-0.0795095921593 -0.0412335019857 0.00643715275012
-0.0806303910122 -0.0388020031169 0.00591605878165
-0.0863119547494 -0.0358370472319 0.0063502249424
-0.082837053113 -0.0373510083826 0.00588488243671
-0.0789816492355 -0.0386025733306 0.00508287982111
-0.088447795691 -0.0351782805541 0.00681759943702
-0.078313998878 -0.0403519621517 0.00522622381225
-0.0924953919058 -0.035363896956 -0.00498515813767
-0.0873896065602 -0.04011777465 0.00671849532588
-0.0830569196014 -0.0417565568518 0.00668296070678
-0.0918596552669 -0.0369296108264 0.00654587957827
-0.0889968532608 -0.0389226443064 0.00669059291343
-0.0904581045046 -0.0389916015692 0.00283761722293
-0.0914501277054 -0.0380879093437 0.00124348083948
-0.0917237498688 -0.0370233308293 -0.00397977103397
-0.0930687938584 -0.0360186285067 -0.00184568641888
-0.0941542278477 -0.034129999578 0.00306263130945
-0.0928345359137 -0.034129999578 0.0013948637572
-0.0934600838873 -0.0360020212402 0.00552977224509
-0.0926330188069 -0.0369930290527 0.00248995767248
-0.0923661663567 -0.03726055426 0.00471157791132
-0.0934659973121 -0.035995457862 0.000277147675186
-0.0886606902032 -0.0394997191697 -0.00424758112638
-0.087329403021 -0.0405682694422 -0.00325036899006
-0.089716951099 -0.0395680102569 0.00054170505314
-0.0886652912125 -0.0401047347761 -0.0015834869262
-0.0920761140742 -0.0374922448829 -0.000617727347082
-0.0910312430919 -0.0380167576141 -0.00250215977338
-0.0836411180642 -0.0349494466435 0.00226945110646
-0.07998782808 -0.0365434348217 0.00189938862764
-0.0824442435968 -0.035872453103 0.00346545674918
-0.0868685001304 -0.034468535105 0.00498231586446
-0.0854854767257 -0.0346279303101 0.00370854450512
-0.0812435793252 -0.0369874760953 0.00459229850697
-0.0840898118055 -0.0357215205428 0.00490790242366
-0.0832309640759 -0.0365952000589 -0.00516662041398
-0.0857296734706 -0.0351945186556 -0.00530366074047
-0.0814184302027 -0.0369325070453 -0.00438757306263
-0.079639792823 -0.0373532026049 -0.00322351811439
-0.0889399925624 -0.0383082583906 -0.00585786256443
-0.0813143512433 -0.0419254782366 -0.00537016116592
-0.0872028178446 -0.0391384572418 -0.00582103078549
-0.083815457196 -0.0383715286468 -0.00579394864314
-0.0818778629543 -0.039706447628 -0.00561223339853
-0.0790372976168 -0.0409521053397 -0.00534583395635
-0.0800240718707 -0.0387833624609 -0.00536319597562
-0.0877640793323 -0.0347942293411 -0.00590435939135
-0.0911632917077 -0.0355176796876 -0.00629680599572
-0.0893529591411 -0.0362872770204 -0.00619860782013
-0.0850645281465 -0.039900232475 -0.00576549880694
-0.0856983327487 -0.0381319669064 -0.00592567472926
-0.0832891225353 -0.0425777521274 -0.00234805966972
-0.0798273745981 -0.0437228644507 -0.00171653656211
-0.0810596303228 -0.0431399541225 -0.00301202787372
-0.0784479680061 -0.0439768790615 0.000822726752052
-0.0816646676217 -0.0433164484971 -0.000358573561535
-0.0806681142959 -0.04290851285 0.00617859905669
