-0.04973030568787172 -0.043214380340236995 0.002545316316684828
-0.0378366379936047 -0.0309442663670884 -0.005440589510787168
-0.04725868281711722 -0.03595183687557192 -0.004745504592379959
-0.050083289796627635 -0.03714512757347724 -0.0041520796912078994
-0.04392530891447615 -0.03425523458948268 -0.005085201118719396
-0.04199100875993362 -0.03301207300454281 -0.004958875962977873
-0.048756548044563676 -0.03567622034564387 -0.0024689387361418623
-0.050457393226021975 -0.0365396899250405 -0.0021209981154732766
-0.04718276240200632 -0.03464948486397079 -0.0016526458739282513
-0.034932134340126646 -0.030512410084408123 -0.005652000196278096
-0.04078031553854488 -0.03562727690331549 -0.005652000196278095
-0.04216230068054287 -0.03760921322858769 -0.005652000196278095
-0.03417890586524984 -0.032717309336093056 -0.005563977238946641
-0.03702390983291924 -0.034557893869292894 -0.0055640078411847635
-0.038694070931614165 -0.03656826277886598 -0.005111382753600105
-0.031692011590628046 -0.030982585330253797 -0.00562519826247185
-0.04956093164987276 -0.04301821965421989 0.004464927845773775
-0.047236598493254484 -0.04232082576221086 0.005149912539784186
-0.04777877563949799 -0.04252505260768944 0.002592833549447244
-0.0478890144265572 -0.04184507595445148 -0.0036643867240929223
-0.043522159054552104 -0.039858114623518154 -0.004567965259765726
-0.04527216921298395 -0.03970313617096403 -0.005296238074557651
-0.04999405369458129 -0.041634638142468136 0.006649982472756876
-0.04008726293275803 -0.031016138914276573 0.004162396886204369
-0.04371179481323261 -0.032887985091347216 0.0032924950348532395
-0.04760015857855371 -0.035180750880239406 0.003497176995858033
-0.04936864462753834 -0.03583610875539303 0.0003499666431745394
-0.04737316848799791 -0.03475280262910509 0.00026866122361656917
-0.04285358310283483 -0.03229920549556269 -0.0010416497658880715
-0.03837283381863527 -0.037392389420666 0.005150706368784711
-0.04369922397918541 -0.04021406860611071 0.006156838078160312
-0.045459389957369443 -0.04097868301841324 0.006068808840758191
-0.040566777872398874 -0.03848832342842114 0.00658394238993586
-0.04729497226598918 -0.041047382055364796 0.006493141891028316
-0.05073816049419505 -0.03719845745042837 0.0038156262894039703
-0.04553480817212704 -0.03423963805566116 0.004119015819636423
-0.03842152674083984 -0.03045585750562121 0.00496616951122712
-0.0414491074592569 -0.03244181106039323 0.005278220398275015
-0.043269531565402336 -0.033453706895845134 0.005159302888236137
-0.04813959929707219 -0.036530754215823455 0.005446304363489336
-0.04537891121994324 -0.03532715506846992 0.005964858858715961
-0.050590561968176954 -0.03890871309612751 0.006159025711973375
-0.03884387447457635 -0.03211066831784344 0.006692806220551144
-0.04181560211692238 -0.03405210122768048 0.006655906144515623
-0.03658849832326501 -0.030733669368474232 0.006752958257884064
-0.0485168764876053 -0.03818400194209902 0.006444697690203177
-0.04560335554536375 -0.037443338509754266 0.006679509738873461
-0.038061354517507674 -0.0368800638246346 -0.0032932190206380026
-0.0349850286955703 -0.0344603504369304 -0.004350235358016484
-0.03462653275865114 -0.034699973679874034 -0.0019226239485903
-0.03642623064001945 -0.03598942108575448 -0.002225293292324739
-0.03323226866218702 -0.03335073838216138 -0.0031007854716271475
-0.03164523494674942 -0.03214790567489002 -0.0025852901598839876
-0.029547339159966948 -0.030426845215927405 -0.002479831627526478
-0.030628575262354196 -0.030877927930487006 -0.0038003788980058625
-0.0376508524186802 -0.03628335471933918 0.006578744143535933
-0.03523018953954698 -0.0348077773556503 0.006206025628110281
-0.03335309629736313 -0.03267810232908301 0.006655994376793314
-0.031821743433203674 -0.03210257331534565 0.005849677854995534
-0.030518670655590576 -0.030499704312811494 0.006495023944960067
-0.05003827990896828 -0.042514711608428506 -0.0036319201259953342
-0.051040999591350555 -0.04305880893258219 -0.0009174210370381276
-0.04306609329060737 -0.03797160922415446 0.006857732648713855
-0.033764722127924904 -0.030412999166244407 0.007048999890685082
-0.03557828433165369 -0.03252961110991877 0.0070489998906850815
-0.04199450726824062 -0.036153872657595114 0.006885035439474188
-0.03993383780378945 -0.03542076538764247 0.0069496495559603876
-0.038638965734692964 -0.034281446122194734 0.006980319499854709
-0.03855411825614694 -0.037568168303290926 -0.0015363965297824078
-0.04056212193096594 -0.03879973450651511 -0.0015276255834165216
-0.04494110149135345 -0.04136188546684676 0.00026658174918196544
-0.047452095843832864 -0.042082798827419256 -0.0016782277179733522
-0.04031956429410245 -0.03801628620115929 -0.004722765727165411
-0.04539540389471911 -0.04107842257169345 -0.0026910637125068457
-0.04345404030690853 -0.040362492633469485 -0.002274109779209588
-0.045320373791260124 -0.04149094179906986 0.0043173275379649444
-0.04201561721667237 -0.03973270047968819 0.004777016978860676
-0.04422770713191933 -0.04111930399882133 0.002115722085596584
-0.03918853280037659 -0.038212443474277866 0.003492083360381351
-0.040891525186024485 -0.03934033845425967 0.002623543552197036
-0.04201417074603163 -0.039975186206901714 0.001080305800495698
-0.04039799084173565 -0.038976552503060403 0.0005607086127156545
-0.04329837924960229 -0.04059608840439648 -0.0002498049640032809
-0.04016332096720772 -0.031600345757969224 -0.004357640540621767
-0.03675171733201257 -0.029802443566333468 -0.004533260553064286
-0.046221404123128834 -0.03470699907111693 -0.00389111792528748
-0.044493760739449655 -0.03354860510212791 -0.003450633092362259
-0.042881599563312355 -0.03258793293857084 -0.003086267295241794
-0.03942783263055467 -0.030539859847702345 -0.0023514147636039436
-0.041197495580863 -0.031599312211254414 -0.002773919595845108
-0.04774518484202035 -0.03773555378144756 -0.005513846627793388
-0.05062686795167491 -0.04121066983227819 -0.005309895802183079
-0.04916916369625396 -0.03938185450544975 -0.005422165511869571
-0.038499988469603355 -0.032879239834636934 -0.005652000196278095
-0.04023639497905374 -0.03348955396896726 -0.005652000196278095
-0.04477472499002402 -0.037763892042884925 -0.005652000196278094
-0.04725277205693044 -0.03949354387470118 -0.005511782412485421
-0.0360770572028773 -0.03606321119541231 0.0005797686135507374
-0.03461791488275971 -0.03493438805986409 0.00011638185224446026
-0.03594513627678151 -0.035973821382787714 0.0026478689962047305
-0.037428038360723635 -0.03708492341116284 0.001470213264507244
-0.03349561258482179 -0.03389677377571737 0.004607657865719157
-0.03508995700364037 -0.03518581907662942 0.004062772222968452
-0.030488390926029323 -0.03126266818246211 0.0046483480692850595
-0.0328610086171517 -0.03354069581909468 0.00013825299231791691
-0.030349406201539655 -0.031256163515256605 0.0021321991162896207
-0.02915128243067261 -0.030157994403466296 0.0035816942961799554
-0.03175717426372797 -0.03254648713628061 0.0023455582295923948
-0.029436880259541137 -0.030419765951351388 -0.000280955107330532
-0.0332095432821429 -0.03387769083470175 0.0022613175064537614
-0.038764365390891196 -0.030081732399054265 0.003234368393509837
-0.04196230887967269 -0.03195205651488136 0.003582707174664814
-0.05007101248785593 -0.03622456119018586 0.001965984454154359
-0.03467445089247953 -0.028322220545321495 -0.005127181663485763
-0.03318605948722149 -0.029645999893546104 0.004383637665943408
-0.03126197526328604 -0.029645999893546104 0.003774901050511536
-0.03181154626001951 -0.029645999893546104 0.0015011787603676442
-0.023880528857089446 -0.020681999623775482 -0.004209088839055255
-0.02837920407644793 -0.02068199962377548 -0.0037698382722243817
-0.028176264127930915 -0.020681999623775482 -0.00014009811639381403
-0.02609427635197194 -0.020681999623775482 -0.004245535085001075
-0.02159376118573686 -0.020681999623775482 -0.0038488599155278107
-0.024606954774933923 -0.02068199962377548 -0.0005357546266579604
-0.028427736484129374 -0.020681999623775482 0.0022612200354494415
-0.021082955368419313 -0.020681999623775482 -0.002135342738986576
-0.03133509888671326 -0.020681999623775482 0.0031711586400437653
-0.020760985953147466 -0.020681999623775482 0.0016083340393413558
-0.022030164535667685 -0.020681999623775482 0.0031378437250165177
-0.025760117251330046 -0.020681999623775482 0.0013118673945978737
-0.025663348380557626 -0.020681999623775482 0.0036881410494430016
-0.018717458393270516 -0.020732235893683802 0.0007543901994453274
-0.03128987952433086 -0.024658048430684677 0.007136381806713084
-0.030146643989488256 -0.02287422496615529 0.007279477509872014
-0.02324136339552277 -0.020681999623775482 0.006566084747794078
-0.02501845103188584 -0.020681999623775482 0.00557618292845638
-0.02875582782339102 -0.020681999623775482 0.005238367093060001
-0.030137558614397823 -0.020681999623775482 -0.002466136159429838
-0.033723016102337626 -0.0296459998935461 0.0016518456392782825
-0.020679035488728736 -0.02256541875291554 -0.004491567580923374
-0.023885782671904273 -0.02473700656926043 -0.005145401313151615
-0.027519913010547806 -0.027567087265671003 -0.005474225154483519
-0.03234407151778743 -0.028441491610321078 0.00697035644144499
-0.02939490865282648 -0.02470463912927267 0.0073657548054971034
-0.028973071366258332 -0.029272298071674738 0.00612460341568343
-0.026227531012266492 -0.02621264498731577 0.006472305956754907
-0.021511847990287034 -0.02126079022533331 0.00659951351813433
-0.02513015609530301 -0.02438102766527306 0.006765725549558472
-0.02841184143263797 -0.021661694468159444 0.007388249811725093
-0.02462963652111681 -0.02233203156982482 0.007126256122527671
-0.027187571118093702 -0.024779204743057212 0.007138686316228883
-0.029379011918261075 -0.02686655617195377 0.007150362216277807
-0.03615075145167148 -0.02723402607294932 -0.0018738344245704621
-0.03292320013791195 -0.025866470013261294 0.006721722911212764
-0.03417649493097875 -0.025620724551059966 0.005478842341009036
-0.03411711538502954 -0.02755616000974763 0.006462236749766059
-0.033103097994001386 -0.023731294917287565 0.005276708356737927
-0.03554966143317952 -0.02656900631862053 0.004303589672233314
-0.032035798451166796 -0.022338358818922398 0.005541286902032023
-0.034480228582602454 -0.02457835803899863 0.003954813741870832
-0.0331805842092599 -0.022144282894202234 0.003515573639274483
-0.02275078513982422 -0.02518515785093739 0.0019824246595281604
-0.02432935572755661 -0.026343704380244505 0.002669180506389416
-0.02724389113198916 -0.02863352755237787 0.0024641647673580296
-0.02550933636107411 -0.02734381105889598 0.0018725887186347248
-0.028252440504536496 -0.02942544329321274 0.001133203049180685
-0.02223167825425935 -0.023202559553310534 -0.005154679667518279
-0.0223299869036541 -0.021278872858171174 -0.005617260182915961
-0.02561177311560705 -0.024229469178690337 -0.005762063045552409
-0.024495431498617166 -0.021737115514949897 -0.0060518459636494095
-0.028355320254972054 -0.022317254066541378 -0.006359411630035415
-0.030324344933569655 -0.023919522290925175 -0.006064297247586737
-0.027692357520749784 -0.024016634241718814 -0.006228468414163025
-0.02936722467291177 -0.026125697250920198 -0.006100849955247664
-0.03115132952582404 -0.028012883545221606 -0.006019782546505547
-0.032356215914646456 -0.020681999623775482 0.0006084511520624594
-0.03444977309218514 -0.02411236917900033 -0.00011471080142572685
-0.03338490809852324 -0.022362715929656267 0.0009964292340328348
-0.034729211567591074 -0.02513349655811957 -0.0020298839577658524
-0.03284223563453256 -0.021626455565455643 -0.0008292425883786388
-0.01951836189708463 -0.022397168102487788 0.003606645820935658
-0.020964212568364275 -0.023573433483125968 0.0036119081964531277
-0.022697576108455082 -0.02490438985366813 0.004007859968059062
-0.02617929980662197 -0.027501800385038182 0.005177108845940187
-0.021317646159637847 -0.02316208915393345 0.005553808172805834
-0.02432861303152427 -0.02589637929433413 0.005492032231838764
-0.021714885029092964 -0.024426857853769357 -3.758236876356795e-05
-0.02045703199424843 -0.023438476059801178 0.0016007023532876835
-0.01999429049577865 -0.023074868182146685 -0.0007402535703693559
-0.024499756726108074 -0.026615123420268706 5.464536053246551e-06
-0.028000992982053927 -0.02921845950325815 -0.0013980736098718948
-0.0266373843985477 -0.028246149103897188 -0.00015344674666455506
-0.02077238896718138 -0.02362971967397631 -0.0021727419468227406
-0.02305629516782126 -0.02544545111056704 -0.0010803745180025946
-0.03559871121516921 -0.029645999893546104 0.0006837705665344865
-0.035868810884746735 -0.029645999893546108 -0.0012210239759163233
-0.03434762412180363 -0.023993728902540673 0.0021069459060065613
-0.036788411290584445 -0.028235958366608232 0.0028496291777037473
-0.035250330443862374 -0.025477502412450188 0.001276074508809379
-0.03341287567997995 -0.02366262808556764 -0.0029567983828311327
-0.03699735454846605 -0.02910090920783384 -0.002879609447594201
-0.03495057893481332 -0.026423496216874755 -0.00348282754331333
-0.02898533236681366 -0.029550627018935977 -0.0042956880656186865
-0.02447396737566976 -0.02609222841890759 -0.00399313664684152
-0.022350471280017464 -0.024647358286647554 -0.003329475756835497
-0.018423005390086598 -0.0216190067259758 -0.0031314914660208687
-0.02503874988975643 -0.026867383465107343 -0.002465739556285095
-0.02683549816238121 -0.028189981574062384 -0.002826421692020591
-0.03307225776553485 -0.02676198889944687 -0.005575515294780629
-0.03183855937722568 -0.022095012779209243 -0.0035568718230254105
-0.03233893041553237 -0.02419190830690514 -0.004692047859973047
-0.02951151848225159 -0.021183832006939095 -0.005436467291086947
-0.04102186060324038 -0.0158562630563688 0.001285175132117604
-0.04677648315644428 -0.016728982048406785 0.0015217262203145285
-0.03962446334694736 -0.015644340360533655 0.002791255112525853
-0.038343001157045364 -0.009394658984487346 0.008075661045670717
-0.038343001157045364 -0.007958390513158567 0.0063961079564732355
-0.038343001157045364 -0.007284856510122657 -0.0037304737466016123
-0.038343001157045364 -0.010654475276811796 -0.0037131874826728225
-0.038343001157045364 -0.013801254723415804 0.0011015819898418113
-0.038343001157045364 -0.01359251131098629 -0.0010242409555535287
-0.038343001157045364 -0.012647733492067572 0.0025546214952803944
-0.038343001157045364 -0.010920555944131764 0.005463195098866446
-0.038343001157045364 -0.008989210778925344 0.000988724930936784
-0.038343001157045364 -0.011844947146274465 0.0005730603726463853
-0.041911022847277435 -0.008221998569365535 0.007872169320326415
-0.04576004614088805 -0.00912141049400723 0.007927708130373226
-0.05104200169444084 -0.010243143303153408 0.005439286222389207
-0.05104200169444084 -0.009362042705343711 0.0072261605750152174
-0.051042001694440835 -0.011329943609127516 0.003531797800282856
-0.05104200169444084 -0.004375574023725255 0.0018686958922724823
-0.05104200169444084 -0.005672122077853723 0.003953707136212507
-0.038343001157045364 -0.004294187982552319 0.0009363836869086305
-0.038343001157045364 -0.006093353657432971 0.004264419188522193
-0.038343001157045364 -0.002934849263688288 -0.004048186144192769
-0.038343001157045364 -0.0051101357558827444 -0.0051150182681733904
-0.038343001157045364 -0.005613073056962822 -0.002489307125948686
-0.038343001157045364 -0.0032495851563666906 -0.0007956324476374385
-0.05104200169444084 -0.003960700340351602 -0.003439670566288146
-0.05104200169444084 -0.007869380619411098 -0.0007574570387820986
-0.05104200169444084 -0.004923567533356206 -0.0015380611910507575
-0.05104200169444084 -0.0060344059214392665 0.00031281838709971304
-0.051042001694440835 -0.015747418206763914 0.0030546493041568373
-0.038343001157045364 -0.0026170825776529174 0.0026170274922977807
-0.05104200169444084 -0.008350027850692304 -0.002743601687712569
-0.038343001157045364 -0.012211583796008679 -0.0028337351843437057
-0.038343001157045364 -0.00781113841216301 -0.005760643265989376
-0.05104200169444084 -0.013548206677002971 0.007485545946403364
-0.05104200169444084 -0.007358009804259966 -0.004388478155540882
-0.05104200169444084 -0.010148055770511795 -0.003565922237428136
-0.04009996834273341 -0.00684412055300601 0.007589407311791636
-0.04345888465046071 -0.0008820000221021474 -0.0024460346491777985
-0.03985295721031813 -0.0018283204400300465 0.0015546024284894787
-0.04537830880251608 -0.0009096002379621358 0.0003012502737674865
-0.043412366744020665 -0.001221052246264421 0.0007125140048968488
-0.04738092292899309 -0.001476637873469678 -0.005497926170261939
-0.048519913662721736 -0.016886070023421837 0.0009458754227550051
-0.045335180866009774 -0.016062439997430976 -0.00025887151900519113
-0.04965233058487173 -0.01713200909163464 0.003191447335271788
-0.050635027642508074 -0.01731281516257938 0.0015128574991245865
-0.04473008957930834 -0.007117451281225137 0.00745300463459992
-0.04877442260652637 -0.007468758387422359 0.007271198343253698
-0.048875271376281164 -0.0024256543152991277 0.0027457960482954705
-0.04927692198025373 -0.006010430864283334 0.0058983952206489694
-0.04538393197369521 -0.005080970616346294 0.005594728436445403
-0.04164199006897497 -0.0060709771217192995 0.006987799256770791
-0.04352840904025053 -0.0057038695961678645 0.0064035889702919145
-0.04753275558387593 -0.004486810331186468 0.00477180920183792
-0.049531558719746835 -0.004282273908678563 0.004317801992216902
-0.046897922889339624 -0.006271858214163784 0.006454850551383881
-0.040425632535562195 -0.013274693085238183 0.007479225626191427
-0.04929319914000484 -0.014852101015074622 0.0067700929471438236
-0.04724236924876188 -0.015143662884521838 0.0064505884601063854
-0.04530417418595212 -0.013830982767616164 0.00731857622308857
-0.04986898397798839 -0.016266432216583755 0.005757651154439891
-0.04225104313002893 -0.015841055466949232 0.0042396262952659565
-0.04651318723214195 -0.016585784218011455 0.004085540933363701
-0.0440370540524663 -0.016150584246944193 0.004181104943534911
-0.048439574769886196 -0.016720662262117214 0.004495597970172079
-0.0384947330381492 -0.001422568180411987 -0.00531232190495763
-0.040779545105900705 -0.0013662407296879105 -0.005320534890317306
-0.04277939528839718 -0.001720680307120936 -0.005630192304569577
-0.04320661139835245 -0.011347880598866362 -0.004918883607730735
-0.039897309708094894 -0.010798210823297101 -0.005146653248332095
-0.04271392550702466 -0.009504697388393017 -0.005695586936026131
-0.04492604895425269 -0.009113462379500413 -0.005786172822485384
-0.045547306804897617 -0.010750624989075652 -0.005271799487151256
-0.04931783953532006 -0.009923316125027807 -0.00547578030862525
-0.04373844066078307 -0.006975279740265486 -0.006449618530786176
-0.04736245985972933 -0.0069677483614755545 -0.006409423508309862
-0.040381436725078004 -0.007860905705949713 -0.0062227629353101
-0.03874243460898861 -0.006327083423972896 -0.006702974769958236
-0.04227075695566671 -0.0020788696018660337 0.0023910155170812335
-0.045212981420004676 -0.002006537438745899 0.0025241242746583065
-0.04150470882721232 -0.004230800939208181 0.005276579821821659
-0.04330048188479791 -0.0036833547358230286 0.004568987450772991
-0.04977096475501316 -0.013603569341274824 -0.0037940551194144572
-0.04866640106016049 -0.012394639046363537 -0.004460926588104533
-0.0408683758102227 -0.012396973769993741 -0.004258516989064181
-0.04478191649662005 -0.012565733831371058 -0.004262357619855858
-0.04663077360807323 -0.013188560355985538 -0.003951792099166101
-0.04796978666436388 -0.014450223248965756 -0.003017577969157432
-0.04950824584271377 -0.015282949494120488 -0.002320658662195699
-0.04251533585664772 -0.010210172267918313 0.008149899608736463
-0.047708632854212354 -0.011257454549946668 0.008143300927431995
-0.05003296701917627 -0.010924636974612642 0.008042851526811001
-0.048558849037049025 -0.009332856079791313 0.007887266394948592
-0.04878452000468118 -0.012816588115069843 0.007970327994808488
-0.03923643199007292 -0.01175251643816383 0.008165131010205813
-0.043059837499550634 -0.013084125875846616 0.007691763995161551
-0.04135024929719229 -0.011695814729106928 0.008167999796569347
-0.044462863144113185 -0.011055875163234872 0.008167999796569347
-0.04016348026207269 -0.010067916137487865 0.008167999796569349
-0.04092868362776379 -0.014673129672272894 0.006281854973024394
-0.04288891995334454 -0.015214141861479121 0.00594381721603726
-0.0451936227107663 -0.015693381633946065 0.005689857195381967
-0.04021722165934668 -0.015353598680216352 0.004615494016226356
-0.04721795385513566 -0.0048464625353143494 -0.006511321432950458
-0.04233870802884387 -0.005566455240305165 -0.006654636473958419
-0.049032185083511634 -0.004208082094247697 -0.0064580331519026824
-0.04450138250787797 -0.004414087561295739 -0.006504867713290573
-0.04072362536420799 -0.0033035627904290984 -0.00623773560085077
-0.044772612598418936 -0.0023529072203884293 -0.006065454647321549
-0.049930959398130643 -0.002340700041869664 -0.00610049949096947
-0.04584936934566927 -0.0008820000221021473 -0.002902343738474771
-0.04904694147056107 -0.001136863949083728 -0.004731098462279389
-0.0449465641191972 -0.0010082433293316917 -0.004550243011283559
-0.04139155134363216 -0.015267738938062166 -0.0011027012726683048
-0.04762747223178461 -0.015745645467975418 -0.0015913055120348747
-0.03953670964262939 -0.01413603032829115 -0.0025864585381904894
-0.04331873466962357 -0.014283210613487616 -0.002773781504547086
-0.04568088763359988 -0.015121282977550124 -0.00214413148901443
-0.0413705088691226 -0.0142571884590902 -0.002627458435354796
-0.03958199493353371 -0.01542491730936127 -7.665384854907745e-05
-0.04284549660990224 -0.016083046129878004 0.0007719547089519694
-0.011404884810303726 -0.010431183663683919 -0.0072605339715703385
-0.020814591857889347 -0.01597516243265502 -0.0069271115529410485
-0.01228059131204299 -0.012090719755771893 -0.007086316201545699
-0.01682897702839159 -0.014445869823359832 -0.006965798706624506
-0.023144105723681356 -0.020680999383330345 -0.0026193148259113837
-0.02657769941471528 -0.020680999383330345 -0.0019545265799016873
-0.022507999755406988 -0.020680999383330345 0.000733386205541789
-0.007708000019192696 -0.010374153879887191 0.0016106132000057556
-0.007708000019192696 -0.0062747878712157675 0.0015752849482148735
-0.007708000019192695 -0.0030845138072535775 -0.0022437580628986713
-0.007708000019192696 -0.0033327601419852514 0.0015315987575219533
-0.007708000019192696 -0.01000473624255104 0.0035984649626377464
-0.007708000019192696 -0.011863981205351256 0.0031416411347845183
-0.0077080000191926965 -0.006353197144767828 -0.003020602777713714
-0.007708000019192696 -0.0038963363662056516 -0.000282988141180575
-0.007708000019192696 -0.013290235194455673 0.00502511676500114
-0.007708000019192696 -0.015597273223162775 0.004370545294566105
-0.01274511962614703 -0.0008820000221021473 0.00508895543024245
-0.03330896984953812 -0.0008820000221021473 0.0003008063194974774
-0.02829341845641399 -0.0008820000221021473 -0.0005222748807677699
-0.0350322790341335 -0.0008820000221021473 -0.0006780769682102095
-0.014793667140731003 -0.0008820000221021473 0.004998542400429672
-0.03357413087642419 -0.0008820000221021473 -0.001904804684363907
-0.023344451413323454 -0.0008820000221021473 0.0021660742035915534
-0.01992424002516361 -0.0008820000221021473 0.0027586344151391442
-0.025445219827760962 -0.0008820000221021473 0.0006084355120179442
-0.02990866924976663 -0.0008820000221021473 0.0006168395943291544
-0.015928071906442298 -0.0008820000221021473 0.00330416763958595
-0.02314940851667107 -0.0008820000221021473 -0.0012741350551734596
-0.024607918284640443 -0.0008820000221021473 -0.002480834454142345
-0.028945452215460063 -0.0008820000221021473 -0.002587928526711189
-0.02174115292997005 -0.0008820000221021472 0.00045147532797062154
-0.03834100067615509 -0.010434620972940071 -0.0014991301580523661
-0.03834100067615509 -0.004578224258876513 0.003387650355981953
-0.03834100067615509 -0.006312054383020272 0.0008549633402704308
-0.03834100067615509 -0.008767774627354667 -0.002478893941062395
-0.03834100067615509 -0.007134202773592278 -0.0011174950304005784
-0.03834100067615509 -0.007456365004384621 0.0023737357337852314
-0.007708000019192696 -0.01217328323133215 -0.0009756062982143119
-0.007708000019192696 -0.013899518098676737 -0.0025970360692558116
-0.007708000019192696 -0.010009408250279666 -0.0017630442397058566
-0.007708000019192696 -0.012513055402052031 0.0010292100404165746
-0.007708000019192696 -0.011800099550266905 -0.00455729968478569
-0.007708000019192696 -0.013969110448570743 4.07977830730545e-05
-0.03834100067615509 -0.00978802047902925 0.0033398742301217147
-0.01574325507914963 -0.0012238388120598006 0.006732577082908939
-0.02508618846847662 -0.0008820000221021473 0.004998731762413522
-0.03260907498248767 -0.0008820000221021473 0.005460676407855273
-0.016971644142104895 -0.0008820000221021473 0.0048917017729741405
-0.026964224132550542 -0.0008820000221021473 0.0055061619034892425
-0.023200401712562657 -0.0008820000221021473 0.00389161372416255
-0.029186483861382298 -0.0008820000221021473 0.005997767708519964
-0.03834100067615509 -0.012770988421817585 0.005478194375957292
-0.007708000019192696 -0.006371785984173152 -0.007451628492814603
-0.01208862406214031 -0.0008820000221021473 -0.002830232891151428
-0.02048907286542956 -0.0008820000221021473 -0.003781597419068432
-0.009765189284413273 -0.0008820000221021473 0.002282264432471353
-0.017164889511584864 -0.0008820000221021473 -0.004616084781000161
-0.009757352909097449 -0.0008820000221021473 -0.005871068515431389
-0.020221269084137662 -0.0008820000221021473 -0.000701632040958609
-0.014862634603086332 -0.0008820000221021473 -0.00045870885648018273
-0.01464250694786442 -0.0008820000221021473 -0.004507450964536382
-0.010372588867550814 -0.0008820000221021474 -0.003912296000265614
-0.009755867369978447 -0.0008820000221021473 -0.0011822335036406968
-0.01749126061888037 -0.0008820000221021473 -0.0014143352955580046
-0.014051339649557551 -0.0008820000221021473 0.0017889792493833202
-0.007708000019192696 -0.0020152619993102205 -0.004949062994496494
-0.03001260794775413 -0.020680999383330345 0.0010988161331167996
-0.01782467009737324 -0.020680999383330345 -0.0008954853447182894
-0.02695548223372099 -0.020680999383330345 0.006334628043685737
-0.02349541205904844 -0.020680999383330345 0.004248261005172107
-0.01996197091871582 -0.020680999383330345 0.0036429180579731664
-0.007708000019192696 -0.008713487997137169 0.0072805584692792295
-0.034051845507170976 -0.0008820000221021474 -0.004313699060599179
-0.036733404292948434 -0.0008820000221021473 -0.0021083634552468812
-0.03443399006847002 -0.001686805014756419 -0.006078316271668983
-0.036267502800641255 -0.003504768620423806 -0.006433641412378779
-0.03342389258136485 -0.016462482647964172 0.007782976647028554
-0.03188077605944075 -0.017419331710048107 0.007738491035292475
-0.029206118466208457 -0.018318588707701203 0.007770828089722336
-0.01601050339113199 -0.013987786635558908 0.007622888188504092
-0.013439104499884023 -0.011640222190892759 0.007658494333502498
-0.020483725255323416 -0.01483457573178035 0.007785263030389486
-0.011675052112536229 -0.009927185678745913 0.0076900268605427395
-0.01814816380387521 -0.014050280947749965 0.00772419480117173
-0.03241274104728801 -0.0036993272805604938 -0.006818773030979822
-0.030696171367368314 -0.002426268036350008 -0.006672880931108958
-0.034596029420977184 -0.004341347108854111 -0.006806806776720799
-0.024041494725996204 -0.0027462153961672186 -0.006991821978691432
-0.02137512243833299 -0.0019328165402094225 -0.006821484161503171
-0.02908455432661726 -0.0015747852052732593 -0.006598283971026193
-0.026916842768219894 -0.0020242214987349232 -0.006753156210497652
-0.017375385204960243 -0.0009312478548016938 -0.006623696845840278
-0.007858462025743694 -0.0010826865629240516 -0.0068198321465755204
-0.015519724087991495 -0.0025415671410685845 -0.007071289577829374
-0.013705824888833002 -0.0019082143828057312 -0.006939960165099775
-0.018631627881777878 -0.0028920914780237615 -0.007113076591397888
-0.010950915268140404 -0.001770817131407104 -0.006946080190993994
-0.013030695972212321 -0.018156885220139925 -0.004662771483552792
-0.010068337807977012 -0.017245811965739807 -0.004197257674866639
-0.018425945960092817 -0.01974225466474254 -0.005254185043007128
-0.016495520234522453 -0.019625375569493463 -0.004815417423667078
-0.011173003857697482 -0.016096651532412597 -0.005511848042055878
-0.016252428235413115 -0.018103326906493085 -0.0056562461579554605
-0.020733786048962848 -0.020202456703773967 -0.005588220411186224
-0.009182458053461063 -0.01488233480387998 -0.005709658998461456
-0.030427009717599717 -0.004536845853033315 -0.007054198238821205
-0.0318003450487115 -0.006305512181787067 -0.00710532862936134
-0.03676193650923873 -0.005314196707222467 -0.006834470590285577
-0.034076302277622934 -0.006157620949825303 -0.0070000208204051145
-0.03678771093577339 -0.016775327274912603 0.0034225201030937476
-0.03499190077811374 -0.018306543212498062 0.002701772870816759
-0.03323209920919223 -0.019755915062285606 0.002795749541029002
-0.03298735656007866 -0.008993987932268693 0.008150569363078963
-0.03611586867994967 -0.009233730744371298 0.008045456994717193
-0.023071046706932438 -0.01973971904915086 -0.006434161717788633
-0.012327832795749859 -0.014382516966495024 -0.006561011305849584
-0.01884594067555606 -0.017725777798059273 -0.006444189646728238
-0.013381005089213215 -0.01583422994435148 -0.006151234766548172
-0.0166960154132032 -0.016461826195607297 -0.006551857848525253
-0.017885698876932667 -0.020680999383330345 0.002652896673750022
-0.01775114646294454 -0.020680999383330345 0.0047492124036476015
-0.015219674017063669 -0.019309702945544658 0.00571794284036532
-0.014085029148081957 -0.01976515409592812 -0.0010004919529759317
-0.010055982796106214 -0.018333055597704536 0.0006350038807086585
-0.012861743662574573 -0.019292996691389563 0.0004317970001906212
-0.016008629260357652 -0.020228390148151445 0.0037429330305318725
-0.014483641066853391 -0.019801098432553767 0.0014868930273454028
-0.016075664371891226 -0.020412179529033066 -0.0002919552810821684
-0.009442371537827975 -0.007975001017147557 0.007614249886069218
-0.009423760759706598 -0.006092462655502168 0.00761218693890029
-0.023412939213442716 -0.007923351651042337 0.007961819645942109
-0.012196626633987401 -0.007717849285394419 0.007792735402815774
-0.012601817009373042 -0.005221055376875069 0.007630546787485562
-0.019110248653583278 -0.006153420723075562 0.007783306401335852
-0.014722182259525906 -0.0061680464653006434 0.007723542989868966
-0.017927232143737797 -0.008240879860820829 0.00790721767324885
-0.01129721162100604 -0.0037189674163962973 0.007492561801591456
-0.03480478814746358 -0.00696162584362681 0.007865547556479016
-0.017678356888687914 -0.005084313104630117 0.007661287530704676
-0.03053651653796694 -0.007492223321060359 0.007953523304703843
-0.028187909115389306 -0.007975132347899283 0.008028491881215741
-0.02505301275366797 -0.0070647041283380604 0.007912264433323041
-0.026845986365644232 -0.005604476047752096 0.00770320018671501
-0.02188726168819239 -0.0058171853138369945 0.007749251690549663
-0.02925588033764805 -0.01504845659677593 0.008071237104126064
-0.031809530825368484 -0.014028248688071347 0.008105396956150156
-0.022217294693543235 -0.01511496788925413 0.007833091415004828
-0.02758204979018152 -0.013822989739899857 0.008073504460966198
-0.019207576255951472 -0.011060027282312918 0.007922854347319349
-0.02786021377478346 -0.016596586319114613 0.007952468404195086
-0.016633475536516354 -0.010652817827675395 0.0078557726681404
-0.026557900867411874 -0.01835507510453757 0.00782620209682743
-0.021254300011040186 -0.012898767365128759 0.007904992588773026
-0.025378085828365662 -0.015533383067981809 0.007919297680591558
-0.02415524559730404 -0.016909491735927935 0.007813664372713242
-0.0250450935796153 -0.012321724235885949 0.008059085261211954
-0.014453339647250265 -0.009860110417113195 0.007820004454414706
-0.02315800755205579 -0.013342263568341468 0.007947914006488909
-0.01998580775872731 -0.00860034434309956 0.007950842511023858
-0.02503998572205736 -0.009863923247577393 0.00804816913307131
-0.030738877361938297 -0.009560470288059194 0.008140972735209247
-0.028986412777871663 -0.010029597582597277 0.008116118026039256
-0.02183483753328797 -0.009302331673459632 0.007988798106563928
-0.015965582433834967 -0.008386906430878482 0.007881185210652961
-0.03011350140840711 -0.012549179207714985 0.008159754464596032
-0.02304088979311054 -0.010822720367067147 0.008023968649092817
-0.026581766769590034 -0.011267310965630845 0.008087835345049128
-0.03574245339965977 -0.011362645974659339 0.008170000277459621
-0.03288104018342944 -0.012239383762193592 0.008170000277459621
-0.03396391053785405 -0.01504915145324292 -0.0055675951139216645
-0.037578603273398764 -0.012971754357918789 -0.004369852181695122
-0.03243339514210055 -0.016131810744361576 -0.005961940978750633
-0.03669575063150978 -0.010956099001031406 -0.006063909767387557
-0.035928807581108904 -0.012646225722274172 -0.0056240348299981
-0.03834100067615509 -0.00963970535646921 -0.005600531192618
-0.030660304543130137 -0.020097972712529843 -0.004456294185936538
-0.03454394920911723 -0.01636826037287315 -0.004194629998555647
-0.03319709457218259 -0.017748567684067525 -0.004212417792859456
-0.03660140291830836 -0.01454699731024385 -0.0038985816158251065
-0.037620619074639025 -0.012994605311005937 0.0077085896215278145
-0.03553030396188922 -0.016193150626630855 0.006743212365493542
-0.036053880472789665 -0.014263411735852024 0.007790712235472358
-0.03108213185302751 -0.0198865691463271 0.006611100789615933
-0.03295847664946668 -0.018614685706365753 0.006294375879845304
-0.03246090076541926 -0.019945917044176954 0.004948398423840318
-0.03392894765751985 -0.019041063833480556 0.004401451046475387
-0.038248825063605905 -0.01528894418000374 0.004539503029907242
-0.03719174983282361 -0.015501995945631692 0.005916536745546179
-0.03532065907765568 -0.01769943186678808 0.00471170897204468
-0.025478559252157022 -0.02036694976779476 0.007498512558408938
-0.020427542692033954 -0.017619767461656465 0.007513941087132469
-0.023366955006091546 -0.01872686497514362 0.007592897019282662
-0.013342517368557438 -0.013437749348701917 0.007526494883167481
-0.018915782226514855 -0.016031601636091877 0.007609885921955831
-0.009255571803424432 -0.014514833856840477 0.0066311677737951194
-0.012524215267630652 -0.017316286266591485 0.006127111296696876
-0.010266907035392382 -0.01697597359865082 0.005678245451959587
-0.011984482102521767 -0.01525996794828058 0.006965222442837766
-0.01717654901584712 -0.019198419941435077 0.006457615674016904
-0.019739278741946194 -0.02042732401408879 0.00650107341805627
-0.014674237688545026 -0.017404852349808334 0.006659262962513969
-0.00963743033633352 -0.012441346419547361 0.007349446338829056
-0.014735942923147621 -0.015447283587697768 0.007336924235004757
-0.016628769157703876 -0.01636859438530981 0.007371350381171957
-0.03664408900272827 -0.003230760023962738 0.0066222787447246766
-0.03705311313467481 -0.016576766420867518 0.00020385273502170287
-0.03585535280471561 -0.01762468114809336 0.001343187034955601
-0.03413804490932519 -0.019013167648761337 -0.0004760027387354479
-0.03708148237274787 -0.015486904965249236 -0.0023387188752768285
-0.035499819537761976 -0.01688252669580761 -0.002535819911010491
-0.0338439683274548 -0.018514516188965595 -0.0023434369828122855
-0.02476434559635241 -0.0016745850102201833 0.006747935044460386
-0.012011612739169574 -0.0015819825460556098 0.006951137398024911
-0.030874686462561068 -0.0013679370670810153 0.0065327056045564455
-0.032954754914905925 -0.002911260640883708 0.0070127180405897245
-0.021232369866247026 -0.0018799068513078744 0.006881769987069426
-0.0282668588610207 -0.002359248474733974 0.006913486942574522
-0.035014805549829 -0.001989842221014739 0.006620646218079499
-0.03578162489129012 -0.004930336209135534 0.007447842896158597
-0.018920787433928617 -0.002462975692623526 0.007101587673771777
-0.016053730177699874 -0.0030309642944814728 0.007283529872703644
-0.02327737039131411 -0.0029094887594100657 0.007153833281381856
-0.00953622907321391 -0.002419733476112513 0.007219616345015582
-0.020500171556467987 -0.0041585961939963785 0.00748195779884013
-0.013700959151624248 -0.003762714730913858 0.007484997578772787
-0.02909589455861181 -0.0038376006013420977 0.007290636330945912
-0.03110072144944779 -0.004181655266865404 0.007341620202892851
-0.03300699613541444 -0.0059116144798252515 0.007710250118128932
-0.025742180634195113 -0.003679942641901178 0.007300719254916296
-0.023550555796918064 -0.004906074005562214 0.007610650384587848
-0.010407412996440072 -0.005376292488909472 -0.007418203262491986
-0.017935018695706864 -0.010936762188797687 -0.007342685954935213
-0.012828192155756379 -0.009103886377890202 -0.007430242421321468
-0.016320936635156998 -0.010026563253329677 -0.007380665261348212
-0.01438878262152278 -0.009997842132135558 -0.0073930881819685825
-0.012204655398921974 -0.007057891189673805 -0.007497686647686552
-0.019831778691760532 -0.011716403374222426 -0.007307086328401836
-0.022747317175906293 -0.004127424907560706 -0.007228436422676115
-0.020868436155741157 -0.003682805621114816 -0.007196216307271125
-0.016995060527136972 -0.004926202943452286 -0.007338055158072929
-0.012110767851997994 -0.003615728067560199 -0.007239385203803897
-0.009422803773375715 -0.0035940671866526025 -0.007252531446135434
-0.012990463002316072 -0.005131542162488659 -0.007380550585957168
-0.014950252741270573 -0.005287765487519773 -0.007384505659822063
-0.026013319976522307 -0.009282129498757076 -0.007254198360420688
-0.026494988881719736 -0.014713506445589062 -0.0071710349978080035
-0.022692007038456648 -0.00963568227820626 -0.007300993938505963
-0.03209660329264277 -0.009906290173017774 -0.007150772100819114
-0.019768777319521882 -0.009913048200588605 -0.007342651739844493
-0.024629209137658616 -0.01198680720799964 -0.007238074357124671
-0.01795818415192147 -0.00836659877050873 -0.007392390062239166
-0.030409294610342166 -0.01168726769734779 -0.007152237360408089
-0.028226550413283633 -0.011711596033828086 -0.007185889006908696
-0.022540727596180504 -0.012022157442373612 -0.007270104566036183
-0.02126758062026231 -0.008319547790832596 -0.007341510282125501
-0.029840510268606603 -0.009592837096193494 -0.00719027147969894
-0.016221176105496556 -0.006855099983483872 -0.007439241939670316
-0.018495108787914077 -0.005979173603620408 -0.007371540204319141
-0.023035339010733402 -0.006565458926882745 -0.007301349508510091
-0.028994254352032404 -0.005698474589304459 -0.0071636856398122825
-0.025232622039349478 -0.006699817061859648 -0.007263223086073451
-0.020700774747828898 -0.0062428234950694965 -0.00733685207874413
-0.03252512646920842 -0.007886986938048738 -0.007157314384878419
-0.026294465108186418 -0.005254698181027527 -0.007202775747442623
-0.027552878561067598 -0.007372772853149088 -0.007237742078902874
-0.012055497058416749 -0.018988455817766654 -0.001589056278451414
-0.009397383301144865 -0.01782869926268893 -0.002492455731710216
-0.011499935572611109 -0.018344376478255545 -0.0035348115446023373
-0.013402628879959806 -0.019297411809535134 -0.0028851715709980667
-0.015348121425539547 -0.01999811122496218 -0.0030659238100669934
-0.0377356429718048 -0.0026467975954184366 0.004863073451508681
-0.03821539836232746 -0.0044765742496492116 0.005972848558810707
-0.030351276857454597 -0.016758521628467898 -0.006561484528119674
-0.03204219022366201 -0.01373130444580295 -0.006718963741370358
-0.03219649412311279 -0.011742691348917604 -0.006960350415244096
-0.029033043109764158 -0.018579628694644787 -0.006510159315097847
-0.036587984910933125 -0.008337293370956515 -0.0067785069530194655
-0.035072375343169114 -0.009981796691474877 -0.006779059156886019
-0.029227560871495868 -0.015215772721520167 -0.006928068740527468
-0.03448744564577868 -0.008044121048309353 -0.007092272758726841
-0.029764650817345063 -0.013396329726467638 -0.0070892653490272454
-0.03436863744391462 -0.012166913772855538 -0.006546348994654396
-0.014068881934729986 -0.019349083084176127 0.004383066974174902
-0.012048154973058752 -0.018741986234359576 0.003670693279125661
-0.00927593837920829 -0.017852036934721545 0.0028930171552310683
-0.008190623373465794 -0.017718274206302873 8.250404696845583e-05
-0.02117335616552091 -0.013415336996551348 -0.007204721071928877
-0.022890300586264126 -0.014097712646540988 -0.007175317277095697
-0.01032610713502165 -0.008771729655294248 -0.007424061921051696
-0.023339175860926247 -0.01630136457145067 -0.006963139301663236
-0.026350189136397105 -0.017494808212681772 -0.006911901043603537
-0.015794412393710808 -0.011789312943052004 -0.007245166129815299
-0.02529385525436411 -0.019433427617221166 -0.00662739552304004
-0.01447937249245072 -0.013598731526871624 -0.006973825941330522
-0.01854631945198327 -0.015905177289600485 -0.006824988370972035
-0.01003268374797146 -0.01289384702381875 -0.0067297402855637685
-0.033796761621541244 0.0007132198582766239 0.00625700126568064
-0.04587977895880812 0.0007148751691381365 0.006063137588467091
-0.05316778858984954 0.001296860441909672 0.005943118901359552
-0.04797477415240216 0.001411957084492894 0.006025821784255661
-0.03889567184191708 -0.0008820000221021472 -4.082200754871733e-05
-0.02557354680838242 -0.0008820000221021473 -0.004120217521153589
-0.04152066756420372 -0.0008820000221021473 0.0006561185867892769
-0.015440636094867817 -0.0008820000221021473 -0.006244397612531063
-0.022520653304447944 -0.0008820000221021473 -0.003489166269454963
-0.05517482325788257 -0.0008820000221021473 0.0039011090681582467
-0.018993999587427344 -0.0008820000221021473 -0.004895543507916297
-0.007708999793976545 0.0010225259555795502 0.000991823557654067
-0.007708999793976545 0.00045848176968590974 0.004603109204959407
-0.007708999793976545 -0.0003106298828387553 -0.004354770105931518
-0.0077089997939765445 0.001758972522332975 0.002867245113924958
-0.025381426344081748 -0.0008820000221021473 0.0026279436539270104
-0.030249044205475188 -0.0008820000221021473 -0.0012159724831815454
-0.011252431696541061 -0.0008820000221021473 0.0038092987180181155
-0.015436425560899084 -0.0008820000221021473 -0.0027517050183750455
-0.049134094178383464 -0.0008820000221021473 0.0038182378931736365
-0.01210880663421825 -0.0008820000221021473 0.0014994921704519757
-0.036997922963702315 -0.0008820000221021473 0.004128509008768981
-0.05317201750197945 -0.0008820000221021472 0.003635529979203998
-0.037442507429825585 -0.0008820000221021473 0.0018624198069316807
-0.019196181948290668 -0.0008820000221021473 -0.002154202544217712
-0.029725744265776666 -0.0008820000221021473 0.002605148137049584
-0.03685099167887327 -0.0008820000221021474 0.0002429452964119632
-0.0087986402684424 -0.0008820000221021473 0.0060970481050714965
-0.018019988387394346 -0.0008820000221021473 0.0005155412377203328
-0.03168335336476104 -0.0008820000221021473 0.0018939398536553125
-0.044123136225013355 -0.0008820000221021473 0.004562498199377117
-0.011623783586464684 -0.0008820000221021473 -0.0006740375907395833
-0.013482820263286913 -0.0008820000221021474 -0.0015728604503238797
-0.03474792623309874 -0.0008820000221021473 0.0013465804307725951
-0.04580944470283742 -0.0008820000221021472 0.004288518596680366
-0.02645815425498344 -0.0008820000221021473 -0.0009733196089555669
-0.02751834357309159 -0.0008820000221021473 0.003271628607363816
-0.04047036119100039 -0.0008820000221021473 0.00383569684843409
-0.01593836301071742 -0.0008820000221021473 0.0011169731818357852
-0.02746913749174281 -0.0008820000221021473 0.0012059107765413826
-0.03063855330181933 -0.0008820000221021473 0.00422223185215126
-0.03435500990945362 -0.0008820000221021473 0.003339616151696468
-0.05174008078520481 -0.0008820000221021473 0.004873926954292884
-0.020326809834687817 -0.0008820000221021473 0.005081659512662836
-0.047711664285011196 -0.0008820000221021473 0.0025878705509036373
-0.03369463943817477 0.0028540000785142183 0.0025159450263501507
-0.02825310493094748 0.0028540000785142183 0.003545356173959247
-0.03531831672188533 0.0028540000785142183 0.0017244940679287592
-0.04282094182685873 0.0028540000785142183 0.002378367641506726
-0.04528314596178741 0.0028540000785142183 0.002816636277285938
-0.041073107837084365 0.0028540000785142183 0.0010693472183196035
-0.04240234647482861 0.0028540000785142183 0.005141145302202558
-0.026019138057453633 0.0028540000785142183 0.001366656226034873
-0.04373134748882495 0.0028540000785142183 0.0004899600943710516
-0.047005971632808695 0.0028540000785142183 -0.0023409116497044823
-0.03467335872406051 0.0028540000785142183 0.004383820755536643
-0.055446504517184345 0.0028540000785142188 0.002733114582917559
-0.053583484809847495 0.0028540000785142183 0.003344988709424581
-0.050970942535068266 0.0028540000785142183 -0.0018067475288026137
-0.04100172128470168 0.0028540000785142183 0.003480410433840915
-0.019877937971705673 0.0028540000785142183 0.004243641970249346
-0.036542684787158525 0.0028540000785142183 0.0051626137303771805
-0.026481630253473606 0.0028540000785142183 0.003764764585562374
-0.052427655999744735 0.0028540000785142183 -2.628578923761192e-05
-0.039171746009790245 0.002854000078514218 0.0019957049201930538
-0.05163681374752078 0.0028540000785142183 0.004273866151620396
-0.021605095548895205 0.0028540000785142183 0.0031908299276744473
-0.053798685945605954 0.0028540000785142183 -0.0019197780964935833
-0.046978643678467796 0.0028540000785142183 0.0037291088855038934
-0.04556917131871811 0.0028540000785142183 -0.0007024926251361932
-0.03187417258951205 0.0028540000785142183 0.0033145460881765024
-0.04368758504818539 0.0028540000785142183 -0.0014208849115277138
-0.01005460226681731 0.0028540000785142183 -0.004032168770662437
-0.019691209187777167 0.0028540000785142183 -0.0026978709873990902
-0.017304902013712025 0.0028540000785142183 -0.0010713351983247432
-0.012264823236749944 0.0028540000785142183 0.0010385946771482454
-0.017859798513590514 0.0028540000785142183 -0.003569650535296219
-0.023529053735068816 0.0028540000785142183 -0.003619649443753024
-0.041119105095579714 0.0028540000785142188 -0.002783674794893387
-0.010343989086696549 0.0028540000785142183 7.447690927127153e-05
-0.038548173884548266 0.0028540000785142183 -0.0016882840331969298
-0.014282094811199401 0.0028540000785142183 -0.004116675563703378
-0.050259957579165744 0.0028540000785142183 -0.004138144141657132
-0.04599293759075668 0.0028540000785142188 -0.003980433257089002
-0.02144002161612244 0.0028540000785142183 -0.0040078521418110994
-0.011994510979618341 0.0028540000785142183 0.0034669057846240603
-0.03673720413269596 0.0028540000785142183 -0.0029305583632591873
-0.026010914399960876 0.0028540000785142183 -0.0015250984502121203
-0.030399879960238966 0.0028540000785142183 -0.0019453403763464766
-0.01891597917078223 0.0028540000785142183 0.0002501398375346509
-0.011826659860630664 0.0028540000785142183 -0.0035363026944751964
-0.024148806270881465 0.0028540000785142183 -0.00018512222045809624
-0.030327015054823204 0.002854000078514218 0.00038100891066728877
-0.05156454823111563 -0.0008820000221021473 0.0024532595497575157
-0.05361465427101547 -0.0008820000221021472 0.001027037893942934
-0.04725850471464645 -0.0008820000221021473 0.00040841725357480054
-0.0382110330172126 -0.0008820000221021473 -0.003498784345656552
-0.04239653893801834 -0.0008820000221021473 -0.0038382176060488505
-0.04904365120437588 -0.0008820000221021473 0.0011251980691730766
-0.049795583972768634 -0.0008820000221021473 -0.0021602377463414498
-0.0401264859343687 -0.0008820000221021473 -0.0036627996326747247
-0.027506075509576594 -0.0008820000221021473 -0.0049168531824478265
-0.03205124871731208 -0.0008820000221021473 -0.0029594195528890106
-0.04148635618928338 -0.0008820000221021473 -0.0021127507373684433
-0.05187731815333387 -0.0008820000221021473 -0.0014129976857061672
