-0.004034737889451796 -0.016063999384641647 0.003930937344514299
-0.002232860787177137 -0.016063999384641647 -0.013355158112064044
-0.010384660725545437 -0.016063999384641647 0.012653259645541218
-0.005658100821909594 -0.016063999384641647 0.013435622087384316
-0.003436183742269911 -0.016063999384641647 -0.0029835574369747753
-0.004842666492877416 -0.016063999384641647 -0.006872043806742899
-0.0011539307058259297 -0.016063999384641647 -0.01794011089071948
-0.005993004180291783 -0.016063999384641647 0.006032424515926426
-0.007542221370373978 -0.016063999384641647 0.011020929629345099
-0.0035760150679889306 -0.016063999384641647 -0.008475156675637013
-0.003382213218207397 -0.016063999384641647 -0.0051221376787565845
-0.005659136765063549 -0.016063999384641647 0.0015257604833019984
-0.0048474699154006755 -0.016063999384641644 0.008008363322694684
-0.01073374303714077 -0.016063999384641647 0.014863420387085007
-0.008737937982515839 -0.016063999384641647 0.013880200134480415
-0.01189399976283312 -0.014505133733488234 -0.004129894994156492
-0.011893999762833118 -0.013172336336815594 -0.005558952720373621
-0.011893999762833118 -0.014686134474921028 -0.009453493628580618
-0.01189399976283312 -0.01589248348978497 -0.01363254407608658
-0.011893999762833118 -0.012757772113926544 -0.01035111472569059
-0.011893999762833118 -0.014502293526769388 -0.016034650665961634
-0.011893999762833118 -0.015791353490364875 -0.01689918684165899
-0.009599379811198898 -0.016063999384641647 -0.0019716588660503315
-0.008646111428065612 -0.016063999384641647 -0.01623981058209798
-0.009900950762842272 -0.016063999384641647 -0.006280007936692139
-0.008054549877764446 -0.016063999384641647 -0.020290719048702773
-0.008681023091623254 -0.016063999384641647 0.0009327751938867004
-0.009767364036266699 -0.016063999384641647 -0.00995683632618223
-0.0016414792892925345 -0.016063999384641647 -0.01961227962270236
-0.005389481158201636 -0.016063999384641647 -0.014157997259510481
-0.011455134347041613 -0.016063999384641647 0.01078376358199485
-0.005940792089332644 -0.016063999384641647 -0.010793376292489044
-0.010728198175047207 -0.016063999384641647 -0.003201185683092793
-0.007170460534409761 -0.016063999384641647 -0.00735187830039607
-0.008164813055511935 -0.016063999384641647 -0.008921665559377304
-0.011682823971726361 -0.016063999384641647 -0.02110858138838556
-0.009091786608475953 -0.016063999384641647 0.0038240266625225077
-0.003288307796696883 -0.016063999384641647 -0.020072350789951038
-0.01043993157092921 -0.016063999384641647 -0.00011794890970039627
-0.009630041840957951 -0.016063999384641647 -0.01929038309747753
-0.007387240707536724 -0.016063999384641647 -0.014944625277431343
-0.005913935016139344 -0.016063999384641647 -0.016344187644134547
-0.008723813185115871 -0.016063999384641647 -0.012413539972771802
-0.008063861708947276 -0.016063999384641647 -0.005908233162482961
-0.010923755342328516 -0.016063999384641647 -0.011051948315904428
-0.004715185548444549 -0.016063999384641647 -0.012411189454677904
-0.009728473535573693 -0.016063999384641647 -0.014306405612884824
-0.011724462024379056 -0.016063999384641647 0.003355461266636681
-0.006212758497585902 -0.016063999384641647 -0.00875798172667064
-0.009653742861661267 -0.016063999384641647 -0.02126768247520327
-0.006124940820965184 -0.016063999384641647 -0.01992104169146826
-0.006673658501897963 -0.016063999384641647 -0.01303601300454897
-0.010010044742049813 -0.016063999384641647 0.009675701844184377
-0.011099794749831783 -0.016063999384641647 -0.015181785975004511
-0.010645214404226545 -0.016063999384641647 -0.004836453212245181
-0.010485599865649732 -0.016063999384641647 0.0055832038363459215
-0.010241029915056966 -0.016063999384641647 0.0021555946973400965
-0.009606474155502096 -0.016063999384641647 -0.017611784327589818
-0.0029026426391278344 -0.016063999384641647 -0.017547750231675784
-0.007694535102154853 -0.016063999384641647 -0.0013290818186224808
-0.009322986391199491 -0.016063999384641647 -0.007712342599152298
-0.008857979012482706 -0.016063999384641647 -0.004281176240723832
-0.004574947937087731 -0.016063999384641647 -0.017919623494838548
-0.007116656285853482 -0.016063999384641647 -0.0180385065509071
-0.007797753014791912 -0.016063999384641647 -0.011003260367586047
-0.006773895340820242 -0.016063999384641647 -0.00419874559469631
-0.010745880950134972 -0.016063999384641647 0.007751222738036233
-0.009345753075557883 -0.011594999581575392 -0.0031360787645718273
-0.004621528098200617 -0.011594999581575394 -0.005998464403692089
-0.002187039077720821 -0.011594999581575394 0.0038257860629669163
-0.0047954212714134015 -0.011594999581575394 -0.004029287498174549
-0.001965067813452296 -0.011594999581575394 0.007356815753876644
-0.004516446030039876 -0.011594999581575394 -0.007832194677326557
-0.006749278371705627 -0.011594999581575394 0.0024851264335391497
-0.000986198566866843 -0.011594999581575394 0.01645266436424586
-0.00734842780209279 -0.011594999581575392 -0.0027387702574477755
-0.001318179904412183 -0.011594999581575394 -0.0019218509060477174
-0.010308010539887405 -0.011594999581575394 -0.007020360063099511
-0.0074938337360285516 -0.011594999581575394 -0.0056741348973889175
-0.0017411856661887603 -0.011594999581575392 0.012907885212955281
-0.004719021135759254 -0.011594999581575395 0.0035150769950241575
-0.00476631094665775 -0.011594999581575394 -0.000935879181032404
-0.0020226277004149855 -0.011594999581575394 -0.007668410914469487
-0.0007190000033006072 -0.012923408797522136 -0.0030718730308183146
-0.0007190000033006072 -0.01283657764464894 0.0021230306544750494
-0.0007190000033006072 -0.013506954369582424 -0.0135915787608997
-0.0007190000033006072 -0.013065312150796374 -0.0013921572213662899
-0.0007190000033006072 -0.01449396528390719 -0.015009106049550079
-0.0007190000033006072 -0.012634309714334824 0.004194100604991731
-0.01059864733891344 -0.011594999581575394 0.018653327593413434
-0.007234317267268614 -0.011594999581575394 0.019950861222515662
-0.008880722739797323 -0.011594999581575394 0.02040561208968113
-0.010514724556488584 -0.011594999581575394 -0.000278009933344234
-0.007240491840626365 -0.011594999581575394 0.018105779397630396
-0.01046632663225058 -0.011594999581575394 0.010016044339139583
-0.010355509091790173 -0.011594999581575394 0.011738952290653549
-0.00868645361029656 -0.011594999581575394 0.016509205384601305
-0.010662236087657454 -0.011594999581575395 -0.002029602001883499
-0.009050641051651286 -0.011594999581575394 0.01274872666873504
-0.008525606162189128 -0.011594999581575394 0.01081184774278944
-0.003591115570216394 -0.012889807702224892 0.020064478253283544
-0.0022534933619766 -0.012676127014338243 0.018821695137406978
-0.0007190000033006072 -0.014874037836419914 0.0049427585828545366
-0.0007190000033006073 -0.015417721253362788 -0.013553257035866462
-0.0007190000033006072 -0.01417114194567512 0.0013542820989084423
-0.0007190000033006072 -0.012479721439351802 0.014216050382090922
-0.0007190000033006072 -0.015415308698486369 -0.005446484986312652
-0.0007190000033006072 -0.014777168045205276 -0.0014927672798276028
-0.0007190000033006072 -0.01410050807211193 0.014769226440918977
-0.0007190000033006072 -0.012770311079279128 0.011240347247166039
-0.0007190000033006072 -0.013627591447931766 0.009871358214507317
-0.0019840419144915343 -0.015961137762608553 0.0037623713635351504
-0.0019486454495436939 -0.016021263718694764 -0.003934138218784838
-0.001329171421844902 -0.015802028502863833 0.016584608698503
-0.0010192845069962307 -0.015790168122575245 0.014908984061021712
-0.003976445258385933 -0.016041396545273617 0.014047061098659698
-0.002157066596984885 -0.015910899955602263 0.011639008541257132
-0.0034973031281115355 -0.016040810501886132 0.009289168382083659
-0.002643446297253376 -0.01592121072898492 0.015282727233269924
-0.003078996604670079 -0.016038613477287095 0.005341114745160348
-0.003521635480011707 -0.01602897795386731 0.01097885313495788
-0.001514582408626753 -0.015897617663449687 0.006784602160090688
-0.002612347558852569 -0.015935499872254164 0.013224958647757986
-0.0022280315300001532 -0.016021744087214344 -0.0011767530324640336
-0.0010065877688724336 -0.01589500943103162 0.001982749464735426
-0.0007190000033006072 -0.0145389213570628 -0.01798351944779989
-0.0007190000033006072 -0.014639978368346029 -0.020010779024108652
-0.011893999762833118 -0.014554517495937716 -0.018109161484803116
-0.00950187556471443 -0.011971588304924011 0.021676184732494025
-0.0033146847586559836 -0.014347074855022042 0.01922240918253829
-0.004732931550889489 -0.012332705992106344 0.02094396088879369
-0.002078733005375964 -0.015020883746152097 0.018348020669947923
-0.011893999762833118 -0.01328494483337454 0.0062866275259715575
-0.011893999762833118 -0.013912904365251624 0.01716569790168044
-0.011893999762833118 -0.012333587015038125 0.01644330913776403
-0.011893999762833118 -0.013964092436959459 0.015438950101640562
-0.011893999762833118 -0.011987055840409058 0.013059802291703913
-0.011893999762833117 -0.011759025119915415 -0.0075160760057622995
-0.011893999762833118 -0.013337666244580874 0.004006881614721631
-0.011302229292397893 -0.011835270378735326 0.02122684748073348
-0.002116354092824217 -0.012961457200865787 -0.018315719168952433
-0.0037710640623204827 -0.01206329738937971 -0.014014311862206598
-0.003639497725897712 -0.01237904279518238 -0.015944606068902942
-0.001847535366383633 -0.01251867417221338 -0.015187687505190757
-0.002106516943172858 -0.013242018239167784 -0.020130373747145377
-0.005932456134707168 -0.012392365776414452 -0.01816119419697699
-0.0022430125682557835 -0.012154035843999923 -0.013184716772840376
-0.005184693027225039 -0.012821723741071916 -0.020257629711677803
-0.0039512543566514995 -0.012815061270471498 -0.01906855062815943
-0.0007216782955196541 -0.011776691921057921 -0.009318582787865537
-0.004170369265414023 -0.012526303755628078 -0.017395017619378922
-0.006728626670340321 -0.012529868876150024 -0.019794616924560277
-0.0033014742816058597 -0.01327689815224098 -0.02099395395143287
-0.004805210225930306 -0.011612568982279293 -0.00949730132008239
-0.0038862534021194143 -0.011744174022090815 -0.010681907239597924
-0.006934222574137201 -0.011880588840649327 -0.013054344801346499
-0.005386416873192508 -0.012040120163172022 -0.014366198234045181
-0.005384814390871835 -0.011789876648839962 -0.011613323359945481
-0.0023010776071955797 -0.011746417705824793 -0.01025306997536028
-0.007542040793411463 -0.01235610110785002 -0.018424319582271288
-0.007453912797560259 -0.012193395232141335 -0.016634725462076314
-0.010554370880678034 -0.013190200505950163 -0.020155913055514334
-0.011767206218910198 -0.012791741948274753 -0.015820254976830296
-0.009302984148882804 -0.012421328496706036 -0.018225200519758785
-0.011179517782472328 -0.013062073490932564 -0.01834041861559285
-0.007841356866589462 -0.011646432869539265 -0.010540349670043745
-0.010506047698711092 -0.011660280390922404 -0.010126443837996931
-0.010463168025418855 -0.011799431296257188 -0.011695870514122603
-0.009520276877858523 -0.012138438006547599 -0.015698476560868327
-0.008882957989233203 -0.011799477652040515 -0.012033921372942668
-0.009864729295063627 -0.011931085562526363 -0.013299905860257116
-0.009270181383590183 -0.014507993476899803 0.019258480848065813
-0.00624135959082199 -0.015088476961905045 0.018445403620786383
-0.010674982644609043 -0.015254823516045629 0.01821240371897713
-0.008285867764614468 -0.015282687820599094 0.018173374475128446
-0.008112202266354753 -0.013960691903529561 0.020025080514131297
-0.009960233465227423 -0.013428593921547133 0.02066337762732088
-0.004394398994918879 -0.015270779350773214 0.01814950446254902
-0.006896680189722511 -0.013095758875771739 0.021140033458438248
-0.0050785954216943105 -0.01382899458802095 0.02009850518613237
-0.0012792595281959735 -0.013794008226686413 -0.021532425109077446
-0.0065971327823452 -0.01332228808072909 -0.021289392266983773
-0.004946829888421895 -0.013804803971534947 -0.02158671308384877
-0.009758573790811978 -0.013980057519425356 -0.021495650121507996
-0.008804163964541827 -0.01273007616084031 -0.020691939612536903
-0.00815391762533834 -0.015302835087212495 -0.021753933468852158
-0.006066563341679798 -0.014930892216870025 -0.0218600704508762
-0.0017398693766746192 -0.015868921820165333 -0.021643148370250748
-0.003924632805182728 -0.015773835692817973 -0.021691743164760656
-0.010979240368357852 0.01516836497806499 -0.02187100052833557
-0.0030047270313317133 0.016181999817490578 -0.0028575746574479866
-0.007511656311093889 0.016181999817490578 0.01003838337974984
-0.0037067983723458606 0.016181999817490578 0.005728145570430575
-0.0036400392627030332 0.016181999817490578 0.004056355149428808
-0.006711915873212292 0.016181999817490578 0.003820035741310384
-0.009433361880257748 0.016181999817490574 0.017087601411607166
-0.0022147100610122785 0.016181999817490578 -0.0056235589933509855
-0.0009011015987535802 0.016181999817490578 0.002576355457528514
-0.007619803518812677 0.016181999817490578 0.007087819762781538
-0.008830549348189777 0.016181999817490578 0.013608555263586886
-0.00254567137661684 0.016181999817490578 0.017224408421815586
-0.004854090851933554 0.016181999817490578 0.01307013055747883
-0.0056852865259701645 0.016181999817490578 0.005338292465635392
-0.0015075673123073692 0.016181999817490578 -0.014741637341456476
-0.0030318469239000944 0.016181999817490578 0.015560621068557538
-0.006356172798065539 0.016181999817490578 0.009085752138220844
-0.006535139354637125 0.016181999817490578 0.01635868563702733
-0.004881648228857899 0.016181999817490578 0.008246322642197289
-0.005920861639288039 0.016181999817490578 0.00685757205971337
-0.0012741510712105564 0.016181999817490578 -0.0005154684681654732
-0.0021425830195952933 0.016181999817490578 -0.010780744924998328
-0.0033857725473636384 0.016181999817490578 0.007657406621570939
-0.003029029251381198 0.016181999817490578 -0.008974430922910668
-0.0023047037851499177 0.01618199981749058 0.009236784658800734
-0.0060355873130593 0.016181999817490578 0.011871854300746608
-0.00514850642549286 0.016181999817490578 0.0032338859310422144
-0.0030027782819779373 0.016181999817490578 -0.0007088934633961274
-0.010000493323531251 0.016181999817490578 0.012181716708775322
-0.0023605191551992403 0.016181999817490578 0.0013395201240602953
-0.008338578435572253 0.016181999817490578 0.008742432621503208
-0.008340865659099353 0.016181999817490578 0.015636236025715754
-0.0039597606399080125 0.016181999817490578 -0.004893210801729251
-0.0008694239047058353 0.016181999817490578 -0.004529022154526949
-0.0027845040972983323 0.016181999817490578 0.01376963119148646
-0.005149759350772572 0.016181999817490578 0.014841295078805453
-0.003397184795254998 0.016181999817490578 -0.006770332354448941
-0.005420588245149417 0.016181999817490578 0.001144603018047188
-0.0027795675371377403 0.016181999817490578 0.012188291056181192
-0.01025021397402626 0.016181999817490578 0.014871141418776006
-0.005048982668574404 0.016181999817490578 -0.0033784805258967893
-0.006754432851067361 0.01618199981749058 0.0018617403738155347
-0.00619620328573262 0.016181999817490578 -0.001450114209242447
-0.0015015459329583707 0.016181999817490578 0.015902707581538056
-0.004470308132978905 0.016181999817490578 -0.001791713574888422
-0.007013127677196242 0.016181999817490578 0.01351782657389403
-0.0045279611990050915 0.016181999817490578 0.0108794249349346
-0.0022802568804349663 0.016181999817490578 -0.0123752653155561
-0.0007190000033006072 0.014492850208715668 0.00014240977834778512
-0.0007190000033006072 0.014127714862793423 0.006946984898437175
-0.0007190000033006072 0.01400920594499801 -0.010701484944256642
-0.0007190000033006072 0.0126348244876861 0.000312717425414096
-0.0007190000033006072 0.014407678960103046 -0.0015593095106953875
-0.0007190000033006071 0.014525495232955129 -0.012223520284376356
-0.0007190000033006072 0.013513975001788789 -0.014118714841613693
-0.0007190000033006072 0.014310140773210868 -0.005434465702134169
-0.0007190000033006072 0.012535010151124022 -0.008157864048009028
-0.0007190000033006072 0.01415978444076085 -0.007216202348118875
-0.0007190000033006072 0.014988697994524704 0.01184210567908353
-0.007583037755502071 0.010755999945104122 0.012441338215146657
-0.00917483326277499 0.010755999945104122 0.015230059954208383
-0.009858540358476395 0.010755999945104122 0.019768555498470147
-0.0041646340234010835 0.010755999945104122 0.013172919540921639
-0.007457198567608646 0.010755999945104122 0.014041736428118401
-0.0036756520581598703 0.010755999945104122 0.004898129441506501
-0.005044607763132276 0.010755999945104122 0.0081593860058779
-0.0043922396886914 0.010755999945104122 0.016125253212591322
-0.004540486334829784 0.010755999945104122 0.00308995077252221
-0.002704366224020924 0.01075599994510412 -0.0012028087460768293
-0.004811296277369072 0.010755999945104122 0.011414668799769878
-0.005806247669030498 0.01075599994510412 0.014168122334022221
-0.008265451333469419 0.010755999945104122 0.018688523135608183
-0.006268181362956661 0.010755999945104122 0.015796457115505945
-0.00236270200221216 0.010755999945104122 -0.0027189356783032252
-0.005716211842641578 0.010755999945104122 0.018077365031135658
-0.0021088443663751684 0.016181999817490578 -0.017115189451899934
-0.007327363263388158 0.016181999817490578 -0.019175393210093403
-0.01114097269233902 0.016181999817490578 -0.02004244802951908
-0.009472203981609254 0.016181999817490578 0.0014349156850656398
-0.008819838295643635 0.016181999817490578 -0.0011075197814932316
-0.00988228399404985 0.016181999817490578 0.00630923169845877
-0.00905534662126011 0.016181999817490578 -0.005453164231991196
-0.011570983308775784 0.016181999817490578 0.012684428926377968
-0.004823250841209584 0.016181999817490578 -0.011454581838162727
-0.011207737993907861 0.016181999817490578 0.00045023785461285014
-0.005341190567848924 0.016181999817490574 -0.006621219021146373
-0.00468051957763976 0.016181999817490578 -0.007962965274688658
-0.010121671158499192 0.016181999817490578 -0.010071247670603849
-0.010165928250062104 0.016181999817490578 0.0029359636049643293
-0.007575823715568727 0.016181999817490578 -0.00014134686493799111
-0.004255495423218363 0.016181999817490578 -0.021026520422751584
-0.008652876489708805 0.016181999817490578 -0.01703996833955461
-0.010454245987087829 0.016181999817490578 -0.014086009194703751
-0.002169679120759745 0.016181999817490578 -0.020135653628103763
-0.0031255577534716203 0.016181999817490578 -0.015574774369224522
-0.005449269943585738 0.01618199981749058 -0.01756966064358877
-0.006741576737102996 0.016181999817490578 -0.012411098307555544
-0.008862650218560277 0.016181999817490578 0.004384264289307179
-0.005396465807174067 0.016181999817490578 -0.013736548849507427
-0.010957896104707765 0.016181999817490578 -0.011649964010579385
-0.010786928612977129 0.016181999817490578 -0.005837185721241694
-0.010484775977731719 0.016181999817490578 0.01029505084796548
-0.0074656337262894255 0.016181999817490578 -0.006456035840748192
-0.00689946106771586 0.016181999817490578 -0.0031657571014458872
-0.011890305788938717 0.016181999817490578 -0.01793420213440651
-0.005960959283156737 0.016181999817490578 -0.005180267068679343
-0.004629434393736637 0.016181999817490578 -0.019094361407059935
-0.011876660874091519 0.016181999817490578 0.007412444698367492
-0.010031991391684463 0.016181999817490578 -0.007960614341289002
-0.0033051768602718077 0.016181999817490578 -0.018206839647819162
-0.010500247765009997 0.016181999817490578 -0.0013917295439235741
-0.008909322004986299 0.016181999817490578 -0.01980193964916317
-0.007632898415372034 0.016181999817490578 -0.004521359271187456
-0.011103172288604815 0.016181999817490578 -0.01620278973639755
-0.006753174875684616 0.016181999817490578 -0.015393764064936758
-0.011845383108227008 0.016181999817490578 -0.007456220528683818
-0.00941598444114687 0.016181999817490578 -0.015466081561687819
-0.009098922573132573 0.016181999817490578 -0.012397120791787009
-0.006588936730535887 0.016181999817490578 -0.008979957254269935
-0.004522222790212204 0.016181999817490578 -0.00978116747378289
-0.008368220926779267 0.016181999817490578 -0.00807139318571878
-0.004487502136779616 0.016181999817490578 -0.01634011041390032
-0.003899457578278761 0.016181999817490578 -0.012966817674409409
-0.00909412499286895 0.016181999817490578 -0.00304573939689267
-0.011893999762833118 0.013974676873235652 0.004920470673431855
-0.011893999762833118 0.014814887804181968 0.002683498397453205
-0.011893999762833118 0.014748253700405355 0.011702408788167112
-0.011893999762833118 0.015060405805972567 -0.005090068386838734
-0.011893999762833118 0.013253185574689522 0.01065060297761957
-0.011893999762833118 0.014739949782211659 0.00682156613341185
-0.011893999762833118 0.013960564686925749 0.013876503924399276
-0.011893999762833118 0.01277276794222236 0.012241879904816049
-0.011893999762833118 0.01496366785427183 -0.0016810316704492147
-0.011893999762833118 0.014615482159701144 -0.006654277633150371
-0.011893999762833118 0.014322138939722576 -0.0031292216590426223
-0.011893999762833117 0.012477595658759395 0.014704168223283517
-0.011893999762833118 0.012854607923865662 0.006160881239045789
-0.011893999762833118 0.011668938482944122 0.007661226996387374
-0.011893999762833118 0.011463872729683525 0.010800315714295464
-0.01189399976283312 0.015302668907131932 -0.014651090075720252
-0.011893999762833118 0.011034781762335036 -0.008068733001210866
-0.011893999762833118 0.01458539295278976 -0.011251470604851847
-0.011893999762833118 0.012465320800677157 -0.0012419201482574034
-0.01189399976283312 0.010961700880339782 -0.004239977131913593
-0.011893999762833117 0.012081714994750078 0.009364972030135334
-0.011893999762833118 0.012526937019721967 -0.008844695114623862
-0.011893999762833118 0.014187079476778748 -0.013068226144750492
-0.011893999762833118 0.011124264261447196 -0.0020475584389662805
-0.011893999762833117 0.010841618113362105 -0.00020075822940413338
-0.009288309461357317 0.010755999945104122 0.011816611364415702
-0.0046297433745035605 0.010755999945104124 -0.0017502860304291323
-0.00742775780708912 0.01075599994510412 0.002882408163685732
-0.010644074884046652 0.010755999945104122 0.0030786042123969693
-0.00491365986450288 0.010755999945104122 -0.003535999883655659
-0.007094507036192803 0.010755999945104122 -0.007151722583496127
-0.009087740440149372 0.010755999945104122 -0.006969765308891268
-0.00621767809438884 0.010755999945104122 -0.005522897006901978
-0.010254052299749336 0.010755999945104122 -0.005003739104464668
-0.007086041859377249 0.010755999945104122 -0.00278523718013966
-0.009938384999659702 0.010755999945104122 0.001147012387602733
-0.0033959027134824703 0.010755999945104122 -0.003920969045018574
-0.010173916751230706 0.010755999945104122 0.007712550133043363
-0.008079044519787726 0.010755999945104122 -0.005636324622164532
-0.004475433159664154 0.010755999945104122 -0.006472172200954343
-0.009054102955183193 0.01075599994510412 0.013450523066788655
-0.0007190000033006072 0.012114677129052568 0.0023592717973426043
-0.0007190000033006072 0.012138707380844004 0.008343448862186601
-0.0007190000033006073 0.013571822600442866 0.008920760111891586
-0.0007190000033006072 0.011924377012311064 -0.001373640489868227
-0.0007190000033006072 0.012142134834519067 0.009878956421529816
-0.002185079433799809 0.010755999945104122 0.0024379159179976585
-0.0013679113271529565 0.010755999945104122 0.009565552707046426
-0.00484617810600816 0.010755999945104122 0.019691248520068528
-0.0022533677726547575 0.010755999945104122 0.010991563237906139
-0.0019414826602933122 0.010755999945104122 0.0052032917713326805
-0.0007190000033006072 0.014327379164863752 -0.0186150287038672
-0.0007190000033006072 0.012394405841358001 -0.015297822249389276
-0.011893999762833117 0.012776844690164865 -0.014030374056439556
-0.011893999762833118 0.01459191029037903 -0.017752661952058504
-0.011893999762833118 0.013600363043996505 -0.015609638105538545
-0.010315988890998691 0.0129910422912759 -0.01991888689658692
-0.01122591121140636 0.01299702756468505 -0.018123594271298556
-0.011041086498689468 0.011457330202784239 -0.012330387141305264
-0.011509906609889183 0.011080095035401348 -0.009883146285374284
-0.010412810401702603 0.012044341325618373 -0.015936077060544982
-0.01182476922685504 0.013654662164448439 -0.01955849408662304
-0.0010366303154905542 0.01519104692502773 0.017808729792888084
-0.002544088620185746 0.0121998074123538 0.01976752909969056
-0.003299442825398037 0.011210378279993877 0.02074904035539282
-0.0016683988411490538 0.011253267602011199 0.01862965316188947
-0.0015082169985778811 0.013163930435565003 0.018421512027097554
-0.004656663557858551 0.01087462957332562 0.021494183503987664
-0.01029040100170645 0.011550709898133504 -0.014184565500162201
-0.0031283848223315875 0.012004610337106092 -0.01549926468388825
-0.003620563519307557 0.012705803437490674 -0.01915145002531783
-0.00571418145495662 0.012306439448656373 -0.018895343860318915
-0.0018525101873765966 0.011874429314644792 -0.013911114498634917
-0.006843859538986151 0.01252765568664372 -0.020796228674525727
-0.0045591658159654805 0.01201330865863749 -0.016639206351451247
-0.0029858167594478614 0.012443627026352086 -0.017439589066193764
-0.002302319624431741 0.013115471287916278 -0.020051418627789083
-0.0009083149599748114 0.011724679076180045 -0.012486434145115227
-0.001310428586520549 0.011360200712589566 -0.011093564981705047
-0.004991837929643143 0.013719889525645299 -0.021594341105546908
-0.00330731140123529 0.014257714899090564 -0.021862402955517588
-0.009626922000369083 0.013670410146610227 -0.021571743803917333
-0.007076651060273791 0.014113551468276668 -0.02179207791120616
-0.0013136659322537658 0.013929150236113273 -0.021581950164197443
-0.006693478446182201 0.01352003941275915 0.02082985355471067
-0.008782330256336455 0.015155599524724183 0.018561875802057735
-0.00428356215148738 0.01570381484251611 0.01797375045323834
-0.007300049726873639 0.014608613072696716 0.01934630182993388
-0.006400195259006466 0.015452056397087072 0.018242160503597282
-0.008323899956628062 0.01308651772083927 0.021357727044148733
-0.008947853739735586 0.014060628318883711 0.02002808768152645
-0.010952776876546059 0.015159573814322563 0.018484231902751766
-0.004642358508245157 0.012615203249035669 0.02099843329693797
-0.003849164731293169 0.014373168197952528 0.019697553260263595
-0.002442091328076346 0.014695887134503448 0.01893375691922413
-0.0060017156033806696 0.01167814273025489 0.021660927447263147
-0.005850995734477636 0.010755999945104122 -0.008272069746437453
-0.0083614517884412 0.010755999945104122 -0.008279602935757534
-0.007086940524177418 0.01163255161681752 -0.015525440893326314
-0.009294469399823656 0.011366485013493565 -0.01304304762568001
-0.00855242272542675 0.011533730161098578 -0.01448018056467227
-0.008471805835403702 0.011995382908639047 -0.01807145913683158
-0.008160919845177582 0.012202401439362643 -0.019734348347438285
-0.008610740329229927 0.011075496833774727 -0.010919645878424757
-0.006430744501957511 0.010898057241528689 -0.009961456119955067
-0.009852131245611252 0.010969257160602687 -0.009859711166199131
-0.007654069065898158 0.011231997551188222 -0.01231453265342651
-0.006078454720193511 0.011171374067377447 -0.012145786287239946
-0.005241186287972072 0.011585023747373625 -0.014822206200067004
-0.00340149074995461 0.010759699659076888 -0.008611449046915878
-0.00501214062958053 0.011034886899394147 -0.010967797087027307
-0.003518563796994286 0.011275523578516902 -0.012197485757335598
-0.002899904419069947 0.011016899428153343 -0.010239205301619422
-0.007028314638982659 0.015811741610219525 -0.021601160597437503
-0.005419522071342875 0.015130312255358038 -0.021870006315426384
-0.001081647549525922 0.01579567873652149 -0.02138410410768856
-0.0027966590032704975 0.01589799857288877 -0.021509211508575512
-0.008774126816820575 0.011535766523409693 0.02170683285898897
-0.011084208783108035 0.012217375687790289 0.021728815954425905
-0.0102829237595853 0.013543457276225197 0.02065985512538376
0.00743181803475835 -0.011235764690843723 -0.011535674702961244
0.005832738963402095 -0.01097291947585154 -0.009564722444037069
0.003932898671644622 -0.011108945298898994 -0.010298262061699658
0.0076960310437171 -0.011478522638437518 -0.013228637768340388
0.006060777395308271 -0.011994956788757298 -0.016599400953375153
0.005649529348243584 -0.011289951627018301 -0.011720181735191994
0.006168578480060776 -0.011737698254956496 -0.014846042407555663
0.0069249335895063355 -0.016063999384641647 -0.015283897728411386
0.005725269570818562 -0.016063999384641647 -0.004927215201429156
0.003829844827922763 -0.016063999384641647 -0.009835119877932237
0.0057310525539803776 -0.016063999384641647 -0.01886417491747833
0.005019692449625766 -0.016063999384641647 -0.011300780346537753
0.0032234540544128186 -0.016063999384641647 0.005952687437460716
0.005914983564059934 -0.016063999384641647 -0.009689785802662186
0.006469531920445111 -0.016063999384641647 -0.008251857471939697
0.0038995822062725016 -0.016063999384641647 0.0004938476656651874
0.0012333168258406584 -0.016063999384641647 0.002270063036959938
-0.0004307953579689535 -0.016063999384641647 -0.016377925286733007
-7.901330530113752e-05 -0.016063999384641647 -0.019398152230459636
0.008136191524470296 -0.016063999384641647 -0.016915723877593724
0.004884224175684074 -0.016063999384641647 -0.01518462512174949
0.004657395807707709 -0.016063999384641647 -0.020237070363146238
0.0038711154842476425 -0.016063999384641647 -0.0025136305218361864
0.001809768914488797 -0.016063999384641647 -0.016396430498914483
0.001182802071642822 -0.016063999384641647 0.012997137945321117
0.002869468742479297 -0.016063999384641647 0.002118027544510687
0.002496431813440859 -0.016063999384641647 -0.018050718563595768
0.0026357908640734866 -0.016063999384641647 0.008081751810010872
0.004300272457053444 -0.016063999384641647 -0.006212304230043311
0.0026737701451986307 -0.016063999384641647 -0.006271782281396715
0.008641676344999058 -0.016063999384641647 -0.013839075410141247
0.0006897484296657685 -0.016063999384641647 -0.017841918361161908
0.008862225488502119 -0.016063999384641647 -0.01921795247789656
0.0017046222969987809 -0.016063999384641647 -0.002961775172562903
0.0072268823488144795 -0.016063999384641647 -0.020202549952016192
0.0013193716606479768 -0.016063999384641647 -0.004889978113789509
0.005679160955925851 -0.016063999384641647 -0.012644401867057224
0.008220625917844603 -0.016063999384641647 -0.01230155721070642
0.003205066082219672 -0.016063999384641647 -0.019848812298039992
0.009368955709056721 -0.016063999384641647 -0.015478540446756821
0.0031840452828686187 -0.016063999384641647 -0.015323733867516572
0.010274242529495718 -0.016063999384641647 -0.01816790900143181
0.003077836430978409 -0.016063999384641647 -0.004435361394989694
0.004814564944479475 -0.016063999384641647 -0.0012575826312940129
0.0008739642861075108 -0.016063999384641647 0.006701488119072285
0.004118168905148627 -0.016063999384641647 -0.007900474989486372
0.0026472262824423394 -0.016063999384641647 -0.001604126143936204
0.0018345775565415867 -0.016063999384641647 0.004210004438121048
0.0008663206191560199 -0.016063999384641647 -0.01262703146221153
0.008102183732389362 -0.016063999384641647 -0.01011962947098068
0.0015428979259358533 -0.016063999384641647 0.011006103699027487
0.0031407076640977047 -0.016063999384641647 -0.013552036606775907
0.0015330347191829167 -0.016063999384641647 -0.010927843653202353
0.004395835292854956 -0.016063999384641647 -0.018162605112709024
0.010645572992218978 -0.016063999384641647 -0.02117886717343294
0.0006239015363766179 -0.01606399938464165 -0.009719511598209725
0.006173665231040369 -0.016063999384641647 -0.016843757788808797
0.0012229056540019828 -0.016063999384641647 -0.007331029348331783
0.00593046697418887 -0.016063999384641647 -0.006631945685982882
3.5143425525230245e-05 -0.016063999384641647 -0.00395924126848214
0.003466118371717865 -0.016063999384641647 -0.011929627907759064
0.006679760368616538 -0.016063999384641647 -0.011132155804214092
0.00044184289334348834 -0.016063999384641647 -0.014538443570147951
0.005585434503952358 -0.016063999384641647 -0.0031680246781211523
0.0008616276949388415 -0.016063999384641647 -0.0007733757826942898
-0.00037597001366961697 -0.01606399938464165 -0.010933702716932862
0.0073234021740725165 -0.010955999605357647 0.01308787818297047
0.01131436599456583 -0.016063999384641647 0.011583134856637185
0.0012688647719258643 -0.016063999384641647 0.01626045042519084
0.010436995127224178 -0.016063999384641647 -0.00872529347064946
0.00999289647366931 -0.016063999384641647 -0.011355606591780573
0.004516189337859952 -0.016063999384641647 0.015632413085842886
0.007828577542611058 -0.016063999384641647 0.006473301178274092
0.010092043942847802 -0.016063999384641647 0.0009393880164309445
0.00543518033620616 -0.016063999384641647 0.014145010991384432
0.00248009944161145 -0.016063999384641647 0.015089216104122144
0.007909768684005895 -0.016063999384641647 6.935658922013407e-05
0.01064543306562746 -0.016063999384641647 -0.016509353706447835
0.006365600465251398 -0.016063999384641647 0.003926559652129738
0.010532362404258106 -0.016063999384641647 0.009910166151846055
0.009166953722354609 -0.016063999384641647 0.008791154198496357
0.0037514217718009942 -0.016063999384641647 0.013779510418648047
0.008631270293603653 -0.016063999384641647 0.014195756219432813
0.007384675374393612 -0.016063999384641647 0.001650643522018067
0.004324099194841672 -0.016063999384641647 0.0039051005618686886
0.011276744877561919 -0.016063999384641647 0.008598889049463447
0.005808339274898481 -0.016063999384641647 0.007570157773969878
0.0072206828080600225 -0.016063999384641647 -0.005737528087544635
0.010230723761250915 -0.016063999384641647 -0.013754912369237487
0.008335776940425636 -0.016063999384641647 0.004586086908859919
0.00979165740887884 -0.016063999384641647 -0.001658751743490082
0.005781263618877374 -0.016063999384641647 0.005807948800357059
0.008821980253752955 -0.016063999384641647 0.010299633631537861
0.003355692892777252 -0.016063999384641647 0.012029495369911969
0.006146120486848258 -0.016063999384641647 0.0004138520819101292
0.006721321776889758 -0.016063999384641647 0.00984865166169354
0.007613553342290828 -0.016063999384641647 0.008500923011986572
0.009973302622697083 -0.016063999384641647 -0.0053880226136491976
0.008509752020538035 -0.016063999384641647 -0.0065610155844272175
0.009785875892013813 -0.016063999384641647 0.015667085886648988
0.0037321465522585522 -0.016063999384641647 0.010625273800337426
0.005380410065703523 -0.016063999384641647 0.0026919820129016033
0.007015118864525513 -0.016063999384641647 0.01468115600822202
0.006401204004683172 -0.016063999384641647 0.016683050962138287
0.010759267032358844 -0.016063999384641647 -0.003557013534281922
0.00874836497779682 -0.016063999384641647 -0.0044599198853537
0.00813245706627928 -0.016063999384641647 -0.002792916847554914
0.008213586530935933 -0.016063999384641647 -0.00862077891382804
0.009702733256659157 -0.016063999384641647 0.002407249917937556
0.011394238780242075 -0.016063999384641644 0.016678239855808755
0.01084639689820108 -0.016063999384641647 0.005520670175214905
0.005217031770246006 -0.016063999384641647 0.00909784321169912
0.006431535820961395 -0.016063999384641647 0.011451676133808892
0.008277050571787577 -0.016063999384641647 0.016739318835005207
0.009271786479956193 -0.016063999384641647 0.011844522618854294
0.0114139998331666 -0.014990511446540863 0.002235058141045616
0.0114139998331666 -0.013770244145393969 0.011798924533164886
0.0114139998331666 -0.014107663731976803 0.004485980615170542
0.0114139998331666 -0.014789727423249275 0.01543243433092665
0.0114139998331666 -0.013348977064758915 0.018862715717508697
0.0114139998331666 -0.01335896122192457 0.0019973857007584846
0.0114139998331666 -0.013304494593511552 0.010199334760032139
0.0114139998331666 -0.01204590744798267 0.016286131173634227
0.0114139998331666 -0.01416637910597584 0.008837835904033423
0.0114139998331666 -0.01326913828928471 0.015212845193088052
0.0114139998331666 -0.01436495608236983 0.013902314646930796
0.0114139998331666 -0.01189534612750871 -0.008080503926635275
0.0114139998331666 -0.01351770285730821 -0.014409443921043388
0.0114139998331666 -0.013185803500367549 -0.010953331164602346
0.0114139998331666 -0.014397164905089656 -0.009746452550225049
0.0114139998331666 -0.011812548241585345 0.0004230787943832349
0.0114139998331666 -0.014633259915955503 -0.011490043475963725
0.0114139998331666 -0.011788946716897002 -0.005492491839899432
0.0114139998331666 -0.012148051456284637 0.0030826759871920247
0.0114139998331666 -0.012998553518389643 -0.0016695014177088093
0.011413999833166598 -0.014000047949390753 -0.005193365915407581
0.0114139998331666 -0.013078235541211444 -0.007063394075138523
0.008934079839368251 -0.010955999605357647 -0.0020465940080961866
0.002985273368070136 -0.010955999605357647 -0.00043898098760464634
0.011147316644533573 -0.010955999605357647 0.002001866293532016
0.003424279604833741 -0.010955999605357647 -0.004221572520729125
0.008116473443285246 -0.010955999605357647 -0.007137354258769689
0.010522074840842475 -0.010955999605357647 0.0037122818180102303
0.010099256674991558 -0.010955999605357647 0.007140244129980486
0.006960058469116228 -0.010955999605357647 -0.003264322162132006
0.008021249615890113 -0.010955999605357647 0.009359249684437052
0.00887272728951278 -0.010955999605357647 0.0044207613220229765
0.006054972138410709 -0.010955999605357647 -0.001897683676314611
0.001872145098753658 -0.010955999605357645 -0.005051819003422062
0.009543162756353469 -0.010955999605357647 0.001469012295840776
0.006486491284925255 -0.010955999605357647 0.008210313562404854
0.0038089440008153394 -0.010955999605357647 0.002474895521467906
0.000632548305095607 -0.010955999605357647 -0.006499767276689931
0.009783168881352576 -0.010955999605357647 -0.0033447101947008794
0.007388561780260559 -0.010955999605357647 -0.0008353787910150034
0.0019355548883861434 -0.010955999605357647 -0.0028783166004950613
0.006716793015016556 -0.010955999605357647 0.004201892610941091
0.009786676471375828 -0.010955999605357647 -0.005716658127019412
0.010238938729308074 -0.010955999605357649 0.015004830996341378
-4.7926670622867786e-05 -0.010955999605357647 0.013187736718313959
0.0015334526984659364 -0.010955999605357647 0.0148175295789705
0.004431712750494449 -0.010955999605357647 0.010286039589566665
0.005740731167607152 -0.010955999605357647 0.011950987376508213
0.002638825208801351 -0.010955999605357647 0.0011331186128784188
-0.00022185206010231584 -0.010955999605357647 0.00816115968260709
0.0031650181229716866 -0.010955999605357647 0.008850131043622114
0.005376835975954051 -0.010955999605357649 0.01506821310895029
0.0033573542136596437 -0.010955999605357647 0.011861930149605408
0.0011894726167308856 -0.010955999605357647 0.002021173747486628
0.0036605744319190047 -0.010955999605357645 0.0056002493387100095
0.002285081715890101 -0.010955999605357647 0.0171306862646493
0.0012319220484593588 -0.010955999605357647 0.0002003317520238657
0.0033840366274930146 -0.010955999605357647 0.013822578309707689
0.0003117609689919703 -0.010955999605357645 -0.0017410203745734944
0.006452362640471674 -0.010955999605357649 0.01932023366673732
-0.0007190000033006072 -0.013676315087592747 -0.0053033342404819874
-0.0007190000033006072 -0.012440565327732592 0.0003042245825337266
-0.0007190000033006072 -0.012444145696277508 -0.006536246277829781
-0.0007190000033006072 -0.013484023321958664 -0.012162842866106322
-0.0007190000033006072 -0.0133496403173228 -0.008125082008324505
-0.0007190000033006072 -0.014415687499326871 -0.010328687038928999
-0.0007190000033006072 -0.014130415146632214 0.0031289718381915382
-0.0007190000033006071 -0.013228770739115554 0.005797237362204307
-0.0007190000033006072 -0.015115207794783012 -0.008474166954516284
-0.0007190000033006072 -0.01436463555413295 -0.006951926661458459
-0.0007190000033006072 -0.014803002029773029 0.01135154183844367
-0.0007190000033006072 -0.013293407624263617 0.007527678120664406
-0.0007190000033006072 -0.014433523955878047 0.012980979020925609
-0.0007190000033006072 -0.012113842165439063 0.009374395769198466
0.0114139998331666 -0.014221013670854505 -0.020453197717067988
0.011413999833166598 -0.013268231482280722 -0.018447715461732003
0.0003104898240283979 -0.010955999605357645 0.017875172324157647
-0.0003066539668839636 -0.014175510563301384 0.017978178505967023
0.002037718604567456 -0.011921025750434421 0.01970782066472695
0.0008505884015437058 -0.012411764948919358 0.01878194309581488
-0.00012635577883884049 -0.016063999384641647 0.008184193225965848
-0.0005774259690630292 -0.016063999384641647 -0.006808469187860268
-0.00028427137547015334 -0.016063999384641647 0.0136033320651108
-0.00037347274377101544 -0.016063999384641647 0.0037234461838369735
-0.0002978156882270758 -0.016063999384641647 0.010201804036687028
-0.0005564865497631943 -0.016026023969385038 -0.000128203518880491
0.01105275327572548 -0.01478719718626104 0.018556215298177355
0.009929344377123488 -0.012483907498699124 0.02159309579647216
0.0095222363352485 -0.01581030871595588 0.017474557678669532
0.0020802842901352426 -0.015818502367579413 0.01768221144042653
0.007131492014937114 -0.015238311703938606 0.018315840284362284
0.009678188243676843 -0.01375507967949145 0.020240327343191068
0.008512200835036022 -0.014710282808943587 0.018987023330131414
0.004312504059300059 -0.015839950468068357 0.01758770162847932
0.008173632907803163 -0.013791815813489695 0.020235023478736097
0.0038224982650337585 -0.014866730073480416 0.018913957140175245
0.00823161238824219 -0.01280949771659537 0.0215394412356754
0.005318584518540427 -0.014077958256904523 0.01992451116200465
0.006335498986207723 -0.013145197946301519 0.02111204725733492
0.003858912283376103 -0.01465380066081003 -0.021547000855207443
0.00687494282664363 -0.014389883024644147 -0.021547000855207443
0.004998593480078578 -0.01341229006945705 -0.021333945458079377
0.0026003649698126017 -0.013345069188457417 -0.021188644907996233
0.009749677654205365 -0.013863905416904092 -0.02144279020802386
0.010012445172578956 -0.012093025895522207 -0.016335627486193695
0.011350354047771238 -0.01160333857003277 -0.01217782198653178
0.009925248485323765 -0.012624408367706213 -0.018659587909432142
0.011291352817434269 -0.012046139277950294 -0.014092476685317917
0.0092253591075049 -0.012761027981410166 -0.02034325037538203
0.0012516841715953927 -0.012995525646176457 -0.019187067430265346
0.003580115269681909 -0.012465668976507912 -0.01791319592874328
0.0002873174547865791 -0.012459947110741132 -0.016035008100911165
-0.00027091059080183786 -0.012817063929602742 -0.01746174619898894
0.0019285154925155741 -0.012634797307323453 -0.017809374505630866
0.005829278074257146 -0.012331959808718783 -0.018525418746005683
0.00034111890637492657 -0.011992574683487457 -0.013787486480434197
-0.0003818036812001396 -0.011678937225062538 -0.011852737091428138
0.0031710622713710607 -0.012231991279990844 -0.016544503763909403
0.00388434489721613 -0.012788343011111411 -0.01965671172532433
0.002363529196348797 -0.011684569791913093 -0.013422856027607254
0.001547801774477762 -0.01209382396791157 -0.014958992063676206
0.0006511904709361584 -0.01349262781716452 -0.02101015925302542
0.006383859476144765 -0.012714660525135035 -0.02065810797469878
0.00861674622748003 -0.011766346769310768 -0.015232025891979736
0.009592443819328406 -0.011566726571965677 -0.013767350644008696
0.010222701933946076 -0.011115394140607124 -0.010630137185903568
0.008984610449120441 -0.01127453823010411 -0.011848750053411291
0.007916703401958108 -0.012331047056094804 -0.019078498515990326
0.0043143444435593484 -0.012223327426060911 0.021212496717590283
0.0019234107597107554 -0.013614381413476932 0.01954618529757731
0.0005591752102519992 -0.015526234489339218 0.01804296489075645
0.003322981391217593 -0.013833232096434797 0.02000028251242334
-0.00020736243274803743 -0.015851170079216943 -0.021358238853956015
0.002786228327184678 -0.01591292967943813 -0.021547000855207443
0.0014831913547513592 -0.014866681024994739 -0.021547000855207443
0.006097144093399235 -0.015953730011716374 -0.021547000855207443
0.0037757391207180646 -0.011669423046124165 -0.01393594183782508
0.0008837608065172698 -0.011181127045853629 -0.0100241575583994
0.0018254403815679094 -0.011411096015505894 -0.011740649710924268
0.0034986386868176987 -0.01134420770201524 -0.01182418157007274
0.004638662339876074 -0.01185098239039486 -0.015326863071698223
0.013773502569602204 0.009484955125554638 -0.02145608154847179
0.015527487833775229 -9.999999747378752e-05 0.012516213325135505
0.013906951284580525 -9.999999747378752e-05 -0.003966336894847117
0.014681743994280284 -9.99999974737875e-05 -0.010169119135542904
0.014105114739910048 -9.999999747378752e-05 -0.007669379479345581
0.011951664451329627 -9.999999747378752e-05 -0.007421984191723357
0.014262017771325762 -9.999999747378752e-05 -0.016493381160770256
0.012973490874342282 -9.999999747378752e-05 -0.001410228958301259
0.012485403421940777 -9.999999747378753e-05 -0.010744439383727284
0.011818875773274683 0.011074000038206577 -0.010260487302447389
0.012651487240247767 0.011074000038206577 -0.008858416153782321
0.01406291092041578 0.011074000038206577 -0.005000978088217161
0.014350158251891959 0.011074000038206577 -0.01290621384659334
0.014627206529511473 0.011074000038206577 -0.0036107094496927042
0.015642599321491465 0.011074000038206577 -0.0006634489877478892
0.014929908550866476 0.011074000038206577 -0.014881317641078182
0.014009523524779223 0.011074000038206577 -0.01115333072386848
0.015438701199208076 0.011074000038206577 -0.01851247549744626
0.01262745453114993 0.011074000038206577 -0.007062074635957517
0.014526172714432253 0.011074000038206577 -0.008995563483545448
0.013119206635101846 0.011074000038206577 -0.0026485218342920014
0.014375231159201944 0.011074000038206577 -0.007197978956703697
0.013753144289312725 0.011074000038206577 0.008227299692727348
0.011978728577176145 0.011074000038206577 0.014429765377377534
0.013218694532691469 0.011074000038206577 0.0019971264639303283
0.01252653445020746 0.011074000038206577 0.012270591969429248
0.014706621842413118 0.011074000038206577 0.015760956729597465
0.011503692339119612 0.011074000038206577 0.010832750445109247
0.014354368612073582 0.011074000038206577 0.017803347271046537
0.014425764444179728 0.011074000038206577 0.00971671407907621
0.011819715843555961 0.011074000038206577 0.005986593482300467
0.014889704513019447 0.011074000038206579 0.011906833393253186
0.014065276424007294 0.011074000038206576 0.014210223346204488
0.011550833432856636 0.011074000038206577 0.0025048850101683207
0.012405341195754892 0.011074000038206576 0.00038101248767531486
0.013592886240787711 0.011074000038206577 0.005396984379328148
0.012117008110795205 0.011074000038206577 0.008206590906382812
0.011094000190496445 0.00524406600091549 -0.002598218746826835
0.011094000190496445 0.0017775032466944645 -0.00834698354798408
0.011094000190496445 0.009619866862828003 0.011492579583039328
0.011094000190496445 0.002120291026799228 -0.0039729251522360245
0.011094000190496445 0.00810285138054125 -0.003959380835816035
0.011094000190496445 0.007134120336022714 -0.002285880378887931
0.011094000190496445 0.008338970980796404 0.012591535425163067
0.011094000190496445 0.005611440126367125 -0.007930951397269705
0.011094000190496445 0.009554546899292514 -0.007606157483109936
0.011094000190496445 0.006005061136544407 0.0008110055203288296
0.011094000190496445 0.0066514717795107215 0.006665360946951882
0.011094000190496445 0.009534980695253287 0.005980220807258294
0.011094000190496445 0.00967474791254815 -0.00354323251269072
0.011094000190496445 0.009634856232115333 0.01564664612480382
0.011094000190496445 0.005842076489821387 0.005028877689754718
