0.02594674619 -0.025717623439 -0.0197454804991
0.0326124015919 -0.0158749129516 -0.0214192870895
0.0247809998691 -0.0277887321394 -0.0069721931632
0.0320862460399 -0.0182754577292 0.0308866105775
0.0328108336558 -0.0170365057473 0.0273100633552
0.0293957045288 -0.0221736635634 0.0315631339485
0.0344885439673 -0.014771681654 0.0298663039528
0.0340568324269 -0.0151225715166 0.0250465757018
0.0302714225362 -0.020726912307 0.0281489997013
0.0344552004155 -0.0135649616762 -0.00845993967974
0.0313220270654 -0.0185427962858 0.00751486570374
0.0327545453169 -0.015803438955 -0.0161366690331
0.0305147884667 -0.0192924497325 -0.0071653340225
0.0260342921678 -0.0256968784528 -0.00950595603544
0.0271162725531 -0.0242854747824 -0.00417228166571
0.0330697820486 -0.0158935552382 0.00310153656597
0.0312665000301 -0.0178661495475 -0.019182314571
0.0340161402369 -0.0147091291986 0.00953262116401
0.0334959400286 -0.0156304537594 0.0155309038607
0.0301831733237 -0.0199193338669 -0.0019460460663
0.0308553127326 -0.0187207462569 -0.00998428293308
0.0314272400916 -0.0182781860005 0.00354081793476
0.0319404484657 -0.0173508974994 -0.00302403154596
0.0317921825444 -0.0176727057494 0.000774366193478
0.0300385891038 -0.0197924906609 -0.0137860705683
0.033600471874 -0.015224166759 0.00652457035185
0.0305659731685 -0.0189467159322 -0.0167533924391
0.0281278782408 -0.022728088716 -0.00757323466056
0.0333668451931 -0.0148353331878 -0.0190932204962
0.0285093774412 -0.0219516431674 -0.0155269464324
0.0328127965944 -0.0160128680957 -0.00578160017732
0.0329089305227 -0.015675190383 -0.0127955940623
0.0296977660507 -0.0207917561359 0.00409971818121
0.028344857253 -0.0222936600967 -0.0118437524307
0.0324087005036 -0.0170339186395 0.0096492709924
0.0300944724725 -0.0201367399099 0.00120408768396
0.0288557864518 -0.0217600200586 -0.00463893586175
0.035018617366 -0.0135097287685 0.0182944093035
0.0345596810097 -0.0140058823131 0.0124159921569
0.0264977912676 -0.0249175447525 -0.013384150143
0.0334602552496 -0.0151733193377 -0.00241223389618
0.0248773142873 -0.0283940806303 0.0231550338909
0.0257305286353 -0.0270306255849 0.0192218269766
0.0286037013371 -0.0229558895879 0.0225155860993
0.0286632174238 -0.0223738302643 0.00665340253668
0.0284359710314 -0.0233534817177 0.0274360070007
0.0269728581088 -0.0248597234817 0.00755255467498
0.0270317460487 -0.025046811137 0.0162823350672
0.0266011723977 -0.0259236490569 0.0243100091723
0.0274546849272 -0.0243335749874 0.0131363685434
0.0294974807404 -0.021367534489 0.0132711722056
0.0257976065153 -0.0262670034232 -0.00210041354699
0.0299929813647 -0.0208658876483 0.0202757498578
0.0255241412468 -0.0271980418477 0.0149748033939
0.0274882640895 -0.0239786773844 0.00333864903281
0.0313313600752 -0.0190948525426 0.0258772008773
0.0258151739621 -0.0272600447987 0.0305055490798
0.0316333672516 -0.01824991515 0.0128866364346
0.0279193066695 -0.0238716203446 0.0199742935557
0.025829061743 -0.0271489218427 0.0275947863554
0.0292161399668 -0.0216549130219 0.009375600289
0.029660026636 -0.0215066395897 0.025289686343
0.0256012831464 -0.02670950977 0.0029269092573
0.0318960767203 -0.0179627052307 0.0159204214591
0.0259110691988 -0.0265033530241 0.0107464463815
0.0334128494054 -0.0159413207905 0.0218111826594
0.0276799986405 -0.0235583974551 -0.00119076699577
0.0330430670355 -0.0163904099775 0.0189756701568
0.0289866007692 -0.0222049373409 0.016298672583
0.0317650103671 -0.0183688532002 0.0228212283443
0.024982489504 -0.0318740338311 0.0218203133726
0.025174723904 -0.0317777044007 0.0248051860735
0.0263599856256 -0.0301621409726 -0.0146364840669
0.0288682661598 -0.0283731301155 0.00861288809251
0.0273941043392 -0.0292824800967 -0.00994889915638
0.0285503710664 -0.0278731983522 -0.0193823159133
0.0281765409011 -0.0289601229778 0.00542856984605
0.0285421657193 -0.0289768485383 0.0183832885008
0.0284244223842 -0.0290015333952 0.0152480032939
0.028226056771 -0.0282763978758 -0.0164634364411
0.0276721456771 -0.0286392662059 -0.022707763431
0.0294445514823 -0.0267032758403 -0.0253502428708
0.0253364071637 -0.0303512374898 -0.0266434987966
0.0357486390341 -0.0169363076679 -0.0258385894412
0.0366614896483 -0.0155657115213 -0.0192082300113
0.0370066789135 -0.0154620536575 -0.00406369462137
0.036993429887 -0.015329300321 -0.00740161658486
0.0370372151598 -0.0155717349786 -0.000327821796823
0.0366957435639 -0.0157321220178 -0.0141430297756
0.0366346899786 -0.0154601625762 -0.0226742329295
0.0375496593634 -0.0145688882175 0.00503880187935
0.0345879636969 -0.021516445018 0.0269572342679
0.0325021478394 -0.0244139316685 0.0197723323733
0.0328626638082 -0.0240787615047 0.0279505318115
0.0331287943648 -0.0234276455233 0.0170820811725
0.0313875116746 -0.0243456755808 -0.0246046202969
0.0328613207017 -0.0228305238648 -0.011947560741
0.0329553838121 -0.0221767017886 -0.0258734422272
0.0330864527929 -0.0223152359339 -0.0175206206536
0.0323799325647 -0.0239608111257 0.000722051944044
0.0311628640293 -0.0249223101865 -0.0173918447676
0.0338879798025 -0.0220657483497 0.0109011278937
0.03456638226 -0.0211961508119 0.0158685761906
0.0338907792339 -0.0214770874943 -0.00641045899743
0.0345164816323 -0.0214876485043 0.0222436032368
0.0333041339517 -0.0227307967624 0.00415709545563
0.0343631106186 -0.0216183188271 0.0191676146079
0.0334538909075 -0.0222544275295 -0.00317153937442
0.0296684960781 -0.0266144234079 -0.0220960964194
0.0314157963242 -0.024889611936 -0.00882618671647
0.036432312516 -0.0178666654438 0.0220983675955
0.0358890137649 -0.0185595981577 0.0108740972258
0.0364408436186 -0.0173200768497 0.00829522779955
0.0362174927176 -0.0180329562859 0.0148500067109
0.0362936865074 -0.0175025987575 0.00512026080527
0.0368876650055 -0.0171687179617 0.0284478044401
0.0360541887058 -0.0187585190131 0.0249747905122
0.0360690257206 -0.0173519578211 -0.0109293284281
0.0360106385052 -0.0186325829126 0.0193392940318
0.0345975605961 -0.0214056909756 0.0300432677373
0.0365853910832 -0.0167599376566 0.0021532963863
0.0374497971404 -0.0157678495336 0.0255922465047
0.0370756601503 -0.0162782609878 0.0173407698307
0.037294706154 -0.0161521496104 0.0309550642613
0.0272537932073 -0.0304059179502 0.0291392994945
0.0296251245331 -0.028034495578 0.0276313268578
0.0292682866018 -0.0275037448344 -0.00730043484973
0.0300097796424 -0.0270424041392 0.00573536607009
0.0293662597397 -0.0272993033806 -0.0107444462655
0.0302637786995 -0.0272553220588 0.0235575338921
0.0297201856496 -0.0275654863073 0.0129910113305
0.0291937641582 -0.0283747885557 0.0210834244887
0.0322856380254 -0.0247820379201 0.0235658534764
0.0302410158091 -0.0265822610761 -0.000430562278019
0.0300611346176 -0.0263816258203 -0.0142692780413
0.0308272750502 -0.0261865212824 0.00990011865062
0.0311106769451 -0.0256513973593 0.0035041982316
0.0308805380208 -0.02634722362 0.0173533732342
0.0309745594671 -0.0255675846221 -0.00471469290258
0.0324335126847 -0.0243185677663 0.0122422475162
0.0379309989512 -0.0136424646795 0.0272112702203
0.0346436875211 -0.0133800428549 -0.0163613863574
0.0351394492001 -0.013380024845 0.015209646537
0.0393497243133 -0.00507889887708 -0.023751501049
0.0393707703506 -0.00548862175956 -0.0198457365077
0.0398105795911 0.00294800009578 0.00689564386311
0.0356236955364 -0.0133800003678 0.00735503967389
0.0347569994628 -0.0131165459186 -0.0222377922169
0.0347569994628 -0.0127237728569 -0.0261591010134
0.0371845659225 0.00269569399339 0.00761444773451
0.0369608881771 0.00201615619337 -0.000655565375215
0.0367274300738 -0.000652849611685 0.00745244780063
0.0365119266316 -0.00129580683641 -0.000615675856506
0.0368815536643 0.00178190260239 -0.00364658797805
0.0370302457313 0.000525428102359 0.0164419507671
0.0362546023031 -0.00430808790837 0.00892276214585
0.0361458518608 -0.00419135318389 0.0010827723984
0.0357190286536 -0.00666863031584 -0.00461396712583
0.0361118537896 -0.00382520028801 -0.00418404696849
0.0353411425966 -0.00951125075145 -0.00411079461904
0.0355714289578 -0.00820895706893 -0.000744341404826
0.0364725545671 -0.0021920204713 0.00456211101253
0.035914720084 -0.00635394865504 0.00501156069683
0.0370698532988 0.00115748955502 0.0135352903551
0.0364757473639 -0.00123016291786 -0.00345288540511
0.036535324389 -0.000278071044095 -0.0225361300495
0.0357217246037 -0.00564919493428 -0.0236232443094
0.0364023788965 -0.00115573439142 -0.0187726027694
0.0358448617803 -0.00483628293192 -0.0285625148055
0.0358106992636 -0.00506181287015 -0.020778390402
0.035985171676 -0.00391000216485 -0.0180100076376
0.0365953263638 0.000118042678996 -0.0268171862191
0.0362588627842 -0.00210318156781 -0.0143049715533
0.0366810642057 0.000684056313118 -0.0166552808063
0.0369648346316 0.00255741732086 -0.0248683804474
0.0351557230093 -0.00938575526832 -0.0263699132266
0.0367195310863 0.000938002276627 -0.0111150955757
0.0351010844925 -0.0107351564255 -0.00989083409661
0.0357763411395 -0.00560478145374 -0.0130328079451
0.036071489686 -0.00367699270968 -0.0095856394922
0.0355050369076 -0.00725708689924 -0.0180359498291
0.0350103756944 -0.0107038818667 -0.020506135914
0.0354833180038 -0.00808953544683 -0.00770970492293
0.0351837720987 -0.00925378316922 -0.0233457853295
0.0351647262551 -0.010009567892 -0.0138953400309
0.0363606184288 -0.00172285353498 -0.00721484004442
0.0354334294223 -0.00824467674848 -0.0109076771231
0.0386608733957 -0.0115276502437 0.0122920465286
0.0386695189243 -0.0116248605159 0.0152719093636
0.0394259463934 -0.00948326752529 0.0299007950655
0.039115531283 -0.0103533343615 0.0236946328712
0.0392900013125 -0.00959318597286 0.0209161179954
0.0387112347255 -0.0112048645804 0.00910082550757
0.0390792316894 -0.00972416504543 0.00607466870224
0.038858061565 -0.0103739949866 0.00234410534105
0.0389136071137 -0.0108492867114 0.0180390251095
0.0383128648325 -0.012961931791 0.019761664654
0.0382208548889 -0.0118913666136 -0.00562934343771
0.037989931777 -0.0130102217553 0.00272677621399
0.0376906740195 -0.0129809939071 -0.014460385123
0.0379575956074 -0.012795510506 -0.00313725620877
0.0384340652244 -0.0115438881748 -0.000359871799327
0.03808758318 -0.0121044177409 -0.00900169976645
0.0399159058783 -0.00652539255617 0.0303665791894
0.0401990003884 -0.00335320179814 0.0274812064513
0.0401990003884 0.000163379453485 0.0291371168122
0.0401990003884 0.000722925579311 0.0260793632116
0.0401990003884 -0.0034705068886 0.024578193541
0.0393546311895 -0.0087133794267 0.011057372358
0.0398739189401 -0.0068404947036 0.0209196157246
0.03967122467 -0.00828141595666 0.0257016034874
0.0394511023365 -0.00193673564222 -0.0247034683526
0.0393673919044 0.00229320252855 -0.026799375154
0.0373020442514 -0.0133800003678 0.010025377521
0.0379466351267 -0.0133800003678 0.023586865762
0.036173721732 -0.0133800003678 -0.0114515269287
0.0371972144273 9.02186761743e-05 0.0262951407013
0.0365304334347 -0.00557990236846 0.0291348056839
0.0375128488611 0.000625035074004 0.0303295070395
0.0369855474034 -0.00270297700509 0.0296821951454
0.0360547995507 -0.00799377547597 0.0226108182908
0.0348469495918 -0.0130699457378 -0.00530896457561
0.0349376540621 -0.0129042370241 -0.00184020984577
0.0365277097234 -0.00303835308603 0.0146444049892
0.0361723731971 -0.0058238770808 0.0146583558208
0.0364094238739 -0.00435289675982 0.0171150303892
0.0371324790762 0.000586897716167 0.0217240792482
0.0349998991639 -0.0128717556621 0.00105743818641
0.0356342598695 -0.0122402165631 0.0286748939298
0.0355789299367 -0.010870017947 0.0171908288344
0.0366884312742 -0.00266262315965 0.0202679814929
0.0362890632472 -0.00656191654779 0.0251775909194
0.0356208465209 -0.0113613167348 0.0224096695068
0.0350329862803 -0.0130920215971 0.00411015765181
0.0357099574123 -0.00935246952052 0.0140630946157
0.0363190598492 -0.00561315503632 0.0206326011347
0.0356186054875 -0.0118775178162 0.0255847149725
0.0356270923401 -0.00820471453958 0.00262208714435
0.035951317386 -0.00821319904906 0.0188467971635
0.0361208093096 -0.00848777535977 0.029048501986
0.0354254622568 -0.0102519238819 0.00560104431557
0.0368110268004 -0.00270540029308 0.026654794736
0.0354756475627 -0.0103792792979 0.00891494311605
0.036866905241 -0.00179927604003 0.0236721436504
0.0359260653325 -0.00690079885275 0.00923088375554
0.0395201522352 0.00294800009578 -0.0169314947467
0.0401990003884 -0.000121543003779 0.0190264204519
0.0401990003884 0.00106722220531 0.0223065628601
0.0401990003884 3.561163209e-05 0.0162144262706
0.0398646551478 0.00212610618111 -0.00281458460075
0.0397802927458 0.00169017925913 -0.00907911729581
0.0396176257294 0.00118203095169 -0.0196944432467
0.0398815703314 0.00277532578987 0.000915721301856
0.0397218133111 0.0011456881659 -0.0144887800222
0.0401026276274 0.000705144933544 0.00926820495434
0.0401747644697 -0.00170010291372 0.0127612838169
0.0401186296658 0.00218356576808 0.011550942732
0.0399101788772 -0.000321509228614 -0.00562921185131
0.0400209578872 0.00136929329331 0.00377043478896
0.0399770104798 0.000146494449581 -0.000372244743133
0.0400830703823 -0.00122575351895 0.0063853645533
0.038640729197 -0.00828056647841 -0.0264721706083
0.0386622644385 -0.00901003160346 -0.0237657431622
0.0378032247945 -0.0119962728264 -0.0247086101774
0.0384617706783 -0.00995470518925 -0.021201564843
0.0383668732865 -0.0106362536291 -0.0173530251445
0.0391761894119 -0.00840952052936 -0.0032382498628
0.038850105341 -0.00925604907456 -0.0132173112267
0.0400612031973 -0.0060856111999 0.023549129946
0.039798831436 -0.00679002967642 0.0157816191175
0.0388796358468 -0.00937904892907 -0.0100693758973
0.0393258072246 -0.00790051017414 -1.50455472933e-05
0.0397532216424 -0.00538622555131 -0.00049003816095
0.0394689945568 -0.00602755157762 -0.0104128924935
0.0396312195252 -0.00653190885854 0.00337595699337
0.0394766236133 -0.00646996794032 -0.00585583572873
0.0394157228869 -0.00605461345151 -0.0131421684487
0.0391518434709 -0.00723443367782 -0.0168991369657
0.040115104117 -0.00415213098939 0.0148107156218
0.0400147242537 -0.00410018583448 0.00741832319963
0.0400225099812 -0.0047057932031 0.010485440228
0.0400959701613 -0.00530676550975 0.0182290027251
0.0393154656103 -0.0046188345144 -0.0279382463939
0.0396325231336 -0.00403471777812 -0.0159315988177
0.0395615297409 -0.00233393677703 -0.0211832790105
0.0396594250596 -0.00158992468064 -0.0182649067236
0.0398298475827 -0.00275405494973 -0.0080388269517
0.0398825230373 -0.00328919906846 -0.00410158466875
0.0398016147564 -0.00164884827166 -0.0112943992597
0.0399910713547 -0.00219006850672 0.000930393352185
0.0229068800192 0.0252896439364 -0.037719243527
0.0239892615539 0.0222557363944 -0.0376458073458
0.021526695104 0.0227319986889 -0.0355654127427
0.0200249549078 0.0253348750623 -0.0355948120093
0.0311892049508 0.00812153245506 -0.0327689982951
0.0241729522724 0.0182619683586 -0.0362691519486
0.0284349758053 0.0109347057746 -0.035729163964
0.0328692059318 0.00338161311541 -0.0358674691398
0.0312581717331 0.00605387815819 -0.0351003619202
0.0266362853696 0.0139669556341 -0.0353583486335
0.0303731893002 0.0184624240358 -0.0327689982951
0.0286986336392 0.0212026307802 -0.0347458913875
0.0261612382731 0.0245824553369 -0.0360004789684
0.0323270696223 0.0135059000522 -0.0327689982951
0.0342126276703 0.00803641429308 -0.0327689982951
0.0306937094758 0.0179997175644 -0.0357097083288
0.0328471773558 0.0143043187945 -0.0367058999826
0.0287451666992 0.0178936723526 -0.037758000195
0.0274916185372 0.0225170048453 -0.0376756529976
0.0335136274709 0.011323728775 -0.0372288518155
0.035275290497 0.00532733135106 -0.0341012693209
0.0344376601434 0.00893820406744 -0.0358611574443
0.032940523969 0.00563608774931 -0.037758000195
0.0305344395987 0.00821191931393 -0.0374420094476
0.0101101701332 0.0306839746582 -0.0327689982951
0.0113321287076 0.0288064973489 -0.036924885307
0.00263762707086 0.0306631483742 -0.0353101791851
0.00683292883191 0.0297037263094 -0.0354530272085
-0.00101190458103 0.0315214262444 -0.0354229062846
0.0153240912451 0.0277616508431 -0.0346776822709
0.0218421627282 0.0282326743067 -0.0368485706065
0.00370401610035 0.0356030017138 -0.0330824548109
-0.00396274212945 0.0356030017138 -0.0343053685138
0.0118901294586 0.0330493264317 -0.0373633041293
0.00107945886443 0.0356030017138 -0.0350845165944
0.00328117078978 0.0354521646824 -0.0370016706031
-0.00271043641827 0.03547889795 -0.0367062945128
0.0161656108083 0.0278634317752 -0.0373507992081
-0.00416101618747 0.0325281401233 -0.0373335894806
0.0150355546985 0.0306341331228 -0.0376252509394
0.0183419971935 0.029818392888 -0.0374450368898
0.0062384291379 0.0323518374052 -0.037758000195
0.000565080714583 0.0332306395928 -0.037758000195
0.00875584731051 0.0307742646846 -0.03769058327
0.00771769702732 0.0347597865246 -0.0368792514369
0.0119383343227 0.0336930935978 -0.0328805898393
0.0150465794642 0.0326191510784 -0.0345848693652
0.0213452189732 0.0283664003866 -0.0327689982951
-0.00300770081759 0.0397946436046 -0.0107536106189
-0.0014509479336 0.0400588934287 0.00292459268992
-0.0019336445863 0.0400683525182 0.00601543802344
-0.00194773347805 0.0398904346607 -0.00818977485054
-0.00488070091359 0.0400354070607 0.0176102129052
-0.00290018513633 0.0400831393382 0.0118712371756
-0.0027613058427 0.0399188573216 -0.00197907269499
-0.0038154265181 0.0398993097525 0.00154540131217
-0.0025829715526 0.040062077351 0.00864904142342
0.00507878746366 0.0395812166219 0.0316280014813
-0.00606200005859 0.0367422311898 -0.00394368018389
0.00935800001025 0.0357179425435 -0.0220403271885
0.00935800001025 0.0365090663325 0.0246450511383
0.00935800001025 0.0365279681091 -0.00852961030139
0.00836126808835 0.0391361642966 0.0316280014813
0.00935800001025 0.0375160898805 -0.0132871279009
0.00302151923074 0.0361231609751 -0.0291349999607
-0.00352815260337 0.036393223941 -0.0291349999607
-0.00606200005859 0.03775017316 -0.0164912350171
-0.00606200005859 0.0368529209751 -0.0220276694858
-0.00606200005859 0.0390142084185 -0.00692912639334
-0.00606200005859 0.0390950510002 -0.0199318190179
0.00252569916842 0.0359941817151 -0.00552304725667
0.000965921572884 0.0361163846222 -0.00305400404861
-0.00483007811919 0.0365388691534 0.00419268798615
-0.00191095105862 0.0360586647014 -0.0157680540531
-0.00259565607502 0.0363744391632 0.00130400919381
0.00162303183349 0.036130899357 -6.87980291523e-05
0.0045003583296 0.0359276362397 -0.00327153393586
-0.00144912522336 0.0363665427053 0.00448630451064
-0.00210203615628 0.0365290474616 0.0123115343278
-0.00159318772159 0.0361129580065 -0.0114410573937
-0.00335814740926 0.0360137331913 -0.0231333312334
-0.000812990895405 0.0361425070402 -0.00714551548034
0.00120383502972 0.0359194732126 -0.0143040041107
-0.0051855876164 0.0367128042773 0.0136654894487
0.00206985233341 0.0361713762788 0.0038279140602
-0.00165741269983 0.0364278955191 0.00756280297601
-0.000335623649134 0.0359401873771 -0.0179601694124
-0.00204197818477 0.0362867071742 -0.00227769261805
-0.00482908254924 0.0364498242205 -0.00123528149052
0.00521323878169 0.0357774466823 -0.0101539757927
-0.0041441756944 0.0361392339222 -0.017990500096
-0.00503834080526 0.0363257031063 -0.00947456614754
0.00298208039417 0.0357864813823 -0.0167329506573
0.00580210915565 0.0356990229055 -0.0130554749871
0.0024535119795 0.0359093350736 -0.0109288162531
-0.00551495634641 0.0366231808419 0.00714650198131
-0.00411964350209 0.036589287295 0.00953817066588
0.00798574753107 0.0356112077604 -0.0152854412123
0.0016004876355 0.0358161827933 -0.0225894095969
0.0060290085635 0.0356952172712 -0.0266413417542
0.00626314225985 0.0356773174928 -0.0219067858263
0.00421445762738 0.0357443183664 -0.0247816891598
-0.00292188337799 0.0359577990929 -0.0262321000092
0.000943409969355 0.0358436754491 -0.0260939159141
0.00830965878307 0.0356081114793 -0.0180558508843
0.00206628868221 0.0357959993966 -0.0198065776207
-4.03093885163e-05 0.0367030475023 0.0244946297274
0.0035771929979 0.0365707957789 0.0245916640407
-0.00498390029425 0.0368768617652 0.0240479064976
0.00539335051324 0.0366213499618 0.0299508516559
0.00392888504138 0.0361863018795 0.00772592743463
0.00402386071731 0.036254106991 0.0109650165735
0.00039752329656 0.0365020577571 0.0161067104464
0.00692803705493 0.0359488278728 0.00200197411569
0.00921257697356 0.0364310870494 0.0277540130453
0.00650383641099 0.036037928026 0.00533223570912
-0.00191717410125 0.0366309803806 0.0180561825726
0.00539324444958 0.0363889737088 0.019398992728
0.00063639779483 0.036351207401 0.00965988918436
0.00590303791956 0.0365439206935 0.0272947443034
-0.000993914519885 0.0366690114549 0.0213405140927
0.00455609986237 0.0363215129114 0.0149235895595
0.00633370973147 0.0364605233584 0.0242343508554
0.00736357305176 0.0357734872687 -0.00522514991619
0.00335197999851 0.0364258498149 0.0176300887828
0.00762051862785 0.0361412360417 0.0119069259085
0.0019123472003 0.0363772007875 0.0129925613098
0.00620619704923 0.035916129518 -0.000700440381906
0.00739431443857 0.0362220310298 0.0151940646439
0.00237107475376 0.0365441192289 0.0213457676726
-0.00073732693203 0.0367929365656 0.0274005050613
0.00524481756798 0.0391739164713 -0.0265786565648
-0.00397082796556 0.0369428851213 0.0274073073825
0.00229604743509 0.0367386347528 0.0293775167726
-0.000486140815962 0.0370340700908 0.0309572249281
0.000707877235657 0.0401390008628 0.0119271561018
-0.00412322838885 0.0401390008628 0.0296642752442
-0.00330233268623 0.0401390008628 0.027016514623
0.00128752529237 0.0401390008628 0.0219671834556
-0.00154148306262 0.0401390008628 0.0172619184605
-0.000751554722357 0.0401390008628 0.0303803271607
0.00206749259106 0.0401390008628 0.0182221357526
-0.000857827308071 0.0401390008628 0.0142171925687
-0.00160052434319 0.0401390008628 0.023592750276
0.000329917335639 0.0396703408391 -0.0260074164284
0.00245193980949 0.0389393252239 -0.028439844757
-0.0012383044584 0.0390486526169 -0.0289669501806
0.00289105696703 0.0396044108142 -0.0244019061944
0.00491239127315 0.0397534969555 -0.000689745249609
0.00517920238364 0.0394149245132 -0.021399083118
0.00561250460513 0.0399808873959 0.0200764783022
0.00410971357813 0.0396423086727 -0.0144339941594
0.00589783278429 0.0395682207429 -0.00547591094513
0.00524640251 0.0394584331072 -0.0179463357482
0.00498938474349 0.0396106656719 -0.00970361255959
0.00164381660761 0.0397425172295 -0.0205243246443
0.00164668012066 0.0397894543148 -0.0171935703101
0.00359396222084 0.0399715574059 0.00722981320024
0.00493207699567 0.0401363117031 0.0280759241993
0.00159305229738 0.0400100400662 0.00251233362451
0.00161122605311 0.0398409222931 -0.0131187718094
0.00435977849406 0.040108947332 0.0231630048745
0.000922963223287 0.040077135508 0.00596691762431
0.00256976623302 0.0398836563233 -0.0051779049204
0.00146153556203 0.040085358114 0.00896233453076
0.00404766747174 0.0400113764815 0.0128080014903
0.00094664217123 0.0399228086774 -0.00826770119676
0.00104408554431 0.0399808496039 -0.00247349639955
0.00812461925618 0.0396097568694 0.0287113878691
0.00845180088976 0.0394469790422 0.0239231955395
0.00844884793418 0.0394091041087 0.0204541467717
0.00789662725394 0.0392327801543 -0.00350307099092
0.00788423871938 0.0393855655147 0.00767681460474
0.0070402083046 0.039653715567 0.0150550224245
0.00907322540506 0.0384975065637 -0.0270455034908
0.00854915891643 0.0388407802007 -0.02254343442
0.00617997924201 0.0396298816898 0.0018924688747
0.0075867172187 0.0391256616376 -0.0151102846001
0.00745609669493 0.0392531431599 -0.00789404237306
0.0064718563233 0.0397092685898 0.0112246368548
0.00680122414673 0.0395586130797 0.00496532496916
0.00667657851366 0.0393301062297 -0.0126207590022
-0.00399092772842 0.039433038462 -0.0257085473572
-0.00328186154861 0.0395943167256 -0.0224859377591
-0.00598614631061 0.0395039974352 -0.0101091029153
-0.00442964171336 0.0396124031185 -0.0135699149826
-0.00385173402282 0.0396084819947 -0.0177224919189
-0.00580759764883 0.0398881280881 0.0136249732975
-0.0056120027428 0.0397650451563 0.00431493108851
-0.000795469772418 0.0399749998617 -0.00530181506579
-0.00108119602991 0.0398069700359 -0.0160530538949
-0.000599164781493 0.0397196754141 -0.0224800790665
-0.000809871955233 0.0397671725138 -0.0190519589194
0.0195475092386 0.0354972467995 0.0265974901685
0.0226290410965 0.0333545386541 0.0316280014813
0.0228028747793 0.0329737179742 -0.00210060879188
0.0229542098643 0.0332609580462 0.0261872163204
0.00935800001025 0.0364369615301 0.0187738526635
0.00935800001025 0.0361147399006 0.00971474000825
0.00935800001025 0.0373185043667 0.00437316914491
0.00935800001025 0.0384907789065 0.000947232420085
0.00935800001025 0.0377753752111 -0.0197157327318
0.0231029775327 0.0324495863497 -0.0142176800931
0.0234169997275 0.031380447328 0.00398890340031
0.00942319696923 0.0390579456751 0.0160281240264
0.0175946575037 0.0313259650593 -0.014226609178
0.0120538644215 0.0339315225295 -0.0222892740522
0.0108740649258 0.0349956050209 0.00148047373217
0.0122175477311 0.0339773487446 -0.0159057675382
0.0170151243441 0.0316761013036 -0.0111859545662
0.015143684416 0.0326481350909 -0.00930565516871
0.0130722807042 0.0333166606952 -0.0276109014513
0.0209362763193 0.0294186830567 -0.0261731631822
0.0132098959137 0.0337674283194 -0.00161388513914
0.0114113559126 0.0346071797531 -0.0045318812586
0.0184072874618 0.0307655860854 -0.0219639557205
0.0143562217059 0.0328847757841 -0.0171405956926
0.0150848247604 0.0324619228634 -0.0200952756138
0.0154231939781 0.03260509311 -0.00447516546623
0.010352072199 0.0346977266337 -0.0264703084586
0.0138570081421 0.033208203291 -0.0134294997488
0.00948390997949 0.0356475867505 -0.000629407470029
0.010778421152 0.0346246679996 -0.0194726985259
0.0117316579427 0.0343676386856 -0.00851566523266
0.0101247450975 0.0356112358204 0.0135648616399
0.0167824339956 0.0314870472214 -0.0264615364057
0.0105024985117 0.0349177865239 -0.0116987134856
0.0151601337886 0.0323561632061 -0.0235060684589
0.0110024714185 0.0350361634898 0.00671885117584
0.0228969055831 0.029920671711 0.0305368883612
0.0206937808892 0.030700878941 0.0225320738517
0.0142175243474 0.0340573021024 0.0287989766235
0.0205858857368 0.03097688534 0.0288062477373
0.01586088954 0.0331550464806 0.0257915063036
0.0190076159593 0.0316295168382 0.025698717343
0.0183404338572 0.0320951256147 0.0297035762032
0.0142995676755 0.0337260900973 0.0194600357595
0.0162145680409 0.03285293229 0.0215267690226
0.0118990688494 0.0350548359815 0.0246069410049
0.0130704727778 0.0343944166499 0.0216984750086
0.0117741901893 0.0352500867652 0.0290413422031
0.0102527106221 0.0357569841274 0.0212272448857
0.0184428195682 0.0317189685551 0.0200341611141
0.0210978345948 0.0302471266421 0.0130301590504
0.0217178404877 0.030054289389 0.0176896907886
0.0210817342787 0.0294453754907 -0.021440821785
0.019180886995 0.0312311545301 0.0151357791995
0.02002454532 0.0300184893351 -0.0189840931886
0.0139799727427 0.0337605493976 0.01487093833
0.0128064401943 0.0341898739161 0.00879037371889
0.0154605663174 0.0329121922466 0.00948401792407
0.0168612530088 0.0324075611205 0.0170734717067
0.0193874912604 0.0303927997183 -0.0162707917926
0.0217911697122 0.0295738647104 -0.00124354549491
0.0172365510762 0.0316458603042 -0.00756759011905
0.0172379035364 0.0317937557485 -0.0012424586507
0.019284740871 0.0308652619946 0.00171269734941
0.016729728951 0.0324054815679 0.0142547466595
0.0201831422296 0.0302507562715 -0.00580252500603
0.0122607133832 0.0346488745396 0.0170053711778
0.0186752113573 0.0313036739385 0.00772665551657
0.0196453548746 0.0304194800893 -0.00978205671965
0.0143827656719 0.0333041339066 0.00379898203137
0.0224796873439 0.0289129231629 -0.0150926772442
0.0201868565431 0.0304943215416 0.00464504099699
0.0206179663116 0.029860278928 -0.0134020784282
0.0166687302593 0.0321444981761 0.00187644430062
0.0216578564121 0.0298500860604 0.0077500178967
0.0181420043585 0.0316388456854 0.0109291833662
0.0127183816497 0.0343057521192 0.0118962850186
0.0229054785349 0.0320600308918 -0.0283397135857
0.0184540565397 0.035305424912 -0.0168086356062
0.0188694181791 0.0351980143662 -0.0113087763772
0.0179916544568 0.0356814231497 -0.00831863301499
0.0177641344058 0.0358655846593 -0.00418933920892
0.0158937396691 0.0364562555442 -0.0228581489647
0.0187552601599 0.0350848349424 -0.0209523769809
0.0188005534479 0.0357198833659 0.0165041745504
0.0189801373233 0.0353343392698 -0.000442401471687
0.011978514023 0.0380673492025 0.0316280014813
0.0115763801227 0.0384854071773 0.00766719504701
0.0111789157871 0.038823634456 0.0221349367706
0.010673469269 0.039064955776 0.0283716033501
0.0109293585316 0.0384508916568 -0.00647211294438
0.0105360574868 0.0384062029249 -0.016594090933
0.011744444022 0.038372704043 0.00350232925425
0.0124549984971 0.0385054040386 0.0251364676155
0.0107603350726 0.0385483402024 -0.00330757746421
0.011735086572 0.0386010790084 0.0180412825457
0.0102439075352 0.03893921578 0.0125799119372
0.0133427332098 0.0369878912903 -0.0290059071408
0.0234169997275 0.0296384064805 -0.0085526528089
0.0234169997275 0.0288556370638 -0.0121021215388
0.0234169997275 0.0291640729248 0.0111343562976
0.0234169997275 0.0293410095568 0.0019654817213
0.0234169997275 0.0310229511891 -0.0201407460101
0.0178775127938 0.0359781066926 0.00541063352882
0.0162647728074 0.0364522741464 -0.012586091154
0.016040077418 0.0370968023374 0.0187027919167
0.0165895895331 0.0366934999003 0.0107115017874
0.0170508277301 0.0363171582724 0.00179399196756
0.0188434563638 0.0357933527771 0.0219880873345
0.0179026250347 0.0361073565356 0.0136735346807
0.0177399398029 0.0363713069936 0.0244846606745
0.0161468427222 0.0371044307799 0.0221738402313
0.0112944638706 0.0382837542525 -0.0104573559641
0.0133043372851 0.0376561228873 -0.012979015201
0.012488181007 0.0380927401054 -0.000505815894202
0.0133709614429 0.038058364538 0.0135865318828
0.0114372517712 0.0380002232474 -0.0256882686405
0.0113463646272 0.0380716491332 -0.0228627397712
0.0153281603683 0.0365971636049 -0.0265318307089
0.0137991615506 0.0380094322983 0.0202460589793
0.0142155958374 0.0376738354756 0.00893893861067
0.0141197581942 0.0375175624893 -0.00316823694736
0.0140634763415 0.0378525605165 0.0166054369155
0.0149771614165 0.0369387963768 -0.0171957846623
0.0152354057866 0.0371289975512 1.44685546959e-05
0.0143997611172 0.0372891113345 -0.0103630913994
0.0148818575307 0.0373603701961 0.00518387855481
0.0136984649653 0.0373890115353 -0.0210862065259
0.0148645482047 0.0371802497372 -0.00574822256382
0.0223764039336 0.033444621649 0.00721940838385
0.0220989655004 0.0338606079997 0.0197594821041
0.021777642512 0.033943604414 0.0119916251166
0.0227533682544 0.0329085786318 -0.00818860343374
0.0210455362131 0.0340731258621 -0.00459474219864
0.0198290617136 0.0344012639217 -0.0261950622057
0.0213917670497 0.0337153656955 -0.0116656497675
0.0205219241257 0.0341882498173 -0.0151981929598
0.0208020514582 0.0339387718756 -0.0189201571283
0.0216597825215 0.0338330604754 0.00259321934944
0.0211657794798 0.0336243820058 -0.0232757906597
0.0213779876626 0.0343009924189 0.0171861535311
0.0206443729486 0.034870019295 0.0239327783963
0.019880802479 0.0350319411828 0.00930302939421
0.0211202847166 0.0347101532014 0.029692012813
0.0161708110715 0.0371410696308 0.0290178189727
0.0380554242839 0.012265869953 -0.004731615516
0.0376405949714 0.0143580762464 0.0139313336774
0.037156884587 0.0141324175497 -0.0213172514867
0.0379087076863 0.0128466583947 -0.00153583597969
0.0374489570374 0.014700931878 0.00921248760194
0.0378108615128 0.0132796364383 0.00157183885525
0.0382700254185 0.00294800009578 -0.00660152960361
0.0373980737155 0.0128655789156 0.0316280014813
0.0388879979302 0.00294800009578 -0.0222501015047
0.0371728020057 0.00294800009578 0.00413919542288
0.0338649796561 0.0154462878448 0.0283176427132
0.036111891538 0.00836544022001 0.0294001879328
0.0351296591686 0.0114701758138 0.0289670778624
0.0375753466834 0.00383810687157 0.0304677378532
0.0341627430685 0.0133525849667 0.0118809825931
0.0336186427973 0.0153757518566 0.0146445327016
0.0339960739885 0.014632997489 0.0231342990311
0.0344586563169 0.0127309480855 0.0179180256582
0.0330743871632 0.0160366633824 -0.00405812795137
0.0372515988157 0.00363325577858 0.024012792724
0.0358238814758 0.00794161412908 0.0155058992831
0.0366111986475 0.00543207623446 0.0180912475509
0.0353319074779 0.0101028052824 0.0232318966064
0.0349660903606 0.0108079090634 0.0147703246221
0.0353813463972 0.0101256074312 0.0262356431729
0.0335613446147 0.0152829862906 0.0101183346484
0.0360683492315 0.00692824513717 0.012620569751
0.0347014479994 0.012138199534 0.0215685463191
0.0352479186271 0.00963595994891 0.0113855593689
0.0350886142926 0.0100033006073 0.00865035287642
0.03406616238 0.0133839043687 0.00720805052995
0.0336590328984 0.0145929404166 0.00447442198215
0.0361288532712 0.00734203922867 0.022375014333
0.0334986118401 0.0164514609922 0.0251681669332
0.0337942180297 0.0137879345888 -0.000974539704598
0.0341977395061 0.0122395042774 -0.00377996171846
0.0345092403059 0.0130489516895 0.0256329622405
0.0338971958945 0.0136159439576 0.0018247709006
0.0328846124762 0.0160572015523 -0.0138859906855
0.0365099394354 0.00626517035795 0.0257974047603
0.0357733531291 0.00836237417596 0.0194307562965
0.0348253503113 0.00904072644832 -0.0268468033548
0.0331343860273 0.0150540196877 -0.0268515630313
0.0325804982729 0.0168824189032 -0.0240364537134
0.0342951113168 0.0108209981017 -0.0247486678269
0.033305466248 0.0142830667141 -0.0236104164898
0.0329311643347 0.0170995963601 0.00164794588881
0.035161083953 0.00860335378652 -0.0115568705534
0.0360622478528 0.00499039574877 -0.0227609219332
0.0354220181182 0.00754690293977 -0.0149874451321
0.0341630435897 0.0118624163988 -0.0125694961166
0.035484378172 0.00708716696576 -0.0195546485154
0.0339793879554 0.0121508363685 -0.0183843400038
0.0368681272074 0.00435923098285 0.0142252604752
0.0361451420171 0.00600502169633 0.00056244643062
0.0362626018186 0.00472925837435 -0.0154499540276
0.0353625055799 0.00827241043105 -0.00544391813974
0.0351124787372 0.00816930134188 -0.02232384936
0.0362623630758 0.00528145098917 -0.00548030941198
0.0332242873555 0.0145626556923 -0.020125613551
0.0370742685059 0.00406938468982 0.0213647185051
0.0361085432012 0.00662188673214 0.00951776139709
0.0339039477758 0.0122106082443 -0.0218342761694
0.037153312346 0.00322557924805 0.010855266946
0.0361431566435 0.0053601271961 -0.0112168772824
0.0355775222893 0.00822157806571 0.00655008213504
0.0353110192577 0.00864582280874 -0.00178446383737
0.0363816170316 0.00505959693999 -0.00232963104199
0.0330174015369 0.0154217591461 -0.0170172645159
0.0363526896745 0.00420173615504 -0.0195775487865
0.0339477709576 0.0127578064171 -0.00930874357246
0.0343904987627 0.0109575680657 -0.0152696240299
0.034976442802 0.00940639143771 -0.00812629615488
0.0351040055524 0.00962893335807 0.00355832947834
0.0346713237124 0.0138122337296 -0.0291349999607
0.038148941644 0.00833053832985 -0.0287186819266
0.0389142000841 0.00579544989566 -0.0280331268673
0.0373989935036 0.0126256279122 -0.0285812998946
0.0347463115212 0.0136500635377 0.0306683064661
0.03308434941 0.0172408805051 0.00563199137308
0.0337479182606 0.0174599997699 0.0126275579784
0.0354729119465 0.0174599997699 0.0190327581093
0.0357577851984 0.0174599997699 0.0299118402562
0.039837015123 0.00612381773957 0.0304870273157
0.0389395718379 0.0104240673261 0.0220232371593
0.038678432493 0.0106509443626 0.00513469815195
0.0388943975091 0.0107752489258 0.026917240402
0.0388515012347 0.0105023588932 0.0163719899672
0.0388555927716 0.0102478675052 0.0103493596344
0.0393485291014 0.00931813970467 0.0296645118688
0.038029123551 0.0136675358854 0.024589203842
0.0385787879305 0.00998792513339 -0.0140797658158
0.0388601228093 0.00858883743982 -0.0181512890643
0.03872886069 0.00984552047308 -0.00653776212522
0.0390888330773 0.00892722764402 0.00227649018805
0.038949099052 0.00914552853718 -0.00336734803524
0.0387689142798 0.0100610683645 -0.000446431829427
0.0392455182277 0.00898731058817 0.0135087266761
0.0384848212703 0.010606798208 -0.0102818131486
0.0397415730477 0.00523661507163 0.00471189221755
0.0396150950366 0.00563284605374 0.000522107672707
0.0391977658369 0.00563250755776 -0.0231508928795
0.0392345001204 0.00634796144646 -0.015679474721
0.0396930756401 0.00721318854934 0.0191484532655
0.0393038308472 0.00720505387296 -0.00517592963727
0.0397021430476 0.00635389342001 0.0114462215662
0.0401448215004 0.00508885293952 0.0268501279913
0.039658045335 0.00785351808793 0.0231268441545
0.0394230038776 0.00774749018306 0.00746600827004
0.0391522626298 0.00760992822001 -0.0107219538518
0.0397446934607 0.00760057222493 0.0260906474464
0.039848886773 0.00584062598959 0.0156489073636
0.038755288655 0.008793924572 -0.0214647733607
0.0368686337209 0.0146365782049 -0.026374513902
0.0378919673569 0.0121130291238 -0.0170972638631
0.0379376566932 0.0113227223753 -0.0256274629009
0.0392870162821 0.00294800009578 -0.0120476771324
0.0400998450367 0.00401518673253 0.0203446025605
0.0396141045789 0.00434530996751 -0.00887526573912
0.0394379079948 0.00425239492878 -0.0195552513964
0.0373225626473 0.0157360766326 0.0315827190372
0.0370530308175 0.0162213096075 0.0227299750065
0.0377768696308 0.0146244360551 0.0286992956465
0.0381187371659 0.0126351582486 0.00735401780179
0.0379390136144 0.0137817886056 0.0208382010463
0.0371829606537 0.0148080681925 -0.00510802756073
0.0357319513171 0.0173385970225 -0.02466068385
0.036929874607 0.0148266703261 -0.0186406317914
0.0373335701508 0.0154150002818 0.01774154364
0.0367620086002 0.0160953101969 0.00246232956772
0.0370943705003 0.0154545313233 0.00547697468389
0.0371264535884 0.0146642892018 -0.011671329727
0.0366580953481 0.0161532417935 -0.00188979715977
0.0368938699607 0.0153613178295 -0.00782845311844
0.0347704346844 0.0197802645974 -0.00633982676037
0.0348572824278 0.0202523679547 0.0169388132092
0.0344453817433 0.021072714089 0.0197010924534
0.0350101184527 0.0198835936345 0.0135323004612
0.0347611497472 0.020256516816 0.0106549233725
0.0348571440709 0.0197543986265 -0.00149026390477
0.0348403582352 0.0198990439621 0.00273611189357
0.0340632469907 0.0220285908411 0.0294698525264
0.0353278074631 0.0195289813876 0.0216887304933
0.0352964345385 0.0191459428017 0.00541935684527
0.0359296434991 0.0185435943583 0.0255402990106
0.0325387962249 0.0174610000104 -0.019962386818
0.032750158212 0.0174610000104 -0.0110228063937
0.028898769165 0.0234123612744 0.0316280014813
0.0234179999679 0.031269872063 -0.023306652053
0.0286604065946 0.0276846912257 -0.0211069866907
0.0309593053524 0.0261161551392 0.0247950047227
0.0303194595083 0.0263048251496 0.000710137993949
0.0302089112283 0.0266707005109 0.011753173231
0.0324369759021 0.0236721215367 0.00265606714144
0.0336956354297 0.0222277148909 0.0146340493454
0.0326716584911 0.0237542277786 0.0177740792663
0.0320152305416 0.0245025291723 0.0113439192173
0.0331635525872 0.0227446058063 0.00613453341794
0.0317997832431 0.0248958206537 0.0146484320999
0.0330916556988 0.022354859277 -0.0118645405151
0.0318645911777 0.024627182548 0.00814253411296
0.0335871866773 0.0226805991377 0.0256437137048
0.033375472332 0.0221163373019 -0.00596725021839
0.0324827251181 0.0234496827149 -0.00313923332865
0.0315003947596 0.0255275468003 0.0283294586163
0.031177156562 0.02600879977 0.0314509779392
0.0315746868403 0.0252863044752 0.0198118906466
0.0307405145208 0.0256646498983 -0.00563927666569
0.0298038707052 0.0264359976365 -0.0181219770428
0.0309059324251 0.0255626125015 -0.00207669654326
0.0311860641079 0.0254311508196 0.0055984592768
0.0306667800135 0.0252888169197 -0.0239631537884
0.0335798803859 0.0202820267047 -0.0286659954277
0.0310158529962 0.0251157736714 -0.0144376875728
0.0325291829419 0.0227114915073 -0.0262435675102
0.0325199691664 0.022937572153 -0.0190060755073
0.0320088604615 0.0235352458028 -0.0222827058165
0.0315293309328 0.0245553579167 -0.00978933826186
0.0308345621743 0.0202583792792 0.0269887516415
0.0324562359971 0.0184073908891 0.0283278106564
0.0271251185927 0.0247377078311 0.0289242257362
0.028940559256 0.022540717592 0.0278800132369
0.0316096403126 0.0192156567225 0.0244089278945
0.0354100101588 0.0174610000104 0.0161307947139
0.0355979165669 0.0174610000104 0.0103910534188
0.0235588548032 0.0319267007373 -0.0110274247711
0.0266057683281 0.0289388497039 -0.0278903377816
0.0291705908987 0.0269191906454 -0.0261659890484
0.0296097349397 0.0272176617486 0.00801482079045
0.0264598012021 0.0307390146694 0.0290697420435
0.0286884932405 0.0279745803403 -0.00238283526627
0.0276518963809 0.0294988384015 0.0267109293691
0.0282264210619 0.0286716041585 0.0116517983215
0.0295780686741 0.0273696896511 0.0153004101534
0.0294493703159 0.0276014330151 0.0214903012331
0.0272478788486 0.0295213690074 0.00338333195299
0.0294859534652 0.0275107498857 0.0182260367799
0.0274707365979 0.0294969164789 0.015521596021
0.0290329534131 0.0280748474299 0.0247526804555
0.0291236784049 0.0276362570859 0.00369573100395
0.0295723289237 0.0275852295804 0.0280229173358
0.0282208794025 0.0283569189321 -0.0077737910955
0.0288620851882 0.0276549463875 -0.0111596656985
0.0277688153032 0.0289488499169 0.000498265150328
0.0240617628864 0.0326805320306 0.028509111833
0.025014238571 0.0317184597823 0.0173849549673
0.0252515425186 0.0316827511635 0.025185992861
0.0252982528573 0.0311498269224 -0.000535504265982
0.0245718292782 0.0320034622844 0.0141625583246
0.0251270919416 0.0311748294233 -0.0062012178735
0.0261247625206 0.0309160601546 0.0218316893634
0.0258908044519 0.0307737882279 0.00576455411673
0.0255644481373 0.0303844761233 -0.0254365122323
0.0263912000957 0.0297561068034 -0.0207457153892
0.0273743705931 0.0288168328326 -0.0240096493806
0.0261550535851 0.0302110404252 -0.00940141773835
0.0259436005005 0.030792913095 0.00879258743801
0.0267198176373 0.02956999003 -0.0159503377051
0.0264099628317 0.030123809943 -0.00305039079421
0.0261166240912 0.0247776510965 -0.0204402803443
0.0249921916399 0.0260782516179 -0.0238948294718
0.0272727526891 0.0233185728365 -0.0238393611137
0.0279538557068 0.0225411797314 -0.0211522363062
0.0244891782012 0.0267947251272 -0.0177567740642
0.0302196131195 0.0197425043473 -0.0243445263816
0.0288303330456 0.0213896672568 -0.026317716248
0.0238232415244 0.0278054223073 -0.00608357270733
0.0255835447359 0.0255490533466 -0.0132446702073
0.0259037219672 0.0248988899562 -0.0282281819403
0.0236609512257 0.0277300763444 -0.021592977923
0.0269672718898 0.0238224098484 -0.0161903399624
0.0312956678313 0.0192484353069 0.012274730103
0.0297812068296 0.0207742696057 -0.000953579693845
0.0313925338438 0.0188082504993 -0.00260888464842
0.0266934763083 0.024375320991 -0.00541996871747
0.025650413505 0.0257166398472 -0.00119632524286
0.0280191305851 0.0227398869454 -0.00760693037094
0.0267343882818 0.0245313119831 0.00399207446455
0.0282719235515 0.022363745047 -0.0109751355939
0.0300972221245 0.0202709660144 -0.00668346566377
0.0307565072988 0.0191566289983 -0.0215907134225
0.0288839759348 0.0219589948337 0.0041000275448
0.0318586533094 0.0179478432194 -0.0164800607249
0.0312151926346 0.0192102185966 0.00609444900725
0.0325341042698 0.0176890686631 0.00878391667607
0.0286295802998 0.0220772079181 -0.00446242260522
0.0300281362707 0.020101452418 -0.0182657611922
0.0305560624084 0.0200601092685 0.00886845339759
0.0320978679176 0.0178492765772 -0.00785042157774
0.0255223850187 0.0257017368012 -0.00892130084587
0.0280907274227 0.0228393725581 0.00089819439878
0.0290278108951 0.0213826035393 -0.014454378026
0.024009901429 0.0276488090666 -0.00270018584964
0.0299205665543 0.0203643679183 -0.0121099054816
0.0313636324451 0.0183170529797 -0.0267510666547
0.0309334754107 0.0194534414831 0.00176918072382
0.0286204957752 0.0225519962788 0.0157066236651
0.0317702884649 0.0189024770209 0.0217312656171
0.0251833882421 0.0270557048667 0.0291989674681
0.0262791872585 0.0254664430661 0.0189918642847
0.0269695849481 0.0247445731904 0.0233173096429
0.0242165575483 0.0281407842175 0.0259969193307
0.0243306832903 0.0277387810166 0.0158306634201
0.0281234223761 0.0229829854048 0.00917629182233
0.0253050706288 0.0267224606103 0.022031002283
0.0265946652461 0.0249783121163 0.0148758809217
0.0248155173661 0.0270868248044 0.0132858053882
0.0307732937886 0.0199539242152 0.0158315405948
0.0234427165609 0.0289886556392 0.0226404997695
0.0270562472984 0.0247138259619 0.0261647275222
0.0287937525076 0.0224851541547 0.0211924452368
0.0239847491995 0.0278843959051 0.00534522644109
0.0306521227128 0.0201811680583 0.018942916199
0.0240086050289 0.0282070980978 0.0188769289373
0.0295202548854 0.0214019222714 0.0132870143693
0.0247533070506 0.0268676595386 0.00195563141393
0.024852609208 0.0268952353784 0.00763605956832
0.0265644712616 0.0249364441685 0.0118597805453
0.0293837061439 0.0218570834564 0.0244565500225
0.0234179999679 0.0313017619529 0.0200748837051
0.0234179999679 0.0317242808009 -0.0169320182978
0.0235150620141 0.0323887849004 0.00958341023685
0.0270362057977 0.0277895315441 0.0316280014813
0.0354266734745 0.0180363236543 -0.00928710323056
0.0353768676752 0.0176767214931 -0.0171947180128
0.0350792389799 0.0189561603668 -0.0138240735146
0.0344209478215 0.0200469505952 -0.018708852356
0.0337838489014 0.0216780444869 0.000704371953297
0.0346119707159 0.0196018782833 -0.0230308880458
0.0336180887655 0.0216683712704 -0.00903472944774
0.00618299981579 -0.0419930998043 0.0342156880379
-0.00602525070315 -0.0363829012981 0.0321924553966
0.00364082707805 -0.0375619202436 0.0339890551012
-0.00288133577396 -0.0367663800315 0.032581796244
0.000696179597398 -0.0372027471389 0.0341013561087
0.00299622523992 -0.0395688835915 0.0316339991987
-0.00829167982792 -0.0363750915882 0.0347406644145
-0.0128659997135 -0.0398909270949 0.0342813382935
0.00305953480237 -0.0421047687758 0.0374783439948
-0.00941768948305 -0.0391755132545 0.0374827108347
-0.00521701797361 -0.039173219124 0.0373712209709
-0.00216112188588 -0.0404712810392 0.0374347773067
-0.0126602555173 -0.0387881833153 0.0375254639236
-0.00199859114662 -0.0374921310386 0.0359881272523
0.0019168719607 -0.0390307518934 0.0371104419918
0.00173854323768 -0.045773942254 0.032772443862
-0.0111656519147 -0.0436109730703 0.0368699670753
-0.012482442516 -0.0441421626698 0.0343320628299
-0.00911021757555 -0.044977868561 0.0348063028783
-0.0061951545123 -0.0454569541684 0.0350501082551
0.00104735584225 -0.0420352668427 0.0316339991987
-0.00184210251587 -0.0435846095618 0.0316339991987
0.00516100971053 -0.0442588638888 0.0316339991987
-0.0111312387478 -0.0391843178059 0.0317470716638
-0.00864797673916 -0.0419615064574 0.0317480486065
-0.0116780073973 -0.0421984475008 0.0319367666381
-0.00454859000405 -0.0451318711038 0.0321404939793
0.00322676928101 -0.0454440789718 0.0362507714478
0.00618299981579 -0.0440651352921 0.0369507725896
-0.00888369041729 -0.0417335724774 0.0375300012529
-0.000687066999083 -0.044570537951 0.0368259045166
-0.00394104606823 -0.0447786888088 0.0365810511126
0.02595006495 -0.0324677076978 0.0316339991987
0.0300087870481 -0.0315230004489 0.0343215807603
0.0082269891471 -0.0424378312033 0.0316339991987
0.00825797874311 -0.0372011520932 0.0316339991987
0.0180018278171 -0.0353888051785 0.037283187274
0.0250410996331 -0.0317187919415 0.0369471362113
0.011405756471 -0.036908883588 0.0366724295508
0.0201294622589 -0.0325161051193 0.0359079711923
0.0143468179603 -0.034738625602 0.0358339107709
0.0166011228617 -0.0335739121554 0.0337386781267
0.0084881709781 -0.0369567245547 0.035519378157
0.0123143650984 -0.0352255275655 0.0333386444769
0.0216195790819 -0.0388473215129 0.0317349599457
0.0118860325388 -0.0404261206409 0.0316339991987
0.0249985121779 -0.0356940895794 0.0316339991987
0.0210443286954 -0.0358769078306 0.0316339991987
0.018274507331 -0.0388560650745 0.0316339991987
0.0180714306837 -0.0351343453333 0.0316339991987
0.029788954084 -0.03445627612 0.0321476232455
0.0267684759556 -0.0376220065127 0.0327613963968
0.0206921201306 -0.0412141559768 0.0339677360791
0.0234552514974 -0.0396794733239 0.0336003652571
0.0156213368283 -0.037426204463 0.0375300012529
0.0231072101686 -0.0342682587092 0.0375300012529
