-0.03215321770627727 -0.017951024340960194 0.002411196473236771
-0.03201867460511963 -0.01782561832129626 -0.008848534015189941
-0.03219824464497657 -0.017551540731600566 -0.005395818125187699
-0.03397674370344661 -0.013418061097024855 -0.008405669292599355
-0.03230067873539671 -0.01773034854671386 0.005361740660596005
-0.03577358606863511 -0.017497355000026478 -0.026531507618873063
-0.03535963430376689 -0.018884155280408706 -0.009245616798334091
-0.03545398404355923 -0.0187826635409706 -0.0042736786640490375
-0.03593093178803457 -0.017892247469738675 0.004398898021684477
-0.035334100033449875 -0.018667244444062106 -0.021251243185350654
-0.03550561020068185 -0.019104517398222845 0.017940259763367737
-0.03527924155573262 -0.019624246789008874 0.021673646130282498
-0.0325454567776363 0.005815848070839017 -0.0376446528207233
-0.028272404931554876 0.017860753589887406 -0.03276899829506874
-0.03411469010660021 0.010549167676991942 -0.03423659862886011
-0.0320256063114959 0.00206046789550757 -0.03437305792976758
-0.026996655380463835 0.01924246923476984 -0.036115234284779425
-0.02977362081923595 0.009661775617106131 -0.035613880168728775
-0.03055875852976305 0.00688787974302872 -0.03514643559026358
-0.02810735366199771 0.015251876552001718 -0.035121440881091565
-0.02795966289514335 0.022486326530014398 -0.03592971528063556
-0.028404980221717793 0.021532420525934962 -0.03320252089962863
-0.02916869199605946 0.012500022489937009 -0.03721677602625727
-0.03232330479083972 0.002502021536493574 -0.03711751522426793
-0.03505283788546382 0.007102002046573907 -0.03546565496257397
-0.0359949991106987 -0.0007725558973074776 -0.03532331389476289
-0.035755935729789357 0.0025650799149043724 -0.033036325473086894
-0.03475146806441392 0.0004256841757306065 -0.03753437979709634
-0.035073144260053174 0.00435503010457346 -0.03715735039380487
-0.03264053010682677 0.014745267638701744 -0.035451983522035865
-0.030619570175144308 0.01827388672610784 -0.03717158086671747
-0.03169743230569416 0.017069786042361822 -0.03399229404243184
-0.03263887380491161 0.01151223671330852 -0.037426776012836394
-0.033517301354259794 0.008953036084848112 -0.037463179450146454
-0.008701648109796078 0.03234698057973348 -0.03276899829506874
-0.021522765339707133 0.022851117252109046 -0.036285995602320695
-0.013336406803902202 0.028152157000985174 -0.03673364566470923
-0.02271959613491671 0.023143180340111202 -0.03276899829506874
-0.013594299378542948 0.02774109007066108 -0.03336703544095877
-0.020000391078222282 0.023755802364455195 -0.03358058905877606
-0.025234466106814513 0.02049963685158063 -0.03315554242253534
-0.025714993699333933 0.02325534419154313 -0.032772553430711344
-0.010552106362451791 0.03362409183971263 -0.03725012283268858
-0.01499419537834201 0.03255251890544682 -0.03690317437697742
-0.023150961368515525 0.027228598321287743 -0.037104235282395065
-0.025780918150130193 0.02512102761056191 -0.03559804310673845
-0.019254163894520594 0.03020240218681497 -0.03644557938445763
-0.02383149609661122 0.027075421487435317 -0.03310001758315702
-0.008100599228211398 0.03168506021413065 -0.0373134534576638
-0.018615018160638517 0.02495460209213882 -0.037099539276535164
-0.025152897204204425 0.021386464999377068 -0.037246511321245804
-0.02362237222983956 0.02453585072309076 -0.03775632012302316
-0.017288136414747177 0.02747810634663117 -0.037590632233216056
-0.011374617536733352 0.030903207026654566 -0.037464972923154045
-0.012783150499873748 0.033627326298396314 -0.03546762592665117
-0.016557547920147176 0.03193230512472265 -0.0346641709840752
-0.007629697085399564 0.03498387419007977 -0.0353061427232478
-0.03925925346043431 0.005483434402666663 -0.028161482503088205
-0.03731571733119509 -0.0020399999339133505 -0.011065360099259104
-0.03789696709450816 -0.00203999993391335 -0.021382428286213118
-0.03993553968853913 0.004528949156502727 0.007980267104750312
-0.039969519696504224 0.003389314215957227 0.0049688323400962
-0.03989830051861559 0.00406048147748208 0.0015024089706018179
-0.04002860823784843 0.004437538008336807 0.016983361232774902
-0.039989676619173256 0.0015426273098917962 -0.0034827203234594453
-0.04003374692821248 0.005463537256679414 0.023350757223856933
-0.04007229470302664 0.0010788694044661302 0.0023310261541563296
-0.04004602276439901 0.0034124037921935122 0.01292872274116776
-0.0398371865625354 0.004531714070941453 -0.002068299212649843
-0.03740239778966867 0.006500159105100117 0.03162800148129463
-0.040077999234199524 0.0022902690444946538 0.024806385261458966
-0.040077999234199524 -0.0010613593711375213 0.019381218340525724
-0.040077999234199524 0.0047586135793144324 0.027080626775396112
-0.040077999234199524 0.0006443991365691766 0.009467920628057668
-0.040077999234199524 0.0016481823972335189 0.021571006375753363
-0.040077999234199524 0.0009116576653419176 0.028152764871933807
-0.040077999234199524 -0.0011956250136566878 0.030981443304199958
-0.040077999234199524 -0.00026899238582313897 0.012727303820286825
-0.040077999234199524 0.0017295852057453447 0.01578131001324208
-0.040077999234199524 0.0039041783448868403 0.031185531036396694
-0.039975994636984785 -0.0012406473566587 0.006228618665426736
-0.03991995653200761 -0.0012215523590176098 -0.0015137531917021642
-0.039833608924345176 -0.0015501535433880167 -0.008149615201887879
-0.04003456659052785 -0.0013169628535229017 0.015154433423682726
-0.03976475408574906 0.003030074027730195 -0.017926299332676424
-0.03984372636030314 0.0012277917968803818 -0.01451830233300418
-0.039935708450102005 0.0012798626344564098 -0.009319583999499668
-0.04000392598914292 0.0005269505971209342 -0.00591631265233368
-0.03971793458588291 0.0009388136096622407 -0.021752342584137725
-0.03990156623153774 -0.0002402810799489779 -0.012106870827780945
-0.03963477491415923 0.0009908785658123886 -0.02639577607508179
-0.03977273044133724 0.0004196672592803694 -0.01896972671057845
-0.03759874349220753 -0.0013205637411691108 0.029727518641284312
-0.03708602186688481 0.0018759110501936384 0.029024026353911707
-0.037312505515161715 -0.0009767286946124588 0.02549536002772928
-0.03703448453335023 -0.0018024896424178047 0.00986158610566188
-0.036178077245118095 -0.0007286720505177246 -0.016733722218802618
-0.036157267633948394 -0.0005119749865152662 -0.013285374957088664
-0.036693438923941085 -0.0012532395255259359 0.0018833491000613996
-0.03622176190873973 9.066956382391966e-06 -0.0073771921004921566
-0.03671731831914718 0.0036007794836035835 0.02676019204765648
-0.036838979347931636 0.0021533524200980083 0.024406468429507493
-0.03725595582396109 -0.0017379417649072808 0.02126868706288281
-0.036601814124618576 0.0029824241739541957 0.01981183948129975
-0.036298473403972076 0.003617672688407491 0.011975771086645787
-0.036355334023588856 0.005432187676016364 0.022355943304262462
-0.03665713984538172 0.0012685031482705554 0.013876089061279817
-0.03631581446551843 0.004323204797386657 0.01584267752217115
-0.03614002316831713 0.001308638295638346 -0.004288288378711837
-0.037118733960064904 -0.0016098040737296683 0.016990058407189194
-0.03610342627835587 0.0026871976324583787 0.0007664579689776008
-0.03637757374545057 0.0018355514212244073 0.006569324782072327
-0.036143739960150044 0.007981839810566512 0.026598297384857635
-0.036381122690374045 0.00011665815133894664 -0.0012265862297452766
-0.03604843019193253 0.009622434889524717 0.030777319079514476
-0.0365712827291237 0.0011338297805468197 0.010208871088874753
-0.03605865979397171 0.0006851619139349917 -0.010048790847348206
-0.03643672436238634 0.006152970091667568 0.028565855664186648
-0.03923779977862364 0.008035515125209908 -0.009818324217567856
-0.03942129503212689 0.009394348767094603 0.029204883891916916
-0.039315005932332135 0.00891198867794082 0.011998470361137218
-0.03952998178356414 0.008624011958098362 0.02441850597686438
-0.039344088791897165 0.008932653126727051 0.014734772794877563
-0.039214615679093096 0.009812389002767754 0.019764752624314832
-0.03910329221946528 0.008115680235184476 -0.018276536502890687
-0.03836617855521534 0.010401545098843253 -0.026058467810024445
-0.0388947425707273 0.008701877087046238 -0.021550509356825426
-0.03891254674321474 0.010286476793304383 0.007682379411095552
-0.03915440210033633 0.009134820034183144 0.0031217576133314023
-0.03986408290073416 0.00611133400347953 0.014486125893730006
-0.039543142654998836 0.005984491682009946 -0.012493418691762528
-0.039454165386765286 0.005690895746721175 -0.022914388816156286
-0.03974814830168177 0.005083539490644276 -0.006435601504858649
-0.03964913239472857 0.006752193119609631 0.004676932193901209
-0.03975526398745528 0.007060060146658884 0.018516322219521104
-0.039303019492534 0.0074004869590501565 -0.015002010207840567
-0.03995729401853143 0.006651577809905617 0.029503209933966518
-0.0394214057271187 0.007459636264854976 -0.003922481532206376
-0.039581422171664674 0.007403121117879975 0.008931338214469463
-0.03951466803976236 0.0071891784949892935 -0.00012393187553377295
-0.03574063753365043 0.010228560024888434 0.014472326063079414
-0.035263913577932376 0.009843997099520649 -0.017429904376758017
-0.0351130327354528 0.010145166402126813 -0.027526807097936107
-0.0361387780553785 4.530507553596186e-05 -0.025848286455837765
-0.03578853846250531 0.0026188115187446553 -0.023619103078363266
-0.03576954631252239 0.003218025207416879 -0.026477255496882256
-0.03599631702136767 0.0002917614519637264 -0.0197547186990657
-0.0359659082596157 0.00849504412249493 0.021818917947143596
-0.03560549843887202 0.007383614708531551 -0.005764474515104938
-0.03555988457153944 0.005777060024072049 -0.016011292326013164
-0.03594780849248844 0.00800488201499895 0.018431915384017655
-0.03571395998634608 0.0054330521753123764 -0.007994556779664978
-0.03531924110191671 0.008112834536669339 -0.02024362056941753
-0.03538781433773833 0.008502937331987538 -0.01417219445404149
-0.03550950043891757 0.005147067224111041 -0.022054730268728194
-0.03566196949450582 0.00934710958457295 0.0068040017148599495
-0.03568139336094396 0.0034943997310066866 -0.018958789942647557
-0.035801348315266386 0.006103159608574353 0.00053990178338562
-0.03572906310653683 0.006309986059904222 -0.003011798572011894
-0.03578999226063714 0.00701746843219971 0.004045942659914311
-0.035802244197664604 0.0027579163584374117 -0.014821445957951342
-0.03548655224551876 0.007767194945510895 -0.011409539105718116
-0.03573351153343088 0.004288614344592035 -0.012050437614584072
-0.035964879379390545 0.0071304629660566285 0.015465869041771217
-0.03531531505044208 0.006986429812736862 -0.025679543870860688
-0.03575947983399741 0.009017002021911576 0.011359597643737599
-0.03587468313360392 0.0037812245199243377 -0.005590859339339235
-0.035979788331854785 0.0050183616025213365 0.006660997614172849
-0.03598910361649985 0.0042450896035815385 0.0036777681908977855
-0.03594819903202562 0.006162471122716168 0.009965158530116364
-0.03645242754363971 0.010613971517999135 0.01947190871944896
-0.03647951775132341 0.01065785422450382 0.0020966250541094196
-0.03622584595377833 0.010657843989258337 -0.007480509837636451
-0.037324966310635685 0.010657375774681878 -0.02006718997525683
-0.038181252992878924 0.010657134758794479 -0.013606627517085818
-0.038150474074582996 0.007988376726136706 -0.02888339468102439
-0.039581640086622585 0.004138849237156416 -0.025610636072807835
-0.03905586010206366 0.007643205722244534 -0.02599859044403589
-0.037094673798536155 0.01483445228952888 -0.021311407197618468
-0.037781507965013526 0.014301959318563323 0.014620972412763679
-0.03778818436315955 0.013724658581507804 0.0002523095982983354
-0.037379438929968326 0.014171728757909955 -0.01778282026481128
-0.03733747131280225 0.014574534650671885 -0.01045320099188571
-0.03790723785654723 0.013139011112115524 -0.00621067826358996
-0.0371662893199594 0.014944617169709714 -0.013302453782508402
-0.03531205157634165 0.01065799966454506 -0.003985619664430805
-0.03512457760099665 0.01065799966454506 -0.021919915222322284
-0.03512485715905895 0.01065799966454506 -0.011183712821638755
-0.034886740076618995 0.01861769586871453 0.03162800148129463
-0.03647424030131689 0.015828437655903343 0.03162800148129463
-0.03763140533598569 0.011903609544249849 -0.02912373357066958
-0.033076942590399526 0.020255722433171253 -0.02886178571300526
-0.03273155550818416 0.02261445147794118 -0.02652905655683116
-0.032682476537502975 0.02290399931371212 0.003951493155195563
-0.0330054028452844 0.02290399931371212 0.024138103350575375
-0.029109942923442173 0.02290399931371212 -0.02440729094585089
-0.028926524866877957 0.022852535101449738 -0.021815013345476128
-0.031117401061175096 0.022607698689087154 0.03047435325542347
-0.029440827595873523 0.022715561223950572 -0.002093302518678145
-0.03036044761671297 0.022662071321055847 0.01523893978192956
-0.030673584562358545 0.020928155701320866 0.02842305409433625
-0.031292372642994074 0.017679055322064173 -0.014886428096016776
-0.031562467135439636 0.016907820579956535 -0.020960167583435774
-0.030147263595414368 0.019480076338730976 -0.024564391898989783
-0.030709629890178072 0.018215012098632688 -0.028991632422546793
-0.03123965323934242 0.017908595536214763 -0.011795208358235356
-0.029580917564455543 0.020462094157186753 -0.02714928244524394
-0.03296119167591726 0.014260066179978027 -0.019941542762741432
-0.03273524630187721 0.015040924506951877 -0.011587600399136122
-0.03015260463389887 0.01979546854152664 -0.016708880684662555
-0.03255437773048944 0.015173231021610748 -0.016786616028148096
-0.03008004482455005 0.020461363577826165 -0.004012507911225777
-0.030352042247554882 0.020279749632411095 0.0042245833520104786
-0.03222624087676918 0.015391041538600445 -0.02675488579770873
-0.031123864130403703 0.017861671892635357 -0.018298508083344378
-0.030851081894227857 0.01948715277529927 0.00825626934663888
-0.030278807924879143 0.019349307926729654 -0.021616414967316797
-0.0316199383593582 0.016681060193574883 -0.023763897795026297
-0.033965387778471405 0.012125526564823606 -0.02484547566156828
-0.030760033377601973 0.019267437403837687 -0.001267320480455544
-0.03141678696055061 0.018159978863161695 0.0024857334968778916
-0.03158902835956552 0.017516557172758136 -0.00504434214231283
-0.031246531264509495 0.018050778789456125 -0.008046461125180617
-0.032938623626388615 0.014189804153839485 -0.02268329671239153
-0.030615788230997205 0.020059070795849523 0.011136587412773347
-0.029838726616770436 0.020587311152063838 -0.012169155434672002
-0.03300549473074152 0.015436210860542242 0.009815559236772665
-0.03223374239285712 0.017168848798104173 0.015874499932202815
-0.03330370837909685 0.015637825092471372 0.02785663131141705
-0.033962620402821254 0.012443608694356526 -0.017441427456988765
-0.03227409487888811 0.017535333852222418 0.02625229876331927
-0.03475820071559751 0.011834042232378753 0.003841520281586645
-0.03177886738797866 0.017600252926571844 0.005645193615308481
-0.033746490169206105 0.01418508197047295 0.013648647627805089
-0.03535845868423567 0.011757074475417186 0.028859326802258452
-0.032762502653432474 0.015217841805552518 -0.0061503156488233145
-0.033617943911462854 0.014917484997297496 0.025041928641208987
-0.0355122218665981 0.011257944633741137 0.024050757988229685
-0.030094496393950468 0.021478108569268586 0.021122784842501952
-0.030861211038561414 0.019819553618560203 0.016572138579415814
-0.033314774615805676 0.014410923122184735 -0.00035562788347771965
-0.030817754424526805 0.020262377826843335 0.024991626201591774
-0.033985211392619376 0.012833372037932382 -0.00731252868424026
-0.03388362262358229 0.014258267892209669 0.021487913413362043
-0.03365042837916199 0.014054724345224697 0.006306674582103567
-0.031913278663627864 0.017608976105891027 0.011854601152191856
-0.03391648862884197 0.012670273563392861 -0.014199093336144917
-0.032741076685734685 0.015377967023998396 -0.003361035847628799
-0.03158453505483123 0.018637548879783958 0.02123303896639507
-0.034660668061459295 0.012629936621060121 0.018105996901214363
-0.03486856344217627 0.011435142691927695 -0.0005609609437766125
-0.03301965736049925 0.015783851724961665 0.018582321746601765
-0.03464584207237133 0.012354484126298668 0.010998638179112645
-0.029111691055141387 0.0223891703523999 -0.007419326744090815
-0.02934763820568932 0.022361740452531143 0.006365645660936194
-0.029550081187582712 0.022608394875672573 0.009132947268409877
-0.03791141138647598 0.01065799966454506 -0.0049390539085643215
-0.03856178610947972 0.011583854397510576 0.013645946258171681
-0.038642708312882794 0.011401353901502029 0.02302095649553699
-0.03859328666103045 0.01129415654864473 0.01729535248849615
-0.03818872178260658 0.010918136834583942 -0.010118254695368771
-0.03822627163252208 0.01067057367512125 -0.0015548363019507812
-0.036010829042848094 0.016258489912346727 -0.027530890693091656
-0.036649799210323755 0.017070992775472887 0.012724666266125966
-0.03617330668483435 0.017257148606788668 -0.015085941615961997
-0.03639516249293295 0.017175634181837273 -0.0019822376829081705
-0.03656505400750884 0.016575615169990166 -0.008099716295304975
-0.036255750528797294 0.017187280564845194 -0.011405537468490105
-0.03752480058319414 0.012981916161576842 -0.026650708281929496
-0.038038416378703116 0.01195403266338661 -0.02292770718495314
-0.03594289443948355 0.01800920992699169 -0.00507361854714041
-0.0360672217395372 0.018457561564981448 0.02060058653856997
-0.035766449962823424 0.018734572181100376 0.00870086426994519
-0.03622407764075756 0.018329387256594443 0.02740711544288521
-0.036098491213213846 0.017923828318802668 0.003218310802764356
-0.03583752918874708 0.018832306019652086 0.017530949423064546
-0.03286639981564641 0.022737463052033613 -0.023755979286969642
-0.03350542919513223 0.022333915628842002 -5.17480382200711e-05
-0.03397515782356701 0.021820537711384657 0.010081369222604719
-0.03416498029503891 0.021113657536941454 -0.0071054905141394575
-0.03300583275738586 0.022714614420512313 -0.01787407827685003
-0.033988754228417406 0.021324584422492066 -0.01012619937007848
-0.03389504748357297 0.02186583388829472 0.006552447019088886
-0.03368314989348484 0.021695935342343226 -0.015127248511250666
-0.03477356274916645 0.019181537858487446 -0.026920504893794807
-0.03615271338876069 0.016840126076706437 -0.024563191479663744
-0.03427461518965761 0.020617599561397207 -0.02069382182626759
-0.034234780644954346 0.02150818267501713 0.014508462531985311
-0.03442500619523506 0.021492808551689946 0.026977084419054602
-0.034389042447882184 0.021366191792480338 0.01910039635497874
-0.034626986945186476 0.020477338851081904 -0.002360450323025058
-0.034733793794086226 0.021055096833437047 0.029628258104663
-0.03589366074392569 0.017694731486630453 -0.019755430524469306
-0.035207567813404186 0.01886224126939815 -0.022783822671333887
-0.03480623284162911 0.019758147600216328 -0.0171122848331266
-0.03552554614700329 0.019261693133006276 0.011491712686477838
-0.03501164710341956 0.020010023722386125 0.004814094904050735
-0.03548225369481219 0.019714611387723197 0.024555275210630723
-0.03564024105976336 0.01914217259061076 0.014642041653037825
-0.03514506968810644 0.01924342673032249 -0.013454305019241008
-0.03805512270042515 0.013999887965885666 0.02879937796587028
-0.03803400442320605 0.01333907799952927 0.008469975032440232
-0.0384570689508355 0.011857982565680781 0.004251473618674484
-0.03825335389361448 0.013278139757899696 0.026046551924844043
-0.03733469023685301 0.015795081909603312 0.024269118873834268
-0.03716027227491057 0.016005567133142592 0.01761372376389147
-0.037028282871336776 0.016024088013237816 0.00834814784424676
-0.037428802193214004 0.015437739286548555 0.020536229671677588
-0.03702483755931263 0.015605926713413126 -0.004471774347264051
-0.0374051170588431 0.014994032020671462 0.0054426337663303955
-0.026439770437944595 0.024705823016855782 -0.012481352500290544
-0.026946436511465374 0.024464497342637757 -0.0018682025206558702
-0.02648690603441975 0.024588011900868637 -0.01721965887034054
-0.020100880240675464 0.029694901735721875 -0.02698748506901977
-0.02609734696511047 0.024843009416762533 -0.021209823198480384
-0.028690558976091823 0.023253066403363477 0.011807681270375599
-0.024394317125087408 0.026141482399302966 -0.027623556908867485
-0.0227875585098127 0.02769998984809145 -0.013654437762869061
-0.02332535752545107 0.02711201873202164 -0.022312191491539388
-0.02830897735745496 0.023196569926315122 -0.010490057334321814
-0.02663829661645735 0.02479164240771277 0.002507472680351241
-0.02392223221843033 0.02688925856302931 -0.006114916393131194
-0.022207840472620304 0.028085610441995056 -0.019223165688215617
-0.025647517104287105 0.02541157900848936 -0.009358527391651422
-0.026680063715907486 0.02463362452618671 -0.004910924368697899
-0.02384721575300248 0.02677141452823313 -0.01690725465214059
-0.021016798507512213 0.028985247215285417 -0.024217375890931897
-0.021154804353573115 0.03242800012230873 -0.02489736514646997
-0.022379992268047107 0.03242800012230873 -0.027861639017593667
-0.01983366618791527 0.03242800012230873 0.01651095063108979
-0.01907692710134735 0.03242800012230873 -0.0026906137344954208
-0.02096943222612813 0.03242800012230873 -0.013891144111736685
-0.01869972711111811 0.03242800012230873 0.0036870348688100222
-0.030445989282058786 0.022904999554157257 0.0008486226360635268
-0.029851517869286377 0.02290499955415726 0.02628697757261461
-0.032283833171968104 0.022904999554157257 -0.021028920562701014
-0.029539942048570658 0.022904999554157257 -0.014292022742328278
-0.03091912807109142 0.022904999554157254 -0.010105023200483388
-0.029407396412877124 0.022904999554157257 -0.017606971131671166
-0.018046561109374422 0.03181935126644913 -0.018192298545239863
-0.028559951223395472 0.028208901686520696 -0.01214043610709844
-0.029489655157892355 0.02732840680610317 -0.006700051870604064
-0.028920398459941536 0.028037828873266883 -0.0014227846339763262
-0.029490961256873144 0.027758450119789328 0.01510866941623815
-0.02968555046330075 0.02706791291610372 -0.009343295788804492
-0.030062307074382035 0.026988212933071104 0.0068694572903383894
-0.029844061860265104 0.027502001438813813 0.02111589450623553
-0.030003784503721903 0.027276723541272096 0.018309401324374544
-0.028805377892725758 0.02421719022379182 0.03162800148129463
-0.01927376787647611 0.032016439884675035 0.019751787007856
-0.01871914627074385 0.031535538593995 -0.005364749581703366
-0.02535855404819633 0.026702966374428976 0.02927153146657919
-0.025383091886259725 0.026056245446517856 0.01091757099606775
-0.025479457512800553 0.026402692611002466 0.023661583232022963
-0.020493957767921935 0.03054098993759962 0.012719540480115903
-0.0219781464358193 0.02972800183592973 0.02829057529797136
-0.021709025832082722 0.029199867103901933 0.0056134968093239715
-0.020627804159609967 0.02996829753348438 -0.0005523428522448311
-0.023449749787585496 0.02813745948484042 0.020675517131595954
-0.020614575773439895 0.030080507971879604 0.0023936609442558876
-0.022543847823753127 0.028127456356471382 -0.00370595456117254
-0.020799251138480045 0.029583600080262028 -0.007299482176449681
-0.023042750693845152 0.028223629305761146 0.012386045275562514
-0.02454603577107591 0.0266989781959086 0.007549859097666917
-0.023587239361368587 0.02746193792680584 0.004478469635567696
-0.0227141714552498 0.028390951773136552 0.008566705198641006
-0.0214467685556705 0.030047686130382008 0.023556663202333114
-0.020202119165622083 0.0314208743415883 0.030818519684692867
-0.02378760841343673 0.02801055328915124 0.025929380909267198
-0.026579047110222635 0.02531116186659567 0.020820257741473377
-0.019325458766987616 0.03148972415309669 0.00953196723382377
-0.025244262531948183 0.026420142908589427 0.017920708397608086
-0.02295041315653404 0.028498779796756857 0.018017202501715308
-0.0262572827419388 0.025789902031502523 0.02633434190225659
-0.024659276790735134 0.02683944511663288 0.01468904926404454
-0.02132789288361439 0.029871542451783202 0.015219150100975277
-0.019830179728127274 0.030307659093806408 -0.01178732775499872
-0.03243657982923347 0.023386473361984905 -0.0074925388036142645
-0.03297882866652343 0.023049712848319904 0.01711135312140153
-0.020870895173677878 0.03242800012230873 0.022452652564909862
-0.020533887010066858 0.03242800012230873 0.027476062416850897
-0.023004397862121564 0.03242800012230873 -0.016768899034074997
-0.021923745584908498 0.03242800012230873 0.019462342203435942
-0.02236684036781488 0.03242800012230873 -0.009260675061481
-0.023074831726894875 0.03242800012230873 -0.0041219863271118075
-0.023807568427648022 0.03230078497197627 0.0025251205183987645
-0.0243244785788387 0.032138065553723456 0.011073553502222269
-0.03021375086985241 0.027157902075948724 0.02433220103589008
-0.03130535331936096 0.025698007688687685 0.016303299213330562
-0.030294344207199706 0.027162203937882066 0.029405351107484965
-0.03095539682734901 0.025854224139275017 0.003115355643985825
-0.03127433071816817 0.025645226257544396 0.011766124909298866
-0.032138962782196294 0.024148632624629157 -0.0025218885688637893
-0.03219162186161341 0.02432535153152536 0.006619440589823458
-0.03233549658665054 0.024500466238674544 0.021679344933145717
-0.032030373523995403 0.02396968034514759 -0.01539594329377205
-0.031142613519629346 0.02522592118333993 -0.012067266445614134
-0.03106105907536165 0.025645829589274242 0.0002644437360173682
-0.03222542302443181 0.024796932365570762 0.026575658096834716
-0.024581789382302918 0.03159382962202804 -0.013241344143561245
-0.024432066809353382 0.03198334347562863 0.005398835574065624
-0.02477051698289076 0.03203860063763023 0.022209174841842743
-0.025048389036447388 0.03192365914347642 0.025912300056511982
-0.02423733990998638 0.032013211104524764 -0.0003888078424337882
-0.024864023324923865 0.031302262564635024 -0.02049269379317516
-0.02378664247875494 0.03190950932514788 -0.024671581150043045
-0.027812571890341066 0.02889716698634501 -0.0169916958731093
-0.02784229393398805 0.02940733822923864 0.013511186128508355
-0.027806899336647033 0.029518275230473297 0.017746973881393464
-0.027787955259567183 0.029378994219417136 0.008799242965991005
-0.028586601732213487 0.028480057734798433 0.003787841483860912
-0.02777831834545405 0.029733781077454873 0.028276200721308827
-0.02675206271580246 0.03056009709324221 0.023654168925387714
-0.02542567983454559 0.030968350284366043 -0.016251450753405283
-0.025296171399223674 0.031214416501924188 -0.0071583195286460816
-0.025733428643919743 0.03111514494971488 0.008221561167904309
-0.026030454423311908 0.031007265011840063 0.01612120443873158
-0.0262824613918655 0.030574689301500348 0.0015877679908198692
-0.027287022257821113 0.030073555791691173 0.020759099439144935
-0.027629257050591056 0.02930641069922306 -0.003985500085588428
-0.026413918587181576 0.03022295314762108 -0.010909439662383547
-0.02769279619762021 0.029171382741205055 -0.008191526809584454
-0.02726380702426861 0.029804753775739084 0.005612891143260841
-0.027234227561384286 0.02944823022704298 -0.014421338311586231
-0.026421541122471193 0.02997713874878121 -0.023454958061095776
-0.028372529743717925 0.028255129608162156 -0.01979867093530652
-0.029594683949123048 0.026604549847508242 -0.028662985487064127
-0.028781312975670135 0.027692599282931336 -0.0230747072063517
-0.031116765698386766 0.0249909840473267 -0.02245410664388102
-0.03025255824310241 0.025942382995440827 -0.02513076003275637
-0.030054530284884008 0.026477539999920148 -0.017140393634551856
-0.02595773264475388 0.030033471443989608 -0.027311781376970396
-0.02788643264536801 0.0284219320363905 -0.02593250249695061
-0.028150133909307585 0.0239840284194836 0.023438101801035335
-0.026262104469392134 0.025163183711874808 0.005571214714702646
-0.02042510484263557 0.02962836904217811 -0.016090033070399128
-0.022208065651106286 0.0282599077604369 -0.009659080601824552
-0.028181060456157724 0.023785270868886328 0.01638088203681353
-0.02335137384635358 0.027492445146513483 -0.001027636052636375
-0.02445473750484253 0.026605198248980867 0.0012976744031329562
-0.02692946793462589 0.024791023167088644 0.013714931185879988
-0.019653764677009692 0.03020207291898824 -0.019622411901091135
-0.010014473613836443 0.038636732997284255 -0.019373328695144586
-0.010893351200551264 0.038727419869327616 0.001955018410124146
-0.009720359078238549 0.03893030433483512 -0.0058289108309645555
-0.010749044189774485 0.0388164191825283 0.005086255181815279
-0.010491011946810399 0.038775124721723495 -0.002112224062317887
-0.009643402555608398 0.03866868390095335 -0.023893638337408367
-0.017997955539158495 0.03595620520599231 0.03162800148129463
-0.0060640000738203526 0.03665860810476172 -0.006570979464154308
-0.018222519532174984 0.03242800012230873 0.013115380412642444
-0.008072985105513387 0.0395679883094538 0.016764335725179966
-0.006670090965135908 0.03943755386373045 5.299113108075265e-05
-0.008023142872958095 0.039598615439647614 0.02068830323053218
-0.006599251089191399 0.03937522606369538 -0.007932486465745112
-0.008282892719317262 0.03965310144843833 0.027669085518595787
-0.0060640000738203526 0.037972262504688825 -0.015828886816734104
-0.017793638082568633 0.03242800012230873 -0.022895754334267545
-0.02320187976250132 0.03242800012230873 0.008186185294975104
-0.015660202643125343 0.03683312226224048 -0.013824662231694453
-0.015225409937503575 0.037506230535445176 0.017906055142013665
-0.01565042123212574 0.037194360393356524 0.008492347778109845
-0.01525979350550231 0.03707877509349623 -0.007962285220422088
-0.014748821292317821 0.0374602173136588 0.0037607878034599043
-0.014576063894634866 0.037187048075936244 -0.01737672551622122
-0.01313741742142463 0.037627330517783664 -0.023923890669948406
-0.01524792881995514 0.037445101583147344 0.014623061255474117
-0.015623615191696354 0.037011893744490876 -0.0035312315276042144
-0.013865437958686635 0.037553022365082414 -0.011341726714620545
-0.011058689976328894 0.03455729250482385 -0.004696550509204266
-0.010769386147398502 0.03492732363753336 0.010231973387186793
-0.006829996904515521 0.03661077061447218 0.025025117124898598
-0.006893178840941146 0.03665983948679271 0.02906119915905591
-0.00929853776760929 0.03514564311280112 -0.007290242509006943
-0.014640722244119329 0.03365343303284271 0.017068421446942497
-0.010312405219678886 0.03534068311927596 0.024198862116776066
-0.007274931402450064 0.036306270587939934 0.01692969979910437
-0.012845305391997072 0.034064365749531075 0.003793713144480213
-0.014333348277031683 0.033831446507504116 0.020843967384638083
-0.009777022461005555 0.03512598239130443 0.0012952802125838197
-0.010226975295935766 0.035030438634896945 0.005040088254607193
-0.008103669559796817 0.035672488737024485 -0.0018912971797820036
-0.007474361065570262 0.03549919923205768 -0.024370641162474345
-0.010523436556111827 0.03506788254942545 0.013147356192904119
-0.013558441389562702 0.034180451512457445 0.024757134457426076
-0.007497991099480265 0.036172152254835915 0.013912577704321551
-0.007738888780951855 0.03552511288362984 -0.017557812717869232
-0.01443120764150729 0.03391664268036135 0.027611851414381237
-0.012371558336016839 0.03444391331416768 0.015521601631298319
-0.010620744694287379 0.03530927230761621 0.02867860926877786
-0.007321234524223223 0.036054470564699785 0.003721962478709274
-0.006882304797353097 0.035917420458958266 -0.012866104249265644
-0.01763803734603645 0.03275039489230684 0.027038163237809894
-0.01264912723996353 0.03421435750893413 0.008246951554723865
-0.00770405785446641 0.03602859145041635 0.010020871456922192
-0.009661281127825485 0.03548584386918204 0.019167392642828636
-0.007156129333897963 0.036166853632694035 0.0066917190886186285
-0.008480335415266995 0.03596121361166495 0.021956513202654054
-0.015233423677996193 0.03318273076108891 -0.0019706221048662815
-0.010814785415537438 0.03451636102827503 -0.013161417883483533
-0.01598304575485767 0.03261877101463099 -0.02700276800791391
-0.01173800305557739 0.03411992345768893 -0.020216633607124994
-0.010971117205524258 0.03450610166479144 -0.009820931824083879
-0.01390806013833152 0.0334708295753132 -0.01425247211233336
-0.008820510092329387 0.035012713261944606 -0.026629963747874186
-0.016692152666224716 0.032592927407268484 -0.010200543421091434
-0.013237155020965233 0.03353755241768124 -0.026778562872793517
-0.015529964388905146 0.03315681423722801 0.0038510138061298846
-0.015585619161161605 0.03325900670808882 0.013480848560864251
-0.010709262305517327 0.03450618421000675 -0.01678001519455663
-0.01722461723660832 0.03255630626871101 0.0010433199657494834
-0.016009375029285268 0.032883905986411166 -0.005159162249256674
-0.01439867670034488 0.0331838410219272 -0.024087391827002893
-0.017520328406263087 0.032538187403436634 0.00746471409637541
-0.013128247659239669 0.033691627663354255 -0.017388888544533923
-0.015153884022194536 0.03298388573751267 -0.01994339175431512
-0.016400778225594846 0.032944093841944536 0.010052335908069452
-0.013069198740251324 0.03383131602260897 -0.007820201310364778
-0.015966419282585746 0.032762746228423734 -0.01596373530495927
-0.01132421276095196 0.03419881406502201 -0.024932830760096884
-0.01742018357035119 0.03277766277087649 0.02389772359038911
-0.022156135724333784 0.03319816735598476 -0.01980621349785906
-0.023257400488498108 0.032765719593256915 0.016400766785555916
-0.023331729673249375 0.03318360215516374 0.027622907974892245
-0.022124256126196385 0.033711370748419345 0.005164905744509691
-0.02182027978434891 0.033801900298805476 -0.0014248457052498126
-0.022392966316006936 0.033678441727068596 0.013884180456816756
-0.021451572770985052 0.03421658599306732 0.009316194992160052
-0.011887631737917476 0.03787354348539538 -0.02710047773801047
-0.014704502427607227 0.0368011703308912 -0.02890116447110299
-0.01790128052142162 0.03273626625626072 0.03149878082661676
-0.010777728200950978 0.03913557154249559 0.026352217350924623
-0.013251421973214376 0.03830116377460698 0.026865276576029284
-0.013552151048024357 0.03810974253797466 0.020298469695454548
-0.013477801970392084 0.03801510009861608 0.01146286388396658
-0.01271946653642067 0.03785412674703267 -0.019398919222287214
-0.012546634035413446 0.03808731329699705 -0.006550305227963629
-0.012199665971974135 0.03808565300292448 -0.015366986536966757
-0.011268367528241317 0.03880966522931046 0.01463633100177087
-0.01320195428951649 0.03803811642920146 0.006246316925022953
-0.011062667522397557 0.03897915798281039 0.021968857210273515
-0.01103031301008323 0.038945503447025444 0.018678695767604312
-0.015099354591394094 0.03761252887532096 0.022437417964448335
-0.012824928099264355 0.03808417995100041 0.00019237547969368305
-0.01745663887119349 0.036538587617528276 0.02079087997846616
-0.018865113249453145 0.03573876342457194 0.014718522371460426
-0.020128272464025966 0.035312636749169 0.027770279119406157
-0.019845020271372138 0.03511856021063186 0.006444159001797128
-0.017164077552571214 0.03680021876469057 0.02811873449015861
-0.018628056651321764 0.035519747713806206 -0.0067245750612670175
-0.01987113393580898 0.035190520407422224 0.011845020908229243
-0.01657486221551136 0.03705054021190676 0.0253053789790695
-0.01972977862289467 0.035083526807248674 0.0005581312495605822
-0.018392081761699177 0.03568615773109696 -0.003648439509933545
-0.0198034841831419 0.034858165088804655 -0.011417244764751875
-0.019867098534934693 0.035279840681652574 0.017391076620316803
-0.017296692342336287 0.036374942228269515 0.005425687564174511
-0.018084441288893298 0.03557380388755778 -0.020213586523271862
-0.016960496671845716 0.036447163684250494 -0.0004658566714561092
-0.01774429352881125 0.03568730560975992 -0.023650679237879214
-0.01743748547493662 0.03595316294173427 -0.016546478072412982
-0.018108944061231765 0.035666934967162583 -0.013642424423100133
-0.017241567100002908 0.036145588836421244 -0.010595680106263328
-0.02034287050612704 0.03434227429459452 -0.022912311713419294
-0.019837354284815402 0.03473596075433503 -0.01783130336860548
-0.020392690059399365 0.03456351909401918 -0.008451468801955093
-0.020475223587982976 0.035083329671758666 0.024324355658143497
-0.020293636578655724 0.03418455561915604 -0.02740794954336154
-0.016991631144309023 0.03593844430172996 -0.027058356515094858
-0.008712140330883916 0.03901475287234327 -0.013692565801128802
-0.00762424035242013 0.039072342499645384 -0.02099919448752611
-0.008041491216742502 0.039529151511178966 0.01370669950490181
-0.00803025037488092 0.03916705515776704 -0.010530858471330727
-0.007993480033094877 0.039390982364476024 0.004010267907500919
-0.008457079713996854 0.03901045188870839 -0.016591635888930627
-0.006374981822725374 0.03918038469447761 -0.02635122719981436
-0.008804664645236542 0.03966608039595997 0.03071105981404246
-0.009349458632954432 0.039247569630313756 0.010281909387201922
-0.003291738618466387 -0.03531540239690674 -0.03728206851661993
0.012596461719903713 -0.030115296093324244 -0.03276899829506874
-0.0029060817495405837 -0.03370171678217478 -0.03276899829506874
0.01038832426731675 -0.029117029718420798 -0.03765274555042908
0.018289435090277868 -0.026496372740390805 -0.03771504361585269
0.004387146213988158 -0.03036589792273102 -0.037509877755230056
0.013201339015378266 -0.0310586687065827 -0.0377580001950264
0.0034885139034053717 -0.03295851785469913 -0.0377580001950264
0.016873739272945495 -0.02894870656755398 -0.0377580001950264
0.006861182273284339 -0.032457030360511736 -0.0377580001950264
0.02151848110964144 -0.028346333126317354 -0.037012390647331736
0.002258837871254354 -0.03560199961066246 -0.03317688150633409
-0.0037786868043068506 -0.0320416113290139 -0.03530604843230961
0.0070457381190582105 -0.029127810083275005 -0.036474920341836276
0.0009784556178847542 -0.030800169666000486 -0.036210626773839426
0.003502219436879555 -0.029944113629357803 -0.03471779963046212
0.021850668834161074 -0.02531985684792033 -0.03763912566057411
0.012836031039475674 -0.0276450333046078 -0.03710597895787139
0.016166622253835784 -0.026499749466321 -0.035134567424842916
0.020452216017106367 -0.02535699779058932 -0.033848827009453325
0.011295839950067124 -0.027798541406765687 -0.03346804360298795
0.01771478564985993 -0.0313448664873679 -0.03544080676878167
0.024041381051728115 -0.026546907654047814 -0.03674001530712785
0.0009441399404631802 -0.03437589453347136 -0.03773225608064606
0.011284481930687663 -0.03302231380623111 -0.03750971113574535
0.007820332092744874 -0.0348732763444393 -0.036349924790407204
-0.005297019545029624 -0.03560199961066246 -0.034517078464403064
0.00380302992660095 -0.03560199961066247 -0.03672732847320174
-0.000580383136718963 -0.03560199961066246 -0.03578052934955941
0.027669451750701478 -0.02273936487818875 -0.03353159488003875
0.03140502887177608 -0.004844453703517672 -0.03276899829506874
0.027995672238485026 -0.018451465711288466 -0.03276899829506874
0.02317683890238142 -0.02382422390063733 -0.03276899829506874
0.03361033743101153 -0.0025693037718421538 -0.03276899829506874
0.02790240723991743 -0.01680742238595498 -0.0377580001950264
0.029450957711086027 -0.014309228067307167 -0.0377580001950264
0.03266734678094686 -0.0005259741346985429 -0.0377580001950264
0.030653625571159904 -0.006407700755681453 -0.0377580001950264
0.031973955347768424 -0.003727635866471653 -0.0377580001950264
0.025256053670340454 -0.01998609045224709 -0.0377580001950264
0.03519869141570742 -0.004641386478157301 -0.03708536376003674
0.035053248183319646 -0.001981247179147548 -0.03748210620967183
0.033587310263353876 -0.011796273136889947 -0.03704084384150086
0.030884287019005488 -0.011325817233231956 -0.037749298752570506
0.03320900389583312 -0.008554911529058733 -0.03754513617233323
0.03265331132369477 -0.014516725450910989 -0.03483643650140331
0.03160375708360208 -0.01652238789932589 -0.03712830491634234
0.03542491596681261 0.0009660054610533528 -0.03539627983733358
0.03510573290875758 -0.006770900138349455 -0.035204696768393134
0.023720930824651473 -0.01962608891136487 -0.03512373877761707
0.02245498440697185 -0.022667125904829277 -0.03591694636569644
0.027434618613603523 -0.010488121950299047 -0.0365749309960698
0.02854759356266088 -0.007771858462416877 -0.03606459090802999
0.025163691386911262 -0.016030418041263306 -0.035884955151866155
0.03179146251360042 0.00014494397628532583 -0.03413791300233449
0.026017520700559897 -0.023975328744632166 -0.037041291095982525
0.02996532550927873 -0.019642072488876762 -0.035586214431767724
0.02838201165279586 -0.021988753830385784 -0.036786151276354
0.02255334899642264 -0.031489576052048905 -0.030531715989301884
0.012402183012799346 -0.026534000411629677 -0.03125828183123715
0.02074306668307807 -0.026534000411629677 -0.030902561685595426
-0.0021068751579829677 -0.026534000411629677 -0.02913161513903441
0.011848301985123677 -0.035278120670809314 -0.028687000274658203
0.007870863957711898 -0.03409206673225126 -0.0286870002746582
-0.006062000058591366 -0.03465349441816702 -0.028893858610272237
0.0010957370353089952 -0.030502731661893472 -0.02890125000481686
0.01146596794223878 -0.02851909945619801 -0.02883985971301878
0.007521651533137217 -0.02876848994796761 -0.028881980466786247
-0.005458819910476609 -0.027772809129702862 -0.02908810200814262
0.004568202983496547 -0.02722496904062121 -0.028977823401610352
0.014263094831350527 -0.03024510523451121 -0.028739271561206634
-0.00039907359842851833 -0.033150733289196974 -0.028822314900472414
-0.0030254976663375453 -0.02964468571943322 -0.028986832589135446
-0.005563471237880632 -0.031427380428780266 -0.0289536467992213
0.0013769895059960952 -0.027431145759003888 -0.02901173824036844
0.016008626524572956 -0.028004584362951085 -0.028799796473214418
0.010634124389264803 -0.031760604645875774 -0.028730230046468398
0.004896268405282784 -0.03271013252986657 -0.028769698256350118
0.018908435587240653 -0.028043906138020387 -0.028760554521800614
0.005106347934797044 -0.0334251795186836 -0.03276899829506874
0.010518260271988341 -0.03234979604530892 -0.03276899829506874
0.0077498042564254545 -0.03126469902585224 -0.03276899829506874
0.017205371577080575 -0.029718585596172856 -0.03276899829506874
-0.001227754413373033 -0.03673233488883672 -0.03180120217694332
0.0029537275868779986 -0.03749689971845037 -0.031145998831747776
0.019584881462131613 -0.03133171153606735 -0.031811445984204365
0.01671664750663608 -0.03260640946220047 -0.032201135799206033
0.02179393556347709 -0.029325642491578357 -0.032055904263696935
0.014203967073801288 -0.03635343194846731 -0.029862759589085998
0.006177470260989688 -0.037098269834542084 -0.03137300945738614
0.00963155063388404 -0.03555268568000739 -0.0319491192416711
0.012490161932288569 -0.03476728200807709 -0.03192739664884203
-0.00374531278502048 -0.03844118273932526 -0.030336783746087604
0.005065267080479042 -0.039033025161966495 -0.02927753080546958
0.014763319977938763 -0.02769370184075938 -0.03276899829506874
-0.002900501784267713 -0.027921723032605837 -0.03160714455008173
0.0029720466526608263 -0.028435640724580907 -0.032185061922220815
-0.0007636319704720255 -0.031144227509217616 -0.0327518697174802
0.023242726205986896 -0.026534000411629677 -0.03274676953059195
0.02538228422613468 -0.0279261075017899 -0.03090975467205858
0.006617423385407881 -0.03951962501976829 -0.00939309220991324
0.005513686953763702 -0.03953880570615878 -0.01707707230353079
0.006582576867633461 -0.03991812523956763 0.0134250829479322
0.00644848091126149 -0.03936511173806191 -0.01969451032234876
0.005467804328690193 -0.03972876008605267 -0.006433528711743266
0.006589894138626555 -0.03981770707079194 0.007663461092663122
0.009005219280550347 -0.03820461057936455 0.031633999198675156
-0.005361563391270774 -0.03828941150179979 0.031633999198675156
-0.006062000058591366 -0.03718923922886656 -0.008906820069309224
-0.006062000058591366 -0.03834817431574444 0.001461640877928744
0.010360570940878618 -0.035623372925828095 -0.023204875053819237
0.004109195470685965 -0.03596125495751388 -0.024221402321287167
0.0060317500067656755 -0.03585734236487331 -0.02200543892899228
0.009186274543598227 -0.03568684274209594 -0.02640704302450202
0.001909077770680704 -0.036080169625488975 -0.02613738568588227
0.010719000361859798 -0.03631686915781514 0.014645982773174939
-0.006062000058591366 -0.03669761866252629 -0.012782779124090843
0.0021155331712351994 -0.03606901087002396 -0.018551347510413554
-0.00386566909171601 -0.036392290247845 -0.016871704935312093
-0.001164996942480429 -0.03624632099722937 -0.016825162103632867
0.00509715693182901 -0.03590785640109858 -0.018953685955945647
0.00361843116016404 -0.03598778039069393 -0.015727869792387442
0.007808823184944827 -0.03576129292763179 -0.016899296532368754
-0.0035554330028898587 -0.036375522226072085 -0.02331171011055445
0.002229184317079874 -0.036062868113082784 -0.02183461364551211
-0.00332643596026317 -0.036823224082589395 0.00890073594918344
0.002639177517272536 -0.036798926024179036 0.02303712406892596
0.0008337754795732487 -0.036822135418886764 0.01952798411192563
0.00040279628729707824 -0.03697153447629881 0.025667514516826216
-0.0021421146982394798 -0.03699806744326538 0.020421110401601685
0.00011145904163229218 -0.036611187151708274 0.00744255577342713
-0.0024411764314672857 -0.03713849235427952 0.026464046878105538
0.0041604241936120815 -0.036544812051051076 0.014617786037465191
-0.004425022541586482 -0.03668152554965197 -0.0007919992270099506
0.0013995199105766413 -0.03673883056220738 0.016940026179120722
0.00476563637942754 -0.03673230749070677 0.02526511075683581
-0.004873067703734309 -0.03659787030466667 -0.005999540649887419
0.006639190750321115 -0.03658891764879795 0.023120393662689455
-0.004893432839136574 -0.03730587430907344 0.028286756990505108
0.006080365129690296 -0.03675851491620729 0.02991134228242452
0.00022475753841442623 -0.03673658237325978 0.01381515078345234
-0.001081816017275993 -0.037120670482624823 0.029089411491166933
-0.0052516521704925835 -0.037189163923014856 0.02170662315300345
0.002264901678199798 -0.036949170635181376 0.029363232505460128
-0.004734525755617539 -0.03682643923547478 0.005441840011548417
-0.0009994556438695462 -0.03675288553152282 0.011463076229759967
-0.004463845184924195 -0.03696956301432301 0.013078309205435953
-0.0017342435779709063 -0.03658509629006229 0.0014388673945049633
-0.0023750924543383747 -0.03706592217778378 0.023114003956505584
0.004424850216079138 -0.036663060763980015 0.02103174441523041
0.007756880614510059 -0.03659722592709073 0.026392670770086776
0.008039115005615724 -0.035870881232859315 -0.010027014576758643
0.0010450076238525483 -0.036331364932507035 -0.004270095737644161
0.0032629270765082825 -0.036482935697066926 0.009228696576981686
0.00932894313555363 -0.03643430304766711 0.022297020010478952
0.004458433604557808 -0.036370324654136005 0.0064990028857596326
0.010167753811545709 -0.03582329404467321 -0.007012847715589387
0.00229338725152726 -0.03633473916450595 -0.0008915168627578731
-0.0011299414726776555 -0.03647826600448068 -0.0022890879439086973
0.0075485231302209535 -0.03638007860137345 0.014934115700018026
0.005108394131144632 -0.036436287467383296 0.011564258701052179
0.000662429006378687 -0.03619496579886655 -0.01227597443286927
0.0039695063102921525 -0.036169292205133284 -0.005108116209486757
0.005395481942388504 -0.03616980279745967 -0.0014210748833952862
0.0002543277889648387 -0.036311329831516866 -0.007331606328840161
0.0069956431395208594 -0.036002787018556054 -0.005913457094145046
0.007113161490854706 -0.036492550328769524 0.019608071065134354
0.008446584201386435 -0.035975992254712236 -0.0035683848204674747
-0.0033827940556292397 -0.03638482412574365 -0.012884275578625377
0.009927432841668356 -0.03600861087967945 0.0019128945893122878
0.010381743052350215 -0.03651076855004052 0.02893726537862462
0.009816609459748544 -0.03632538264240036 0.01794021217954716
0.007858259691600481 -0.036181345981458675 0.005495744882137691
0.005560260925687095 -0.03596944217885249 -0.011315411244112259
0.01048553238193488 -0.03644610815992166 0.0258740947663319
0.003264657112558344 -0.0361167938364937 -0.009620944483001544
