0.015694611189627845 0.0071304571096517284 -0.01880339601239168
0.0156847303499054 0.014719351980992428 -0.015558401742692692
0.015635802108765078 0.012135925928217963 -0.015774347681907573
0.015706981634518134 0.01105571728409927 -0.01742206320940687
0.015952208075270213 0.01588961764695458 -0.012518191824165938
0.01897219890220822 -8.947383984416715e-05 -0.017142881282782005
0.019499111990233436 0.001677557065467442 -0.015749279793514006
0.01871873687354327 0.001944680503432068 -0.0201500370792246
0.0180854036514743 -0.0022229456063882387 -0.02016925502018693
0.018613312393347365 -0.002239020957382713 -0.017325612231401548
0.019427084917296288 -0.000841363053031684 -0.014094613668132371
0.01963303386078577 0.004491363491572762 -0.01731099118691389
0.01934260603017911 0.007166798752803761 -0.020783622637902864
0.01959091291026247 0.010699947982013208 -0.021374787429466975
0.01983439536795889 0.007342347041564761 -0.017680893897988804
0.017226189053413003 0.00017237042192246293 -0.021756240515399948
0.018651885091538416 0.004678563886140348 -0.0215810175637508
0.016657487184262493 0.010969785241411767 -0.02180900052189827
0.01962993127817892 0.013955194607086035 -0.02180900052189827
0.017582971509668158 0.00880481310400123 -0.02180900052189827
0.016887514167191805 0.014789081482678653 -0.021809000521898273
0.01864730833696048 0.0162579994648695 -0.007173189429799745
0.01848318713014006 0.0162579994648695 -0.004036229093669913
0.01712597066552629 0.0162579994648695 -0.01632242097169004
0.01802269036120452 0.0162579994648695 -0.011587518362780533
0.016318098522760133 0.0162579994648695 -0.00521590020422083
0.016892564303427483 0.0162579994648695 -0.009889687350900142
0.019152740577563214 -0.005785641122317027 0.021545217896442172
0.03278349495872991 -0.0058125917860986686 -0.0027630000840872526
0.03604957934161839 -0.00400502159599115 -0.0027630000840872526
0.029057462013258272 -0.00760374569839138 -0.0027630000840872526
0.0349678718959216 -0.0017745633989520468 -0.0027126148315095846
0.022523835024726706 -0.007957651960883915 -0.0027101606562455645
0.020497952769875216 -0.008755227571434815 -0.0027058077909702894
0.03960432000197468 -0.0016209564847649706 -0.0027541941408449552
0.02648125019553535 -0.0027805030328480235 -0.0026502150855297105
0.020519808217951244 -0.003745263915185941 -0.0026112644007664863
0.021482598246493706 -0.0015533704703791344 -0.0025790467798838465
0.032992490481886606 -0.003674028750808611 -0.002729586458747467
0.02463653455846477 -0.001477892911352888 -0.002607879764062908
0.03354521808665473 0.00011676688987590216 -0.0026631945659040587
0.017437183903490125 -0.004303699605956995 -0.002592249772979103
0.026408552808981953 0.00012705123292924454 -0.0025945272245570285
0.020321512901386157 -0.006615594094370802 -0.0026636482020037915
0.018083791867307745 -0.0063632650171596816 -0.002637406074702349
0.023577087005717662 -0.005967463360283011 -0.002682625803047922
0.029946926647271596 0.000674000009894371 0.009423572843035754
0.02447185093570798 0.000674000009894371 0.011039399687744035
0.03361177026591357 0.000674000009894371 0.004554424549718512
0.026436788319380858 0.000674000009894371 0.009280405136137686
0.037166250321075886 0.000674000009894371 0.008487714851428033
0.039490829239234734 0.000674000009894371 0.004910542288450618
0.04149916105840354 0.000674000009894371 -6.920132871215262e-05
0.030647917780611093 0.000674000009894371 0.007141733437043298
0.04043344753568161 0.000674000009894371 0.002737410743194124
0.017467306852514526 -0.01620900072157383 0.015336583648601054
0.029691714493629673 -0.01620900072157383 0.010111805150669947
0.03148431000364398 -0.01620900072157383 0.008555015816292704
0.03446187796763085 -0.016209000721573833 0.012490951601723312
0.03396734670181101 -0.01620900072157383 0.008372936695643327
0.04203234264328638 -0.01620900072157383 0.0013523213243332099
0.0365129878067896 -0.016209000721573833 0.008821842838110928
0.034044096501678105 -0.01620900072157383 0.005711791774323955
0.027925075770438273 -0.01620900072157383 0.008255253068300088
0.032587715890716115 -0.01620900072157383 0.010459744644417145
0.037425808439728654 -0.01620900072157383 0.004955013594894942
0.023399411308747155 -0.01620900072157383 0.010725852823638672
0.027311107800561205 -0.01620900072157383 0.0151267258463991
0.021914072082210516 -0.01620900072157383 0.014765154156272614
0.03200856732796023 -0.01620900072157383 0.01478373567746767
0.013654670744292947 -0.01620900072157383 0.016337475894978554
0.029409659102771765 -0.01620900072157383 0.012610796264210385
0.027465494447334763 -0.01620900072157383 0.010700932568601901
0.03952370499735007 -0.01620900072157383 0.0029909365326175044
0.023781820520238875 -0.01620900072157383 0.013532727912445239
0.025455831901054222 -0.01620900072157383 0.011749078708624397
0.01989750833642579 -0.01620900072157383 0.01453138475667889
0.014490772357489592 -0.01620900072157383 -9.165096821135872e-05
0.03418827155158278 -0.01620900072157383 0.0025752937324472766
0.029174524857383848 -0.016209000721573833 0.0029683741729284122
0.040556113568484355 -0.01620900072157383 -0.00011280829182541122
0.036806408011533856 -0.01620900072157383 0.00203237872119923
0.026378112587178287 -0.01620900072157383 0.00261402547696058
0.031967090048440214 -0.01620900072157383 -0.00016628806644164592
0.029535344251250498 -0.01620900072157383 0.000990222747873771
0.029144954918965956 -0.01620900072157383 -0.0011519620708387844
0.014769238066861668 -0.01620900072157383 0.013488837993499666
0.016646806910348567 -0.01620900072157383 -0.0005344130128924391
0.023636469131112066 -0.01620900072157383 0.008536257737898033
0.019386855546980507 -0.01620900072157383 0.0025830515293483597
0.017136501596476887 -0.01620900072157383 0.0036719150608348844
0.024460694901935205 -0.01620900072157383 0.0010567345923175788
0.0215070448681551 -0.01620900072157383 0.0017796310435434725
0.01808646080966435 -0.01620900072157383 0.007519837752329317
0.03493469477013803 -0.01620900072157383 -0.0009234803307225864
0.012655627203257629 -0.01620900072157383 0.0021843946507682076
0.019954082292319677 -0.01620900072157383 0.005273591989914749
0.02139362620883332 -0.01620900072157383 0.007975235629230382
0.019072887513086563 -0.01620900072157383 -0.0007320348540150377
0.019473381338992256 -0.01620900072157383 0.009768870593597098
0.03119360942623556 -0.01620900072157383 0.006013384065710376
0.016786594705543546 -0.01620900072157383 0.012507855687915547
0.021021495561712077 -0.016209000721573833 0.01161433324534426
0.03186256944151792 -0.01620900072157383 0.0020618482102547357
0.015694333385236785 -0.01620900072157383 0.005975142232969536
0.021226457869749294 -0.01620900072157383 -0.0010756304559586677
0.022094597522128424 -0.01620900072157383 0.004315959655059636
0.027343790432882754 -0.01620900072157383 0.005477853919320204
0.01318939276076489 -0.01620900072157383 0.00923536342601423
0.014804845573622279 -0.01620900072157383 0.0031505515840021788
0.016484001615676543 -0.01620900072157383 0.010073031015993697
0.012582999654114246 -0.014006589145106742 0.009014527355263846
0.012582999654114245 -0.013538662851602008 0.01675665473211128
0.012582999654114246 -0.013709910841745346 0.011341018184647516
0.012582999654114246 -0.008046524378148045 0.016270078950492366
0.012582999654114245 -0.0020166531631433727 0.015199983025257793
0.012582999654114246 -0.015574682471639095 0.014109071759926173
0.012582999654114246 -0.013777939697006063 0.0017887136259746637
0.012582999654114245 -0.01092159459854505 0.015456208891000323
0.012582999654114248 -0.012805734415510903 0.013733040072537162
0.012582999654114246 -0.010542464780899707 0.012305482734531458
0.012582999654114246 -0.011631814461530868 0.009247055347074686
0.03651854024456821 -0.010490493153180324 -0.0027630000840872526
0.03431567865672451 -0.008365672183101427 -0.0027630000840872526
0.037236834413972415 -0.0072494511855274515 -0.0027630000840872526
0.02699944927382327 -0.009283547065298568 -0.0027630000840872526
0.02355809799351287 -0.01236690274392727 -0.0027630000840872526
0.032409770579073745 -0.013186507590468471 -0.0027630000840872526
0.039367448512399275 -0.00678496020286453 -0.0027630000840872526
0.017571762316794307 -0.014063858522263084 -0.002763000084087253
0.03860322842982765 -0.004056694708540851 -0.002763000084087253
0.0369659653186665 -0.013688259768932152 -0.0027630000840872526
0.03440451786423336 -0.014797774430592943 -0.0027630000840872526
0.04194224222388129 -0.003134178277710026 -0.0027630000840872526
0.028209359025684208 -0.012174399122549497 -0.0027630000840872526
0.04401773051645746 -0.01620900072157383 -0.0013786015734468388
0.03232994302409006 -0.01620900072157383 -0.002286188832674848
0.03671276830474727 -0.01620900072157383 -0.0024873820482902652
0.025518092145810595 -0.01580223827299153 0.01759767629256274
0.03013078258132609 -0.016112640699490345 0.017259519498141387
0.018493809853709835 -0.01456823790516551 0.01920342017821628
0.02106432986481682 -0.015175673166029094 0.01839249561751318
0.0280302732023103 -0.015996523908913592 0.017377354690343256
0.016882230194850238 -0.015470090692033913 0.017874029993797478
0.025016637641644055 -0.013791185423742917 0.020467478309141997
0.01904278286339407 -0.015846810305407126 0.017384196644675276
0.023288320543719876 -0.015493620516147876 0.01798833555888514
0.02758205143614323 0.000674000009894371 0.015358567590761672
0.02479252210036032 0.000674000009894371 0.01677929869457772
0.030332217351276645 0.000674000009894371 0.01570291359890781
0.0163705281419669 0.000674000009894371 0.016247201831471755
0.022754987589453733 0.000674000009894371 0.015154035542309461
0.021067923858336127 0.0006402604999439984 0.0032974861169325943
0.02163816838909276 0.0005463098973946313 -0.0013851735449155198
0.018645907043983983 0.0006247409160630053 0.0033295271913094766
0.019285101304581418 0.0005268197190395207 -0.0015653923285658352
0.024438458064975424 0.0006303231673001743 0.0017424290235937678
0.023419761449845592 0.0005820523375839931 -0.0002435383193823634
0.016555932052025067 0.0005798143836384427 0.0018467155739531366
0.023825755992459716 0.0006739884328359527 0.004030087356792046
0.021880487882614184 0.0006045492590272357 0.0013268283071623142
0.016166655231606278 0.000674000009894371 0.006766892685915395
0.017863156590949274 0.000674000009894371 0.00873374001104129
0.0165235909965508 0.000674000009894371 0.010839906754681937
0.025450136816059836 0.000674000009894371 0.005889813335972367
0.038393617668437574 0.000674000009894371 -0.00034546774634580885
0.023479099921253722 0.000674000009894371 0.006799447080201793
0.013839645854461 0.000674000009894371 0.007424520728988741
0.018221445199148104 0.000674000009894371 0.01225097414833888
0.03604234654120177 0.000674000009894371 0.0016085449902406618
0.012582999654114246 -0.0032009972350815195 0.012737476643192388
0.012582999654114246 -0.0035544580992468338 0.01005781273705601
0.012582999654114246 -0.0037685514335216008 0.005503891992431783
0.012582999654114246 -0.008238091751881187 0.003523964226904163
0.012582999654114246 -0.0017212619347207977 0.006421254917232224
0.012582999654114246 -0.003853962893437566 0.007753484859179807
0.012582999654114245 -0.006415747654274159 0.008961804400653865
0.012582999654114246 -0.0012918195932444896 0.00873577335776409
0.027326785553028574 -0.006576130497841737 0.021911999210715294
0.024227617324336835 -0.011035415824469774 0.021911999210715294
0.026262052712325505 -0.009986289870105393 0.021911999210715294
0.02930018381144247 -0.0028943542605793676 0.02001554343615796
0.026770288572205574 -0.004141687187662829 0.021491992913507424
0.03112834742705833 8.91397668362699e-05 0.017760721684543627
0.042753283270538844 0.000674000009894371 0.0027128089663229177
0.014071525404578122 -0.0034086235148842467 -0.0008969566569330251
0.014878455271394477 0.00011406028969655416 0.00021424600948812057
0.013060142060356416 -0.005672989480242092 -0.00013966753627861521
0.013113010636588459 -0.0010544512618788449 0.004319185759403034
0.01269354129705598 -0.0036208867411362472 0.00300660247274945
0.013996563872677819 -0.0007019192262802912 0.002032599572218514
0.012582999654114246 -0.00839077804152982 0.0008110908846823715
0.012582999654114246 -0.011249626000778525 0.00015123757879123052
0.012582999654114246 -0.005888579060308391 0.0038127004711650102
0.023272838557961063 -0.008970106622848733 0.021911999210715294
0.0249057820242335 -0.007178101960573479 0.021911999210715294
0.019677013979505855 -0.010479803380715214 0.021911999210715294
0.013822888894521641 -0.014472845715885233 0.018356897237231665
0.017384942405947283 -0.011873005184958877 0.020588553082923573
0.018497276286350287 -0.00814534382164066 0.021361214225583187
0.02040902343059922 -0.013259610549062944 0.02100361069785211
0.01599450709534547 -0.013774426878849711 0.0193675912171306
0.021383648069357816 -0.00218589101993686 0.020619515754642728
0.014258057212035644 -0.014551378349295863 -0.002608573770226247
0.014916112372492867 -0.012616649121026014 -0.0026708979365915085
0.013150665579526885 -0.01126871820450827 -0.0022631252113340748
0.013605198022304397 -0.009013401829669036 -0.0022008088242724652
0.014468788812402381 -0.0054882949779031616 -0.0023202331170991113
0.04403360719343314 -0.012167732191805355 0.00034237664010544546
0.04400902995490509 -0.008595782264463052 0.00043213235865204616
0.043925908668199336 -0.01475731279852849 0.0005695716517906136
0.04330021647685734 -0.0031428541564013724 0.0020221506927116826
0.04331765868095989 -0.010311441200892968 0.0019868917649187674
0.043397051171677845 -0.0054960708070298705 0.001828200324407164
0.044710768726784894 -0.010238133805855481 -0.001466695665282299
0.04438967797788346 -0.004273359251646445 -0.0006661469305486165
0.044000624472883436 -0.0014174500788618684 0.00042129509772300875
0.04458448048048306 -0.0005984330204289877 -0.001347793930768668
0.022570663699704407 -0.012737618356718796 0.02191015975161473
0.02779389777133734 -0.014757078776460117 0.019097983205441565
0.0394222761798001 -0.011024647252418723 0.00870050422912179
0.03911506855427722 -0.013599101684759921 0.009161586309342037
0.04028424229466841 -0.01302575417817432 0.00740845329895508
0.038909014011025915 -0.004932382539274043 0.009468981984207613
0.0395365053970432 -0.008450291239550227 0.008528769184857975
0.04158863235448109 -0.0030305376088301545 0.005292185819715104
0.04191864648719684 0.0002180097747766195 0.004749412160257952
0.04039689024070923 -0.004202509915924669 0.007155672525427491
0.0402602937003259 -0.00624547319320674 0.007386719460772751
0.04002415382977616 -0.00016581694751086398 0.007698237549199908
0.0431044661794438 -0.013301411909919424 0.00240153691154817
0.04193190300085141 -0.005529245161713079 0.004662488877139032
0.04257805427545742 -0.008455474778335763 0.0034352324828456626
0.04137475569514122 -0.00850273445265837 0.005645091446487397
0.04234521746980825 -0.015045437629062554 0.0037723191900169094
0.04143294123563767 -0.011719420093566649 0.005493957118681804
0.04126164779596272 -0.015449670557859336 0.0055629750799066945
0.022079727151825178 -0.0006654469033745248 0.018948995743583094
0.01943891165877217 0.00012478333083177802 0.01796162596622932
0.02459686837307553 -0.0004021179397355783 0.01870752909538221
0.016514762969660722 -0.00035405758322235254 0.018443316680365144
0.02877013788660461 0.00029568065741904833 0.018003309718260675
0.025251732645050554 -0.0020080350663942677 0.020592636792552157
0.014175787875321557 0.00037220698439387916 0.017538140202289873
0.02715131316866089 -0.0011665374537844398 0.01957586714735543
0.014932184509536265 -0.004768091874025285 0.01901176190616391
0.013863419745601695 -0.012047241704022292 0.018404052673268136
0.01404765440693272 -0.009237067202827331 0.018522478384698383
0.016256770187016094 -0.0074696004770976035 0.019942494064690834
0.016111856175193638 -0.009890734709096566 0.019849343596574254
0.01619699681699673 -0.01608141698133949 -0.0027630000840872526
0.023113164399711093 -0.01620900072157383 -0.00225018008842297
0.034983605466170326 -0.014758032687687583 0.01436724263872011
0.03174140637807227 -0.014372453399783866 0.01766865074614475
0.027732316811653068 -0.012555171104939977 0.02087125220250886
0.030064831847379896 -0.013185030419398471 0.019264346242909014
0.03118953508360023 -0.0028866540791946146 0.01846468674794415
0.033390296789215124 -0.00043388355251914993 0.015953789142498318
0.035587591274979506 -0.007747308888535039 0.013723889244630269
0.03598823497909357 -0.0035690338432406215 0.013269450012319451
0.033063355870377224 -0.009698833443167394 0.016516685816926047
0.03574883311302748 -0.010125568836226718 0.013552719198584801
0.03618705481889038 -0.013127995414028194 0.013077521023511587
0.03322166827673315 -0.0033502530257812947 0.016323552873064914
0.034954308661093954 -0.0019483879247973466 0.014406391567660742
0.034633783048790584 -0.005393884903225796 0.014770251753694204
0.03316717460665808 -0.006457792148089157 0.0163926952083326
0.029050485915307803 -0.005824087013989121 0.02093635183859642
0.03178804484411779 -0.006892979070961027 0.01791673279541089
0.030149127846554203 -0.008215798208958599 0.01973018017568463
0.030519377971109984 -0.004992176274069117 0.019312056762829766
0.038248063710740285 -0.007211770972171717 0.010430860544258473
0.037895863737348635 -0.01383042358216025 0.010887448921041418
0.03790242083347621 -0.010012847032589704 0.01089844923192737
0.03821886482725466 -0.002267305554404086 0.010497709745804622
0.03685604475954757 -0.0018140079855580918 0.012247920028720646
0.036589015591472575 -0.005693824905497127 0.012608378157691544
0.037756815914298865 0.0002477892434141369 0.011108219765340382
0.03161869471450751 -0.00983785250310606 0.018111847896162398
0.033497681422841444 -0.012859657478728886 0.016042573450975182
0.02832832457538064 -0.009371418017117286 0.021735438639994484
0.038782118404721504 -0.01620900072157383 0.008316154491389435
0.03679950157010637 -0.01602169882772688 0.011702175939234182
0.015181262087688753 -0.002408369895548969 0.01896771243983027
0.019288305733508898 -0.0028820482096667587 0.020686002544690336
0.01730547068926532 -0.0031502534589399832 0.0200943452869171
0.021134470758281582 -0.008363993295234485 0.021911999210715294
0.024431929412858044 -0.004678987476388995 0.02173129578143328
0.022470521795439253 -0.004101387213182349 0.02160778202862083
0.022672705485279568 -0.006186271294614493 0.0218296847529421
0.02604929863045158 0.00964474524863366 -0.0027630000840872526
0.03756072793372616 0.001743433080875824 -0.0027139727821980813
0.03966573927202141 0.002586387906326143 -0.0027510359209360785
0.025779631314172338 0.007140199873722777 -0.0027123843248492378
0.03277563497366553 0.0023424112651477588 -0.002680907966135836
0.029329423877816903 0.007223422591184822 -0.002747649952764334
0.01942674970833541 0.00317408705475565 -0.0025715872738352316
0.01876593225095125 0.008887968512410244 -0.0026816218381447337
0.025022332951952317 0.004762607405244118 -0.002656835419537895
0.016657419786554745 0.00345476626416295 -0.0025511086560388867
0.01831769613500489 0.005043242787834478 -0.0025991379836445205
0.02214323648751873 0.002708741424118947 -0.0025878079520377456
0.020850573674152932 0.007663223837691613 -0.00267641221388151
0.02798974514130672 0.0028173495670976638 -0.0026453112562666893
0.034965660749266464 0.0018575267331340756 -0.0026917520317278356
0.02351651484149947 0.009988389070702326 -0.0027489450368284093
0.030120205557823094 0.004938508130577357 -0.0027086280269352286
0.02111594133301832 0.010101471764584641 -0.0027285431243055046
0.018625634101264277 0.000674000009894371 0.014626964040470423
0.03690541901384886 0.000674000009894371 0.004971737707170198
0.03325285993825029 0.0006740000098943711 0.0098423232542696
0.020599621308675525 0.000674000009894371 0.013785565541262087
0.027265187856060025 0.000674000009894371 0.011600139289352045
0.038240040388544 0.000674000009894371 0.0024489721166589644
0.03473161449139629 0.000674000009894371 0.006882091161427629
0.028190621366692144 0.000674000009894371 0.007848020032899073
0.03571627264079834 0.0162579994648695 0.008540885538180403
0.023629839529331353 0.0162579994648695 0.01328565410340996
0.018230936946428085 0.0162579994648695 0.01634136917151313
0.021034447265052908 0.0162579994648695 0.013309913476866251
0.03032622708187661 0.0162579994648695 0.014552286715903492
0.029611861503334728 0.0162579994648695 0.012036255611179285
0.01892072714120964 0.0162579994648695 0.014240143757111395
0.02646614093726607 0.0162579994648695 0.01384178456487307
0.0273290333131066 0.0162579994648695 0.012015733060120899
0.027832272785401305 0.0162579994648695 0.009830036159901955
0.032944120951263235 0.0162579994648695 0.014356012365831766
0.030512280180652045 0.0162579994648695 0.00911661474595736
0.03222211167888689 0.0162579994648695 0.006948944711108693
0.03575225913151529 0.016257999464869496 0.010726218875928105
0.028068058076307138 0.0162579994648695 0.01589842985170718
0.034802227224803244 0.0162579994648695 0.0067033262412862765
0.039306104972962365 0.0162579994648695 0.0031087282262881218
0.0319201894187927 0.0162579994648695 0.011858772589878028
0.037994870152391856 0.0162579994648695 0.007149903860144831
0.03802586624057018 0.0162579994648695 0.005074419504978584
0.03358124783143478 0.0162579994648695 0.009479790338699548
0.041889912319499394 0.0022900989464717646 -0.0027630000840872526
0.04254198554360784 0.011142299065269808 -0.0027630000840872526
0.03335256326400192 0.00796295828580977 -0.0027630000840872526
0.035954836572000076 0.015301212801694792 -0.0027630000840872526
0.04319057685381678 0.004523522095482808 -0.0027630000840872526
0.03844439073292371 0.0048935615799980264 -0.0027630000840872526
0.023394748415657408 0.014514601929254385 -0.0027630000840872526
0.029782169234183163 0.011789257457244807 -0.0027630000840872526
0.04051647700155423 0.004597394895380935 -0.0027630000840872526
0.03216161921125093 0.009534801376351765 -0.002763000084087252
0.04236992267698314 0.008812171514040547 -0.0027630000840872526
0.030405609761975733 0.014070121830519897 -0.0027630000840872526
0.042585264910904676 0.013488919108360394 -0.002763000084087252
0.03960394459172298 0.009072703057877796 -0.0027630000840872526
0.0376343149158216 0.010653746533746181 -0.0027630000840872526
0.03569621991512654 0.012818454722895032 -0.0027630000840872526
0.04310503060906286 0.0162579994648695 0.0006854762154090916
0.03471563907919395 0.0162579994648695 0.004072050007829091
0.04040325545335833 0.0162579994648695 0.0011294297440213321
0.029220381151519963 0.0162579994648695 0.00721068712772361
0.023946561715407644 0.016257999464869496 0.010991284884740053
0.014376197243617843 0.0162579994648695 0.0064575713376802
0.037228440035614166 0.0162579994648695 -0.0013700350000149172
0.014562107167333319 0.0162579994648695 -0.002137426495272513
0.02446178364454398 0.0162579994648695 0.0088326726018743
0.014654854898906028 0.0162579994648695 0.011248958628010102
0.013100954324125828 0.0162579994648695 0.002180583896324689
0.017207032756776923 0.0162579994648695 0.012430033028781916
0.01572494642294662 0.016257999464869503 0.01397833514292499
0.019391540723861327 0.0162579994648695 0.0033299443514792477
0.028963976409097533 0.0162579994648695 0.0035403620247166766
0.02623361583992763 0.0162579994648695 0.0018066093697441934
0.02591690843733805 0.0162579994648695 -0.00044613343973670867
0.020707936422589914 0.0162579994648695 0.005807743030577586
0.03428974172652077 0.0162579994648695 0.0006364668100671234
0.026999833978707248 0.0162579994648695 0.005569821729503959
0.03710813899749684 0.016257999464869496 0.0010003244247112
0.019628080455552213 0.016257999464869503 0.011443591670503185
0.01744022377988829 0.0162579994648695 0.004528117918186654
0.016769128489448695 0.0162579994648695 0.0074155063947287745
0.022328022508756623 0.0162579994648695 -0.0008867656546982694
0.021526427997529313 0.0162579994648695 0.010893789279445744
0.03095404679449968 0.0162579994648695 -0.0009393360471972009
0.018473342297869795 0.0162579994648695 0.009115189668671678
0.02422859195011143 0.0162579994648695 0.0049088564193068345
0.014859992069560169 0.0162579994648695 0.009208335206131233
0.03215721139790728 0.0162579994648695 0.004707344407765452
0.015527571863826837 0.0162579994648695 0.003731980158228892
0.04082660042969732 0.016257999464869503 -0.001097078850424665
0.028539222474435178 0.0162579994648695 -0.0004127998133469467
0.03166523481797253 0.0162579994648695 0.0024745975734726615
0.0266003678568716 0.0162579994648695 0.008084579095404571
0.02093068262354516 0.0162579994648695 0.0014263962073523158
0.016757178779808306 0.0162579994648695 -0.000964142494240588
0.017027787740698828 0.0162579994648695 0.0019551826942014886
0.023156715567495444 0.0162579994648695 0.003041174728442089
0.012581000104546547 0.010082779589992083 0.011847417417790381
0.012581000104546547 0.01528677048692989 0.008097693859634606
0.012581000104546547 0.00995647488090799 0.009425172564732824
0.012581000104546547 0.005044063163056969 0.016395090840138446
0.012581000104546549 0.008795214017950038 0.014907679127056251
0.012581000104546547 0.002526210941130939 0.016528753780796535
0.012581000104546545 0.008041799961376786 0.01283872949947418
0.012581000104546547 0.013778462669587349 0.015304365425801238
0.012581000104546547 0.013944138037153433 0.012446962874040245
0.02031970663226081 0.016072454227343345 -0.0025225273103079166
0.0207455921523994 0.000674000009894371 0.016005382566315014
0.031501388882423445 0.000674000009894371 0.011564102851860974
0.03447095981577053 0.000674000009894371 0.014309544146246352
0.029460638520064007 0.000674000009894371 0.012347059301229384
0.025043608509292686 0.0006740000098943709 0.014214456652327623
0.03444422504225615 0.000674000009894371 0.011669884323078215
0.018179779979038697 0.015061656477583013 0.018857455674678385
0.024839508942105282 0.016234187448587584 0.017182024285195795
0.02478154751707032 0.015000258177954723 0.018945187803723947
0.02681842799956816 0.015675557541880682 0.017980251456968153
0.022038324330740343 0.015158607108234811 0.018718922762677784
0.020618621360962607 0.01621142530754856 0.01721454914511992
0.029086610452659 0.015783212097966105 0.017826423688707325
0.020075202068729925 0.008490786552394278 0.02147899940609932
0.022679274718903547 0.008425912219313204 0.02147899940609932
0.024312842513258097 0.0062050985283204395 0.02147899940609932
0.03579696744092266 0.0006941401955027622 -0.0008446568985046152
0.032909897452848086 0.000706967784771455 -0.0005842481708367927
0.016851107843544093 0.0008403224921258472 -0.0023435981629735224
0.030225152510560346 0.0007381014295114402 -0.001335680827877828
0.018655076888354064 0.0007712531019654525 0.0006523894455927942
0.028115779376965393 0.0007162895204436159 0.00046792428842020936
0.015325847101360151 0.0007160570570866795 0.00457359586070339
0.026028173527912857 0.0007452005027484257 -0.00035964147856998264
0.021330662387036604 0.000674000009894371 0.009011660445208198
0.026095037717930522 0.000674000009894371 0.003545548269010608
0.021099064024659844 0.000674000009894371 0.006572942007080742
0.02800688308928691 0.000674000009894371 0.0055178874549447685
0.022046552844279654 0.000674000009894371 0.01122345915545237
0.016340866293937533 0.0006740000098943711 0.013666253534575427
0.03391143570287474 0.000674000009894371 0.0013647194619180467
0.014470266413817167 0.000674000009894371 0.012149802794685386
0.030664376329236846 0.0006740000098943711 0.004663108637495292
0.03224318189379914 0.000674000009894371 0.0026350750310280262
0.014260684676981258 0.000674000009894371 0.010030410729953858
0.029807305335099548 0.000674000009894371 0.002233305859455294
0.012581000104546545 0.012900496705345535 -0.00010150569773843886
0.012581000104546549 0.004555591793227951 0.0057530786474422925
0.012581000104546547 0.008417664862555347 0.002887416099492418
0.012581000104546547 0.006874777831233976 0.007674507020430747
0.012581000104546547 0.0024916449967464275 0.00717499615641713
0.012581000104546547 0.0019213895980661213 0.010367610884810547
0.012581000104546547 0.010855348331990642 0.0018002126678216175
0.012581000104546547 0.010584524224752066 0.004334663353175083
0.012581000104546547 0.00489311947630251 0.008191928832033346
0.0251739572413044 0.010162324182760477 0.02147899940609932
0.026714644989163785 0.007268125752048105 0.02147899940609932
0.02291603943827049 0.004381497302688483 0.02147899940609932
0.020756646100310184 0.006174944617534311 0.02147899940609932
0.015017156371560548 0.0026142319258637436 -0.0017036496963446412
0.013072807692479635 0.002142727843966398 0.004600401112418555
0.012660145392431404 0.0042052648900587795 0.0036418113136370937
0.014183870854661239 0.002578037038028993 0.0008219147525876949
0.01392619264793546 0.001575193595178558 0.0026559644004207836
0.012581000104546547 0.007080682268405655 0.0011755290972556573
0.037212664065124086 0.008465314403804405 0.011782784365765415
0.036321804285662534 0.013781435936375182 0.012819474333642403
0.036180861317177765 0.010293020193109658 0.013009494387090962
0.03778553400586354 0.0141331441120732 0.01106156002475467
0.036207633218682436 0.006181098284248355 0.012999070158037352
0.030369003736833117 0.01164273902391708 0.019151190836782725
0.03231092610953996 0.011861538072550469 0.017101217310697938
0.03463762490936037 0.011014318855756565 0.014647120534291118
0.03472261060582133 0.014073130903952166 0.014551736684610198
0.03629250953108909 0.0013730511076672394 0.012918428581354733
0.03378539728762803 0.006459336688257042 0.015555057769341678
0.03498959446302627 0.007569446534454096 0.01428204569851123
0.03365302667471982 0.008703678756078687 0.01569059303176526
0.030044138360642215 0.008531377337125192 0.019499849044920553
0.031527565520049435 0.009826949950727642 0.017931783926420267
0.03502929875771266 0.004837631133821751 0.014245219776919019
0.03181817277677042 0.007182927144412171 0.017629983796072255
0.04117776979088274 0.009798776177765877 0.006051387507872975
0.04139653591462544 0.007132998413559436 0.005666324582448879
0.040277298877217454 0.002281559825146544 0.007398535708243003
0.041296053303581465 0.003352378982984948 0.005778813384815897
0.021427070890140086 0.011846166119672683 0.02147899940609932
0.020497699588035646 0.01398577212435459 0.02024099281123394
0.04472387442491532 0.01259561297110072 -0.0025817670606950987
0.017986213197101565 0.00741753448382789 0.02105215052970112
0.014395837923349867 0.008473673539866586 0.0186695786049439
0.014858491046905271 0.010529686893665223 0.01888211696349342
0.014024357877273378 0.01264823025739911 0.018246103158718337
0.04357949928921162 0.003348862383719246 0.0014708473867671074
0.0433457797160106 0.013917455667353883 0.0019380704484422012
0.042257554337090907 0.012822702858870428 0.004113515090787456
0.04310322003513981 0.006031552689975215 0.002422965552361905
0.0430673364099769 0.008657071213524676 0.0024946996265902324
0.04315436419479027 0.011185532452588609 0.002320724518239638
0.042509023672549655 0.0031525060421035912 0.003606695828896344
0.04213114457849239 0.009173647057777425 0.004364829252266801
0.04462734049299892 0.009704403911446977 -0.0012394555540402303
0.04438276277441276 0.004192896360516014 -0.0006682537936926143
0.04436968282238972 0.0015330163225372704 -0.0007076136630786879
0.04447036988757839 0.014783950084355684 -0.0007929834164792557
0.044281636555927234 0.006748460146196073 -0.0002896950169473469
0.04426769216108273 0.012183597852755584 -0.0002525099998529432
0.02811810425770099 0.004866273784699939 0.02108764055162901
0.029803609377532892 0.004739948357739114 0.019746163130913316
0.033973487515203515 0.0030071048927701642 0.01536209987779365
0.03169930026083605 0.004005506173805143 0.017757451469674224
0.0283738773210745 0.009382185090061267 0.02126004656914835
0.02677700762380037 0.0009253178243999954 0.017906671740237724
0.02139914843129477 0.0023233807607729575 0.019968532373097606
0.023043109423203985 0.0009599246820790517 0.017865562420716276
0.018424145461564043 0.001863758354683329 0.019169303809655657
0.014720648968905275 0.008963316999499643 -0.0025856397260948885
0.013596109213125084 0.005547880730533905 -0.000573328322584604
0.014429895268371105 0.006532531771109308 -0.002337390446395751
0.013208903217426534 0.00784001323648489 -0.0008552217758781065
0.013034061475266243 0.01180576888568681 -0.002156254423921194
0.01548372153121096 0.003680008642510565 0.019157700309150927
0.01853431079598049 0.003922710437252734 0.020672337100203164
0.016751657756556584 0.005224452549422096 0.02008295787810347
0.04072126720293758 0.01369763850897868 0.006826583399347302
0.040121276408225 0.01163505044188825 0.007758969092472797
0.04026941828805039 0.004311868725926498 0.007436961371434677
0.03965012951168362 0.008794873441964656 0.008476827091580576
0.03151925242899596 0.016168607153773232 0.017001414989451177
0.030982843868229117 0.013852170782573073 0.01837957916804727
0.024794543390657484 0.013121070578042984 0.021455305762579112
0.028213706650456888 0.013957969397945271 0.019788401128472567
0.02695921846857608 0.012459122590873506 0.021118644463078436
0.04238867794493652 0.01587790429739492 0.0029287173397191833
0.03523295621280756 0.016138624509255416 0.012849438395556358
0.041188609705552166 0.015978476745867422 0.005205476955929022
0.03794014398572512 0.01594497202199601 0.010263140801972367
0.04010523450824046 0.015995700540530778 0.007120817209262883
0.016671489202570944 0.011468632372557597 0.019968626626767082
0.016398964626615768 0.014300174312622906 0.019203971743229402
0.01872189329389437 0.012420179905684902 0.020665028687655934
0.013745303981143655 0.015233127759715883 0.01790550824369807
0.028308709565445084 0.00265233683062549 0.01990207769505517
0.026154223351570957 0.003696391606077691 0.02141830723388227
0.03680334715828952 0.004181523637339814 0.01229932550539658
0.03770622687266924 0.006100539871516169 0.011170203958214331
0.03808499044606478 0.01122205245619923 0.010696530549456372
0.03909902903520675 0.005132455182086576 0.009252166869839285
0.03866599984737347 0.002778997299689722 0.009865972092406586
0.03941457865807634 0.013822660764347036 0.008906729147039447
-0.04378277479005425 -0.011447000317275524 -0.00838767890741663
-0.04388927159242404 -0.011447000317275524 -0.004949511282594745
-0.04466762352866446 -0.011447000317275524 -0.01252290063632957
-0.04152999818325043 -0.016155719669928553 -0.018614742624933577
-0.043442676685727016 -0.013244708043019554 -0.0027630000840872526
-0.04152999818325043 -0.013352055252121785 -0.015005075387610551
-0.04152999818325043 -0.014363948378009594 -0.017044769109994393
-0.04215769508012266 -0.011447000317275524 -0.01099785113714389
-0.04152999818325043 -0.011610110856376255 -0.008855988016589536
-0.04152999818325043 -0.011499919497424169 -0.005878633646915011
-0.04174329587516287 -0.013085489442388867 -0.018815654515365446
-0.04350252758021139 -0.011796279380117018 -0.01653080484597642
-0.04333457614371669 -0.012559252459873362 -0.01994722414444959
-0.04801166127163927 -0.01366173078393967 -0.01361523270937793
-0.04774464656983591 -0.015514931036381489 -0.011706187194695416
-0.04333242904479059 -0.016174880820745377 -0.012742940148287465
-0.04326828432219139 -0.016111616496736973 -0.010378196101960805
-0.04281135776164819 -0.015954642621216354 -0.00556944121816942
-0.044072951936518744 -0.016128959224211092 -0.008227906823410836
-0.04423875100712248 -0.015788889104013683 -0.003175234240617588
-0.04390658121742099 -0.016208000481128693 -0.01861957761992678
-0.045793763663935436 -0.01620800048112869 -0.017353247018160458
-0.04408438526942586 -0.016208000481128693 -0.015471947190940137
-0.04661623367963175 -0.015848167945908997 -0.00783153277174642
-0.046405509963979075 -0.01617172266183551 -0.01337622998637557
-0.04590809125047024 -0.016204759906129365 -0.010422374975802102
-0.04272667801773317 -0.01599194907162612 -0.02094210092560287
-0.04487679564858492 -0.012996894659687182 -0.021376999095082283
-0.046529973864148685 -0.015020295404944563 -0.021376999095082283
-0.044879231989884735 -0.016031193406805193 -0.02086195248998428
-0.04747204379788944 -0.01317919129278327 -0.010358884100029924
-0.04805344940097829 -0.015781666080474314 -0.015878218236458408
-0.04822316004069064 -0.015831005341158087 -0.01942025420885955
-0.04799031613900895 -0.013053405849322785 -0.021169516901339464
-0.04608538875527892 -0.015579698355298863 -0.004894021664302302
-0.046304010398304424 -0.012955519688232713 -0.005231943495490049
-0.04696377742172217 -0.013328719421695667 -0.007763307691450409
-0.048307495454585236 -0.01346877270946549 -0.016242725331237298
-0.04845599830150604 -0.013292307289845666 -0.01867657773706501
-0.033589479780623564 0.01632899389744917 -0.014304547980657889
-0.036493092006894594 0.016414441013886553 -0.007425245321370165
-0.03223422758126718 0.016289111715030776 -0.010061173637910743
-0.03474651072675098 0.01636304285105286 -0.01203110625435827
-0.03859609534792065 0.0164763279179721 -0.00828320044048574
-0.031836362997959694 0.016277403408711977 -0.006266543463133005
-0.03139202567151565 0.016264327508656654 -0.014501386458997397
-0.041156874997488636 0.01655168620270013 -0.010566157057386262
-0.03727702744317512 0.016437510562188215 -0.012678693312987448
-0.0417676215381394 0.01656965917109465 -0.012895740421305955
-0.03740045755028545 0.016441142847050054 -0.015936919008588804
-0.03491887858198766 0.016368115269491938 -0.009524582546877717
-0.03403006105707476 0.016341959264962243 -0.019462000149855215
-0.0389500555284563 0.016486744211334822 -0.010544433317876321
-0.03471703263863269 0.01636217537377576 -0.016782276373893405
-0.03944760073966288 0.016501385905983365 -0.014535192315714686
-0.0321397258485384 0.016286330730542916 -0.01732156044000239
-0.031143000349402428 0.01435629474703781 -0.007998573691933873
-0.031143000349402428 0.013407766716393994 -0.005572140668111769
-0.037199752458944205 0.01347858223569657 -0.0027630000840872526
-0.03990413282350616 0.016435830920841138 -0.006696043188609392
-0.0430786357851002 0.016510560124414576 -0.008339561562085825
-0.041831248771446145 0.016370023441909423 -0.005248740185705653
-0.03561279741372533 0.016367509809850304 -0.00519345790949004
-0.04006731494911065 0.016304705037177795 -0.003812193385135166
-0.032703422715708044 0.016284299478098313 -0.00336341419755516
-0.04394562603558187 0.016374464785003505 -0.005346418584898843
-0.03761760999023041 0.016318528085418026 -0.004116203499975321
-0.04503105696978304 0.016536034411582832 -0.008899817218645915
-0.0406788984382651 0.014336859371859618 -0.0027630000840872526
-0.042590342170751354 0.01589583091400402 -0.0027630000840872526
-0.031143000349402428 0.014219287525476777 -0.01592041668839975
-0.034338258129883434 0.011495999991893768 -0.007971974059935437
-0.03487671926167867 0.011495999991893768 -0.005225602576543476
-0.0318622930064399 0.011495999991893768 -0.008465542439109597
-0.03656743231771343 0.011495999991893768 -0.007085688831430463
-0.03492424245735002 0.011495999991893768 -0.0028314385157264736
-0.032092944392828365 0.011495999991893768 -0.0042701290677714335
-0.04588251338853713 0.011495999991893768 -0.011317455078590043
-0.038137306559437166 0.011495999991893768 -0.011533330488168216
-0.043544349394823524 0.011495999991893768 -0.00438760433699984
-0.04124608755187063 0.011495999991893768 -0.006030171737447928
-0.04045000793971788 0.011495999991893768 -0.008920841585217904
-0.041803203085485865 0.011495999991893768 -0.011930006595148014
-0.038756123077073504 0.011495999991893768 -0.007798277918468151
-0.04472061169555212 0.011495999991893768 -0.0066821483878535416
-0.03445223708044557 0.011495999991893768 -0.010324674714859714
-0.03802356456785896 0.01205230375888755 -0.017795591575362715
-0.03537894386424115 0.012107694146300155 -0.016013519688863723
-0.04169572440341427 0.011645724470981424 -0.01884197469212049
-0.033454946490179174 0.01254069393786686 -0.0164181945648545
-0.03817046334314069 0.012478039823450266 -0.01975216208200836
-0.043784233405927256 0.011842743224961396 -0.0212922722644993
-0.03329596512567418 0.013109631001516943 -0.018761231259423035
-0.03359389478272019 0.01187410498563815 -0.013636820771219669
-0.03612895261512187 0.01318702324124716 -0.021262528069483
-0.037599510030915696 0.011495999991893768 -0.014933826866982382
-0.03236189804402185 0.011495999991893768 -0.010710546470474624
-0.03950397190960929 0.01149599999189377 -0.01315238053891989
-0.04201870059602107 0.011495999991893768 -0.014564022873945016
-0.03559973171053363 0.011495999991893767 -0.013415274551319951
-0.0433335435031285 0.011495999991893768 -0.016679893768399713
-0.039683488587497234 0.011495999991893768 -0.016044607930643565
-0.045604914822664 0.01666337313967875 -0.01697759317373216
-0.037415067991194026 0.016432281088166054 -0.019694709601189332
-0.04577117638710892 0.016682705883084323 -0.013465197165811259
-0.04075396139174003 0.016523926082995754 -0.019193403562828563
-0.04160960310352427 0.016560841002289047 -0.01589385190711706
-0.04476257394114792 0.01662557526353571 -0.02056984377195785
-0.03948460383586479 0.0164983069329246 -0.017206457178439036
-0.04294471299950188 0.016580982025003157 -0.019590618441050367
-0.04663709440797586 0.01668192165092858 -0.01913253392652882
-0.04766476489483203 0.016377854528044977 -0.020860110552186506
-0.039100229542078216 0.016221751967903493 -0.021322447333349134
-0.0346389294843725 0.01583086246792076 -0.021551020737340453
-0.040711965873682636 0.012726560805753778 -0.021641932544027114
-0.03246122666753966 0.01398049446092603 -0.02149543715880768
-0.04471482409255913 0.014660046245028261 -0.02180900052189827
-0.04251088237272988 0.014647752175847007 -0.02180900052189827
-0.03831867216138832 0.014149160439018732 -0.02180900052189827
-0.04648071254232419 0.016440422750793778 -0.010912910229170916
-0.04756980276136504 0.016386788280089947 -0.01696190218801497
-0.04802199825644493 0.011889184148606818 -0.017188279973161774
-0.04762192746340174 0.013617009899369167 -0.021676873050819816
-0.045849013917543334 0.01521363706252212 -0.004240435866375483
-0.046818868223494625 0.015252053020213995 -0.007636505382452324
-0.04633362806825098 0.0140766736410196 -0.005873034380169296
-0.04553168627149463 0.012765897353614731 -0.003761553054705498
-0.04802199825644493 0.014268866699464595 -0.017977871022902946
-0.04759114062921993 0.014520041067531797 -0.011649409323183025
-0.04797410436140638 0.013918273159762035 -0.014136021262222766
-0.047703065967544214 0.016252190184115736 -0.01453020249515844
-0.019398356703751177 0.015196615101480612 -0.0027630000840872526
-0.031140999868512154 0.013402811153749616 -0.003106965452572495
-0.031140999868512154 0.01377438342808297 -0.011642497364991811
-0.026730803590121772 0.014344672235694505 -0.002763000084087253
-0.03051358555564948 0.015466581677601034 -0.002763000084087252
-0.028722941534791588 0.013724130585689978 -0.0027630000840872526
-0.015639545313020562 0.01376168696475143 -0.006302920687991147
-0.015717417629376586 0.013847808368265067 -0.009642458550017444
-0.020227633440027187 0.012244301482915618 -0.0027630000840872526
-0.029349624096551674 0.011495999991893768 -0.004805358215181798
-0.01916851866149897 0.011495999991893768 -0.005319918982039823
-0.02095621285429969 0.011495999991893768 -0.011341487012359016
-0.018004433759142083 0.01149599999189377 -0.018702743010951043
-0.019475515012056587 0.011495999991893768 -0.016971563391546297
-0.026609069290948528 0.011495999991893768 -0.006101879822799121
-0.021908815853250427 0.011495999991893768 -0.0048819913694336595
-0.022014979677024413 0.011495999991893768 -0.006916821851252371
-0.02764913546812163 0.011495999991893768 -0.0030620937801399406
-0.027025764464351194 0.016256999224424362 -0.007929085505809017
-0.0188889867332889 0.016256999224424362 -0.01905565025526943
-0.030293802275972777 0.016256999224424362 -0.004746165468052658
-0.029759830905585934 0.016256999224424362 -0.011953324225743953
-0.02231113508965181 0.016256999224424362 -0.015687628611700397
-0.03093999222394502 0.016256999224424362 -0.021277011877152176
-0.024190436788872116 0.016256999224424362 -0.017808264748157693
-0.029170073079823933 0.016256999224424362 -0.019639081897818933
-0.024817202468346566 0.016256999224424362 -0.015596848351725638
-0.020846670631697897 0.016256999224424362 -0.020984403767021348
-0.027278387591867445 0.016256999224424362 -0.017434379725155824
-0.02842228764149656 0.016256999224424362 -0.009954403039975017
-0.02594452599829198 0.016256999224424362 -0.019734978222732843
-0.027275417982226782 0.016256999224424362 -0.012841503083765929
-0.029803176297495758 0.016256999224424362 -0.007993478525749316
-0.029622312266160973 0.016256999224424362 -0.01575921415816999
-0.025071452107491263 0.016256999224424362 -0.013336595997520816
-0.020804310955573942 0.016256999224424362 -0.01784842688901693
-0.021308048215365118 0.011495999991893768 -0.015824715149169742
-0.02908874290759787 0.011495999991893768 -0.009485258422787985
-0.024459563362449505 0.011495999991893768 -0.014255880779221033
-0.02702308114404057 0.011495999991893768 -0.012333704450230572
-0.0161628243554053 0.016139883734585567 -0.014905147414437403
-0.023719156180636473 0.016256999224424362 -0.011348918550336812
-0.017683896767393327 0.016256999224424362 -0.00551041777847071
-0.022435568896058893 0.016256999224424362 -0.013324508363457544
-0.021476721884048103 0.016256999224424362 -0.0076380117296131755
-0.02545818209335396 0.016256999224424362 -0.003613101515936221
-0.028004446139307068 0.016256999224424362 -0.004825906078336636
-0.02519991650165452 0.016256999224424362 -0.008796284631730872
-0.017110018177717116 0.016256999224424362 -0.017848014775000556
-0.019306942369070518 0.016256999224424362 -0.008740930073912002
-0.02597882138581677 0.016256999224424362 -0.005831615053328298
-0.017500410093552334 0.016256999224424362 -0.0030016374872406794
-0.018470300438789822 0.016256999224424362 -0.014047455243854302
-0.01725049229704281 0.016256999224424362 -0.010253882263622706
-0.02018011483090932 0.016256999224424362 -0.011315023260879947
-0.023366681805351702 0.016256999224424362 -0.005383940402212633
-0.02060931033650966 0.011495999991893768 -0.01892734415753855
-0.027756149616623798 0.015885669420777574 -0.021519500676104024
-0.02370636223760098 0.016042808876802983 -0.021367532722655326
-0.017647249420966963 0.015612405478063954 -0.021613802710745936
-0.020331202903111148 0.013568549237227757 -0.02180900052189827
-0.02563427248438248 0.014235033394604392 -0.021809000521898273
-0.018238963545649117 0.01270661749384205 -0.02180900052189827
-0.02304497880961943 0.01266320691757189 -0.021774202489893733
-0.028005272444025748 0.012704244666025048 -0.018089316167880676
-0.025902636318823998 0.011832398785839603 -0.01614332611510099
-0.030701664418725842 0.013231875026741145 -0.018027205211193043
-0.03054329668202229 0.013705400191376244 -0.020216370449026543
-0.03064111641472316 0.012021505852590706 -0.012836701219564824
-0.024145113277473332 0.012230121861987636 -0.019396516381863654
-0.02825606967933185 0.013261354021508052 -0.02028429922304698
-0.028764042779716836 0.01196231553724461 -0.014214672216408994
-0.015850035663109937 0.013894344984334582 -0.015230449616560317
-0.015794426932138707 0.013692364768737813 -0.012921368836128159
-0.015885794071381704 0.01263225313945446 -0.01685453288365071
-0.01594002831518032 0.012154889523354208 -0.019174006145436965
-0.015659998292192345 0.01562519746056853 -0.00709717126285569
-0.015594991501587767 0.015606911404681319 -0.004376055178461669
-0.015984939578845742 0.014540113238455669 -0.02081657594010125
-0.025766345366102096 -0.016131880717353907 -0.000711342490437921
-0.024627956647753448 -0.01612503023548434 0.0011056266549287369
-0.038663090479084256 -0.015811139165440476 0.0068963339302508765
-0.03167328837712416 -0.015961727530511872 0.0044183990378892785
