0.029970386289497098 0.0015076477947117701 -0.0037565899287308664
0.030084954444000177 -0.0016660204921003447 -0.003896474429691878
0.02825488664312859 0.000619432406630241 -0.0017632315201696958
0.029870732776560646 -0.0002934709379317335 -0.0017978441910351118
0.02732019327850798 -0.000981284523307942 -0.0015731144284434053
0.026550405844107096 0.00029937924207052824 -0.001663294748924974
0.0261375404384405 -0.003132944125824888 -0.0014646611331464406
0.026183697430590486 -0.0017031283123532025 -0.0015508252941662214
0.04654276999469133 -0.013817762625051704 -0.005427174500810544
0.04193457812712467 -0.013028530491805194 -0.002915675847891332
0.045802367894083436 -0.01565402850867945 -0.002737553012525033
0.04002644669748302 -0.01120062797624766 -0.0030094464945221574
0.04742454663726063 -0.016392258223923678 -0.0026668641421375566
0.048250682406129175 -0.01896418092614734 -0.0026643177448354887
0.04776333600060674 -0.0189571235663389 -0.00403365291258744
0.046023602879185437 -0.018058118228949163 -0.003506223273804834
0.04063752163399022 -0.01080708680677388 -0.005152492391822007
0.038791251161523904 -0.00883855572861264 -0.005078573513797083
0.04208406494417222 -0.010496603264811366 -0.005340529296584744
0.043297158137001884 -0.01254420756573306 -0.0053361323200831635
0.04051234250965886 -0.012222358218914086 -0.005038713875177194
0.04723535769698731 -0.00909066763171671 -0.003756506291379333
0.04543617247095025 -0.011578907401859647 -0.003162474316784804
0.04489587202485226 -0.009348341406259716 -0.003464394379473149
0.04589675797299912 -0.008102197381558386 -0.0037725849782694106
0.04723504582844242 -0.012976255692961115 -0.003129738250350174
0.04323598469617437 -0.010240002777440704 -0.0031428043632036893
0.046799645697365846 -0.010398314370566115 -0.003498923412399161
0.04762790337786574 -0.01458177298945238 -0.0029128462570506266
0.047418512198956805 -0.011614514030313494 -0.0033690319627698267
0.048256633367089345 -0.010422593334491557 -0.003651045011412881
0.0395040712884027 -0.009744296722580174 -0.0030892910727895327
0.041425359650142574 -0.009906403199940694 -0.0030788286599560434
0.042961588408093956 -0.011634172641641452 -0.00296731777233149
0.041531588501235076 -0.011238176042120246 -0.0029928755413503975
0.04458259532974499 -0.0130144487305445 -0.0028782342359951743
0.048660199545286796 -0.017621749706384457 -0.003423310120904377
0.0410228239182545 -0.009360712491027295 -0.005274153531201058
0.042626830560095016 -0.008148077147648421 -0.005409640516242584
0.045094702335155515 -0.008898509097611858 -0.0056031882895632565
0.04436363181524656 -0.010506012215349855 -0.005535425541468925
0.047230254681587605 -0.008524141352638036 -0.005513341438523474
0.0463714205838659 -0.009791169477361443 -0.0056119998916983604
0.045960355229703494 -0.011489589720285624 -0.0056119998916983604
0.03833390619144713 -0.01097755701036934 -0.003734644256803305
0.04028573478771258 -0.013365652555083117 -0.0041177075689297436
0.03915099067038917 -0.010438235917746161 -0.005002467170092893
0.03919845227379454 -0.011813922845051675 -0.004459500542050467
0.03719648110524147 -0.009592921799020219 -0.003387273767164365
0.04068651991363149 -0.012516563533332149 -0.003002613592792378
0.036329055034996255 -0.008471208767400581 -0.0032131550363419907
0.04119637018420772 -0.014471429141838051 -0.0034434426882964646
0.04310892359467513 -0.014677913940358988 -0.0028580647275122657
0.04450940252831273 -0.017218942151930244 -0.0035506700395062695
0.045395726347550014 -0.016817385767206913 -0.0045196948623249305
0.04383249480515537 -0.014086499089447375 -0.005148435341601646
0.04466067600736582 -0.012654591365657266 -0.00545436032057934
0.04538088976488766 -0.014585504473930914 -0.0052083133394089905
0.041584422138092964 -0.013282729956963764 -0.005074281869247886
0.042310580109627585 -0.015625005520809754 -0.004265370490103305
0.04390232300731032 -0.01570312044558052 -0.0046614231718459884
0.04768557568182318 -0.01750655480622986 -0.004624941507190072
0.04768346291275899 -0.015084349670020564 -0.005242560059217282
0.04621305382597025 -0.015664824321311048 -0.005092109788511975
0.04784682941525224 -0.013137697232819654 -0.0056119998916983604
0.0475571844751863 -0.011803680524136785 -0.0056119998916983604
0.047367846349993296 0.0057200735152600785 -0.005301459620238559
0.044706418793618564 0.0068650800051004044 -0.005112206165281113
0.048025989159482925 0.007380320863401244 -0.005282355551659127
0.043349851729386456 0.006280689899157294 -0.00505535078783774
0.04560714389877915 0.005473304610080212 -0.005210313082338482
0.04222539205545372 0.007433986402970045 -0.0049526856832150384
0.04644262929499501 0.007249631883412746 -0.005197295919730846
0.04657016008951953 0.01460510417907829 -0.00299963492763097
0.04383181036184937 0.01333548651474361 -0.003654424295256092
0.04519317402726535 0.004718999844044447 -0.0036687439785982375
0.042944740652469275 0.010402202475741723 -0.004674166544628144
0.043469749797039936 0.008630785372306108 -0.004901360306934917
0.04165523875439247 0.00875627325012463 -0.004781004558516944
0.04738417667487847 0.008839900370656214 -0.005107804342321779
0.04012875685808598 0.008424357467807184 -0.0047282571874242155
0.0408023723503996 0.009819877753061302 -0.004613052634870963
0.044866612910487574 0.008241390641140708 -0.005026475102601573
0.04144839646928494 0.01118449279355176 -0.004445196273806499
0.042544941675233205 0.012488844361135246 -0.00410247022211687
0.0443339220893869 0.009133102472658782 -0.002602985155065448
0.04012068074271594 0.0070238719546502765 -0.0027487331641642106
0.04258211345584021 0.007126454861140478 -0.0027416446765565934
0.042815294205803905 0.008676045601576088 -0.0026345678239280764
0.03911282740604348 0.005799824303210481 -0.002833314961514559
0.04536563703258741 0.010321167572543463 -0.002520889755103472
0.041258680608465784 0.008112979182685847 -0.0026807630496549733
0.0439594303501421 0.010755948197119752 -0.0025454558870759273
0.04702557390378083 0.012812134492645198 -0.002391842548564457
0.047727537997052184 0.005933769373574734 -0.003487056179846058
0.04286328891843012 0.004832033341658584 -0.0031367230986086734
0.0472075967235291 0.0112151928716971 -0.0025181374899296057
0.04173339975937463 0.005790994074950661 -0.002845754859293616
0.04697677417780365 0.008097798057632943 -0.0030303086711482873
0.04802550866559831 0.009918531922167044 -0.0028327061388736096
0.04390733297767853 0.006309398331635499 -0.0029978376912590185
0.045382166742222986 0.006460189840180285 -0.003135673198872148
0.04513233772351699 0.00796782432728671 -0.0028478197794459537
0.04851415704437769 0.012453051432215303 -0.0024497367527526017
0.03976827315382897 0.008828850649821146 -0.0028731780819824977
0.044158069878043105 0.012146588780245533 -0.0026046626970663246
0.045522927908318404 0.013526787656364059 -0.0026083894397345825
0.042245429545598526 0.010748143029637516 -0.002733435892321594
0.03769114294393315 0.0070609010953032614 -0.0043372394101485155
0.037065605718849745 0.006086847273476539 -0.003488833304573881
0.038344925136274174 0.007794792738712937 -0.0030863705001265536
0.0407467432456282 0.010778217612193323 -0.0034157084121596436
0.048149012108374696 0.01484989105796039 -0.0038068609089346975
0.04511023519518376 0.013788256799474369 -0.004004068006837929
0.04735152378313491 0.013719039335800143 -0.0040956232675228845
0.04828003940836102 0.010842388435207862 -0.004671022756044004
0.04790480804843072 0.012085688459734293 -0.004421560150140908
0.04616354481242683 0.0124629011337655 -0.004394093912319889
0.04545061518932943 0.010708205402013976 -0.004782980625122693
0.03954672752674793 0.00686496568356889 -0.004813164230749565
0.039188287944632486 0.005415844319779404 -0.004680256144588677
0.04128345263623234 0.005515357646456597 -0.0048709874313052105
0.043647457972478626 0.0048266451115774435 -0.0050301053177380685
0.0712927419805556 0.0045633508506954116 -0.0012278674787040208
0.06959925015781286 0.0050760819089464195 -0.0020314494801928953
0.05535100027918815 0.004227086369904924 -0.003638477274615
0.055351000279188156 0.014961112962754384 -0.0024111975701795185
0.055351000279188156 0.003405305070328049 -0.0020820489030276236
0.055351000279188156 0.016997414855123964 -0.0009217077058287953
0.055351000279188156 0.006159870492177489 -0.0017945816287941252
0.055351000279188156 0.008681074689024057 -0.0027193465684124192
0.05535100027918816 0.01454571420986435 -0.0009426429890673731
0.055351000279188156 0.010100689206294748 -0.0014423074974491477
0.055351000279188156 -0.00462121232496464 -0.0033421019702236906
0.055351000279188156 0.0012395670931541277 -0.0012728316127583303
0.055351000279188156 0.012080798454191856 -0.001399697726804038
0.0687485233850797 0.004988253703555094 -0.00020300000323913994
0.06617007942663033 0.0071410753513689315 -0.00020300000323913991
0.061895625458538266 -0.010265880053642958 -0.00020300000323913991
0.06881800144799194 0.007068832903476079 -0.00020300000323913991
0.06520699013315277 0.00601097622030323 -0.00020300000323913994
0.0646763474945817 -0.0034283265410923643 -0.00020300000323913991
0.06598198807575797 0.004526517821956747 -0.00020300000323913991
0.06444318849455466 0.0013329020340645886 -0.00020300000323913991
0.06393443622011973 -0.006850602755658538 -0.00020300000323913991
0.06624109970649715 -0.004609044481814043 -0.00020300000323913991
0.07045126434010292 0.00785604044402236 -0.00020300000323913991
0.06465725005482677 -0.00016564163078473934 -0.00020300000323913991
0.06540914475742157 -0.0016048195512931808 -0.00020300000323913991
0.06543719224415799 0.011877877823837405 -0.0002030000032391399
0.06696121020636042 0.0008884287392880151 -0.00020300000323913991
0.06237514009991274 -0.006479935336999067 -0.00020300000323913991
0.06514652630501355 0.008203680116592156 -0.00020300000323913991
0.05930820221831637 -0.013593256259389112 -0.0002030000032391399
0.06845733619814193 0.0030227673155721335 -0.00020300000323913991
0.06819449617676202 0.00017321441828771272 -0.00020300000323913991
0.06620480758925076 0.009281408150552905 -0.00020300000323913991
0.06764910338725254 0.008779974586334501 -0.00020300000323913991
0.06734693875881595 -0.001248849479439658 -0.00020300000323913991
0.06320308482348921 0.0020401331275967825 -0.00020300000323913991
0.06334499950987169 -0.002895264085787008 -0.00020300000323913994
0.06730876448774148 0.004111405112196202 -0.00020300000323913991
0.06780380920959841 0.010180417491147667 -0.00020300000323913991
0.05535100027918815 -0.007745392646697786 -0.0013550887242313378
0.055351000279188156 -0.010899435021986474 -0.0015514086189149217
0.055351000279188156 0.007388431537552972 -0.0008927800624721697
0.055351000279188156 -0.0200173019853152 -0.002029516423288306
0.055351000279188156 -0.015276592417500113 -0.0013719656154050368
0.055351000279188156 -0.0019608282250142143 -0.0012673789936023592
0.055351000279188156 -0.009475707532638149 -0.0010812507616164094
0.055351000279188156 -0.00041365664840158165 -0.000762221121537704
0.0600612433055874 -0.0019226202208973272 -0.00020300000323913991
0.0631949286383232 0.00446285639352948 -0.00020300000323913991
0.05990612787357425 -0.009276802337008094 -0.00020300000323913991
0.05743745746909279 -0.00922192399478108 -0.00020300000323913991
0.056341835749268654 -0.01437652458341058 -0.00020300000323913994
0.05848871420853997 -0.015881465933333224 -0.00020300000323913994
0.06366409423891671 0.008683378873144056 -0.00020300000323913991
0.05596233056077819 -0.016375107486228273 -0.00020300000323913991
0.06152273869925059 -0.0023005072711066747 -0.00020300000323913991
0.05763419603248328 -0.017807689287154052 -0.00020300000323913991
0.05659470763360779 -0.011317407755326159 -0.00020300000323913991
0.06348610059239226 0.0073050881190821855 -0.00020300000323913991
0.05732280152784861 -0.019286651537136237 -0.0002030000032391399
0.06012689945606216 -0.007825952055030122 -0.0002030000032391399
0.05879766687216201 -0.008495608795156992 -0.00020300000323913991
0.05996718546202673 -0.004863377956470005 -0.00020300000323913991
0.06387211345844293 0.005847447298468307 -0.00020300000323913991
0.06061797733541884 -0.006470137947827822 -0.00020300000323913991
0.07174555478332528 -0.0125764466263322 -0.0009729621578164784
0.055351000279188156 0.000937454761194818 -0.004466810592709834
0.055351000279188156 -0.01664818389494035 -0.0034231343845607673
0.055351000279188156 -0.011749630002607599 -0.004239941638944005
0.055351000279188156 -0.01795840791145402 -0.00258747617074236
0.05677676469098887 -0.01110574543304481 -0.006573503282392619
0.05581319018611727 -0.013318701165817386 -0.006028513910502308
0.06311597120192322 0.01567313120919777 -0.00020300000323913991
0.059293687832327274 0.012774700606457884 -0.00020300000323913994
0.06261732037412217 0.011754860976426692 -0.0002030000032391399
0.06209586721821592 0.008627547761199589 -0.0002030000032391399
0.05791995622171326 -0.005403503296608688 -0.00020300000323913991
0.05806621705531052 0.014650430815438435 -0.00020300000323913991
0.05677763462055828 -0.004548444610072297 -0.00020300000323913991
0.05877174290738967 0.007375899733864221 -0.00020300000323913991
0.057967068529953744 0.011939374040001824 -0.00020300000323913991
0.056116126859497156 -0.008471327586950718 -0.00020300000323913991
0.05793225229159746 0.006292357789337509 -0.00020300000323913991
0.060791228890860256 0.009985542585993816 -0.00020300000323913991
0.059955154773419866 0.014124893716143068 -0.00020300000323913991
0.05708207461904151 0.003311286264634854 -0.00020300000323913991
0.05929718752414345 0.00497978847927121 -0.00020300000323913994
0.06226060896227638 0.010291485294466572 -0.00020300000323913991
0.058824683443207 -0.0002443591064875388 -0.00020300000323913994
0.06604247727769896 0.015623306248170408 -0.0002030000032391399
0.06398634681163584 0.010063980069023664 -0.00020300000323913991
0.06427342311976623 0.012762845694127459 -0.00020300000323913991
0.057618407889673144 0.0005683416106322722 -0.00020300000323913991
0.05702895713124149 -0.003096758701783467 -0.00020300000323913991
0.05704928248280247 -0.006449039456368298 -0.0068140001967549315
0.05623211394404657 -0.009571897414438181 -0.006814000196754932
0.05713479242375023 -0.008386207382874388 -0.006814000196754932
0.05864051680132917 -0.003964576086505778 -0.006814000196754932
0.05756771224537038 -0.009764250060709925 -0.00667782090155173
0.07006966700635993 0.0003679584171035772 -0.00020809766309332135
0.07056944696660647 -0.008259083253100367 -0.00035805150763237945
0.06837415615286986 -0.009687665458382011 -0.00029991957502355584
0.06174086361226154 -0.01940240057880228 -0.00020670857202836462
0.06868066759543431 -0.013152132790554022 -0.0003639917840551281
0.06667701716818629 -0.010588364600576624 -0.00025186775457309565
0.0625508848621279 -0.01749946778481624 -0.00020714669234533665
0.07091900025518263 -0.0014466157305721688 -0.00026674140906197155
0.06685130659909672 -0.012441760346344994 -0.0002865202692215514
0.06949960796387318 -0.001144436946209955 -0.00021043431237675916
0.06630569976431501 -0.006072432861655827 -0.0002030000032391399
0.0644828062204647 -0.012027871209355173 -0.00020300000323913991
0.059226191814539135 -0.01811729706096947 -0.00020300000323913991
0.0629390393614597 -0.012346185495894479 -0.00020300000323913991
0.060790193071315654 -0.020811126950788007 -0.00020300000323913991
0.06035802599402407 -0.01903298839774041 -0.00020300000323913991
0.06566370348049261 -0.009735546433092657 -0.00020300000323913991
0.06810125496306628 -0.002677103484455073 -0.00020300000323913994
0.05643892667541195 -0.015953684531233314 -0.005302773307391173
0.057585380606031376 -0.014455147142885604 -0.0056235955618309935
0.058113854488759956 -0.016634198078734345 -0.004974536065005813
0.07014382197318772 -0.014174208144169 -0.00140608298818306
0.07145986169585233 -0.014112455508214557 -0.0008704174306627729
0.0684786460940216 -0.013670828480270125 -0.002225775775651613
0.05829427557076719 -0.01252348916259027 -0.006003636750432483
0.06069157532640353 -0.014763887228303666 -0.004665031209707752
0.05998585540391881 -0.012128761961092466 -0.005563260670254925
0.06371401131264068 -0.013581552751677817 -0.00399993142523062
0.05912705291855388 -0.013816299602997316 -0.005407320672416211
0.059341361073736 -0.016051733818335762 -0.004768286818900278
0.06260073362205143 -0.014626731147403904 -0.004089323349033304
0.0673755599618909 0.012049916763551665 -0.0015524368253260368
0.06089590751016717 0.009133056457573516 -0.004724026075807937
0.06215302438380511 0.010371453987341468 -0.003915808536692962
0.06401651420556224 0.010988103498833285 -0.0030766271744198576
0.06624055860340691 0.01304076391852763 -0.0016874622544252739
0.06593517545893476 0.014483734732675613 -0.0013704477330020578
0.06599424797151598 0.011039922498309705 -0.0023634049706145422
0.06512267030974792 0.01226666540440817 -0.002309861851650725
0.06429971844068756 0.01383110251526904 -0.002139746155580206
0.06328382258314606 0.01682539220931151 -0.0011266179333074286
0.059687824368807124 0.013259708530386457 -0.0035329663013560905
0.06105386700342948 0.013476581338619004 -0.0031331302018987456
0.05825687672646112 0.014181360993508429 -0.003432463813423841
0.058576014106307986 0.012230227659050158 -0.004243980194925111
0.06285084821387596 0.014272402176343651 -0.002376370317851568
0.05986776972924128 0.01451099192105389 -0.0029275603108757714
0.05941158083365215 0.0178580142608456 -0.0015153015479875533
0.06464523236255554 0.01537318553259756 -0.0014823238602008472
0.0593731552948587 0.015772219309674408 -0.002466688332196677
0.05827416185115726 0.010626620137754391 -0.005035589322712224
0.0608870289939458 0.015789824525510192 -0.002124272428286645
0.060574233473786585 0.010670982441207299 -0.004342570956581951
0.05959626346701205 0.008983558461034115 -0.005200962804955374
0.062424235504206595 0.012875018126035745 -0.003041836705831063
0.061306653192743886 0.012016853257855195 -0.003672851240786022
0.055351000279188156 0.008432945631595615 -0.004541470370420828
0.06278737445694424 -0.02263050500802726 -0.0006517079629000917
0.06400412169443452 -0.021956913984136597 -0.0004827357576172882
0.06512614876621052 -0.021024808208973844 -0.0004901725914160794
0.059594622448162535 -0.0009543929356843444 -0.006665904884943234
0.058964532999057774 -0.002306498443558195 -0.00680268831210046
0.05694438544459306 -0.02133205872850387 -0.003113719606752686
0.05719100599070243 -0.017949296865319247 -0.004670834480186086
0.057190738361778536 -0.019619420287777654 -0.003912012390097118
0.06258356578458582 -0.02118975222741196 -0.0016555736570499587
0.061269033544001456 -0.02204198366022235 -0.0015901504157048545
0.05914021642189107 -0.022475278258393804 -0.0019497953674301497
0.07174232030357014 -0.0064209809023513245 -0.001527176682824509
0.0702412006255573 -0.005776205203169288 -0.0023877178810091603
0.07145664607191386 -0.004768579887998679 -0.0017237794863203043
0.06944498866012122 -0.00375274616085969 -0.002857693389264733
0.07111430382569078 -0.0031250269130809975 -0.0019359534295355003
0.07175108699337387 -0.00968673613388068 -0.0014955277106849835
0.07143134214171978 -0.0016027650621376428 -0.0017792176376180313
0.06851535082253149 -0.0015389286227341582 -0.0032988620504075562
0.06981739008266188 -0.0021214660017170655 -0.0026493049893210694
0.06848342843965641 -0.00012106804996807669 -0.003266738958815611
0.07123229417655447 0.0002473683556567611 -0.0017878208063620978
0.0700594653381625 0.0005637314464679078 -0.002389031659719344
0.057110870746372264 -0.005083105203016289 -0.006776964735629439
0.05769341768336046 -0.002791076792872966 -0.006779218403747102
0.05784706910782677 -0.000886727503183122 -0.00669845456976951
0.05760657240664818 0.006436467185830094 -0.005903821782821148
0.057496397604208854 0.009119164730125957 -0.005372800170262364
0.05853415023177649 0.008275090241312077 -0.005711296695508791
0.05648360258549341 -0.0036301972791933632 -0.006493969717486641
0.056901666017722334 0.011750222663563804 -0.004541459416686299
0.056795307248233035 0.013338634656720787 -0.003907616588216766
0.05589985895958162 0.017400893702128415 -0.0021935667114353456
0.05667656363758934 0.014922712090637433 -0.003255223833560553
0.057296321223643566 0.016605747400248283 -0.0025342087090227095
0.06745964271912928 -0.01815325603981563 -0.001352010213513368
0.0668197254201496 -0.01397318544321951 -0.002841615420629971
0.06817720576536045 -0.016890714640687837 -0.0014837398993664214
0.06725919049300187 -0.015603295850980888 -0.002213070769180151
0.06648384756756293 -0.016951295763739327 -0.0021578754197579485
0.06942092566110486 -0.015450141034309743 -0.0013733669103077322
0.06507672402426258 -0.01610309307196786 -0.0028905302664597385
0.06325996560048064 -0.017845220468633467 -0.0030142525792639634
0.06235538103287603 -0.01693561543456629 -0.0035567137806750255
0.06405439239973906 -0.015064625775487795 -0.0035064329169222554
0.06572276319534653 -0.018120497623845266 -0.0021329968216170104
0.06008262541035643 -0.017111919470294834 -0.004253518940030629
0.06575045098366664 -0.01988561985279107 -0.0013387859693272633
0.0599491503654406 -0.02127502653820688 -0.002440155802937028
0.062201034544656364 -0.019551390357404094 -0.0025768150145009383
0.06440366705776436 -0.01907389569440078 -0.0021361915395903095
0.05949630966977658 -0.018694402962140165 -0.003803771141209615
0.060835273568638396 -0.019325008985330933 -0.00309830670073038
0.061749827688931905 -0.01813185778165085 -0.0033881435034654106
0.05959770233620633 -0.01996043083617334 -0.003171406269591713
0.05657829310180414 -0.021669060809983258 -0.000564564339201578
0.05609643212628475 -0.017786919769495875 -0.0002761658845452695
0.05588170285443936 -0.01951423976116505 -0.0006794724380964576
0.05616100886073981 -0.02228794923301674 -0.0016660514476895705
0.059331848757208025 -0.022695691358283292 -0.00032210568982978
0.06815536962872529 0.0013559228947309624 -0.0033351330890772054
0.06937333990281817 0.0036971462640377076 -0.0023648695291628406
0.06994117821341482 0.0023522564543220193 -0.0023011973390634193
0.06809400972524626 0.0031737035715878447 -0.003075206259966433
0.06842342201796972 0.009365493245497066 -0.0016739810151407953
0.06914721804514255 0.010654190655469728 -0.0009355357212900013
0.06537573235894131 0.008563129207093127 -0.003138002437103233
0.06406878058707687 0.00924686148119878 -0.003509779043462152
0.06650778714474728 0.009029806309553166 -0.0025928266231055705
0.06762950500309674 0.00819140785727221 -0.0023267568799434815
0.06655939905349373 0.007416500529850184 -0.0029124361481524348
0.06745749270505143 0.010350832974137884 -0.0019395834269113335
0.06229161802295661 0.00792958194099529 -0.0044888359068759225
0.06354308242761172 0.007424914001128908 -0.0041012253216737215
0.0683489828291571 0.0066067811827545874 -0.0023767111405031387
0.05914950627537631 -0.010677249060162045 -0.0061359212050594285
0.06465005527725098 -0.01119042622911681 -0.004215943924549193
0.05946266750289328 -0.006780192147661065 -0.006681191837051821
0.05995627393905556 -0.009451319286094231 -0.006071250364031509
0.061357991658199294 -0.008638964096871551 -0.005739214642698457
0.06123230857611162 -0.010381731264221872 -0.005490579160236078
0.06269306772700396 -0.009621571536088244 -0.005130151327478603
0.058632208613462335 -0.008731092999653422 -0.006632897978591659
0.06850005245335741 -0.01199635187670043 -0.002597328168225072
0.07009045125589695 -0.01163417834694251 -0.00203388250116797
0.06567157012786831 -0.012975651704736102 -0.0035049607613425343
0.0634063750481024 -0.011834439423309584 -0.004497397526490323
0.06167095738783838 -0.012281434621749866 -0.004983326799681283
0.05535100027918816 -0.011911644252604032 -0.0002226963474669422
0.05612393349257197 0.01565076820882338 -0.0002238203140818642
0.05692009123154869 0.01736957402295459 -0.00020300000323913991
0.05624786683843297 0.005169754802580884 -0.00020300000323913991
0.06115932088265447 0.017616335812516287 -0.0011276207994685467
0.05799683783225169 0.01868559885716687 -0.0005956109559233332
0.0565791639080509 0.01854556687329121 -0.0016733193014108214
0.05888877781881473 0.0014765676444019253 -0.0066983397807029495
0.0685248321034703 -0.004818782757877023 -0.003333822544949864
0.06889039077059272 -0.006164267670433439 -0.003069334839077888
0.06666680830961781 -0.003991408628520799 -0.004176226363537708
0.06691512836842799 -0.0024647719493096558 -0.004064039039086614
0.062177169592434633 -0.0033662927735580777 -0.005845707052987579
0.060920106686407766 -0.004047198706562763 -0.006278466587513136
0.060336108122487686 -0.002677608669624567 -0.006522281740641179
0.06517690454673794 -0.0040047413675853155 -0.004755598433735559
0.05957123960130016 -0.0053245476234378124 -0.006728962430130934
0.06265735074248022 -0.0017590036037191392 -0.005688399236189009
0.06505968849727416 -0.00042316877984907835 -0.004728769233263931
0.061129299146542415 -0.0015531863360008801 -0.006265515877506962
0.0656956281848422 -0.001766105202416771 -0.004528221490501784
0.06665770868321574 -0.0008897698057925726 -0.004133150683566993
0.06423230892206105 -0.0019097108499155507 -0.005091630378699811
0.06876417654371017 -0.009961246606136752 -0.002769204815511673
0.06656403556703602 -0.009190941036001085 -0.003722698714639457
0.07013224009227202 -0.00900812336468271 -0.002313788842662645
0.06916515710571029 -0.008105952869875902 -0.002787002028131941
0.06612924692906928 -0.0064623044857125556 -0.00415844658523456
0.06702998018736106 -0.011123957873518808 -0.00335087032454557
0.06776533305768083 -0.007032253375678508 -0.0034496776313017443
0.0607319445364506 -0.007349866790585268 -0.006154698142159024
0.06422552891961267 -0.009753813123292843 -0.004579030183874927
0.06277314121849628 -0.00819169687651564 -0.005287777617803301
0.06178996765923227 -0.006609567493931658 -0.005817618891253337
0.06447388522953953 -0.005449861680802994 -0.004894006596669092
0.06347785464350496 -0.006527293035490432 -0.005175027361620275
0.06326547194870429 -0.005069624863470916 -0.005395961491047502
0.06516122772413396 -0.008281935210646782 -0.004358896863280386
0.05629568601052796 0.006849418367962876 -0.005404028881059028
0.056255583811498755 0.00420533823387286 -0.00575407902774714
0.055443308216825485 0.01094999420708746 -0.004536335295624455
0.05705528940949052 0.0022066750476488362 -0.006233500504717416
0.05669558849044029 8.369880043013585e-05 -0.006284119333137991
0.05571413660745422 0.0016965735160617806 -0.005828968072026081
0.0575789060919067 0.0035602681368598513 -0.006298954967391282
0.06497921206891273 0.002165067313388854 -0.00455384066731125
0.06393289980686158 0.0007289141940852641 -0.005065243769184945
0.06291767474382802 -0.00040695477179365997 -0.005538002481161812
0.06600185701407041 0.0007387545560231543 -0.0043116114221139045
0.0660129772861846 0.004527418342594422 -0.0037227441551375786
0.060503713721379235 0.006909295656037286 -0.005407207761093891
0.06691677513502299 0.005782574122998223 -0.003110031995391236
0.0634211647796574 0.005352393729920237 -0.004575599674647733
0.06185695196621765 0.0066860858558649375 -0.004919502053343411
0.0649370439430182 0.005856860135001234 -0.0038750798704747158
0.06811620814696416 0.004842365548199634 -0.0027922164135489786
0.06606277897915439 0.0031254420431626097 -0.003975660934363629
0.06279350321079985 0.0019650847898504773 -0.0053560539376243405
0.06109263386532009 0.0034263229060814042 -0.005818504092436015
0.060393731239024036 0.0022644835977149265 -0.006183419878023111
0.061778580573043224 0.0011840669301062341 -0.005796043003814436
0.061054729405568525 -0.00010437953179182502 -0.006182433845216981
0.060104233594006955 0.005234906829801676 -0.005877071727947581
0.05904667633915774 0.004253861490450385 -0.006453799330248566
0.06221162426323841 0.004605801334996934 -0.005197297527115948
0.059234284725241095 0.0067546818615354795 -0.005928756884513602
0.07142073006255839 0.006049245504562051 -0.0003947002104876287
0.07164440629329115 0.0014955147386852496 -0.0012421199525360228
0.07126956575950105 0.003043079004250207 -0.0014787370688839167
0.07025505274392377 0.006283819051445434 -0.0013965329844938907
0.06924804671473311 0.008011941576994423 -0.0015424433873125175
0.06122985412120899 -0.021104131447819387 0.0012934816598191977
0.06439427401321335 -0.01902100071310997 0.0007868264657274373
0.069415642753651 -0.01902100071310997 0.0024710210940959167
0.0637748455501634 -0.020420136977177605 -0.00020300000323913991
0.06238443362548231 -0.020964678445422186 -0.00020300000323913991
0.06610149181847869 -0.022648073064005302 0.001894908921391179
0.06638471177531599 -0.019122824525949985 0.001885833088740252
0.06285285239312036 -0.019512532809136864 0.0008616966213479614
0.059289887960737 -0.020197693498101278 -2.957121876933813e-05
0.06896233284547364 -0.02123239814758863 0.003915117785998698
0.06982060695615434 -0.020120211817407675 0.0038162052986719444
0.07127887878303747 -0.019890010523747715 0.004197444996246413
0.06818911439217834 -0.019848222429034945 0.00319000603668861
0.06614319604129387 -0.020273981249924515 0.0026717633931553136
0.0639694981719736 -0.020093485371730682 0.0018888980459476298
0.06554324984143625 -0.02238169657225562 0.0001833915672537045
0.0663676534858734 -0.020041401863688194 -0.00020300000323913991
0.07010639205934523 -0.019744309105015463 0.0004244332432425524
0.06819343929450208 -0.0217952665563381 0.0006830334922218891
0.06976886125508357 -0.021460333692697727 0.0011017577293357746
0.06866891966724323 -0.02032342781296071 0.0001755536369773952
0.07184273711975073 -0.021601628021994845 0.0025269538496499877
0.06817001145618289 -0.02230552577371578 0.002726445984154569
0.07055887317569802 -0.02216907935886543 0.0022105181012336754
0.07098437978407766 -0.021574479212085492 0.00424731543082355
0.06676722167498245 -0.021871736774961917 0.002894719158862957
0.06423470664264898 -0.022726250384182894 0.001280313083909488
0.0610824817643985 -0.02266272773218865 0.00021693758888639985
0.06288375551018259 -0.022704338452851813 0.0008184631740304955
0.057913896533193315 -0.020771710644481644 -1.1332976260630058e-05
0.06380068580096795 -0.02157486750615833 0.002201519483186929
0.053801223501316275 -0.009020882887246073 0.004733168742304117
0.055261114345333914 -0.005028679677389684 -0.00020300000323913991
0.053264675672688055 -0.004883975995404714 -0.00020300000323913991
0.06281038939977514 -0.0013364276206463263 -0.0002030000032391399
0.06745091216015463 -0.007273245863408351 -0.00020300000323913991
0.06313987241207786 0.00015808907380828342 -0.00020300000323913991
0.05871348654636312 0.010256611684830845 -0.0002030000032391399
0.05909351610151959 0.0012035658343407113 -0.00020300000323913991
0.0592412074336808 0.008878417895890861 -0.00020300000323913994
0.05616386764725534 0.0005936338775109989 -0.00020300000323913991
0.060660413242782846 0.005540321736526176 -0.00020300000323913991
0.053886693698229265 0.0016367957275791288 -0.00020300000323913991
0.062095482352387904 0.00572235921570146 -0.00020300000323913991
0.06539142430113809 0.0023487428959689752 -0.00020300000323913991
0.056329789827523305 0.006610949908975393 -0.00020300000323913991
0.05284194767769118 0.002606009160911816 -0.00020300000323913991
0.06763104981775246 -0.005373186392520914 -0.00020300000323913991
0.05650588604510913 0.013972675880386231 -0.00020300000323913991
0.06401101473528856 0.0032396976905588537 -0.00020300000323913991
0.06253581614446786 -0.004913688789269548 -0.00020300000323913991
0.05560987948636472 -0.0027908566628057256 -0.0002030000032391399
0.053983449538236396 -0.0034884203845425643 -0.00020300000323913991
0.060683405971038135 0.008253595871727911 -0.00020300000323913991
0.06951383032162378 -0.004826721299096122 -0.00020300000323913991
0.060325720827816696 0.0069245510757511425 -0.00020300000323913991
0.05867973707799834 -0.004015743948621937 -0.00020300000323913991
0.059636394002149117 0.01136193944879986 -0.0002030000032391399
0.05591666515151328 0.008794643427375886 -0.00020300000323913991
0.05131230327306442 -0.0022579587849502498 -0.00020300000323913991
0.07074074805915365 -0.006760719041928813 -0.00020300000323913991
0.069003396810729 -0.007923494866169419 -0.00020300000323913991
0.058760010910145696 0.0029889710637882377 -0.00020300000323913991
0.05762137181734266 -0.0009005528185055201 -0.00020300000323913994
0.06058886572035312 -0.0002525329646606766 -0.00020300000323913991
0.05603256321372457 0.01221829349899963 -0.00020300000323913991
0.056665725235791414 0.010889629588885499 -0.00020300000323913994
0.05725361224902706 0.009447357228755116 -0.00020300000323913991
0.06178070689953484 0.0010990986041347559 -0.00020300000323913991
0.0647178939302613 -0.005597278996230011 -0.00020300000323913991
0.05462329093305521 0.008508972620007106 -0.00020300000323913991
0.05767822422517186 0.004858633021580865 -0.00020300000323913991
0.05724813297478373 0.007643971759998001 -0.00020300000323913991
0.054968478004221916 0.004545167853548047 -0.00020300000323913991
0.06168922084148009 0.002891983894599724 -0.00020300000323913991
0.060546415251692715 -0.003419698213816478 -0.00020300000323913991
0.05313542252472797 -0.007594790773513215 -0.00020300000323913991
0.059892451478161884 -0.010903397514799084 -0.00020300000323913991
0.05788440665162645 -0.012723782926711282 -0.00020300000323913991
0.06476486011190855 -0.008280295350475505 -0.00020300000323913991
0.056260919901257284 -0.006404183647113511 -0.0002030000032391399
0.0585355152924555 -0.0102796247959389 -0.00020300000323913991
0.059422835723733594 -0.01227284280037858 -0.00020300000323913991
0.0564070642774196 -0.012965245801370904 -0.00020300000323913991
0.06372643024675242 -0.013678396347510502 -0.00020300000323913991
0.0543614886797822 -0.010157175906483119 -0.00020300000323913991
0.06307556462548407 -0.007959040847395838 -0.00020300000323913991
0.06151938159688142 -0.015237775977944365 -0.0002030000032391399
0.057460773047971134 -0.007530015414432913 -0.00020300000323913991
0.06385465416886835 -0.009370795620845241 -0.00020300000323913991
0.06120531744928097 -0.012055844439693866 -0.00020300000323913991
0.05785795484087336 -0.014214730461003508 -0.00020300000323913991
0.06983511239302954 -0.009661231228396744 -0.00020300000323913994
0.06176879857619343 -0.013711018865222774 -0.00020300000323913991
0.05195040484576677 -0.006738894205327192 -0.00020300000323913991
0.0692553724917492 -0.01621699870210147 -0.00020300000323913991
0.0629754760626347 -0.014967556227102942 -0.0002030000032391399
0.06628681643494691 -0.014249788154118155 -0.00020300000323913991
0.07014010799660292 -0.011731454584980646 -0.00020300000323913991
0.06822418849839317 -0.011249758264672205 -0.00020300000323913994
0.06575011362300498 -0.015744635782924413 -0.00020300000323913991
0.06854202461272149 -0.017759405774071566 -0.00020300000323913991
0.06397578511007251 -0.015975379857097224 -0.00020300000323913991
0.06551384163132018 -0.013052123062211077 -0.00020300000323913991
0.0673702801702969 -0.015678959042133324 -0.00020300000323913991
0.07043447515058059 -0.013447016625583782 -0.00020300000323913991
0.0660613187289765 -0.01738680659177895 -0.00020300000323913991
0.05048990232071905 0.0016940899849361498 -0.00020300000323913991
0.05404462538575431 0.011226523025264864 -0.00020300000323913991
0.051398680120149656 0.005875089142596533 -0.00020300000323913991
0.05097622836082012 8.963484386285834e-05 -0.00020300000323913991
0.0714533361429452 -0.018380373706266474 0.0042620558262887265
0.06734710044905426 -0.013273179643327604 0.006331979251519489
0.06588570231163784 -0.01166172708144184 0.006986187025955388
0.06973671944772142 -0.015428825192915123 0.00545397691791719
0.07187800109386444 -0.004157937217542614 0.003653674784969232
0.07187800109386444 0.002274588682063201 0.003853099897003642
0.07187800109386444 0.003917798570206892 0.004894008681752782
0.07187800109386444 0.00929323827032704 0.005073950325354265
0.07187800109386444 0.00150394519268089 0.002689988135563232
0.07187800109386444 -0.0005464925943198806 0.002234921943887684
0.07187800109386444 -0.002212509642695021 0.0032873082259297333
0.07187800109386445 -0.007667382774584467 0.001555825889524623
0.07187800109386444 -0.00833883228247751 0.00400057172053563
0.07187800109386444 0.00564150181543385 0.004876644943881211
0.07187800109386444 0.007456665313757713 0.004808056131376025
0.07187800109386444 0.0036149349173806734 0.0031043661789247412
0.07187800109386444 -0.003009875387429162 0.004492726090025375
0.07187800109386444 0.0008857554626319182 0.004649539871977493
0.07187800109386444 -0.012024386711935339 0.004264926188827263
0.06456693923018433 0.015002374842164913 -0.00020300000323913991
0.061657682408942774 0.016199976153668944 -0.00020300000323913991
0.061716979639343986 0.014402070864919604 -0.00020300000323913991
0.06559615029689689 0.013342901957272104 -0.00020300000323913991
0.06845936773112922 0.01185813664249786 -0.0002030000032391399
0.060146764897408306 0.016851746718562134 -0.00020300000323913991
0.07006281266016542 0.002131417688676831 -0.00020300000323913991
0.0672271168326958 0.014585185670603825 -0.00020300000323913991
0.06102950279258897 0.012887063562514687 -0.00020300000323913991
0.07086996793517966 -0.0028256127622598277 -0.00020300000323913994
0.05863938026496321 0.017351522245314686 -0.00020300000323913991
0.06267017315058149 0.013122025646845083 -0.00020300000323913991
0.06681031220781232 0.005790177172758065 -0.00020300000323913991
0.06693254454516154 0.012674040822423294 -0.00020300000323913991
0.0710013027574049 -0.004613168406798674 -0.0002030000032391399
0.06846530596593636 0.013667720317802607 -0.00020300000323913991
0.06726239968676971 0.0022492044073694896 -0.0002030000032391399
0.07187800109386444 0.015449294202919845 0.0035907003053975723
0.07187800109386444 0.006986176159853892 0.00341061860671991
0.07187800109386444 0.0025532473869228764 0.0017066299139564473
0.07187800109386444 0.005611489112198223 0.0031540372734819846
0.07187800109386444 0.01105476805302406 0.003555104303031113
0.07005847174657756 0.014578168373863287 0.0006215576953201513
0.07122821016079707 0.01226937980627125 0.0005394711198489107
0.0688382146554757 0.015125254556622917 3.731841548613283e-05
0.07056292296260627 0.016145625668425003 0.0015085549420332425
0.06352706573184766 -0.006790901259094436 0.008516309969834147
0.06878412627649468 -0.013359851790505783 0.006083638692695257
0.06473781454571802 -0.002491696794270794 0.008896703271578198
0.06809331041839102 -0.009315389401548232 0.006918180224707032
0.067081153069763 -0.010663290314433091 0.006963706219424951
0.064557747183353 -0.0044316055490030365 0.00862964768049484
0.0656859423513862 -0.0067894954973741935 0.007954128074997414
0.06675073548500146 -0.00927077440975346 0.0072751554318326635
0.06375410327454957 -0.008423720108677238 0.008192900428988029
0.07001304928435646 -0.014106974865847544 0.005642573390808569
0.0710010038331344 -0.016403353815723023 0.005013543160765634
0.06788664853172488 -0.011960810329876304 0.006543868998973884
0.06482369803269818 -0.0057363820370450996 0.0083491929171911
0.06273172235234072 -0.009944806668567032 0.007558823175126512
0.061574369256602014 -0.010980965796511456 0.006998438326250571
0.06341421279773526 -0.011296568444990848 0.00698423105979204
0.06549787713645965 -0.013161404476211926 0.006273066364502568
0.06507655606893935 -0.014533348365072755 0.00561038359381502
0.06454266595817922 -0.010415125061102816 0.007471212883645528
0.0699670346558008 -0.017903793440571327 0.004405310608775018
0.06789898661570197 -0.01577232038926039 0.005240537733123789
0.06644260743654676 -0.014581866397922468 0.005685513604810135
0.0640027310869841 -0.013240173743519188 0.0061300293345435825
0.06398825689609342 -0.01776613024408057 -0.0001855350582683899
0.07187800109386443 -0.015828511679494034 0.003050344718733431
0.07187800109386444 -0.017665333441641888 0.0025344700030569952
0.07187800109386444 -0.013553857515848311 0.0018957801236922538
0.07187800109386444 -0.013173600888591942 0.0003012455278693217
0.0718513590507922 -0.01759118352440888 0.0005860225580446689
0.06998340610450848 -0.01814199352666705 -0.00016550084092238523
0.07125095966264977 -0.016074416387206115 0.0001901893864501141
0.0672574821329426 -0.018857082047915225 0.00024271041336814233
0.0684132048947477 -0.01888297305884972 0.0010379121314813818
0.07086181867187442 -0.01885671351120443 0.0018290056265133133
0.05654252171568071 0.008101291436106566 0.007488282439140656
0.057072763076308916 0.009387063254132934 0.007056765221675294
0.052989927543824186 -0.010169935447920405 -0.00020300000323913991
0.07152301266735656 0.013889122905477017 0.005328795488393264
0.06685640495142968 0.008192116270349473 0.007657075748596542
0.06801992089462104 0.008997191606112592 0.007148864939554708
0.0689029116779852 0.01010297924494416 0.0067050504294133015
0.0703295938416657 0.012139382151392692 0.005958621438435592
0.07177140284417105 -0.005839020753485959 0.004945734703530847
0.06525050675508441 0.003917185948556251 0.008684115875324135
0.06639439815116019 0.0032393705976279164 0.008173875420756682
0.06720697434567363 0.005854292304528488 0.007719609402640081
0.06897586937154249 0.007589965932941215 0.006848039133727092
0.06618544646467413 0.0018057438588994926 0.008313258983587988
0.06465922364244471 0.0025218698553440694 0.008999622414524778
0.0644369116207465 0.0004823329305945153 0.009163165851676756
0.06610361094701092 0.0050126221283311595 0.008256113845355087
0.07120956208339886 -0.009626019114387735 0.0051787907173014335
0.06524596900524995 -0.0006416953896701517 0.00879502102284533
0.06901824395975516 -0.004000682019768279 0.006564453018881349
0.07156501973736698 -0.0017471540867494357 0.005169187681843429
0.06934611120771672 0.004880180344522868 0.006595086850930489
0.0678381359167347 -0.003909804372045244 0.007238763328960957
0.07028628100339902 0.009024395502062313 0.006161077832169274
0.06641782487562348 -0.005233009607792043 0.00801526266348408
0.06721498646180252 -0.0009261413565327852 0.007666679503395819
0.07038167173204149 -0.005747864128190573 0.005745201965083687
0.0691080052632445 -0.007152511947487928 0.006436192107082835
0.06765196207778681 -0.007931283241577117 0.007246366308311065
0.06866460931195816 0.003775661316192028 0.006956177587754726
0.06628638217520721 0.0002938204249860433 0.008225389550059806
0.06745677316486243 0.004008604648566042 0.00764975643947695
0.06926868652538425 0.0006117446271557345 0.006534711598359369
0.0691652182187909 -0.010512438548166582 0.006321374734376704
0.07067315240735278 0.005454659459936784 0.005853380840047762
0.0711704249219858 -0.004287717860939736 0.005331734236534876
0.06706620476532342 -0.002762397205337123 0.007706470325037694
0.06767434975213439 0.0006645878382458125 0.007443999390905677
0.07087020618253932 0.010424044431845686 0.005862781515839858
0.06591689468770011 -0.0034553262523304836 0.008344057218487652
0.07045344485232612 -0.0126891628806634 0.005534438651080501
0.0687005718283634 -0.002484972688111919 0.006782468060354031
0.06847593724813758 -0.0009529775164632036 0.006947895663146005
0.06583938970343332 -0.0018130249302564664 0.008428392434105328
0.07074262290616531 -0.00035688322044588345 0.00567157957139214
0.07076652067770271 0.0068277029842401605 0.005833811569917089
0.07140328370013387 -0.007723440404198009 0.005115029302518979
0.0701028957668726 -0.0030954878985499827 0.005968884975904796
0.07126437909948442 -0.014616151173777634 0.005025438735810872
0.07036180527503386 0.002166900725816109 0.00595022928566473
0.06996622428165726 0.0034924633864931573 0.006207960563154964
0.06809647074929481 -0.006118700566718384 0.007037575927624736
0.07028818413433104 -0.008270536346252513 0.005736702139050412
0.06235309426887077 0.017534488688764744 -0.00020300000323913991
0.058901308694566376 -0.008354471915190939 0.007839074110793307
0.05870967423135831 -0.00998835215339824 0.007085918804758549
0.05893462334685036 -0.006724307983501123 0.008538474519924264
0.060469211178182034 -0.009043191369562654 0.007778249477827159
0.06207381925250585 -0.008236679277889422 0.008285848403619053
0.05720771398373337 -0.00235844722824722 0.00896251485080978
0.05848115069447754 -0.00466056768943415 0.0089105530190631
0.05870350770910604 -0.0016305223632235321 0.009380492472893348
0.05640957611597502 -0.0035038938581762346 0.008633826471982796
0.05611289631184757 -0.005428807602152407 0.00796157772966342
0.05679914690761377 -0.00721499438495171 0.007595384978445507
0.05786933412755997 -0.005845812241333867 0.008484375104345958
0.057601460039879385 -0.01116639248278194 0.0058637760277221885
0.05742324173685727 -0.009925170296364288 0.006596359139423397
0.06256010788731782 -0.013329166065188362 0.005853328432157649
0.061022841652633775 -0.013406007648368395 0.0053894087809466616
0.06842983429007715 -0.017303360211846613 0.004450210482474472
0.06645442090775677 -0.016066877693636395 0.004847287115768584
0.05895857531822954 -0.011872770511335343 0.0059837189814640965
0.0603075285366483 -0.01147418768981367 0.006637141652460079
0.050723334028068084 0.0002675765769232449 0.00396564017171133
0.0513127845885748 -0.0007902897142924314 0.004826668186146741
0.05052738544551762 0.0018043920276581988 0.003755828744134579
0.05000046149674467 -0.0020479052946946004 0.0023584478379797425
0.05022963348756971 -0.004628561196931512 0.0011730653004186954
0.050381058412855804 -0.0034792164082402084 0.0025393906501044276
0.05135029570388678 -0.0028170599690133928 0.004630809613145462
0.06341814112190827 0.018841000273823738 0.0007901439333467157
0.05917082664259615 0.018653720818755895 0.00022105767733561436
0.059681813030050504 0.0032198670595902324 0.009474381826180524
0.058391992653986355 0.0025409732863061886 0.009369659209696887
0.05578275815503955 0.004726702445890034 0.008267690806367708
0.05451503625958069 0.005106924669416541 0.00765014323637684
0.07014039805312466 0.0037044943858883543 -0.00020299779772917694
0.07037439816622382 0.009711330364094642 -0.0002024860610423835
0.07010385838552564 0.005410853083108949 -0.00020290166238011838
0.0697943585153176 0.013027357778339778 -8.66533757203413e-05
0.07024395415377031 0.011343068580109203 -0.00013046315350363877
0.07187800109386444 0.014557679550040333 0.0021651226017015274
0.07187800109386444 0.00031255271534654845 0.0008239828041436575
0.07175413082094065 0.008968848729334223 0.0002030972289140109
0.07162527517996875 0.010735814449194784 0.00032350494699886703
0.04964299872517586 -0.001996483921333024 0.0006732814557028648
0.06781210457919758 0.015434985477059009 0.005500885409467988
0.0614275560460283 0.012748379510813358 0.006186370577032532
0.06473962740476984 0.014051486065944106 0.005885548566361123
0.070508476430913 0.01668538473687699 0.005141388452003973
0.06298595441377279 0.013367229794561484 0.006041374232368196
0.06028532496068556 0.011554792566012322 0.00674006476078905
0.06690684123147042 0.016230029062617925 0.004816246287181298
0.06851752523853988 0.017509535242752488 0.004240004605081732
0.06296493811963016 0.015766206697275867 0.0044237691119449534
0.06647620151001656 0.01733014125019564 0.003995672558283833
0.06464102688395293 0.016295607467969566 0.004366159976929712
0.06477098784672408 0.017629107845526744 0.00348825698034796
0.06612188250144656 0.015175149838102794 0.005388558801359855
0.06893110865704866 0.016440477083500278 0.005036537594394862
0.05787750853574196 0.010633902860859324 0.006619717088711297
0.06156929875069363 0.01603304485731559 0.003792490799894456
0.06069137443359128 0.017238091574241776 0.0024590500152968393
0.060381452598293736 0.015134229386399658 0.004077014893875989
0.061930656143749534 0.018368312111634956 0.0020032495435678074
0.060792670676470095 0.01864017844114723 0.0013402261419915836
0.06329799570319314 0.017777420682324505 0.0030181068392486493
0.060749285849322876 0.013838310495653853 0.005288939404401517
