0.0718780010939 0.00413228206685 0.00279228977218
0.0715678407634 0.0172820286132 0.00256079027529
0.0713522669054 0.0137591885421 0.00115502380026
0.0696924668718 0.0140887307861 0.000211132944635
0.0708879196778 0.0159350942535 0.00164082995403
0.0711661365191 0.0110570401878 6.34489183648e-05
0.0663178290365 -0.0106100129274 0.00717118261779
0.0646306852777 -0.00714537534234 0.00817143586603
0.0672991411213 -0.00743516132858 0.007429375383
0.0713418120727 -0.0164920737651 0.00491040023268
0.0699087384523 -0.0132512319236 0.00580824534117
0.065201928427 -0.0093597436232 0.00766423624752
0.0659574911543 -0.00671790734378 0.00789497303935
0.0652153108575 -0.00550808416828 0.00828412269735
0.0676235796468 -0.00895160151808 0.00709942722226
0.0675558232385 -0.0126901459347 0.00651201287841
0.06837596356 -0.0107656155217 0.00660983401451
0.0638125466611 -0.00583355665345 0.00859688092952
0.0642932050198 -0.0028595924362 0.00895298643971
0.0654390240904 -0.00386012329214 0.00849255772184
0.0698932550819 -0.0172067585712 0.00472145125154
0.0614909907248 -0.00967460596277 0.00759485697881
0.0612463421866 -0.0117718265314 0.00661035509621
0.0627225096194 -0.0081184358772 0.00840031536276
0.068801764241 -0.016120907857 0.00514423788251
0.0626803621959 -0.0115342106475 0.00682227431356
0.0640591092234 -0.0113580947663 0.00700189042674
0.0635769230007 -0.0125526311629 0.00641666698733
0.0662474512103 -0.0145117562841 0.00570391248895
0.0650602439814 -0.0129470461711 0.00634067209716
0.0632829401301 -0.00947414380638 0.0078151916239
0.06048249788 -0.0107068047334 0.0070469231764
0.0664086856439 -0.0182029588235 -0.000175842154479
0.061936034024 -0.0179605429954 5.21843349591e-05
0.0635507625887 -0.017653907575 -0.000201772573823
0.0718780010939 -0.0160012448437 0.00147074278428
0.0718780010939 -0.0146974812222 0.00204016872755
0.0718780010939 -0.0137959830387 0.000782830669941
0.0701892361205 -0.0183410415146 -5.90322195611e-05
0.0709064354024 -0.0158957584286 2.60527930387e-05
0.0712873029375 -0.0174182525133 0.000328188331342
0.0677698499862 -0.0188328792403 0.000198995212509
0.0687667196518 -0.0189007307327 0.00139591099854
0.0560384797275 0.00952014448708 0.00648579774747
0.0559881451183 0.00770287639674 0.00743350368823
0.052821293698 -0.00884191879047 -0.000203000003239
0.053085211023 -0.0106324664336 -0.000203000003239
0.0667514998654 0.00672791768371 0.00786639168184
0.0700384502532 0.0122324899409 0.00605118313373
0.067823239992 0.00859057462402 0.0072665560401
0.0708708950075 0.0136748840888 0.00558579107798
0.0692500749754 0.010417603303 0.00654467122028
0.0716473246353 0.00594543568569 0.00530695883482
0.0674607886025 0.00450529583552 0.00764193314317
0.0694726920998 0.00832864543581 0.00659579666094
0.0651393473836 0.000405585031642 0.00883977376983
0.0679356124434 0.00630131556599 0.00736853903832
0.0642004608328 0.00148210334065 0.00924314675272
0.0658576611736 0.00402129048717 0.00839953632874
0.0657122342231 0.00216752386936 0.00852192560007
0.0647228429134 0.0029448047635 0.0089575865226
0.0685636981805 0.00496909339756 0.00704285686031
0.0715964983031 -0.013125116525 0.00487278568571
0.0699617254988 -0.0114515964029 0.0058447682123
0.0711564218563 0.00219318430404 0.00549832862846
0.0660983733172 -0.00173592632223 0.0082827850525
0.0715190533329 -0.00125165468594 0.00520749341763
0.0712765199557 -0.00273365796748 0.00530934727633
0.0698813111124 -0.00961211658075 0.00593558629361
0.0687414877749 -0.00494936698052 0.00669885010468
0.0665218928872 -9.84335880514e-05 0.00808166291414
0.069460365884 7.07307424571e-05 0.00641230657495
0.0694146414156 -0.00668543920298 0.00627299059734
0.0681229027397 -0.0033508961448 0.00709026433695
0.070006627588 0.00427548134305 0.00620411467289
0.0700574300362 0.00277375537672 0.00613842744962
0.0691101968279 -0.00834553857286 0.00640574476909
0.0679452575906 -0.000664292822942 0.00725718980532
0.0712926371915 0.00918187015459 0.0055917997461
0.0687093660609 0.0030888454277 0.00691387831261
0.071029866615 0.0107779413903 0.00578051452491
0.0701169261769 0.00584774915314 0.00617977937324
0.0715317981801 -0.0116363744159 0.00494607002751
0.0666084789596 -0.00496492470364 0.00791324416366
0.067426104521 0.00108681251608 0.00759571202181
0.0706881471056 -0.00532213019623 0.0055810802573
0.0714849198316 -0.00829617216623 0.00505451896236
0.0674875521658 0.00298805265956 0.00760724950442
0.0690117346495 0.00703148106568 0.00683817130923
0.0666049528166 -0.00307388177714 0.00796153544405
0.0712604080959 -0.0150312061894 0.00501754183874
0.0712417517122 -0.0102037778482 0.00514631773575
0.0691709139723 -0.00254471396069 0.00651314024527
0.0711899232851 -0.00676877105106 0.00525990613382
0.0715619351232 0.000467658566836 0.00522515173983
0.063143169221 0.0169064191223 -0.000203000003239
0.0568360661722 -0.00771610575659 0.0074279096868
0.0584136251163 -0.00906424746378 0.00737858483226
0.058405704507 -0.00717727775145 0.00817284247805
0.0599711223497 -0.00923255510304 0.00764555360282
0.0596544516248 -0.00790038962145 0.00815349983274
0.0611726574445 -0.00723002157594 0.00859595941137
0.0574559593959 -0.0032593694012 0.00888927894646
0.0586719965826 -0.0014086169539 0.00940479912969
0.0587841281885 -0.00380340890343 0.0090942716952
0.0575320361164 -0.0051694507466 0.0085935273473
0.0561020542383 -0.00616696880411 0.00769803846172
0.0574543895215 -0.0101291097835 0.00647686248188
0.0587777939947 -0.0103535499776 0.00694701306523
0.0585823781204 -0.0118324016152 0.00588387199622
0.0640586972733 -0.0147315940754 0.00520664400304
0.0666602649321 -0.0158730924653 0.00504590256333
0.0624960689576 -0.0138102810354 0.00547850133362
0.0606087932786 -0.0135461527123 0.00517560331692
0.0500981327549 0.00151458923017 0.00306044888019
0.050177878057 -9.9322818013e-05 0.00308210100325
0.0501890188298 -0.00360463853871 0.00180979382238
0.0509489479963 -0.00471488201961 0.00348711156646
0.0506871179683 -0.00156666760055 0.00374797330266
0.0518016960791 -0.00289628356928 0.00534301997044
0.0505899945094 -0.00332775341938 0.00333834424194
0.0513773304254 -0.0015481749994 0.00485710972297
0.0610520026321 0.0188410002738 0.000506991031739
0.0581323021385 0.00369202007248 0.00923472735235
0.059046086266 0.000980403908106 0.00959117181258
0.0600801817056 0.00392909871062 0.00946256125097
0.0549599449477 0.0049058110178 0.00788419454434
0.0566868273225 0.00478067619428 0.0086248706419
0.0547687355188 0.00646394424923 0.00740690312742
0.0715990858562 -0.000288443810543 -0.000202566459864
0.0708415041848 0.00314515531568 -0.00020269994927
0.0707413868613 0.00125870131954 -0.000202873387968
0.0697235871166 0.0126272026747 -0.000138302949478
0.0710167958717 0.00904539493005 -0.000153183823743
0.0718780010939 0.00978523358327 0.00171167386974
0.0718780010939 0.00482310652436 0.00110582150491
0.0717395196118 0.0124512867703 0.00111926054571
0.0496429987252 -0.00175183864988 0.00095514444331
0.0496429987252 -0.000750307460338 -0.000107172042975
0.0609006397117 0.0116127916723 0.00679548358914
0.0596406083609 0.00993499915 0.00762461505241
0.0653796691697 0.013473348801 0.0063292247668
0.0643853001002 0.0162732926238 0.00433544401312
0.0648511988077 0.0181298990526 0.00316418773471
0.061526517398 0.0131304381382 0.00594741949279
0.0633636507317 0.0168377424965 0.00377103005181
0.0631226966303 0.0153617054537 0.00472538205916
0.0621332728555 0.0145568342912 0.00509212345605
0.0687694953577 0.0164350457468 0.00501126590525
0.0710224554515 0.0170869649868 0.00497416682308
0.0674430196983 0.0156025795362 0.00533629575579
0.0674473472881 0.0168073460012 0.0045228920831
0.0660220096759 0.0163351279709 0.00458676247981
0.0642900371896 0.0142437141547 0.00568996896251
0.0658640070611 0.014975124786 0.00547755423859
0.0594894101241 0.0118024849259 0.00646616700263
0.0584147096024 0.0103817626394 0.00701169053146
0.0602702118327 0.0168057149498 0.00265381943989
0.0618006140931 0.0163283784586 0.0036377367994
0.0618248852506 0.0175512565453 0.00263722436514
0.060012685937 0.0147264151072 0.00427169083307
0.0595824395431 0.0157342652246 0.00327360604116
0.0571426695375 0.0109134649639 0.0061172548467
0.0578136506992 0.0119513395419 0.00557350416654
0.0592718630166 0.0136857051991 0.00482220751181
0.0592475635574 0.0179610414444 0.0012802440481
0.0589770158312 0.0168216511251 0.00209482299076
0.0513167351622 0.000883785432384 0.00492493646732
0.0517277118909 0.00341063959396 0.00527020283039
0.0526364920692 0.0044650735991 0.00613542506281
0.05353720919 0.00383529725195 0.00721248112863
0.0525042312174 0.00173404872646 0.00628418682789
0.0535177410099 0.00195433732808 0.00736087217754
0.0525819550204 -0.00780877847541 0.00394568496189
0.0517875280322 -0.00592857833242 0.00417652654332
0.0635952930607 -0.000119885243016 0.00933688984749
0.0645952467174 -0.00131036961228 0.00911977696232
0.062107529961 -0.00162554367562 0.0095209186809
0.0625060971722 -0.00627582749123 0.00880049332056
0.0633131093673 -0.00431848116746 0.00892930760919
0.0590681630444 -0.00542993528531 0.00892039964512
0.0606211757291 -0.00170283597178 0.00964407392322
0.0609715350398 -0.00302421203956 0.00943349492914
0.0609416717395 -0.00579767856365 0.00889442734645
0.0617987379143 -0.00429564849027 0.00919701475701
0.0558248753986 -0.00168461746024 0.00870631690126
0.05608800176 -0.00342273828502 0.00857384965709
0.057249078912 -0.00164842435326 0.00905337602255
0.0540526686684 0.000521443898919 0.0077110814465
0.0562798115198 -0.000158255302334 0.00896188545142
0.056714189015 0.0015464763163 0.00901263362513
0.0581159747772 1.83751618652e-05 0.00942015349295
0.0579286616339 0.00211331502681 0.00930013629247
0.0554958397653 0.00325276376556 0.00844125207829
0.0550183365929 0.00157501705169 0.00840329356232
0.0564163718112 0.0165954671347 -0.000110863454353
0.0579153369159 0.0158114639356 0.00238380401694
0.0573535856806 0.0134550322274 0.00410709452008
0.0576316413843 0.0167453020472 0.00140924837192
0.0566013449915 0.0122700994578 0.00470307687584
0.0520566906183 0.0094646329087 0.000362056844906
0.0556903905851 0.0155123405049 0.00031880262084
0.0535830897206 0.0115936134887 0.00198719050952
0.0524280846118 0.0099173651945 0.00176232377832
0.0547773518421 -0.0123833068492 0.00215944234139
0.0561312797341 -0.0140343024769 0.0016074709839
0.0559313727713 -0.0130049929171 0.00294656668646
0.0550997003945 -0.0136452627366 0.000423309532516
0.0533011151918 -0.0116714064128 0.000772824544953
0.0646108888839 -0.0189666648815 0.000973142502609
0.0706127659506 -0.0189160496886 0.00369951330756
0.0622539586716 -0.0165467665199 0.00275203395093
0.0635441543906 -0.0180513275657 0.00156814988344
0.063676789264 -0.0170161073616 0.00283617830789
0.0676845316272 -0.0188447333522 0.00248148979046
0.0647848280448 -0.0178784626533 0.00232140702874
0.0603060094026 -0.0162127550807 0.00227646712551
0.0572617004437 -0.0135268490096 0.00372948946393
0.0587387081941 -0.0134055203119 0.00465251654667
0.0632475539648 -0.0158437831918 0.00395889451789
0.0685361763984 -0.0176348850508 0.0042147515669
0.0663366199861 -0.0171979704564 0.00380015786845
0.0605830234425 -0.0146121028104 0.00415945236372
0.058871608401 -0.0152915434906 0.00253904292547
0.0608138739356 -0.0174161998816 0.000703764477281
0.0573011622573 -0.0149760819314 0.00163851894339
0.050300068906 -0.00546258757938 0.000719540815655
0.0508261597091 -0.00616329685969 0.00179479740693
0.0511963166318 -0.00790756958603 0.00134554269625
0.051433511325 -0.00669476383103 0.00295749908675
0.0519159391088 -0.0094849785208 0.00126774941119
0.059655386783 0.00850847832556 0.00833141850322
0.0623734980526 0.0101695331581 0.00772143760124
0.0633932996701 0.0117387501279 0.00703190558565
0.0669827095237 0.0139014895117 0.00624137817277
0.0647631725685 0.0122087706768 0.00690326132274
0.0575970888 0.00783257474236 0.00806375644544
0.0627970058332 0.00875916273129 0.00828836303576
0.064785166366 0.0103023980961 0.00768059080257
0.0607755891891 0.00785750793974 0.00864136068787
0.070173418548 0.0161161359357 0.00538583161578
0.0615106722826 0.00916302495939 0.00812489545827
0.0561581807442 0.00590424137269 0.00811305516069
0.0580372160626 0.00638966100558 0.00872499762922
0.059768876817 0.00659770797936 0.00908305546808
0.066918942835 0.0181354851508 0.00352390824077
0.0686974756155 0.018319557517 0.00358102503412
0.0700894923983 0.0180047333648 0.00406673783111
0.0680019454453 0.0188410002738 0.00241482186285
0.0632845744145 0.0186528805823 0.00219434652371
0.0660959929621 0.0188033350816 0.00249310491143
0.0557622181083 -0.00485866226747 0.0080058786194
0.0526625947903 -0.00415084447349 0.00588134774735
0.0515833656666 -0.00410241854465 0.00474066641336
0.0543074519643 -0.00636858019278 0.00657327627754
0.0539010516752 -0.0048690239002 0.00687533305595
0.0555457836008 -0.0082842843138 0.0067150154684
0.0535440991058 -0.00755274783548 0.00544434192163
0.0527952214341 -0.00620896695191 0.00520045386777
0.0531625048914 -0.00130658340774 0.00699872581204
0.0540254701698 -0.00281020880196 0.00749559969928
0.0543807285785 -0.00134097765544 0.00785061634727
0.0542846178177 0.00862882293653 0.00579980632133
0.0533592268862 0.00588877486713 0.0063092239966
0.053590506583 0.00932703033572 0.00469804505687
0.0522015048044 0.00584303255497 0.00508365708258
0.0524497366047 0.0072931217276 0.00451059097807
0.0532107873096 0.0102990565813 0.00327830140925
0.0546015052706 0.0130541382645 0.00209192933836
0.0543430189569 0.0111677692209 0.00377180662311
0.0557900634395 0.0149460390243 0.00156934830008
0.0557037046154 0.013055554156 0.00327682449011
0.056755274017 0.0146181999353 0.00275193686274
0.0553608408531 0.0110406791502 0.0048029415419
0.0698723589097 0.0184109581632 0.00230505517631
0.0681410395742 0.0173682416207 0.000884367785148
0.0684429555351 0.0159714427893 0.000287042277737
0.0698822799682 0.0167803379234 0.0013926386901
0.0671419043036 0.0185904286573 0.0012166058391
0.064734443889 0.0188342858778 0.000827751423691
0.0651520571458 0.0169671373309 -0.000103109102273
0.0668356474062 0.0167450648099 8.81383462032e-05
0.0621841872129 0.0184444927581 -0.000105663341359
0.0500295211775 0.00286219658352 0.00275195534645
0.0503525202835 0.00548227252054 0.000531320565565
0.0499520514298 0.00392064478448 0.00115716342362
0.0497102331844 0.00110180690942 0.00162864700074
0.050631731481 0.00375073365348 0.00375902524278
0.051507916276 0.0070506661924 0.00303476762777
0.0509129089105 0.00561533110336 0.00295095521137
0.0512804929707 0.0049616812746 0.00413097278716
0.0507500675705 0.00690397596126 0.000894629295093
0.0517051843508 0.00837645370959 0.00242173728814
0.0677389592857 0.0101846316376 0.00710767695666
0.0650713316618 0.00516700154894 0.00864531031784
0.0665767395215 0.00871315652373 0.0076797980562
0.0636814740632 0.00498267680305 0.00911390768898
0.0611325910643 0.00267395516144 0.00954543053056
0.0635456393332 0.00719366517733 0.00869477799053
0.0612329313727 0.00587189604313 0.00939522427734
0.0666594350482 0.0114989133595 0.00713419866288
0.0643148409319 0.00846251387968 0.00825906722283
0.0691545764216 0.0144530940197 0.00600487308015
0.0678180382974 0.0129275257887 0.00659590205016
0.0623489742476 0.00361768437507 0.00947082544528
0.0604594899374 0.00116720205746 0.00962597816778
0.0599785012759 -0.000261245383018 0.00969649601476
0.0632806090751 0.00255320495109 0.00944597514605
0.0622721576946 0.000549223749821 0.00957076492825
0.0543481522599 -0.0113728900316 0.00302557773324
0.0555427921323 -0.0118017465462 0.0040148420351
0.0550273602622 -0.0107331937304 0.0047093939029
0.0560191143509 -0.0101440389032 0.00574819688471
0.0572304497463 -0.0124371875371 0.00470149211776
0.089956628142 -0.0127714980115 0.0138647039947
0.084283813344 -0.00970599986613 0.00773121146094
0.0868730194176 -0.00970599986613 0.0086144033662
0.0900343683296 -0.00970599986613 0.0119970404458
0.0820949971676 -0.0122145211122 0.00657138533973
0.0820949971676 -0.0158830996905 0.00900103215029
0.0857456764121 -0.010117120002 0.0103416400308
0.0850045076468 -0.0113613397288 0.0102311633582
0.0859586442576 -0.01281489783 0.0114200991855
0.0866459320217 -0.0108602752505 0.011248179283
0.08805966729 -0.0112710875301 0.0124127092681
0.089217365895 -0.0109451864786 0.0131394331924
0.0919427333243 -0.012098777604 0.012594249799
0.0925987597006 -0.0117071965064 0.0141147687842
0.088236504147 -0.0151462051755 0.0117019759854
0.0827842262129 -0.0097595140107 0.00792700875511
0.082783066527 -0.0132039717895 0.00908080030372
0.0844120635872 -0.014882280431 0.0108783062745
0.0830882768309 -0.0154925094739 0.00998214432823
0.0840167770609 -0.0136898980851 0.0102175937352
0.0836434231959 -0.0115059220075 0.00927785500199
0.0916338827139 -0.00970599986613 0.0133000680531
0.0934945856249 -0.0102941225741 0.0140613265963
0.0843149455948 -0.0172802771718 0.00818763083188
0.0820949971676 -0.0171962690616 0.00808638943256
0.0825570313537 -0.0161777846517 0.00636365068312
0.0874016238814 -0.0155398721006 0.0100739307656
0.0859401342902 -0.0163962629498 0.00926216502551
0.0822582588651 -0.0185257974305 0.00796027163536
0.0839608121465 -0.0164573843809 0.0105109321151
0.0891656935701 -0.0138063951199 0.0132078313232
0.085336634644 -0.0167079317585 0.0104404422908
0.083702860649 -0.0175812574294 0.0096028702712
0.088516710348 -0.0147083766665 0.0103460324251
0.0868872485446 -0.013123831423 0.00836977717396
0.0865729253664 -0.0151395351742 0.00894129675627
0.0879285500751 -0.0129713422827 0.00915451798865
0.0887560185094 -0.0116193034593 0.00927293688972
0.0850685725712 -0.0156473404725 0.00792559251859
0.0896831168865 -0.0127947757487 0.0105097736836
0.0907852478313 -0.0105115703708 0.0107241175723
0.0908793573266 -0.01306503988 0.0116914606819
0.0896455686837 -0.010474995379 0.00959949407804
0.0926678738653 -0.0105689001469 0.0125808144705
0.083586756307 -0.0110520292546 0.00602649553736
0.0858382666198 -0.010019507669 0.00716075629005
0.0851302091768 -0.0113493243982 0.0068441495038
0.0829158499013 -0.013039231198 0.00575550934843
0.0856534537219 -0.0128427815214 0.0074284176325
0.088552018042 -0.0104317619351 0.00863844732074
0.0841388453953 -0.012875142632 0.00644069044657
0.0849127016957 -0.0139597409572 0.00726420142335
0.0873745448989 -0.0115177695129 0.00817776590148
0.0831867785083 -0.0147087352918 0.00634487563068
0.0833188079447 -0.0171073613334 0.00712635962066
0.0910245180196 -0.010455927233 0.0142451335881
0.0873914302862 -0.0134572979763 0.0126257901979
0.0914666707332 -0.0124251902209 0.0141512132367
0.0858054902745 -0.0150185945672 0.0118059520294
0.0959742895286 -0.00346697542849 0.0144672228869
0.0835981795008 0.000509999983478 0.0052592633361
0.0913609633919 0.000509999983478 0.0124960720433
0.0864387165622 0.000509999983478 0.00836593837856
0.085478413157 0.000509999983478 0.00661300104287
0.0855228758637 0.000509999983478 0.00470789052901
0.092642025628 0.000509999983478 0.0134729942769
0.0927418897888 0.000509999983478 0.0099173665527
0.0870026336571 0.000509999983478 0.00476296770826
0.0906164492952 0.000509999983478 0.0103986408903
0.0901034188558 0.000509999983478 0.00693727120228
0.088729742697 0.000509999983478 0.00665128714152
0.0882510190775 -0.00970599986613 0.00985063851053
0.0891131894364 -0.00970599986613 0.0108880520142
0.0820949971676 -0.000716926919231 0.0042364029502
0.0834034189368 -0.00970599986613 0.00632351747387
0.0915599712262 -0.00762926873439 0.00869769230136
0.0923839680368 -0.00941686040167 0.0117372095585
0.0905720449088 -0.00724219599704 0.00718214351642
0.0902041666008 -0.00853580836524 0.00836051440202
0.0913609832142 -0.00899959980464 0.010147936979
0.0890711127784 -0.00825651356658 0.00722775396992
0.0864272065247 -0.00861807770536 0.00623401924892
0.0875909014503 -0.00793585980067 0.00619656914566
0.0953800821226 -0.00705140128135 0.0150621349476
0.0941646601891 -0.00438948062929 0.00925654890852
0.0952073223968 -0.00561482305427 0.0122368638065
0.094153428267 -0.00690667576556 0.0114879680126
0.0944139634634 -0.00545922664314 0.0106639912548
0.0949251597887 -0.00800804276777 0.0138677813355
0.0955262715148 -0.00641847860525 0.0135321368598
0.093646287685 -0.0086866336006 0.0153436696419
0.0904462025115 -0.00456474966116 0.00528274037545
0.0891196025513 -0.00428542789669 0.00441492116683
0.0897148353581 -0.00596686529576 0.00570941281349
0.0883733933855 -0.00555997386775 0.00492760970314
0.0861388265361 -0.00707301638441 0.00500847155037
0.0876810203997 -0.00661370071945 0.0053219505986
0.0836823168643 -0.00868430545701 0.00506451402643
0.0886031005885 0.000509999983478 0.00373223913404
0.0865928426468 0.000509999983478 0.00336439718055
0.0899999445273 -0.00295563982723 0.00448876795261
0.089478621285 -0.00129085959206 0.00384238418494
0.0946048564265 -0.00349934892121 0.0162232028811
0.0950895458603 -0.000726004672272 0.0160833353872
0.0946163883936 -0.00567500522568 0.0162750278137
0.0941914435707 -0.00187532613923 0.0160608811595
0.0932485148024 -0.0069913353378 0.015588517194
0.0912736650668 -0.00537221993405 0.00618798847554
0.0930824153946 -0.00831847654541 0.0111607618302
0.0936386611924 -0.00918376670445 0.0127856163711
0.0917873031697 -0.00635386786267 0.00743614053136
0.0934870922479 -0.0055976596951 0.00915258836925
0.0932465610145 -0.00703746480977 0.0100211413516
0.0824002943929 -0.00677516888547 0.00753154394072
0.0913786907021 -8.61802939281e-05 0.0139528674535
0.0857808572007 -0.00212379735198 0.00978778536182
0.0853198344419 -0.0035046801848 0.00954707734392
0.0886300141843 -0.00101559136474 0.0119017099668
0.0874775533702 -0.0041687079193 0.0112747873924
0.0875138362603 -0.00253258876125 0.0111648982677
0.0859408162285 -0.000744241335146 0.00979535484105
0.0841319328707 -0.00604422350361 0.00884094468394
0.090955918734 -0.00154348282984 0.0137482400697
0.0847787137502 -0.000810601896828 0.00890060805607
0.0838912805451 -0.00330668266689 0.00842359870942
0.0831800077616 -0.000610051120916 0.00764508798391
0.082701978417 -0.00292985069362 0.00747039753547
0.0861147212067 -0.00497454948412 0.0102868963705
0.0899610451448 -0.000679492715965 0.0129045836154
0.0864795178953 -0.0035659299818 0.0104507133511
0.0833443881296 -0.00480178887399 0.00812599703644
0.0873603170071 -0.000777903461355 0.0108979585651
0.0824740125571 -0.00813064864417 0.00768875480258
0.0842485246516 -0.00748779728074 0.00902706429629
0.0932909685957 -0.00350767375292 0.0155353401358
0.0907426726146 -0.00466146613567 0.0137021423066
0.0905765648182 -0.00783190264089 0.0136723879167
0.0919269141516 -0.00877774967976 0.0146889541967
0.08798873302 -0.00587064137318 0.0117199143883
0.0866402935418 -0.00834781589208 0.0108039914219
0.0878698704194 -0.00808932588496 0.0116971732035
0.0914112585926 -0.00599070261413 0.0142304264198
0.091803198691 -0.00371826642917 0.0144516409198
0.0858456589959 -0.00736959986424 0.0101935527915
0.0890451982408 -0.0043060052949 0.0124484209626
0.0867862724245 -0.00618145924608 0.0108481126815
0.0892445195917 -0.00765101995242 0.0126914083209
0.0918802075044 -0.00738413940355 0.0146143359405
0.0926378188924 -0.00221308197169 0.0150193676945
0.0900127161432 -0.00578429501295 0.0131999969554
0.0932553102116 -0.00539601725537 0.0155639691546
0.0838580470587 -0.00892436794895 0.0087647130915
0.0888687930871 -0.00897306628353 0.0124479595685
0.085045291734 -0.00844017483496 0.00963742041749
0.0873555719721 -0.00938851405763 0.0113356369105
0.0835041218825 -0.00144921762545 0.00296943921481
0.0823281105964 -0.00210743064574 0.00352631415692
0.0820949971676 -0.007611934209 0.00616203197729
0.0959146433567 -0.00555906823834 0.014886916181
0.0956779084521 -0.00262025390602 0.0161159903324
0.0861330298049 -0.00120956223992 0.00275899682888
0.0878715062539 -0.000991584766255 0.00292521561404
0.0874640633003 -0.00256388891586 0.00340035193172
0.0877064956103 -0.00391661666162 0.0039708315258
0.0851093301597 -0.00503504528576 0.00391112746927
0.0858103863489 -0.00267467559513 0.00312920509298
0.084201231906 -0.00606924025443 0.00413958643758
0.0863958073951 -0.00567442240986 0.00440335618066
0.0861500653607 -0.00392640956018 0.00367900181577
0.0847438929878 -0.00734863842048 0.00473866229926
0.0823273999582 -0.00784545567519 0.00464902081095
0.0837245235217 -0.00457871425465 0.00372940226132
0.0846811192568 -0.00352692646921 0.00340018607379
0.0833035388415 -0.00314648235606 0.00339377830881
0.0954465440707 -0.00150024712222 0.0119154361018
0.0941848297783 -0.000376297013212 0.00937878987678
0.0947539302056 -0.000880074335815 0.0105243649247
0.0946005535284 -0.00296914568547 0.00961695931257
0.0949385525076 -0.00405005515699 0.0108776939587
0.0955671992741 -0.00418155333306 0.0127328654659
0.0916210227273 -0.000142177528902 0.00535391237182
0.0925605753772 -0.000567986469223 0.00625095323528
0.0908257741054 -0.00132812273935 0.00462413816077
0.0925928349872 -0.00295161402426 0.00621168291919
0.0926417357643 -0.0049252777341 0.00719992904106
0.0933801958572 -0.00153970712039 0.00736329139073
0.0941041966742 -0.00202347837232 0.00864166205239
0.0935658968249 -0.00316845018585 0.00769883784341
0.0953334991197 -0.000181492537673 0.0123924851065
0.0957484765242 -0.00226209669278 0.0131504807877
0.0958551598746 -0.00104260036057 0.0136476413858
0.096088118968 -0.001262840371 0.0152303425999
0.0782442316234 0.000787922649565 0.00149857578887
0.0777714605127 0.00726877783149 0.0024959672874
0.0774606181038 0.00574185589359 0.00182290786274
0.0762036272707 0.00695102103867 0.00114673163802
0.0778308365793 0.00273680920514 0.00150070911611
0.0774255672242 0.00415513625849 0.00148512335387
0.0740725257093 0.00802300032228 0.000544132195201
0.0720830793334 0.00139195160084 -0.000793622400762
0.0730393032614 0.00463369824837 -0.000645262728139
0.0722992661508 0.00647341221362 -7.8979471156e-05
0.0766008341261 0.00756289964866 0.00412127704651
0.0753306414121 0.000510999991093 0.00108693055125
0.0757024131367 0.00414758567225 0.000532872427881
0.0761647955003 0.00168437313793 0.000592184795671
0.0727065669235 0.00325010528122 -0.000772304500978
0.0744261379405 0.0036660048728 -8.00439740213e-05
0.0745466784594 0.00154918771397 -0.000155550273364
0.0747380147887 0.00664627061702 0.000246349420213
0.0752189313858 0.00318799898999 0.00287131062878
0.0774600059611 0.00551565529634 0.00453330846308
0.0765157817478 0.00221694712838 0.00343951323768
0.0752917679076 0.00143828058279 0.00261541516671
0.0740953864015 0.00152041454367 0.00195308369048
0.0782909273957 0.00167669291492 0.00435122180371
0.077311207251 0.00386821496273 0.00416949448955
0.0786585616601 0.00323145752969 0.00482300201066
0.0737539667787 0.00604031557015 0.00226714011558
0.0740638024006 0.0030455113046 0.00214656342444
0.0728340519906 0.00361124033905 0.00143500240461
0.07458729813 0.00720931118932 0.00291252113069
0.074577100878 0.00457359689817 0.00262903914684
0.0758936238678 0.00627309272604 0.00363314477659
0.072873981704 0.00777011073424 0.00189725318236
0.0727480189995 0.00210029210953 0.00122221741057
0.0758961406567 0.00439635190282 0.00343742398291
0.0790860068568 0.00295531546505 0.00275213282774
0.0856426350904 0.0108357504321 0.00596201128165
0.083108701062 0.000510999991093 0.00369558799887
0.0795158591242 0.000510999991093 0.00381234200998
0.0790920034051 0.00732703877703 0.00470203223035
0.0790920034051 0.00497125820894 0.00351869869216
0.0790920034051 0.00862636582316 0.00519681485525
0.081986807301 0.011930000037 0.00760763635951
0.0894171844409 0.000510999991093 0.00522793870423
0.0892141870893 0.00051141353027 0.0100012123499
0.0806958591338 0.000511075000259 0.00576636532106
0.092103152719 0.000511195074748 0.00838684778351
0.0917436861423 0.00051104869441 0.00699899600852
0.0880570185857 0.00051121819764 0.00805888196762
0.0900429966356 0.000511616060389 0.0119656333264
0.090620578823 0.000511203688301 0.0082679653657
0.0931999450988 0.000511528341145 0.0115837196999
0.0874123428947 0.000511032990157 0.00627758340896
0.0918305492949 0.000511493036442 0.0110779204182
0.0936129463174 0.000511945363142 0.0154560631231
0.0837359690599 0.011930000037 0.00732845777388
0.0924793553171 0.0047969914093 0.0151470836856
0.0937059625011 0.00191389600577 0.0158043563977
0.091009773415 0.00519017155964 0.0143596139111
0.0878840720736 0.00810634625678 0.0126847189449
0.0871987414054 0.011930000037 0.0107285749173
0.0902621220665 0.00959863242837 0.0124923833186
0.0895083096319 0.010213656224 0.0112270762642
0.0883696452033 0.0111910820891 0.0109081092011
0.0946107668278 0.00132214250113 0.0115385896545
0.0952496771548 0.00138285511879 0.0132818135389
0.0932148423218 0.000612158418974 0.00755695805128
0.0957488121515 0.00098035450433 0.014508889545
0.0912712722256 0.00698099055383 0.00871261596072
0.0899762536773 0.00909978489943 0.00966131326424
0.0889988722949 0.00904407071453 0.00753722463016
0.0902373715649 0.00777501807344 0.00776352324739
0.0881630730475 0.0104354171454 0.00836889693688
0.0894864204355 0.00787264822564 0.00638995890439
0.0889188776044 0.0103938529561 0.0098556739499
0.0909936378643 0.00827178400092 0.0102419050031
0.0899227796291 0.00125668622629 0.00396394744318
0.0884483915754 0.00208553921409 0.00302409452536
0.0895598560394 0.00380295339006 0.00385254158565
0.0900418891751 0.00504812933794 0.00443024155503
0.0909755470082 0.00200555172894 0.00476378865579
0.0883060249023 0.00375047213896 0.00300119820972
0.0867119797246 0.00481046345711 0.00260117336748
0.0833360960726 0.00612590689253 0.00897584270008
0.0894026472632 0.00195833024354 0.012746469749
0.0861325676184 0.000610019854013 0.0100147569232
0.0827915394178 0.00452448528196 0.00825312140467
0.0821617863071 0.00624123590494 0.00811147571071
0.0818254776923 0.00891240372498 0.00837707186611
0.0794403873059 0.00571637406274 0.00595427600831
0.0864842353334 0.00511779836298 0.011157126422
0.0885048473424 0.00386085628966 0.0124385389871
0.087336834149 0.00364301163185 0.0115141218062
0.0912732438189 0.0016628060647 0.0141015997311
0.0831578297424 0.0080167650715 0.00920901015042
0.0879634661145 0.00127160635732 0.0115260745399
0.0898273255882 0.00335845677003 0.0133395093075
0.0854013040964 0.00291000642018 0.00990989838119
0.0808499864876 0.00661336535096 0.00719323072803
0.0867606384304 0.00231689590748 0.0108210571168
0.0807164464832 0.00933219797127 0.00762122217404
0.0854136166001 0.00626533308617 0.0105718363466
0.0846828910979 0.00500772178315 0.0097754006314
0.0801172028625 0.00183681353757 0.00571077650915
0.0838964112393 0.00350124533311 0.00888845467277
0.0841892508716 0.000690878542712 0.00856295679471
0.0815268019798 0.00489904114323 0.00737088831791
0.079445281953 0.00746571976418 0.00629823510822
0.0830037924034 0.00101313477425 0.00773041980654
0.079738277212 0.0033085863027 0.00571089702166
0.0805876209805 0.0042459376916 0.0065346159707
0.0830241626126 0.00253666888816 0.00804214323226
0.0815876720068 0.0030255018879 0.007052435784
0.0895278929274 0.00574378540454 0.0135636342622
0.0883340796354 0.00646293257606 0.0128031507152
0.0908756551478 0.0037126092697 0.0141940073358
0.0873230251052 0.00615412694064 0.0119873192041
0.0846436068589 0.00771918590855 0.0102713032127
0.0846042007314 0.010275930268 0.0107202295773
0.0856011799186 0.00872205048513 0.0111769235791
0.0860380048908 0.00722370586293 0.01122403306
0.0827843785715 0.00997088086836 0.00929872489139
0.0800265271968 0.0108647554592 0.00739829741631
0.0816114560534 0.0106418900135 0.0085448956792
0.0839860107178 0.00901478730742 0.010020728308
0.0923788882316 0.00237368825449 0.0150704943775
0.0926548758125 0.00410053938954 0.00844021724139
0.0919646232666 0.00430049383649 0.00694900063844
0.0928950564819 0.00264595584613 0.00805808714536
0.0936076405656 0.00142890441852 0.00894008597319
0.0935032072752 0.00280300002459 0.00958870439086
0.0949805201719 0.00304743269577 0.0132176997531
0.0943070435911 0.00341125370816 0.0118724904832
0.0911947034707 0.00435116457199 0.00561807006773
0.0921960650159 0.00194471897467 0.00620227100897
0.090752032797 0.00607602250983 0.00624186095469
0.0898616645464 0.00656832174097 0.00533683893674
0.0819488361889 0.00173715667637 0.00249531593073
0.083388133187 0.00234644422479 0.00234119428572
0.0838874978916 0.000999410084225 0.0025448603412
0.0854136735811 0.000759164518297 0.00252767590097
0.0845260909249 0.00377978289195 0.00224588620905
0.0857720649737 0.00258806355975 0.00235350808045
0.0917230421856 0.00829849033687 0.0118093731742
0.0921208196996 0.00621006854916 0.00943715351841
0.0922806882341 0.00692752848401 0.010947341368
0.0915736670715 0.00575137876819 0.00747742098101
0.0939296600951 0.00561576046879 0.0131239640194
0.0934545930469 0.00462307965796 0.0108603852797
0.0945709410021 0.00301637891333 0.0160092834393
0.0939548367974 0.00523401309878 0.0147887261214
0.0928211870793 0.00627264432215 0.0144069031667
0.0954036641912 0.00170582928578 0.0158324109847
0.0949009977505 0.00423575314871 0.0147077289883
0.0855595814627 0.00973236618584 0.00448324612907
0.0805262164907 0.0116455909786 0.0051346193554
0.084411181055 0.0106054199093 0.00512437541615
0.082180518794 0.011099078129 0.00501338922674
0.085049219487 0.01158927997 0.00695298267024
0.0815822960066 0.0118963528388 0.00600247197179
0.0805599137461 0.00240836541019 0.00259365055975
0.0803831113707 0.0054025738605 0.00281209381681
0.0793557248858 0.00940317350555 0.00380163914146
0.0797166215287 0.00696604964666 0.00328218651589
0.0807525570263 0.0083058356888 0.00317939860978
0.08063735321 0.0104477400917 0.00424328058612
0.0826736652027 0.00971531323116 0.00379386050476
0.0823052117235 0.00852670336037 0.00307727668179
0.0870374846097 0.00707741209382 0.00338299188816
0.0881417637219 0.00543128622087 0.00334037491569
0.0861039218159 0.00819404824714 0.00341672302838
0.0855044345724 0.00604192837344 0.00235677075588
0.0911149499959 0.00668004609108 0.0143352015624
0.0913667667629 0.0079722956956 0.0135931838501
0.0898280018271 0.00846499664477 0.0135155759449
0.0888336661526 0.00965227294299 0.0126926571823
0.0851874282234 0.011930000037 0.0109060857872
0.0828238968032 0.0115656601719 0.00948286706636
0.0873141874382 0.00961815815716 0.0123021884583
0.0860093574836 0.0104947649851 0.0116157598233
0.083676340755 0.00508116567176 0.00220099999569
0.0813086453817 0.00441388938504 0.00248635842882
0.0822428679385 0.00336253519405 0.00235248572448
0.0816970277657 0.00730155103941 0.00273460147549
0.0817199473385 0.00591003805953 0.00254830474728
0.0842893167767 0.00814921909912 0.0029271707682
0.0876188526776 0.00795750054521 0.00434791857116
0.0886503613002 0.00673488418283 0.00432869236369
0.0877755636822 0.0097866544281 0.00660770216333
0.0884056506666 0.00874264387888 0.00598739764047
0.0871720819697 0.010876393803 0.00733652354764
0.0873327631758 0.00926488864931 0.00516056770924
0.0820741570742 0.0134237917501 0.00943723646804
0.0842041051871 0.011930000037 0.00942377730145
0.0795270695958 0.0120533529909 0.00690840752779
0.0804429675011 0.0126154382122 0.00812474920548
0.0798482499495 0.0139265733391 0.00832897557558
0.0825701836692 0.0128408768272 0.00684541514967
0.0802583422314 0.0135179001238 0.0061828304959
0.0808786528658 0.0148431085481 0.00667601821239
0.0841640866939 0.0132611457736 0.00760267027197
0.0860286135142 0.0123988709888 0.00826231358769
0.0858705870759 0.0125967934392 0.00984753305899
0.0838492012724 0.0131147834474 0.00999532159725
0.0848661349736 0.0134032754146 0.00899967584961
0.0831999931335 0.0140646017259 0.00855217207195
0.0820636031814 0.0145578372108 0.00759700178057
0.081114853875 0.0146336925215 0.00867054230522
0.0796251565091 0.0152254676262 0.00759934302407
0.0791348344414 0.0138935608152 0.007077202871
0.0342230477304 0.00313986403608 -0.00414008697246
0.0351477195438 0.0019817543817 -0.00435741574595
0.0347323289071 0.000296279786323 -0.00438533347768
0.0361522928484 -0.00280632379443 -0.00479444267128
0.035258629852 -0.00390853996455 -0.00471084724042
0.0338417723486 -0.00149218160838 -0.00434130720058
0.0356237564604 0.00362308844501 -0.004341940966
0.032919920163 0.00241024289067 -0.00396823607422
0.0334474574857 0.000548257089359 -0.00416060018411
0.0415289998055 -0.00126374573713 -0.00381361992803
0.0313120000064 0.00171914477801 -0.00282629630642
0.033026882645 -0.00631787183797 -0.00270415058985
0.0317876735065 -0.00607425510969 -0.00332637909544
0.0412578752958 7.16186665484e-05 -0.00489036589459
0.0405514447307 0.00249957148199 -0.00474948291781
0.0389988696149 0.00314017935695 -0.00464055604231
0.0400819688382 -0.00226163416351 -0.00501100020483
0.0377005429611 -0.00587741330612 -0.00501100020483
0.0389209198313 -0.00344102541464 -0.00501100020483
0.0390620780277 -0.00485708644738 -0.00501100020483
0.0391364930248 -0.00647839378417 -0.00501100020483
0.0362485334852 -0.00528282005541 -0.00494314848671
0.038154874897 -0.00117393363221 -0.00486198418126
0.0374107713807 -0.00409071552335 -0.00496535012814
0.0365992786586 0.000806540000206 -0.00463702304122
0.0370115640013 0.00402648179184 -0.0044921843692
0.0392478477003 0.00152476573065 -0.00479672649488
0.0364843082137 -0.000961197233095 -0.00472490349299
0.0377742829694 -0.00251484097484 -0.00490661137125
0.0390048904542 0.000241978943895 -0.00484851727981
0.0372005239826 0.00235670007268 -0.00459754292118
0.0373194026933 -0.00373417414041 -0.00257774877419
0.0389352536924 -0.00551596265267 -0.0029001259273
0.0389782992326 -0.002703780935 -0.00280683029864
0.0339535035371 -0.00277589735236 -0.00200431478551
0.0399451586475 -0.00459081177403 -0.00302897403226
0.0317664092178 -0.0027031490286 -0.00180726762024
0.0336987397934 -0.00674948535674 -0.00415415276117
0.0363254582865 -0.00685716472196 -0.00495563969825
0.0353512636683 -0.00765410482829 -0.00398972990851
0.0408882968426 0.00361167695202 -0.00304822377597
0.0413213953935 0.00188918771747 -0.00315622833732
0.0404757535558 -0.00162884476422 -0.00302578237512
0.0376219753952 9.11980743874e-05 -0.00254123503616
0.0360025371863 -0.0018391908898 -0.00230917136312
0.0378326202635 0.0019338126444 -0.00254792724714
0.0390134401732 0.000814783621928 -0.00275443302578
0.0405206334978 0.000322959098049 -0.00300419214172
0.0390670812692 -0.000770704685729 -0.00278646745893
0.0399169633758 0.00246798632655 -0.00287540152905
0.0375186825007 -0.00131613134508 -0.00254538979294
0.0350109342057 -0.00062084721518 -0.00213164353745
0.0318549680505 0.000905834291526 -0.00386713688753
0.0316218092635 -0.00299864461878 -0.00395897113147
0.0324136192726 -0.000549090356552 -0.00403977945853
0.0330306304694 -0.00284581759791 -0.0042639304295
0.0321689119747 -0.00446714353934 -0.00418803678872
0.0336796960117 -0.00406126780038 -0.00444076341042
0.0345755317991 -0.0054107091413 -0.00466871290493
0.041259897745 -0.00790300033987 -0.00441501783393
0.0406248335272 -0.00671841684038 -0.00321683366265
0.0415289998055 -0.00547944234995 -0.00373868871495
0.0348083754426 -0.00442844820174 -0.0022353305722
0.0369917158123 -0.00568861980974 -0.00260628535262
0.0371965517331 -0.00707467838884 -0.00279507447812
0.0393858812553 -0.00745390441726 -0.00305963003105
0.0325866554644 -0.00451366659947 -0.00217936084772
0.0345948189836 -0.00652533077134 -0.00260497706925
0.0360701136341 0.00452397346482 -0.00282732910297
0.0350829677472 0.00325560013237 -0.00233075527061
0.0324505151902 -0.000258757768417 -0.00183417829785
0.0384126741379 0.00356187498738 -0.00264092777693
0.0338467268721 0.00044141722462 -0.00199085067174
0.036123579822 0.00233231439328 -0.0023268167516
0.0369937174157 0.0034612597672 -0.00246952864433
0.0336785051818 0.00239600799941 -0.00203982386422
0.0350781905449 0.000942287362996 -0.00215417408501
0.0395780204279 0.00471800006926 -0.0039404121979
0.0409858713739 0.00421812703761 -0.00450977509152
0.0487410016358 -0.00559439675952 -0.00472832797357
0.0430760583446 -0.00159393273387 -0.0034497288102
0.044916335644 -0.00487111527009 -0.00370047338758
0.0428579329998 0.00126480467089 -0.00334640612028
0.0420859157069 -0.00265786877958 -0.00339905412873
0.042920207385 -0.00518506291009 -0.00354376025358
0.0440227150003 -0.00598413002508 -0.00365929111471
0.042403859339 0.00384991875071 -0.00323160637755
0.0446990605155 -0.00325657547403 -0.00363429218958
0.0459885411972 -0.00641079537083 -0.00383554977836
0.044262899664 -0.00100354513423 -0.00353087710248
0.0415289998055 -0.00250976751943 -0.00477901520369
0.0415289998055 -0.00423436302087 -0.00452257652076
0.0460732185318 -0.00174176867712 -0.00371042867978
0.0475510782395 -0.000181410346856 -0.00382490923024
0.0478621265766 0.00287592696186 -0.0037906699975
0.0476025079799 -0.00192601250889 -0.00386734697649
0.0483215347332 0.00145917957031 -0.00386691085958
0.0439706696106 0.00343755240053 -0.00338938930898
0.0458670670834 0.00072975970783 -0.00363697465208
0.0442397244349 0.00212788925588 -0.00344429944097
0.0472688263371 -0.00380392815861 -0.00387411050745
0.0466365802199 0.0036185911781 -0.00365219918493
0.0458269344295 0.00238172940258 -0.00359764712577
0.0454391274074 0.00471800006926 -0.00360327798408
0.0484988641881 0.0041953411807 -0.00410400122723
0.042321589397 -0.00700854495203 -0.00529111870222
0.0438392406028 -0.00665255366328 -0.00564809758651
0.0475906283652 0.000792019990985 -0.00590525647532
0.0465753806201 -0.00299451508368 -0.00617569028841
0.0472393708158 -0.00166849745236 -0.00603723364349
0.042615608506 0.000861448258804 -0.0051434748444
0.0422604367854 -0.00074655403432 -0.00514156718335
0.0430490740928 -0.00249309959774 -0.00541409167332
0.0444960561978 -0.00382177210715 -0.00581946282325
0.0447637208007 -0.00179210119 -0.00577963311265
0.0424704875291 0.00236067235498 -0.00503389458194
0.0422723233241 -0.00537617405267 -0.0053779500694
0.0440692751261 0.00349736038269 -0.00514737136143
0.0474257103389 0.00418703348318 -0.00550238531148
0.0461243937034 0.000745382828194 -0.00573616536285
0.0460442787784 -0.000951754190329 -0.00592434824523
0.0440587394887 0.00187948354509 -0.0053353123465
0.0462528937201 0.00296163149995 -0.00549352201217
0.0458888996457 -0.00443891128653 -0.00610694677143
0.0452940550017 -0.00566252618158 -0.0059747813384
0.0475809924173 -0.00431717505621 -0.00606372221299
0.0486941411567 -0.00716499990314 -0.00459472352439
0.04337451709 -0.00790300033987 -0.00504400171353
0.0451415319603 -0.00744344607292 -0.00562122322782
0.0475931546351 -0.00572367998385 -0.00606092183123
0.0477149884489 -0.00734471181524 -0.00580980194205
0.0417832595627 0.000111220660632 -0.0033178676918
0.0439713194826 0.00469717481166 -0.00412568639369
0.0545391910894 -0.020494793903 -0.00118905819003
0.0527883872472 -0.0139130000025 -0.00417775800232
0.0542604646261 -0.0139130000025 -0.00420279149756
0.0519593341076 -0.0182306726694 -0.00184130663255
0.0539051270536 -0.0183529602646 -0.00155865048487
0.0517433742111 -0.0167587657405 -0.00226560213951
0.0537035750265 -0.0153400472411 -0.00239629553332
0.0536671448274 -0.0167896381896 -0.00201040245962
0.0519986194277 -0.0155175554662 -0.00525503333785
0.0537285571543 -0.0158862921835 -0.00518259229679
0.054210709697 -0.0172253063843 -0.00489728300173
0.0505852128228 -0.0151175090174 -0.00514137997269
0.0512900447792 -0.0149114770666 -0.00284532569269
0.049707321958 -0.0155572203398 -0.00287770578473
0.0537413380039 -0.0214372319568 -0.00176515203041
0.0495171966076 -0.0198193047949 -0.00255899028578
0.0507563443086 -0.0195709129313 -0.00186674203331
0.0530991436091 -0.0194480981372 -0.0013828165399
0.0502310569828 -0.0180353028719 -0.00215749687877
0.0504201300005 -0.0187295145537 -0.00435376186938
0.0516400860868 -0.0173154468895 -0.00484944546029
0.0498393425537 -0.016962543585 -0.0049051649177
0.0490923430875 -0.0151071390905 -0.00498658750654
0.0507120426378 -0.0201216082921 -0.00351790362566
0.0526166607608 -0.0207995391914 -0.00311039872638
0.0548530872522 -0.0214869442285 -0.00275370094291
0.0538647027658 -0.0192890279934 -0.00405010445447
0.0552188852266 -0.0197662935745 -0.00375148205052
0.0524992345962 -0.0190392396451 -0.00421625918032
0.0553510002792 -0.0162955510862 -0.00418617100491
0.0729834971724 -0.0154196713464 0.00480676841278
0.0760819158718 -0.0152957902257 0.00532016877738
0.0746058620761 -0.0156030234392 0.00517716796423
0.0751036188753 -0.0142700932906 0.00472231637347
0.0766078646442 -0.0130990957148 0.00451697289772
0.0763095258025 -0.0176887483097 0.00634087367694
0.0718780010939 -0.0173873092871 0.00164358412297
0.0718780010939 -0.015868361676 0.00337967573203
0.0718780010939 -0.0185111510091 0.00306794778415
0.0769869983196 -0.0155077827926 0.00344693680638
0.0725699966554 -0.0131427237108 0.00371553852654
0.0738542729902 -0.0136380136422 0.0042084526825
0.0764066525674 -0.01313987555 0.00162383060051
0.0762780370413 -0.0153856130309 0.00173311975702
0.0747439275602 -0.0124507719852 0.00080223363954
0.0752129665263 -0.0137910616079 0.000763547241688
0.0719480635525 -0.0127213375929 -0.000654127136523
0.0734979168379 -0.0130136667713 -4.95518284386e-05
0.0742176665404 -0.016114632074 0.00083871932568
0.0739839907527 -0.0146380479144 0.000454075593722
0.072698564636 -0.0161718078334 0.000316557370492
0.0768370609456 -0.0169487537391 0.00261785966885
0.0738386108869 -0.0176602726127 0.00118594341074
0.0740233622767 -0.0183229773368 0.00586926277214
0.0729430283608 -0.0168363385926 0.00522794364712
0.0719359770547 -0.0194441529498 0.00484969819779
0.0720924635978 -0.0215510257144 0.0033131516482
0.0721502181764 -0.0211653248012 0.00484751908281
0.0766217592206 -0.0203626235028 0.00644956012955
0.074932542044 -0.0200598618775 0.00649232844264
0.0735247202411 -0.0206583120258 0.00571161954138
0.0754424972376 -0.0212272623994 0.00421758250385
0.0736700649209 -0.0217006109348 0.00374510763848
0.0747925645283 -0.0203826571103 0.00292281238566
0.0762460730985 -0.0190212087117 0.00321082809658
0.0724542029594 -0.0186562740308 0.00079454121553
0.0755871006824 -0.0181212095006 0.00236226614551
0.0727847559077 -0.0203146945947 0.00163341401158
0.0766787357061 0.000509999983478 0.00212186259534
0.0748976955638 -0.00347473507295 0.00318588544561
0.075961862218 -0.00641511649102 0.00358356980633
0.0756496507192 -0.00191773055129 0.00304445262991
0.0730265282409 -0.00739427145508 0.0035430668736
0.0758735502531 -0.00043983298025 0.0028844551692
0.0742432602907 -0.00531372184508 0.00336521782629
0.0755061052477 -0.00468469706096 0.00335849508092
0.0744209067676 -0.00671923887623 0.00353791135687
0.0718780010939 -0.00281004968251 0.000739002654653
0.0718780010939 -0.0100826680613 0.0026737416933
0.0730992319482 -0.0121079999954 0.00133101557513
0.0718780010939 -0.0112691772461 0.00195872533208
0.0718780010939 -0.00365494507855 -0.000588310823837
0.0718780010939 -0.00743874276234 -0.000237870523259
0.0718780010939 -0.00976966920836 0.00116331647082
0.0730806881676 -0.00184274462976 0.00214182653754
0.0734105619791 -0.00390388641634 0.00306835473477
0.0738129961181 -0.000255621843971 0.00188828297263
0.0718780010939 -0.00134349129627 0.00122317602786
0.0727410493088 -0.0121079999954 0.00272568350686
0.0759259161341 -0.0107190203934 0.00393042335962
0.075194921439 -0.0088144974564 0.00381790563029
0.0732195889196 -0.00880074172316 0.00355390171166
0.0745288372701 -0.0104273885809 0.00372563223987
0.0751681246585 -0.0121079999954 0.00258202955739
0.0740330879921 0.000509999983478 0.000633798727928
0.0761513319202 -0.0107184487658 0.000949160146255
0.0764886359908 -0.00217038916881 0.000613836229812
0.0765608594652 -0.000713419393349 0.00061723609209
0.0766763926035 -0.00361283724095 0.000802794467006
0.0769580287163 -0.0087212768418 0.0017902419823
0.0768886920686 -0.0056495262658 0.0012866769704
0.0735111955434 -0.0116542847252 -0.000230443164364
0.0730607501437 -0.00988129918072 -0.000836970229394
0.0728369145497 -0.00170950480773 -0.000968654181346
0.0728272640165 -0.00489674515105 -0.0011324879122
0.0734724773661 -7.56328187535e-05 -0.00072177248853
0.0724471966554 -0.00625843788195 -0.00129959404425
0.0741869856046 -0.00279395884923 -0.000674810275945
0.0743637526539 -0.00937692517301 -0.000254301609548
