-0.00838207272166539 -0.03637661660538395 -0.027670185326704642
-0.009788338710899264 -0.04216401815306739 -0.023923000320792198
-0.02462757456277904 -0.04063794472999091 -0.023923000320792195
-0.005880144766245795 -0.04350477663594823 -0.023923000320792195
-0.01700001422289137 -0.04035150744383534 -0.023923000320792198
-0.01750606435361239 -0.03672006229044966 -0.024400174411198267
-0.003365611684223367 -0.04073291376658893 -0.02447299326043817
-0.012365945614038878 -0.037500042545151616 -0.024535921553599332
-0.008771646454349651 -0.039195513220194995 -0.024445676810779374
-0.0059279242266904 -0.03710789377953723 -0.024926376875676108
-0.021299777016665952 -0.03815123212407078 -0.023976868883717493
-0.02284825247077596 -0.03511900082230568 -0.024609747891960066
-0.019183661052795942 -0.03511900082230568 -0.026345287043791896
-0.006102515538286775 -0.0408672046133489 -0.027780000120401382
-0.014712971417567701 -0.03764527860001412 -0.027780000120401382
-0.018698281948035547 -0.038486126237110306 -0.027780000120401382
-0.009340678167685364 -0.04219858308492137 -0.027780000120401382
-0.022267509094668313 -0.036137164925942655 -0.027780000120401382
-0.011472365804160953 -0.03881757086610233 -0.027780000120401382
-0.000180602409429292 -0.044813254161511176 -0.027270605355225592
-0.004579363367694157 -0.04362228869120485 -0.027514877026438997
-0.0017739435978079154 -0.04101699935902191 -0.02761846414787088
-0.02547647202195174 -0.03793046203192863 -0.02666390831149414
-0.01639901646680449 -0.04070639767029781 -0.02758892928560972
-0.013939388674179976 -0.04315104012255714 -0.02681210923535004
-0.02268181303684314 -0.039667301305713644 -0.02681872647841024
-0.019691410994724257 -0.04183057527567928 -0.02625068184182947
-0.006983748842726655 -0.04543048213064524 -0.02616800707164887
-0.010492670469362248 -0.04506832733156648 -0.02597288288727472
-0.06516864591319868 0.045212124816688654 0.025919676920227442
-0.0557535871840023 0.04507138767580749 0.02300851258109401
-0.033171445761075585 0.06498804142992341 0.023913314009763594
-0.05206268684539467 0.04838832953345423 0.023248900922131135
-0.04471759623578324 0.054364218528179756 0.02279020556601897
-0.049109536308781995 0.050507298812646303 0.02253467861470273
-0.05519323615619496 0.05541298725255976 0.0267331420015599
-0.04455076349899305 0.060584090698053025 0.026475914613061136
-0.0509246387901603 0.05417813182896351 0.02655574035998138
-0.055859128540955816 0.05033031536566344 0.026642474176115555
-0.04784079663761246 0.06093425058615842 0.02659915140378155
-0.04816867892804633 0.05705128761355786 0.026523542886065496
-0.035257954865479876 0.07227792274814093 0.02417494598571589
-0.04711218452966493 0.06512954829107225 0.022681438059311207
-0.05038323316952051 0.06267880277575189 0.022948238303016913
-0.06260923943566515 0.05012628644026302 0.022579944203514467
-0.04459722853142779 0.06422685821937547 0.02650730115769577
-0.04168743316649772 0.06570928096751405 0.026437553058759514
-0.03957406453451085 0.06866033367476662 0.026281058308501526
-0.04504198803472466 0.06712024581727304 0.025209520063571893
-0.05857525188442285 0.04458803035481302 0.0248870313586076
-0.0412430400465207 0.059920597633560314 0.02559530885885728
-0.044263460740944977 0.05734722256155221 0.025586714730290002
-0.038570260836420636 0.06310353921044867 0.026055791009106443
-0.03539538428941048 0.06576506761386743 0.026043103687109197
-0.0580150245646764 0.04804527861575457 0.026545951695061343
-0.06440161498813278 0.04864438338584112 0.02489542165110678
-0.06026331985911636 0.05061139289379773 0.026616548983086335
-0.062290649412724865 0.04680339156719308 0.026700433324057363
-0.05889220743944505 0.05428374528998524 0.026415739342136042
-0.052613232229291304 0.06033339817315346 0.02581139179161421
-0.05477077697490559 0.0593630228180178 0.023656826081521875
-0.05835481010493876 0.05620534859582571 0.02353755178938123
-0.03212073702004032 0.07383315247441767 0.02331446348951506
-0.04322749739374276 0.06332782801854663 0.02200895808827931
-0.04035284245680763 0.06456634395050667 0.02199303474987321
-0.04326544189651339 0.06765841743696044 0.022357555822763303
-0.03880215852851441 0.06996787713062402 0.022363808913673514
-0.047820372075713366 0.05421996082296941 0.02181600034236908
-0.05942222891774298 0.04913718988977604 0.022149848602999095
-0.06247003415189852 0.04644228135274684 0.022181599286111995
-0.04860283893884568 0.05918854532704815 0.022084841627064575
-0.05111602896579134 0.056678663385288805 0.022085105364404403
-0.05527129832165857 0.054083618017878976 0.022205354606385102
-0.04543840914256654 0.06017330526662988 0.021916859843288825
-0.03602805318767964 0.06771644029519809 0.022100480256091598
-0.03291887480979338 0.06965898768323987 0.02215844789048864
-0.06328824994688026 0.04368399828672409 0.023842231959834356
-0.032070921366677205 -0.02875309164967709 -0.024014993989067184
-0.03011616995849868 -0.015726031725683202 -0.024724307403101727
-0.03537388809119876 -0.022028697894252165 -0.024093649027802658
-0.03943308139472402 -0.01767961759345614 -0.024016314896345144
-0.0298500322079138 -0.025107021880075263 -0.024325112139484958
-0.028059708419748083 -0.020858075691687624 -0.024633319075933902
-0.03330306863092791 -0.017944876766487174 -0.024413217817080012
-0.03148367070326617 -0.020857495970796728 -0.02440506679903342
-0.03360820131770684 -0.02529800360362103 -0.024066064087915805
-0.02803139575847418 -0.03511900082230568 -0.02517357868098187
-0.038767524479819175 -0.01556023650331245 -0.02775187567880607
-0.02799511616521702 -0.01798963048726668 -0.027345509378141397
-0.031124324150767158 -0.02009201896725638 -0.027554305378272803
-0.03522741853799762 -0.01740873222241875 -0.027652271358109052
-0.02787765250286578 -0.02613154101868959 -0.0276033567283518
-0.029791437176322905 -0.023353002338174368 -0.027599700501335485
-0.03135625705437807 -0.01684862993465889 -0.027459923439782527
-0.029218733999227916 -0.02911201301303579 -0.027760045090919807
-0.04273411854657144 -0.016070291269680455 -0.026064513785711195
-0.03336015746592018 -0.031800995059810835 -0.026152925303513815
-0.034768909443634144 -0.028360094526170932 -0.02697311967112457
-0.03123591054588655 -0.03432080348324288 -0.025949401873578685
-0.03438437739594082 -0.02279079067398986 -0.027760337985212553
-0.0323307199694741 -0.02585492157181114 -0.027744659953721336
-0.037783844289838414 -0.02146994114706248 -0.027497874986293566
-0.04335671202680236 -0.01923843723597945 -0.024445232670674093
-0.03777287354988464 -0.027343182093463887 -0.02566585694165311
-0.02666094643467418 -0.013628999702632427 -0.02536719997386958
-0.028671305051135416 -0.031896429187554996 -0.02415661673390196
-0.028467011251556793 -0.028452365859000694 -0.024283698313564202
-0.02552345303743633 -0.02285300452104462 -0.025501253216105545
-0.03941270892562479 -0.013628999702632427 -0.02440117963718249
-0.0026770170638383676 -0.030373894928919648 -0.02730069496684382
-0.009482310295464716 -0.030145171832102 -0.027451935974316163
0.0005489999894052744 -0.01773489056591603 -0.02570262700981677
-0.025349000468850136 -0.019258691530952887 -0.025783959882850444
-0.0030682832013505007 -0.01704660425192465 -0.024516660559925473
-0.0025521710731500617 -0.020205478636800958 -0.024682685564438478
-0.01476928004569228 -0.017426378676036903 -0.02478309009673135
-0.014681665332594282 -0.02391857366610843 -0.024918752509308556
-0.023436768595015676 -0.016741756587038883 -0.02499444915055927
-0.012002380094898311 -0.026755942084700383 -0.02490920903254426
-0.018102583234728277 -0.018025518486777664 -0.024882698455410728
-0.006402475239362991 -0.0192780161111018 -0.024604364648727357
-0.010971015797589492 -0.021901149758672217 -0.02477917349104838
-0.022273249098718945 -0.026146823021791055 -0.02531238100958349
-0.019397852194053156 -0.029187956372503057 -0.02529102777934873
-0.018995703925925547 -0.025091783812335327 -0.02508935747828982
-0.015676234351868056 -0.029400923946307243 -0.02509978706766925
-0.004510572533260258 -0.025418671346530496 -0.024921802018194227
-0.007390257433497229 -0.029597560721331795 -0.025091851317175715
-0.002607625611289344 -0.02818763477861721 -0.025118676897459773
-0.008301075097731685 -0.02488250002963014 -0.024808075858439138
-0.0030708481001915154 -0.033921133575496205 -0.025429043242840836
-0.01364181830902371 -0.03189449623784741 -0.025261062022393366
-0.022854600858386653 -0.029570838762426443 -0.025504108553714096
-0.007594241950480029 -0.033420470335292975 -0.027409498297000533
-0.011958297635940703 -0.03470609155459846 -0.027496863571964
-0.02416368151009534 -0.031053516497333546 -0.027772121619732325
-0.01545115265445952 -0.03338187846893803 -0.027576824825943154
-0.02047522735623344 -0.03176218993891733 -0.02769062423834411
-0.004665775291652012 -0.013887255416972624 -0.02498197118327926
-0.0010450628356690147 -0.01465378251764972 -0.02485425527134575
-0.017395920654548612 -0.014795636957418586 -0.024835089085802793
-0.02059285872340374 -0.015428508588028123 -0.026877307838823077
-0.024560136842337002 -0.025913945370543187 -0.027594706168683307
-0.017694484312859898 -0.020339835174664995 -0.02723045640049443
-0.006686552146668122 -0.015827344284373025 -0.02687280684678596
-0.02078349426448243 -0.021860606678368984 -0.02734383851816069
-0.011202897893882829 -0.016449374222620022 -0.026956650096484087
-0.014334292653221416 -0.019481128455061163 -0.027147821732831184
-0.02216962071685516 -0.018732371361775357 -0.027199764911676964
-0.0025194418188133863 -0.023596702696768734 -0.027099448462734002
-0.016516186896559364 -0.02633657989642067 -0.02749738979787546
-0.009294269765997412 -0.026673670143697745 -0.027354717397344214
-0.011497996190830511 -0.024274898621880755 -0.02731609139445424
0.000307505724561725 -0.020754117999056076 -0.02693715377197263
-0.013802547352423202 -0.029264475780415827 -0.02754402578484915
-0.0077847464931566236 -0.022342317913005772 -0.02716737243569883
0.0001032218163496924 -0.025577000107450672 -0.027114122835766634
-0.04133521980326327 -0.03786794000188136 -0.01657756814736482
-0.042692232625861026 -0.03424092278775368 -0.015106000006198885
-0.03653767923101313 -0.03230924700321783 -0.01973411159377819
-0.03911641243077802 -0.02984794600271729 -0.019693867343428456
-0.034845180485634314 -0.030530178285290727 -0.02251321093432344
-0.0436947753833305 -0.030668457167720774 -0.015478424517665781
-0.039251136255110966 -0.03577361412984365 -0.015107198107257098
-0.030757141039128685 -0.03749906172272804 -0.02031817404191089
-0.03239675851865364 -0.040188152485973114 -0.017084870407508043
-0.035227009061367894 -0.038328613365196995 -0.016295335122395595
-0.030431656793571224 -0.03468409988798351 -0.022641292088202387
-0.03691550734366164 -0.03542001017087773 -0.017150383268626015
-0.041494772571718894 -0.0330674223622693 -0.01956891975640551
-0.034124831561515176 -0.0444447730492042 -0.016284657429901896
-0.03638515930333285 -0.041527027187173604 -0.017607798187335662
-0.03153438951575514 -0.04285179619122215 -0.019069857502871927
-0.034384073644716164 -0.040288141202601276 -0.019647496408889045
-0.033642024417568916 -0.03680187737713388 -0.022421933559716833
-0.03667545955576478 -0.03491862502604194 -0.021975501715159385
-0.03980229915690976 -0.035664643615040834 -0.019217654161693208
-0.03745147260437611 -0.03161253564669725 -0.023703276962295457
-0.03831550764273767 -0.0388479604854918 -0.018171474329937733
-0.05166334699034013 -0.01910936664924822 -0.017766995325342004
-0.049695883164192975 -0.02356224290134064 -0.017907980637187793
-0.039811622732384894 -0.02139421982500963 -0.023170923753710222
-0.04374584870420578 -0.015365352492638117 -0.022732482793970665
-0.04668631360111436 -0.01679532788963424 -0.01910593950309287
-0.04340828694176325 -0.018697147555261105 -0.021205973373445264
-0.0455436704793746 -0.02270008914581824 -0.017629758080630862
-0.04780113850030905 -0.01930993350307098 -0.01696650882498736
-0.042558612638128934 -0.022462988055579683 -0.01996231691540389
-0.05016655068436016 -0.016830705227185994 -0.01594064023861508
-0.03950864226251129 -0.024937845939735206 -0.0215076869548752
-0.04281855669199568 -0.025535985729700658 -0.0188179004451004
-0.03704302324276167 -0.027775000738156773 -0.02249902531928877
-0.04852918411509123 -0.024874833966225682 -0.015106000006198883
-0.044109738444414105 -0.02824802571371296 -0.020012298862001513
-0.0483432749517215 -0.028227149900580138 -0.016262558737441493
-0.04019236567480217 -0.028536589368298938 -0.023303057276966726
-0.046389591048502626 -0.025248478756743353 -0.019831397083447864
-0.045754374753673076 -0.021769595412140116 -0.022070064101851507
-0.042234890554183904 -0.023306254450308657 -0.02392200008034706
-0.04649038476625205 -0.017300831989297827 -0.022925738452457267
-0.04921562145740452 -0.018735628694306256 -0.020077759328585063
-0.04936158358563236 -0.01444878993319615 -0.021029129021834115
-0.05386503641939967 -0.01675229321685974 -0.015671055243143297
-0.030302914000196617 -0.04545843120607846 -0.01712402913789404
-0.026572613215884035 -0.04380931410613677 -0.017283994100772714
-0.027209981660853443 -0.04041726307713106 -0.019601047097970444
-0.022618213141443192 -0.04559154360268228 -0.017511274105915433
-0.024359545783189364 -0.041240559243679836 -0.020277500697779536
-0.018494610911668725 -0.044826071345175855 -0.020783671677033773
-0.026998881451696835 -0.03736309599385047 -0.02217259702019191
-0.02131446707613166 -0.04261147198166777 -0.02100042580555455
-0.028870893277207994 -0.04861237929119869 -0.015618347949876332
-0.01909762298198757 -0.049397999473301764 -0.0187539506581673
-0.021432442979639234 -0.0518382508935825 -0.015642918786736303
-0.02780704112955643 -0.04099469608131798 -0.02289445612182146
-0.02588239938486176 -0.0441473004424245 -0.021151722947712684
-0.021665010121247656 -0.04551824922411754 -0.02213050601157304
-0.026090897709579848 -0.0479796174958833 -0.01765173670580222
-0.02295396858577415 -0.04915756301258466 -0.018203825283955036
-0.00032736260009016255 -0.051198799766037 -0.021069164460583174
-0.0002977688227446163 -0.054269492002173306 -0.01799735682764717
-0.005079914760641683 -0.04812922789860341 -0.02392200008034706
-0.010891645203999623 -0.04910785986169175 -0.018112256338334624
-0.005377508992667924 -0.053302047905255 -0.01515808073896989
-0.014728937018203197 -0.04747549767712765 -0.018988185763141027
-0.011183475031519301 -0.05220164970664758 -0.015227336098921252
-0.00803525147165272 -0.051933347209001404 -0.015983157221145818
-0.010080515336515767 -0.0523684550300888 -0.01902694235879839
-0.015966678581143274 -0.047201580237450774 -0.022438418716463848
-0.012995683239301824 -0.04903090455560155 -0.021435395242198403
-0.013702062593892677 -0.05173725981264632 -0.018773529610410587
-0.009937879696564875 -0.049589614859508815 -0.021625568098692
-0.013315549848701046 -0.04502579130870078 -0.02392200008034706
-0.0034551393563813826 -0.05561162607757457 -0.0163465662656629
-0.006987287571744009 -0.05081541614563404 -0.021113778113767464
-0.01455409604338868 -0.05213519908048841 -0.015106000006198883
-0.017456733461382087 -0.05231315482212377 -0.016912053497194428
-0.011211461570599296 -0.045517569902624865 -0.021366540058221188
-0.0038526570015657686 -0.05079111298829194 -0.017717566559675373
-0.0008221870208570746 -0.04674587708085754 -0.022018013296346645
-0.007583944039829142 -0.045998992038682476 -0.021544959362809916
-0.004841080636807422 -0.048286651415251555 -0.01988426494186111
-0.021543746422490264 -0.07269562844761983 0.02768431875004208
-0.016509360542068724 -0.07605998463639327 0.027855442619302666
-0.026777399813671204 -0.07079758157712954 0.027591766943682604
-0.011951817270031178 -0.07703015223381054 0.023469999432563782
-0.009176603617102179 -0.07881587661847696 0.023469999432563782
-0.015411643258314064 -0.07754086975508118 0.023469999432563782
-0.02320492637834912 -0.0738553086854422 0.023469999432563785
-0.024568503298279205 -0.06932512803366168 0.023469999432563782
-0.019741571069267435 -0.0742980791351413 0.023469999432563782
-0.021026724526331586 -0.0706685090689548 0.023469999432563782
-0.004015707769265122 -0.07467008308519331 0.027415300083895082
-0.014778141328907061 -0.07207382980664924 0.02748225631019373
-0.0003352961485953407 -0.07432535266978964 0.026899375930204618
-0.028731015120914086 -0.06839410619835223 0.027443528618866633
-0.007072747863214321 -0.07340004913170615 0.02722128850502805
-0.004416121649950133 -0.08075263451326684 0.024994885692132103
-0.028750446398108583 -0.07436544983810801 0.02346999943256378
-0.03466783226187854 -0.06912750249891997 0.023469999432563782
-0.029506368555601747 -0.07150212742364079 0.023469999432563782
-0.03681242281556012 -0.06618012481038135 0.023469999432563782
-0.03763852648160808 -0.07042228320194324 0.023469999432563782
-0.0010398481478160913 -0.07170177334942564 0.023469999432563782
-0.011367786867385606 -0.07357522647032502 0.023469999432563782
-0.011688251847324173 -0.06869550077434802 0.023469999432563782
-0.005137671179958626 -0.07619794830874552 0.023469999432563782
-0.014478457189162311 -0.07163414309624332 0.023469999432563782
-0.00020883196005364512 -0.07539381383708008 0.023741618472709773
-0.007717662431456093 -0.06989722775637465 0.024351676474766652
-0.021936152981941688 -0.06564673667730077 0.02406609644476586
-0.02548966133396838 -0.06512219473546274 0.024801591033569093
-0.03534739226732426 -0.06252524201102999 0.02512864938086529
-0.003883968870193741 -0.07121869715485113 0.02461146177188726
-0.015346724669786404 -0.06825741414000275 0.02508336861402433
-0.018926815848844734 -0.06766383102178974 0.025644725959099522
-0.02559709046294539 -0.06754172682093758 0.026726106847763244
-0.02201714737698819 -0.06800401841611253 0.026522994528127466
-0.01019224266284533 -0.07135508417089662 0.02669311352482269
-0.03371105385753585 -0.06543741223858401 0.026699332078304328
-0.037974671244749236 -0.06366036497508273 0.026375748510651987
-0.02989566844215915 -0.06475203745203151 0.025939692470434497
-0.0024070073129797893 -0.07745658838853622 0.027766637958347284
-0.009278641318608291 -0.0778570997844818 0.027643642679051242
-0.005907146641988637 -0.07774870427472537 0.027686373221969433
0.0004928189802079997 -0.08082119908456371 0.02467055291761051
-0.030469761528272653 -0.07197974214882868 0.027534971543703705
-0.035130447456073535 -0.06884310087231395 0.02742115722056602
-0.03869235206151721 -0.0698818085635921 0.026930557237124963
-0.024168767877502297 -0.07501825983462501 0.02759519790084705
-0.027806725984419346 -0.07503807874719375 0.02734997645924974
-0.035836360636861984 -0.07218539351147736 0.025758604951598596
-0.022283390125866866 -0.0774315689702472 0.024098648539018604
-0.018491894855671306 -0.07820066266757375 0.024267907510878893
-0.02540490861208612 -0.07687188263478427 0.025192222158668093
-0.03282577958103973 -0.07320660974629879 0.024093256403200217
-0.02039256559017171 -0.076377117838596 0.027621534423313204
-0.012533451693011049 -0.07769353483829335 0.027632892621385567
-0.007472311153440497 -0.08065138326562166 0.025956355447507982
-0.01593926794357408 -0.07896110377949997 0.02635761270207293
0.013928643481574387 -0.04418316930564649 -0.022471013335911828
0.010299720814827574 -0.045835933190670586 -0.021444083228231374
0.00979211600146286 -0.04984787335976022 -0.017758467605724682
0.013231038712770163 -0.050065709919855136 -0.017042705644111845
0.005141847884024271 -0.04983151397955464 -0.018473356826986583
0.012355766336830448 -0.04776810412284531 -0.019263849548022897
0.00148332752818986 -0.04950603139353164 -0.019320065897997025
0.003416084555253975 -0.051874848034222085 -0.01691623754815772
0.007417777724255368 -0.04526965637319251 -0.022507419943687282
0.0035861189628678446 -0.047756390701152424 -0.024316776084220594
0.0034003554576214133 -0.05017088375202508 -0.022009773362540674
0.011529873834780876 -0.05060040780170942 -0.020532194319772403
0.01494969247614932 -0.053473128590739834 -0.016926530983750392
0.008938976716771525 -0.04802833085925001 -0.02366101578794804
0.007334688145393557 -0.05369348120961843 -0.018313855896797907
0.007913775817116898 -0.05070306345170712 -0.021192975551363458
0.011162567564488511 -0.05302060669315725 -0.018180661124715364
0.01405640795395634 -0.04841440006053557 -0.021962893277173386
0.015511343750342068 -0.05093770841803265 -0.019195917422155054
0.001220690703997863 -0.056202528148455444 -0.015603938150965136
0.008451695063697197 -0.05316148312870351 -0.015106000006198883
0.02773772001498645 -0.04221482061224856 -0.022183508509910944
0.029474888390316405 -0.038791613518203226 -0.023904206370212414
0.017596141668899997 -0.048339595090477014 -0.021131499483848026
0.022649752859000408 -0.05159476196746298 -0.016029154304092727
0.02088052153501268 -0.04933141634490481 -0.01888329584728055
0.024540636089840872 -0.04882194378985966 -0.01791234765348315
0.028532254339993388 -0.04166479010184223 -0.018502111192551067
0.025696518756176442 -0.03975293523349947 -0.021117369982442943
0.028640498276590026 -0.04501630850941189 -0.015778736334245258
0.023237112191978822 -0.04522167544404974 -0.017682506667574593
0.021108446750869307 -0.04870053764922382 -0.015713390604306
0.02388718193350433 -0.04204583780916707 -0.01997505930106382
0.017929067248163615 -0.04301380365085676 -0.02198856746313095
0.0172231940638837 -0.048338650038373954 -0.017668897966069512
0.019136461104636657 -0.04529901146626238 -0.01940364958424753
0.018861353102446618 -0.053495822521904546 -0.015617251355710043
0.01707266575147288 -0.04508655584133079 -0.024388611788856304
0.02043797990277213 -0.04026500542813239 -0.02323091141939193
0.023282536039205392 -0.042931204086780944 -0.023772410128113222
0.020145160218034305 -0.04370458992509637 -0.024388514669672616
0.02743372602930633 -0.0470154699136035 -0.018394901122373943
0.024745652917201384 -0.04530540148529564 -0.02104217857638039
0.021533665175407404 -0.046040082005407545 -0.021723937431114764
0.04732358542949346 -0.030849911009832778 -0.015656955084855748
0.035041012099134024 -0.04150908963605783 -0.018498453728153532
0.03369411625539163 -0.03958318337549719 -0.020689872269676116
0.03514886906462107 -0.036126816104867794 -0.022176097761190693
0.040776750213082025 -0.03516546139416793 -0.015106000006198883
0.03784490925769569 -0.030159000307321552 -0.02098727802657804
0.034889159527789176 -0.03242850568548512 -0.021270824433711602
0.030992041624370845 -0.04456770629001162 -0.018071453072856198
0.03261236904536742 -0.04637792854524389 -0.015434187025203494
0.029758000746369362 -0.03783319585022911 -0.021035256695286494
0.03819763145811523 -0.03552065911193793 -0.02060051187299631
0.0380294987172709 -0.0405586797036062 -0.01721705194406651
0.040829889150636914 -0.032764960088235935 -0.020596524128445447
0.03599677617108119 -0.030754288464298986 -0.0242743385771155
0.03180158380362772 -0.04017440617050701 -0.017438898487039313
0.03354352664646995 -0.03726757044770876 -0.018245538092549172
0.03559036570496512 -0.03925423537725216 -0.015452505930547656
0.03659578448999841 -0.036220478478522736 -0.01685704508307805
0.03911023534011414 -0.03287573951255171 -0.017530662334899486
0.03200415222426172 -0.03407118522552578 -0.022101581269176974
0.04196069486536312 -0.03179999228141819 -0.016219076991599524
0.04593402491618648 -0.013628999702632427 -0.02354158582786372
0.039284945088348205 -0.02289138320767399 -0.022920999689405606
0.04437111476320045 -0.017335995579876168 -0.02109104792911981
0.04253243983345078 -0.020576914612608597 -0.021077580054050422
0.051327805290091524 -0.024848345508879384 -0.015968831511662257
0.04363954770682592 -0.027049317138720545 -0.02162945587599984
0.04240039460390271 -0.015944701932156503 -0.024019536767499846
0.041796471102943836 -0.025697766376425558 -0.023833028694328247
0.03811003079149122 -0.02799657389409287 -0.024182228584718926
0.042580621084693786 -0.021653731721512814 -0.024474000558257103
0.04613720579125394 -0.02881835725867935 -0.018399208862119265
0.04321217868979364 -0.03015800006687641 -0.0194300038805655
0.05178314701007363 -0.014792843937681686 -0.01875202385644723
0.05144080542993361 -0.01921642335933111 -0.018124198903556786
0.05317943955075365 -0.02083341869453568 -0.015478750006819687
0.0444786832537795 -0.018259597236734922 -0.024440374957077588
0.048676595299619735 -0.01552631422458943 -0.021955179903499156
0.046267716277574825 -0.023777911560204704 -0.02093506742446759
0.048590248138512294 -0.021735906699180744 -0.01971700774530003
0.04686870142277455 -0.020011677873400607 -0.02196233733480929
0.04480671955026665 -0.021579852807736874 -0.01862735665018925
0.04322975251047208 -0.027220657681914145 -0.01779344242698207
0.04836935900440392 -0.02095008569286593 -0.01601144128341454
0.04612256788961338 -0.024899915881930444 -0.016341479205342214
0.040750492013344075 -0.027832313657471436 -0.019549460907399927
0.04672473657149133 -0.01833746874110909 -0.018335844283551866
0.013800387308215928 -0.07901426044916281 0.02404912446988491
0.018332720505592492 -0.06688758768644018 0.02415053931138593
0.027421405761553285 -0.06425389613740934 0.02312366645607475
0.013207140315345985 -0.07462036997640493 0.027822179821681954
0.02871665225884224 -0.07273321905017319 0.027834696511054465
0.016772643347295956 -0.07183474170988659 0.027642485309380776
0.020169253639774634 -0.07284514513215468 0.02775574935905987
0.027024613102308193 -0.06908294501602756 0.027533973227472554
0.005340937355005776 -0.07555617616649771 0.02781417567854713
0.03140629541097747 -0.07006133296643871 0.02765485177982157
0.017365732422368878 -0.07553806111710426 0.027876999229192734
0.023414648991322767 -0.07439687660309965 0.027876999229192734
0.02867414169890948 -0.07495785881885214 0.025250842440733036
0.020468797852010702 -0.07663866957749305 0.027089221825927358
0.025744850883764096 -0.07548299648540915 0.023508393443273268
0.038349570017589284 -0.07053492027719561 0.02442124636485332
0.024625399945418656 -0.06543673978061804 0.024771536450155594
0.032860432665659835 -0.06320786939035669 0.0248838871226007
0.02327834450070215 -0.06939335371432107 0.02740333234901528
0.0082307655206063 -0.07372084556844524 0.027433618231867393
0.005500136734936587 -0.07129048970691704 0.02527727038189568
0.010618124424358468 -0.07058759521086444 0.026079123938453568
0.01458622504919481 -0.06889809324087401 0.02555680923896346
0.037428453095245146 -0.06317343731181492 0.026380686262609122
0.019406422908166993 -0.06899690007684905 0.02676650791721221
0.03260264677177703 -0.06609651586784474 0.027121421600586126
0.021725960746940602 -0.06677069699866403 0.022918000817298886
0.03604951557824043 -0.06777133278792191 0.023241172804944643
0.02931807080142338 -0.06799379609064929 0.023018428901881438
0.03260309901956533 -0.06830203365988016 0.023152558313699813
0.02272228561086966 -0.07062728944710595 0.022947535877529342
0.022819618259027716 -0.07425971427552684 0.023254773773381032
0.027259114668270516 -0.07176713852166933 0.023196245375247542
0.03425169885340321 -0.07179436668128504 0.023456389576930182
0.0013256199758791458 -0.07813576027983943 0.023387909515446385
0.004824987648393468 -0.07517690459221267 0.023159892589954427
0.006023350784795732 -0.07934404379620226 0.023660180353051313
0.019641632631998824 -0.0758248426512832 0.023307475520511392
0.01579979299527979 -0.07397563628850365 0.023091785812669408
0.01913420333314241 -0.07187235690351594 0.022943801159618592
0.012501035488329707 -0.07271653560981861 0.022992367095959688
0.010180136428127536 -0.07566698265805363 0.023204777525933945
0.03718372968969601 -0.0681234454061389 0.02741270499850109
0.03541344403154602 -0.07127559554705826 0.027131653772040448
0.011140699131677041 -0.07773792574005615 0.027763872232875533
0.0012274210778411968 -0.07764119006865339 0.02760464304755895
0.004901530774589509 -0.07979715792116913 0.026898172396897214
0.008888471921736748 -0.07967671001757923 0.026774935257476706
0.015011151136757087 -0.07828952107392223 0.026806541937133256
0.010203061726449502 -0.07954520549913907 0.023979387211132117
0.0503837684527397 -0.06186459645287297 0.02694957296081334
0.044743694964367 -0.06542944330871811 0.027220020603348764
0.05951499938964844 -0.04790492672895968 0.023689508816314354
0.04255013578467133 -0.06811303845563665 0.0249867067294657
0.045853265288375036 -0.06622349645085596 0.02431839652876109
0.05405926299148983 -0.05830010725124083 0.02697637335927197
0.04807980236294372 -0.06469325346722235 0.02588375840508265
0.05535903981602202 -0.049643640762280304 0.026926972013438362
0.050087892551042235 -0.05622868782975791 0.027201510461146723
0.05940096932257626 -0.05152961204878988 0.027268122699245397
0.05615402051470866 -0.0541200561637337 0.027320635408203522
0.058336870127836116 -0.043543772393938765 0.02509620067387984
0.0523290986751708 -0.048770538566950725 0.02516586757363174
0.05115032255899467 -0.052898294351839736 0.026963632070555993
0.040304614307001205 -0.06178746035874352 0.02671044924896454
0.04425650804837274 -0.059008747923917464 0.026991573610738007
0.04751035460859968 -0.053400043993232185 0.02548520065318068
0.05546627896039151 -0.044819128907237646 0.023430922549520568
0.0468837496679957 -0.05250261678183137 0.02213715415135424
0.04409745452521166 -0.0561127620225124 0.024536515133736135
0.053139699556132194 -0.04641302205453982 0.02212829247668579
0.04127850995564328 -0.058734056244739756 0.024213210650761947
0.05834302070957423 -0.052199953382756986 0.023424867977797293
0.05497199564690486 -0.05871580551202732 0.023772900696905824
0.048623260809427415 -0.06132382491506311 0.022800516794495327
0.04569428029259126 -0.06293621087006689 0.022727503367051708
0.042476813447649656 -0.06349043033180213 0.022462578214084684
0.04018630765829241 -0.0665097186377194 0.023074562304853607
0.05143629503858353 -0.05311110766164506 0.022016268241521572
0.04365323958724446 -0.06063293632141548 0.022058663995827593
0.04974379753765367 -0.05820838908708596 0.02241993162652237
0.05581435913690179 -0.055243187950610256 0.022717499234587425
0.05512740700476316 -0.05121883902699911 0.022187021358744497
0.039709185915799 -0.06593739770801915 0.027326999232172966
0.04716526713925028 -0.059864688796233086 0.027326999232172966
0.061026721620106666 -0.04021444119682646 0.026016384584689058
0.07017756158977752 -0.021918234269877206 0.02650946183441852
0.07172390547988548 -0.01889124247326445 0.0266104565240218
0.06803426588792712 -0.030147863091563275 0.027157147814527896
0.075256712343744 -0.018287050459974627 0.027322598456227642
0.07706342720979877 -0.014618407932304829 0.027080519108159774
0.06607556822113808 -0.029206755996891834 0.021817000582814217
0.06982342993476978 -0.031881369723158824 0.022285151861290514
0.07234906899491426 -0.034277470586039346 0.022887700863607502
0.06749902760648133 -0.020994858616632767 0.022204893839667783
0.06904843407994268 -0.017331386021706145 0.02216465578595691
0.07109286986844798 -0.01371610449776394 0.024058707234827732
0.0677553179024108 -0.023649393029018008 0.025194407307877247
0.07339440111532623 -0.015517601770991344 0.026686886320276475
0.0653381647447682 -0.02937056358794596 0.02543616722365844
0.06274295543438888 -0.03273243486981724 0.0230358683869482
0.0616353545030993 -0.03655358341934037 0.024705422513380582
0.06559787150568044 -0.026467938536735215 0.023751682157283273
0.06472933150268967 -0.0386651989725494 0.027326999232172966
0.0671689941749271 -0.03387657701248322 0.027326999232172966
0.07337577727974404 -0.02235014449222258 0.027326999232172966
0.06249987638123358 -0.044564972934333265 0.027326999232172966
0.06274823340050094 -0.04975692683772916 0.026529076174228707
0.06777329906872921 -0.04151257484136926 0.02692280458240367
0.06577668002176765 -0.04478343559859802 0.026908338492817513
0.07009110659342142 -0.03843360560638353 0.026733277550183975
0.06194803663196555 -0.05199959443885874 0.024255016546360992
0.06498808634317312 -0.04757036957259897 0.025804862194595088
0.07321769851942471 -0.033051748101741996 0.02622607602142859
0.07707207325542133 -0.022273759467318098 0.0254860093610179
0.07448108462347454 -0.0303178463660186 0.02500802169245978
0.07051872737308526 -0.03849554013835193 0.023094194287936017
0.06687935504447105 -0.034213589550736195 0.02202936976284257
0.0665206794015853 -0.03780075548640911 0.022281638205673235
0.06656420289781047 -0.042558245735385324 0.02269169275770486
0.06290008939976713 -0.04188763607680323 0.022102103663582943
0.062391504202684744 -0.04881462183764765 0.022943706231686657
0.06117218625901346 -0.04462123496775299 0.022148145028470616
0.07555464860414697 -0.024705075203290967 0.026904564860696235
0.07271040283171652 -0.028157974392018042 0.027326999232172963
0.07025388389181217 -0.03401561704965006 0.02730299426708665
0.07676191291287107 -0.016030768850607658 0.022692906067552667
0.07455187069069052 -0.019146630030142768 0.022460774575942342
0.07203023180871265 -0.023923226641754683 0.022235557496109205
0.07082356605766726 -0.020825842508897435 0.022010851044584633
0.070639260969596 -0.028075998807550077 0.022163462779985568
0.07618052648266864 -0.026053194665747927 0.02362412157944347
0.07806919944732668 -0.020101680021680873 0.0234778609216472
0.07907845465291481 -0.0167190179751221 0.02499326727708496
-0.03954741516936053 0.03727505690154532 -0.01880236304203596
-0.02311808944904789 0.03873184018164202 -0.02392099983990192
-0.043977737549476106 0.028077238204780024 -0.020806898573532143
-0.043754205612509006 0.031392093136531074 -0.019428103847537223
-0.046276557781556475 0.024981726622760072 -0.020216297583828643
-0.04271784990717709 0.026097686693748675 -0.022882379355869346
-0.03676423504949933 0.03990726902657973 -0.018939509028352047
-0.03292846137475293 0.039281192428039624 -0.021845642146789124
-0.034622393093099744 0.036433794643418276 -0.02251445853677434
-0.03772461925980786 0.034505583743846116 -0.021678581129843895
-0.040523099669070764 0.030929858541531026 -0.021885609358979208
-0.035843995978672175 0.032737399672629654 -0.02372248384647303
-0.03456113826962022 0.03749201462171222 -0.017363904975017944
-0.03321169703006775 0.034505113198582814 -0.019057403607884216
-0.02943238012886834 0.03515707795737641 -0.020510195331295587
-0.025770156127164316 0.04287214371464561 -0.01933349956801326
-0.02630659871445324 0.03916960639339291 -0.020444463375474467
-0.042593375376898314 0.02781476274632379 -0.01730162075954764
-0.020357677582540843 0.04136695519610396 -0.02230396262808467
-0.029135750997541277 0.040266029200589144 -0.01877879448612375
-0.03635376406525796 0.03430981242118719 -0.017723062437966324
-0.03884658755606881 0.031149170531979756 -0.017761120516928658
-0.025134222742133387 0.0430813911645736 -0.02294708273057859
-0.029240357612375187 0.039721178208558555 -0.023794139258002618
-0.028208948275437514 0.0425603107692885 -0.021912376952635815
-0.03316071426392553 0.04242408156304532 -0.01965795099746656
-0.03111035743036804 0.030722636663259008 -0.02349503543165732
-0.027683292230774155 0.03377092497329258 -0.023259836941368756
-0.039334965684633426 0.028002785767079184 -0.018877750240384007
-0.03483014823807501 0.030742970479230556 -0.019998150111439218
-0.039136289173271874 0.025345828193584694 -0.02152514396796091
-0.04231203772939744 0.02505331404829888 -0.019202191598742493
-0.03637614010434051 0.02806320482927343 -0.021240413678494156
-0.02545919995436427 0.03596565504673674 -0.022775367044435342
-0.043018087235964036 0.034916085458399145 -0.016759000718593597
-0.031998333389525346 0.046863638607697294 -0.014460689106558894
-0.03196199983358383 0.05515605967292619 -0.0008878622473627888
-0.04344012094908036 0.04368399828672409 -0.004048321733169369
-0.0476057708512118 0.04368399828672409 -0.0006499224134541275
-0.04551816384456308 0.05138068658084694 0.00229076327369579
-0.04090602971839408 0.05297782012579598 -0.0015246633832266846
-0.04339637584231148 0.05028836466648782 -0.0022064201123201187
-0.04479003442710301 0.047199986203175816 -0.004964018238789545
-0.03499941648671371 0.057906818881890844 0.00021561711758514863
-0.03726797223144169 0.05499775542554759 -0.0024524564443820047
-0.0341071532273807 0.05604043613480515 -0.003779064713763974
-0.03522615549597309 0.06028516516390189 0.004507014194489147
-0.037016233952398656 0.0581317925118538 0.0028290066932354974
-0.0396928025542475 0.05547862121947287 0.0014113540252746048
-0.04126532657632451 0.055749930473284776 0.004103423444567191
-0.041716425541279786 0.04638924452538758 -0.009261134548597566
-0.03755683450821911 0.05286667294879826 -0.005457132844368468
-0.034278468155523774 0.053501886164140054 -0.0077001541619902605
-0.03871223754667593 0.0487581353077719 -0.009778011599278874
-0.04033381009551083 0.05124581730126858 -0.0047072634202146735
-0.041649426377044524 0.04867207188637114 -0.006592663038296632
-0.04201072966903249 0.05160193010548181 0.006147439327006008
-0.03687288743489103 0.055408831861560134 0.005671944034198554
-0.03379537437783044 0.056964045229024894 0.004404278787354736
-0.04090188267060619 0.04560075561958041 -0.003119732531697741
-0.04905978312686853 0.044653888319471424 0.004659689507306931
-0.036290692952097386 0.04398900328868916 -0.010430445092997299
-0.03651075000504978 0.047648541725546716 -0.005219896238590957
-0.03963360836686416 0.04470827793864959 -0.005740029873438912
-0.03676539531802622 0.0498800730134287 -0.0019087401746173739
-0.04389854875125622 0.04639677493390062 0.0012901047347569066
-0.03899079634061946 0.053037524387616886 0.004848629850408465
-0.032731575145586514 0.0523022016788931 -0.0031039023278984167
-0.03824865102934953 0.05124409080161568 0.0015903114115144116
-0.03312306687120989 0.04757388059678789 -0.009085304471541187
-0.04133621568176993 0.048848089204762676 0.0017695333844710958
-0.03526298068861093 0.054071954697466076 0.002110348063257622
-0.04642232200095066 0.04525759261712924 0.0025484118920345365
-0.033446162657036274 0.04966524431373943 -0.005888301540133849
-0.03619026876373996 0.04886878160725798 -0.011680074387795059
-0.03362495773287062 0.05170709737520095 -0.010360495970212736
-0.035866739935667996 0.046032825344831343 -0.014673557618198172
-0.045314758583792185 0.05105080319195898 0.006386000197380781
-0.04804248257207829 0.05035925354135718 0.004573564010041888
-0.04975063398307572 0.046790539608683554 0.0019230921154289554
-0.04704362522877743 0.04726213506430221 -0.0016561841068959077
-0.047109519666022844 0.044574255489113576 -0.00510027760882118
-0.04440551180337959 0.04498980202976909 -0.00795966771680802
-0.026464993515027402 0.04983458090787195 -0.01666376875333839
-0.028941164048309216 0.046824212801562126 -0.018161662020160587
-0.02975480253865949 0.049576614731154905 -0.015116485076805295
-0.010729196738002437 0.054724902011824283 -0.01214915455756227
-0.021334403934235833 0.05279656084978003 -0.010399499165985645
-0.004445766562509696 0.0505725311024559 -0.018481371016966286
-0.016721564890446922 0.05143719124391534 -0.01335893444473489
-0.01190661227555507 0.04990646411409441 -0.016559849320676785
-0.016557232881213683 0.049150836251615926 -0.015702581747761773
-0.014769458731335927 0.05413716366963868 -0.011335668825040663
-0.026612496526390406 0.049869853476652265 -0.011495963917265123
-0.009130482443000337 0.052955221350068984 -0.014473553111556051
-0.006147798722260049 0.056357343506878425 -0.012105486087809739
-0.018186811658392248 0.046931680395471645 -0.017356831934216253
-0.02122656034052115 0.04911622569709267 -0.014117715228059453
-0.013427667319834677 0.04734177039615753 -0.018597321882472817
-0.006389416777235854 0.052207451816196286 -0.016172114372184142
-0.008623803727477185 0.049244875920711556 -0.01836011292466631
-0.018233071745148197 0.05370673065435451 -0.010564858851259176
-0.005639492256601348 0.047455414180233864 -0.021184867344612272
-0.0106374233738018 0.04597846294746928 -0.020928557550454835
-0.02168892961357432 0.04467081900129502 -0.018403936258423126
-0.029746662539531 0.04388510066952132 -0.01639557942325509
-0.030028371400976497 0.04903378486080494 -0.011147504673173176
-0.028257537440450814 0.046708162428768844 -0.014087999579544952
-0.007857604401289643 0.044503080764194534 -0.023368282925939142
-0.02589789013147617 0.045031356051958266 -0.016583658647906393
-0.024752485822945505 0.04738643436121806 -0.01462501786840614
-0.029941464267570588 0.04436102855402553 -0.019783997105832105
-0.02267484325586333 0.054572792229741054 -0.013739306791438843
-0.021297089545428083 0.052673812945506146 -0.016427536811291287
-0.01703596980104306 0.05516786921802314 -0.015286319462456722
-0.020041818333873473 0.04688641085676065 -0.022233602536612662
-0.019489173104974937 0.050851517497201196 -0.01900866380135995
-0.01657939369230515 0.05036593725033188 -0.02032715160888914
-0.015672859066624287 0.05263756161636525 -0.018493836857836392
-0.02305811825089874 0.04588389772042524 -0.021847751359882782
-0.024053565034747544 0.049038619786152114 -0.018709579846372282
-0.004040888871274724 0.047802089092650456 -0.024757913589132766
-0.014007814165885733 0.05766731535202616 -0.013354668685098724
-0.01728776191848045 0.05827995706795594 -0.011379709494153015
-0.006815831947094812 0.05990530973715412 -0.01217879137455355
-0.01145305925686152 0.0600583768881671 -0.01113178443195488
-0.012859940696715267 0.04824688643389568 -0.02329379775851434
-0.011217779161355095 0.052282743297166194 -0.01992216170032411
-0.004082132612623497 0.04542250867379924 -0.027120300614674842
-0.01295892386465542 0.04578170207329203 -0.02552137585910496
-0.007406842607951693 0.05158359361332374 -0.02124437567782778
-0.009142971224224309 0.0469747886708245 -0.02502880522048702
-0.012402386337038579 0.054995036490609564 -0.017103703172714275
-0.007714458401782027 0.054240581127872806 -0.018694496017690583
-0.007940175696469078 0.05626811471444944 -0.016334983174685118
-0.015337739251224416 0.043685998767614365 -0.02181876841028307
-0.011061073633826024 0.043685998767614365 -0.02389993713529503
-0.009873352470228546 0.04439133381987896 -0.026909410451557404
-0.029365213053873497 0.05357252051535346 -0.01086569074878847
-0.02666663835981166 0.05234599740952506 -0.014114936484183197
-0.01956848580121716 0.05941107054877356 -0.0015645727825049647
-0.009597290074887757 0.06286575493325826 -0.0008692425006839213
-0.028638799604840556 0.056727868797399564 -0.0015873145662724467
-0.01982514091166134 0.05725061759969844 -0.004332290401415041
-0.02426392817640749 0.056101791718688024 -0.004125366469907374
-0.014158269493856861 0.0604438539612033 -0.0023045650784609233
-0.03083043690330113 0.0529704151314842 -0.005719958888798504
-0.015111162581411677 0.06053371154214447 -0.009082499288093697
-0.017014824459384716 0.061560715654158285 -0.006548408493011727
-0.018921374116076216 0.059897276556215844 -0.008265650323367521
-0.02866449514449075 0.05641914423014342 -0.007879058831856812
-0.030672243054743788 0.057314069259227426 -0.004934591164317951
-0.021303890964507494 0.05771716435720001 -0.009833107045091743
-0.025269740249425715 0.05652463081379917 -0.009623333744734057
-0.00991877272775833 0.06501752265400876 -0.0035381843634491443
-0.015407959520917166 0.06494616355229375 -0.001906632932648227
-0.004214408455874093 0.06597520548885398 -0.0024579921849926497
-0.004265463345130879 0.06285622322780529 -0.008273056862987297
-0.008872716137640542 0.06354785783318811 -0.006335667600052185
-0.017409937797486626 0.062310069127489015 -0.0007789999945089221
-0.023476262229141353 0.05974941614087116 -0.0007789999945089222
-0.027042971929580085 0.05854924295719635 -0.005953406625221942
-0.02379572997653555 0.060404252309135605 -0.0048751194885432786
-0.021514322146112687 0.062340607859046965 -0.002896999713856012
-0.012261055956763437 0.06565349224873834 -0.001143207472489116
-0.024286298840812383 0.053971396525418304 -0.0069543294372570175
-0.0161325061361759 0.05786726647645707 -0.0050809472639578536
-0.012599527851769703 0.05696398738921947 -0.00859019774286491
-0.008666811926652845 0.06111224979162942 -0.00390277640897585
-0.004719300993230887 0.06185288708973649 -0.004905864773067463
-0.02121388833630323 0.054897702016072886 -0.007151674243012352
-0.016085414987586383 0.055743755284720385 -0.008648542806495543
-0.00705885116602359 0.059564300497023034 -0.007395588878108924
-0.012083182542875218 0.05883484846621115 -0.005763335276102944
-0.02644186819943964 0.05202087668314803 -0.00898464625733163
-0.004836724586532537 0.059178996530974574 -0.009506307447291452
-0.009146714504292606 0.05767344641797907 -0.009627839646893507
-0.017906003107759645 0.07819512037237213 0.025456358967572423
-0.023672812795337086 0.06680793709595274 0.02164419236940521
-0.008632272009922672 0.07090272066457151 0.021839082555050723
-0.018079314081228016 0.06838340843007516 0.02188189772481678
-0.004343683158032274 0.07237476887804914 0.021497018280720218
-0.01403274969418687 0.07763108976389049 0.022078948216188853
-0.008251885151765975 0.07437588263887694 0.021514214848589376
-0.020817512495737246 0.07001823787480718 0.021354840328061283
-0.011487157953482933 0.07389452550134994 0.02152188018640997
-0.0286721609614362 0.07216308099422629 0.021939119339324284
-0.02523023496903153 0.0717404397796266 0.02169976608073896
-0.023721650519064028 0.07459318781155684 0.022073060527265313
-0.008866895911218697 0.07790058749990778 0.021847781014421946
-0.01594414387004207 0.07468970121313945 0.021697727354311636
-0.011048165119631744 0.07613091146860043 0.026176863887831754
-0.018915617183251236 0.07311787655504541 0.026137335467447627
-0.004438065601228801 0.0756518332560401 0.02570846331947951
-0.013589169078710833 0.07771005795500562 0.02622400037944317
-0.016346345261214142 0.07549634958940296 0.02622400037944317
-0.007665016491973122 0.07769413170352554 0.02622400037944317
-0.021316243033005274 0.07532195630239968 0.02622400037944317
-0.022483673323666596 0.07115108367256319 0.025974461746477072
-0.01151409568551698 0.07243210577258781 0.024821615755313386
-0.006694034130695177 0.07288958564652723 0.02410616797315822
-0.015406625685139841 0.07124549624148735 0.024745718118141212
-0.01905933464473475 0.06987481461134518 0.024468771556432692
-0.026485189126085027 0.06810601800804075 0.024630321801945847
-0.030121471787715036 0.06739205173106767 0.02488980827201559
-0.006218310120733161 0.08032070626197102 0.02428120543148857
-0.029074748683498044 0.07526455069457966 0.02446843456768022
-0.009426731572907321 0.07988764113710652 0.0246390624825713
-0.021539520473609762 0.0775135202154047 0.023821219243866598
-0.01731102164098783 0.07813492404583165 0.022452869592012828
-0.03114496696927089 0.07230596240203059 0.025871263018601
-0.0265547303906727 0.07490738158640797 0.02622400037944317
0.0450002942488613 0.0029346633904789956 -0.02746705429725004
0.04507571368944443 -0.0003639666775276337 -0.02740244254815179
0.043260086173728216 0.01070901651801158 -0.023923000320792198
0.04153856334923437 0.006604010149719873 -0.023923000320792198
0.04482654454824151 0.006260320003008416 -0.023923000320792198
0.038609321944788354 0.021327122587014538 -0.0239230003207922
0.04035405723766645 0.012112876670856938 -0.023923000320792198
0.03982507408961004 0.017711778003897158 -0.023923000320792198
0.04510780847911189 -0.00471806359654872 -0.023923000320792198
0.03526800125837326 0.026524768201147922 -0.024114788863255986
0.044481923540094004 -0.013308186141106437 -0.02673501705148554
0.03895077189765226 0.0007177266518788939 -0.027780000120401382
0.04196473710111625 0.003268325875790717 -0.027780000120401382
0.038254299507076775 0.006693177345109621 -0.027780000120401382
0.041064482319786086 0.008308912438313507 -0.027780000120401382
0.03645036682442898 -0.010938256281631578 -0.027780000120401382
0.039356348015046956 0.016028901382864075 -0.027780000120401382
0.038027818795883996 -0.003764872836008315 -0.027780000120401382
0.03924470637191274 0.012477480472375726 -0.027780000120401386
0.04280641054770601 -0.0006422082624086734 -0.023923000320792198
