0.02052600830538471 0.02574364452715122 -0.002153578110798323
0.0233037395686954 0.02519220700150397 -0.003066639750523257
0.020607667896539637 0.024878744518037583 -0.003732596737264563
0.0007033474685036727 0.025500841992814844 -0.0032789324707143074
0.004013838730158427 0.025706921645135637 -0.0027882519886807066
0.012043001207560688 0.02579621274431148 -0.002348990163426906
0.025024799926309987 0.026233336846140955 -0.0011033542816302315
0.006479079937782506 0.02594763745104852 -0.0022632756776796437
0.026128465698131917 0.026594062430654923 -0.00040568709283021244
0.023565802409058787 0.025886511637114328 -0.0017878114076643544
0.007986529143815481 0.025960471171317202 -0.002187994036049804
0.0016286441961750123 0.025910311850193102 -0.002498246752841592
0.0085565225569117 0.02538461691757531 -0.003221590008772691
0.026711710769475778 0.02600099331486594 -0.0014703120677729837
0.02799927556832855 0.026349964650348418 -0.0007878218823730141
0.014442536434715152 0.02624848114861025 -0.0014393612278775659
0.027083780136271423 0.025314175590632627 -0.0027136528629818036
0.024446369931295814 0.025381519258783118 -0.00268113311038182
0.010838169010614438 0.025694816054662527 -0.0025758448790191148
0.013299851731273526 0.02625030636793709 -0.0014752962877575433
0.017790324697366168 0.02529694888504462 -0.0030645681297919963
0.02832149074423236 0.02531807362367869 -0.002540299852238473
0.03191957337015116 0.022400179702506788 -0.001668651595654036
0.031582438748939914 0.023327344553952065 -0.0007164665378234299
0.029201535966578696 0.025359144844831018 -0.0011335465967174366
0.02938324863865028 0.02448102452462511 -0.002245144469268143
0.030198688029203734 0.0246054808371031 -0.0008050308683155682
0.03294437186578952 0.021543523841347376 -0.0014608541754691394
0.030549490259529077 0.02371176310736562 -0.0016834838429925535
0.023042313650957186 0.02689486536151526 0.0005570528119681296
-0.000864961572630478 0.026919081054317652 0.0004507353877049243
0.014545535446668072 0.026752142330923816 -8.671126193473714e-05
0.0067338115864594185 0.026987654401026746 0.000789941223044603
0.014424791554056288 0.02706642567541622 0.0011707673286221005
0.016243393856432024 0.027162726753344028 0.0015718557672444989
-0.0067372072598303225 0.026752635211097064 -0.00026570683459917785
0.025489344691165948 0.026992851765855926 0.0009702335041120441
0.01318203832819495 0.026826436672422915 0.00019919646424931652
0.020823860238162246 0.027250669047685736 0.001962956984420033
0.02398357316033769 0.027158459743847833 0.001620584605316894
0.018913075830893515 0.02723415836039745 0.0018805945759244069
0.001882884913040599 0.026948413371759666 0.0005915579066018915
0.017980307445811944 0.02680922497661941 0.00017107470060896346
0.005436886494482644 0.026859663218977262 0.0002663899066795355
0.011377001547908494 0.027018331410508706 0.0009522646710857772
0.009497690601287521 0.02692655288262977 0.0005687699629497903
-0.0031862953367486216 0.026769509768173525 -0.0001679411937459629
0.004052329728027286 0.02697534255251965 0.0007178391825648862
0.021417618753952674 0.02697622770350257 0.0008690424030594804
0.0120666604588799 0.026726852094663696 -0.00020906072063083366
0.02680729855811801 0.02707477622185457 0.0013094956355230803
0.017652624505184712 0.027077844054007066 0.0012439372660923613
0.024353325852681563 0.026816800292458268 0.00025559943118617115
-0.008716852013048402 0.026781425863010154 -0.00016725166313632207
-0.012123828443569303 0.02673794562827271 -0.0003703322561586942
0.012874640109548455 0.02713546775852135 0.001434055954062446
0.01914336901773462 0.026919481871335874 0.0006224731993101469
-0.006918631253987305 0.02605091681560932 -0.002208146798558656
0.0033771363106158622 0.026197550668852078 -0.0017235965031540772
-0.0012946752254901798 0.026518600396970862 -0.0008940940837487101
-0.0025002442654895336 0.02589624201425275 -0.002589351692361113
-0.011491111871193229 0.02637524122288869 -0.0013689337162522193
-0.0009580772929526143 0.026006279900470455 -0.002278316007945899
-6.674961104350882e-05 0.026663696249417147 -0.0004908126022390798
-0.002571730875436604 0.02637112699834432 -0.0013042304190813562
0.0049989382660841335 0.02628933483672056 -0.0014613047728756733
0.010530388027066538 0.02656973127175738 -0.0006551099345293352
0.00305024118261789 0.02669300833549716 -0.0003849474069847193
0.021257273339458566 0.02663895428481791 -0.00037648007223746064
0.008580989987237919 0.026583848208636685 -0.0006334649032237825
-0.004727169309957777 0.025966150846989097 -0.002419012522697734
0.0002412297022483913 0.026180817720450816 -0.001795565107954664
0.007310164135213761 0.026527266194072162 -0.0007974640473676314
0.015829029215995587 0.026494928737785924 -0.0008125794708457
-0.004481377824228195 0.026416590126917813 -0.0011973790161112223
-0.008245811025325574 0.02608141370876127 -0.0021368630103664305
-0.013287284764406696 0.022578373773118467 -0.0063734233762994166
-0.011403953067539429 0.023243468983102145 -0.005760019683757904
-0.009858171265230748 0.0237963350065659 -0.005248675590949608
-0.010456721920511836 0.02281461137531319 -0.006313898672392862
-0.010054590217442167 0.020228541827465474 -0.008080132633937365
-0.011288980728231816 0.022106735003857667 -0.006961639476215807
-0.010217169181100307 0.02135105125037067 -0.007483035850852303
-0.010917987437452682 0.019250276231791746 -0.008475774752524597
-0.009959745551762196 0.018482645988503698 -0.00898921756373432
-0.011419777665259033 0.021056274050882232 -0.007485299673630544
-0.012728183759441344 0.021238208027108803 -0.00722942547089309
0.008929774747511342 0.023192456622490733 -0.005749203573352153
-0.0048596455074937425 0.02227507757950507 -0.006928383043765978
0.016890558192225524 0.023264913529003634 -0.005443381042886259
0.018300291634560126 0.022806730534861524 -0.005775520645573815
0.02146555120921365 0.021645454355795943 -0.006629957019561738
0.018043100424490494 0.023831861914933836 -0.004942732704822844
0.012199325006847169 0.021600950096137717 -0.006953259912685185
0.022904021038469502 0.02200912507682572 -0.006287174379096854
0.019989886726549114 0.021201441255114868 -0.0070397826638943116
0.007968283265444274 0.02254937854709546 -0.00630637540126
0.01574946010234147 0.021362206099912504 -0.0070391808576989135
0.019747390114865364 0.022190236255182155 -0.006236340720946057
0.02103943912354802 0.024058437678931573 -0.004664168412577152
0.0283283666381215 0.0210579895103903 -0.006899344591730629
0.009249437391598423 0.02146116178101881 -0.007159208859894003
0.002735190838779997 0.022126159195223493 -0.006815445225320841
-0.002221935605057526 0.02183245904142151 -0.007209749984140579
0.022372009783200517 0.023216677323228598 -0.0053132823822335746
0.014944414954044947 0.022440634959656917 -0.006179638553931053
0.011318054140588786 0.022435056574342097 -0.0062964547821021295
0.026170792291106214 0.023108835652897262 -0.005284149457245979
0.005092234382849806 0.022167878363429948 -0.006708275827938721
0.027353453331552043 0.02270918965566938 -0.005575308914767724
0.025203183327759004 0.02233025232329926 -0.005952643530773505
0.0144521461155759 0.0213366095299981 -0.0071003273280054735
0.01268733432573349 0.0229253695619464 -0.005851949627930855
0.018022706853391413 0.02138869439067143 -0.006947096503262469
0.02074042122294799 0.02285141059767036 -0.005663351273411047
0.006581345594456543 0.022015456500152065 -0.006787192492609629
0.024518320425922394 0.023783358953456443 -0.004782094230345996
0.027195427689156594 0.02163799544608134 -0.006458726266506264
0.016296550186067668 0.02224042532809249 -0.006301987352875938
0.010096466226095255 0.022347054986770934 -0.006406438096216976
0.02502933519078454 0.021110575428638756 -0.006958326786426443
-0.0007769880203087887 0.022377089799001562 -0.006718354788840092
0.0015933280287648605 0.024002117910581586 -0.004985755638094742
0.00539083710517578 0.024348828411328186 -0.004558103613319405
-0.0077732736964568885 0.024675808182758843 -0.004365939733706973
0.011832831401938127 0.023990373558122658 -0.004869505558570971
-0.00372795945732204 0.02385748999294665 -0.005211271463392677
-0.0031541607902105 0.025388057154018533 -0.0035275369992575894
0.0068471585088192895 0.02509679209898761 -0.0037204619065656533
0.0032220260629510834 0.024486937041767874 -0.004434174454920838
-0.005376806814382228 0.024470956034328518 -0.004560105467471908
0.008968998195190602 0.02418616992377495 -0.004691152250094212
0.004852516381222949 0.025153862007950768 -0.0036831019433131314
0.02337089595767084 0.024495601995919988 -0.004170617778097942
0.016592946907511504 0.02484238910443156 -0.0038762322340565184
0.0008326710448770171 0.024702332235271983 -0.004228370772220782
0.0016806489941844447 0.023151891825659902 -0.005915945522759728
-0.008463851362181423 0.022428748289198455 -0.006835953496243821
-0.00737235403834836 0.02553534131586968 -0.0034193989886238045
-0.0005604480553564375 0.02522535455311479 -0.0036730472781018263
-0.004514610769057256 0.02531237821453661 -0.0036275860377035962
-0.0027080741106470406 0.02335313797754117 -0.0057508507948998725
0.010513903157027172 0.024542559071984868 -0.004281302797785261
0.019008129706885177 0.024379931262680985 -0.004352329097410593
0.013382208205802259 0.023921878513919602 -0.004924994524850168
-0.00606682047912771 0.022967534921585358 -0.006215571045081466
0.006138022153307382 0.023140460412302846 -0.005872261975002326
0.004231107533832423 0.023648223491058766 -0.0053401312766750714
0.015872710873507417 0.023995772539436716 -0.004812651274199359
-0.003696792576291878 0.022573322639803186 -0.006617484847757008
0.00040930255815264417 0.023018036223086156 -0.006078594538382595
-0.006415241392239624 0.0239593955366333 -0.005133534794842795
-0.0017674603149448907 0.02467744305422063 -0.004288419162246319
0.003415763451351022 0.02299019738068684 -0.006071177949225361
-0.0001038803645775424 0.0237460100828484 -0.005287682898229696
0.01460850523678109 0.023697055419024796 -0.005155790499453178
-0.005022414384933909 0.023718678257776047 -0.00537964053910165
-0.00865992952493545 0.02353254633707238 -0.005629386176978923
0.028047807682923195 0.022531679367019365 0.014641816115977485
0.02720634471583398 0.025333017853532862 0.011187163896942215
0.0270843670806688 0.02396032717944152 0.013154216682249146
0.02650761692179676 0.02475973052986313 0.012341152925439169
0.014670416597223547 0.02575786507380775 0.01097458658030016
0.01591285593300671 0.02570482414866272 0.01109380060414723
0.02007965859403414 0.02556227607886321 0.011422389025389244
0.0004940413158343523 0.02537156898933842 0.01161275584946117
0.026053290611410925 0.026209464212026197 0.010177123745120972
0.016657848977302315 0.025092262505956784 0.012335828346859975
0.014427801899757134 0.02517772105777664 0.012141491894821957
0.02270048394382408 0.025066569288481264 0.012447471857356503
0.012273605561069396 0.02553177024930512 0.011406549246066728
0.013405588175822467 0.026039734766208734 0.010393935206214648
0.025257483752467363 0.0257789034265284 0.011037056894756685
0.022328325432983135 0.02635747753962711 0.009841896615604306
-0.0014658728557755082 0.0255508571581513 0.01123197711973479
0.004480920743405613 0.025731141292124435 0.010927513816678646
0.02400458041683589 0.025994754554256233 0.010589587293501825
0.018584894086292013 0.025687302826545508 0.011155584556047921
0.02254437000205907 0.02562431663081015 0.011321758378285387
0.024888226654017992 0.026532054379968643 0.00951538651605508
0.016819285328492938 0.02615222081718334 0.010201029722048973
0.001853780353078269 0.025336896999080163 0.011696108343017772
0.025062289814026358 0.025073694512119795 0.0124565063698281
0.019755571428935702 0.026119846423366497 0.010295368372668067
0.007308073947576701 0.025682500878683335 0.011053556368409819
0.021296950407436132 0.025974870720738757 0.010602842692943325
0.009333560211584522 0.02536281289864285 0.011717967329992605
0.008662215690680488 0.025965254333546985 0.01049706691375561
0.0030304713614098602 0.02565543718329766 0.011065731181455929
0.006108263006622275 0.025399568196702707 0.011611935845408169
0.007200728495506223 0.023362408826288254 0.014039835249726483
-0.008090679736471679 0.023081978320632236 0.014230902306296278
0.0020534742118630406 0.02355529395566179 0.013853922925261091
0.017133221712870142 0.02286261858212301 0.014509714260492933
0.01117437154684396 0.023724880703720454 0.013737937924375438
0.02076083872677239 0.023623659299619675 0.013859451797693368
0.017293279188675577 0.024014439618602848 0.013507011881877112
-0.004170320705537736 0.02327285241328825 0.014078284727356423
0.023980187122685452 0.02347653588958466 0.013998798231055924
0.015729801940254813 0.023978670795587204 0.01353272844532644
0.018368711473353116 0.024352252030606886 0.013216511570758243
-0.005820925398346255 0.02335092307141021 0.014004541739283106
-0.0008557617134694261 0.022995515169229135 0.014331381219641321
0.005691695255862649 0.0237040176021559 0.013737037767555648
0.008472318639220336 0.023880030259017054 0.013593400050128967
0.02560111955164098 0.02220554518426302 0.015111495223288942
0.026760770943982926 0.023225389957161363 0.014227224051947894
0.01250951338340238 0.023882810648186825 0.013605022280521207
0.00376175766215149 0.02335629042628424 0.014033201507740364
0.012060686303332607 0.02269439648240315 0.014638593477117844
0.019596641763708914 0.023931205238220364 0.0135875232943652
0.018674239719367616 0.02283858927717298 0.014536004934735489
0.022631896145818804 0.023955412740220526 0.013576996676685908
-0.0028473588236340866 0.023432554291657894 0.013943783323775539
0.01570608584337872 0.022724788460914375 0.014624802540781525
0.009514376996747896 0.023119866699299732 0.014259142677405587
0.014743553934420872 0.0234886810491393 0.013956088500105737
0.02379839797948999 0.024649517703050045 0.012976475226174424
0.021797611304400295 0.022352581501023264 0.014970192559714823
0.024450725982708997 0.022628405175380336 0.014739173890768804
-0.008900901494917172 0.024553534010948633 0.012558180716729346
-0.0026167569662019 0.02497349220501265 0.012179248090538445
-0.0004912877014523406 0.024941877493248017 0.012255283577135019
-0.0039911872068599235 0.024839580002062434 0.01231158572965655
0.003284820707715799 0.02509122859286518 0.012148701366871004
-0.007355569896581664 0.02488340607278519 0.012198539926710404
-0.0009013190323382781 0.024121615849205302 0.013212326543970492
-0.010523175240977664 0.023954484727854816 0.013232938267696871
0.010911815598093918 0.024935700666090438 0.012471029946275216
0.005623946755684589 0.024636766780890718 0.012725865907711586
-0.007626546576855502 0.024156362089087544 0.01304851127706106
-0.004954532800384952 0.024072657495442268 0.013195791349196791
0.009644147818954073 0.024195171785924677 0.013318635570075479
-0.005271427371174033 0.02485071803675491 0.012275081950033346
-0.006350683738045189 0.024171342387170495 0.01305422267246335
0.012653677566406635 0.024986721352875857 0.012442881584349093
0.006897269559040329 0.024323824954495737 0.01311713205421847
0.004610220598541664 0.02500774980654214 0.012271095754901203
-0.009466112898636065 0.023425653079668655 0.013874113759390651
0.020595348715279932 0.024964021411620192 0.012614771952203889
0.004000549215225909 0.024183884733993792 0.013228725944912215
0.007625595900694271 0.024963699519186783 0.012378024305974539
-0.009992287790477448 0.025049544607607423 0.01195497171047841
0.0019169473075871237 0.024460568106238503 0.012865281502077094
-0.017763572353787966 -0.002853000070899725 0.004425066011767833
-0.01637663164045278 -0.0012600071088812153 -0.0006373396937680494
-0.01761008946539856 0.0015344759623694463 -0.00020659129404619484
-0.017340853937987954 0.00011839867919896316 0.00028754543373013856
-0.016799256246970685 0.00028924647722436024 -0.0009215229744899872
-0.017192318806542845 0.001969273045708185 -0.0013603127251232187
-0.01720935773965466 -0.001972685164099694 0.0015499756519061418
-0.017462065364022623 0.004338409856629794 -0.0025488073685400836
-0.017546835581617723 0.003437635622089602 -0.0017218442147029574
-0.016950203093007994 0.003194018670589357 -0.002738699867998774
-0.017247937911238822 0.005692109101715159 -0.00396524355423813
-0.018899814618701976 0.009850532162611303 -0.0034048311188463014
-0.020530288913658493 0.012175414234442253 -0.001391538647993962
-0.018039726034468843 0.005737893740871259 -0.0023609682912941526
-0.018828268213277145 0.011494830199308382 -0.004767340642477627
-0.01917118204260514 0.00789785035360415 -0.0013626897979179078
-0.019980242303616346 0.010884853414018531 -0.0017013527605169347
-0.018348447797848243 0.010327725381304258 -0.005007455865991992
-0.017870411706134844 0.0028737072630568425 -0.0006563889221709372
-0.01808529463880782 0.008697197766661072 -0.00441649016078167
-0.019481152658677444 0.009745407469915153 -0.0020054894000464682
-0.019449948964646066 0.007147846366630506 -0.0001812236022693738
-0.01996092605568531 0.009549814738237074 -0.0007712157074229622
-0.020029849007713645 0.01280224489745405 -0.002987476312097621
-0.0194134395774005 0.011642896815802689 -0.0035440135363426005
-0.019794784373946335 0.0083772978857827 -0.0002937114892867284
-0.018015805983715483 0.00682048966579632 -0.0032052851436423324
-0.01862274930220926 0.00509290036258308 -0.0005638878427932038
-0.01825358485908824 0.002292889098086458 0.0006391754982095169
-0.018769489853370708 0.008462182495659984 -0.0026883593664475723
-0.017945806017002026 0.00022756148611661293 0.0014458537018255451
-0.018428712053017743 0.003789127112570288 -5.408197709081677e-05
-0.018106139481890302 -0.0006392509259639675 0.0024430912916948945
-0.01859249986008074 0.007179590001607002 -0.0021552223143312217
-0.0055692227865818695 0.013099616264282807 -0.01042815870865746
-0.004913287243778083 0.015052716229866335 -0.01042856255535659
-0.007899576292112583 0.013995296881961425 -0.010427504628189893
-0.002350604845568442 0.01560586646103997 -0.010429435113199461
-0.00828248564878783 0.01054978166389659 -0.01042703915818598
-0.007070893961722225 0.01534037463920346 -0.010427902990549753
-0.006039737014907367 0.0142992452731161 -0.010428128162796816
-0.007868567267070895 0.011896154183405998 -0.010427305349060622
-0.0009928945902450918 0.011856330203279794 -0.010270916246370467
-0.0030464674745932416 0.012623855622777036 -0.01035726582182286
-0.004143542296207953 0.012009444426506078 -0.010370305850331244
-0.0041158494499570365 0.013282514304505014 -0.010410596789494745
-0.0001991575043538827 0.010932422905270092 -0.01021728029921377
-0.0030791603860811567 0.014325616610352749 -0.010413213913324618
-0.0024624027912265563 0.01104718509522715 -0.010288830304947493
-0.007020474168297491 0.010506439859117096 -0.01040799672812589
-0.0037282553804021553 0.010470846089653886 -0.010308159379434077
-0.0009289383600252667 0.009663120368055014 -0.010198156858109441
-0.005988580919176157 0.009872355433215551 -0.010356583289492106
0.0010626486639915274 0.010549704633771171 -0.010167094289541892
0.027164958099648612 0.018900556876567956 -0.007689916371146172
0.014694331579272598 0.017449426782976618 -0.008871638603798327
0.022818495888695303 0.01839857662989451 -0.008100974549123372
0.001826468941452081 0.016286059816690512 -0.010019237467804367
0.024977066486356416 0.019919361909688092 -0.00762362022542791
0.02449605700667489 0.018669994457550187 -0.00792563235442302
0.01966685852505795 0.018960722653765402 -0.008200030982397702
0.016490605838197198 0.01837499028479465 -0.008547455474329849
0.018220944860780283 0.01784877212662451 -0.008539824119458894
0.0060816502725410376 0.011441200574264817 -0.009718867387777861
0.0005641323531004299 0.012107329147720124 -0.01021467458881101
-0.0001549126876213686 0.013081113635460741 -0.010270842234146687
0.016717403301324436 0.017143615632350406 -0.008696604719045044
0.02349621703897877 0.017422220446961702 -0.008077010602202643
0.017945300201211697 0.016599654408838087 -0.00859003341365987
0.011085986268972699 0.01567777560412014 -0.009223079390665849
0.02488029911982674 0.017570498192541983 -0.007949633066794805
0.019507916508840893 0.015380573627894587 -0.00845942800027103
0.01443227966128599 0.015976163836280335 -0.008915691216621195
0.01554482637316725 0.014987969461449889 -0.008823848126369332
0.00822173828288045 0.013636418757102461 -0.009503193791925922
0.007997447387117156 0.01649011687311107 -0.009496432450019975
0.012827298809725038 0.013845464461408724 -0.009082050233404687
0.004685912786806216 0.016014993351427545 -0.009802340166647137
0.010372320987981562 0.01677534214100728 -0.009277578718953138
0.012948269183144165 0.015555211208650045 -0.009054759777951497
0.004594867637509167 0.01232623923490793 -0.009845752052053892
0.00378656900609156 0.010815529238202162 -0.009933701072219721
0.007561916820842793 0.012464348380925914 -0.00957440520955599
0.0020383220188363075 0.01133135896642562 -0.010087897417693555
0.006899441865353712 0.013733171430435086 -0.009622614920938265
0.0038201958329679517 0.014503328620475783 -0.009895523930620544
0.01685783234825518 0.015908852789957836 -0.008695582169534255
0.00918905439602121 0.01631922144108171 -0.009389611407062494
0.008579543759065963 0.015039403711698315 -0.009457270042001524
0.019763617835041786 0.017299631393215387 -0.008417882508744078
0.011493494452196992 0.013364968615378274 -0.009208015502423663
0.0050846679350607105 0.01465547116037547 -0.00977899531992495
0.005982262906934474 0.012701292608111293 -0.009715913530991264
0.014377727838591597 0.013585045157369862 -0.008943425213742796
0.0122290888580995 0.016522456620670013 -0.009111002003334562
0.021273434515076996 0.017246816152107054 -0.008280976734534878
0.007364602338663667 0.011303575398266926 -0.00960341620061076
0.002177963450589439 0.014041052963243693 -0.010049385792567634
0.006325054935060221 0.014974877940833527 -0.009663065939363197
0.009984827923382376 0.013164598299692352 -0.009347227539201461
0.015493027676786052 0.016551899116246348 -0.00881366994770958
0.009904109885655767 0.014760750606575054 -0.009339374477812426
0.0010052846243320355 0.014322434901027036 -0.010153432079620692
0.003080964739894286 0.015814431980229048 -0.009950316621987882
0.018294991954693404 0.015158056091691291 -0.0085719353987853
0.013265130507280135 0.01718879665812789 -0.009010366489375535
-0.001309143082966738 0.014970233840372634 -0.01035789997433441
0.0024056748102022556 0.009571928355632888 -0.010071218599539418
0.002800532939414232 0.01287102115718737 -0.010003867154027627
0.008835760056289306 0.012148098816967946 -0.009461483954425134
0.00031673535154757605 0.01556100556482195 -0.010204302895357615
-0.0011740081360956946 0.017900390275683763 -0.009246620473734783
0.023140175105685817 0.020414032697575114 -0.007454512295102074
0.016141206755316766 0.019596639327983063 -0.0080194048976616
0.013054411701015496 0.018426568632960813 -0.008691539768797503
0.011709255970417642 0.018209110135303477 -0.008831646682561487
-0.007141680397591613 0.021734031374880714 -0.0073610633867347555
0.010414355203760729 0.021122409780419106 -0.007334957664833278
0.009843114671934446 0.019626985627819084 -0.00812755738029351
0.01021603550599558 0.0181258352492058 -0.00890455865725709
-0.0019331799603880136 0.016722519841369504 -0.009877000196136588
0.02705654911401128 0.020452279738628967 -0.007357415707603879
0.01333631084069381 0.020860930304668752 -0.007414046690103754
0.0007092806854235604 0.019262613037890598 -0.008497783867979574
-0.002539148846926515 0.017897295525162324 -0.009275116837367037
-0.0036538183861140076 0.02159720669303571 -0.0073638782747948
0.0037543134085355713 0.019454654313117218 -0.008337487066303051
0.0037741205693427116 0.017232363310561067 -0.009498233674831673
0.002461039623512087 0.019333548345944196 -0.008426228689556118
0.00013975406840107852 0.021630289567400547 -0.007271897880273216
-0.005313270887204617 0.020291978251537526 -0.0080785283195266
0.00690106090896798 0.021081048652587878 -0.007425744782172341
0.012634322650620896 0.019724777491758706 -0.008021503216019056
-0.0006026104937145291 0.019820262891961468 -0.008232245336699986
0.019390661041500435 0.020322390127724493 -0.007576222353734545
0.005611194065408347 0.017275390852906865 -0.009439580344822633
-0.005109838157664541 0.01888006720600989 -0.008812239654016405
0.0069518278474790885 0.017886781196809476 -0.009093734928535005
-0.006260943701326063 0.0195213628333744 -0.008499830759413518
-0.005919785337679515 0.02147400890605224 -0.007472865014694868
0.011071276700914626 0.02024729965487572 -0.007779263929740371
-0.0019447652281903258 0.01917463226779939 -0.008596011085827769
0.0066800733953036005 0.019692990427598693 -0.008155349886995181
-0.0019930304799168808 0.020793928912414134 -0.00775088653089846
0.0021332237409500657 0.02104466235891813 -0.007538634291856708
0.004506001185637804 0.0186120364513939 -0.008762950345294455
0.003081582443097383 0.02040911512208057 -0.00785203172766054
0.005938727768079165 0.018642854166223282 -0.008718638109605239
0.0019250686152833096 0.017992034604557675 -0.009137716487798809
0.00915820365227203 0.018682321335828284 -0.00863462580733064
-0.002949793551978971 0.020055220349618763 -0.00815569677427987
0.020975573277524532 0.020380596207145055 -0.007514603318527617
0.005077519570843965 0.020584603183394962 -0.007721040402961444
0.018118675013779516 0.019886234430761835 -0.007829156828563265
-0.0007890924802042016 0.016099775110587952 -0.010179854518818924
0.0004323089972199229 0.018149019572469317 -0.009085084743600591
0.007915829268058651 0.020226940270978908 -0.007852031795254743
0.000716076648738382 0.016691846066941872 -0.009840863720857728
0.017148080236674287 0.02065880927030833 -0.007444600938388001
-0.0038444398230649394 0.018454571697491158 -0.009009643596251572
0.014307512164524661 0.019839039091219767 -0.007928857271492326
0.001496388978652528 0.02011572674397679 -0.008036537946314787
-0.00861710454595485 0.02053371297472626 -0.007996278643642517
-0.007802999280557484 0.018524909193165184 -0.009001480971631337
-0.0059569387533411865 0.017540144294680968 -0.009494717364948545
-0.007883983474253637 0.017443029822644295 -0.009542686058956244
-0.00832382116674451 0.016033175047949013 -0.010247852670704017
-0.009736299006211133 0.017399824483269568 -0.009563709511632358
-0.004324614379694206 0.016603081389798997 -0.009964021743333898
-0.006615060733530964 0.01646072361505379 -0.010034508350808175
-0.007482417979998913 0.019714465140158725 -0.008406485036466304
-0.008832821469374806 0.019104453017518418 -0.008711224559939229
-0.00981964332323911 0.015910560833319997 -0.010308715650793143
-0.018972307783383397 0.023080738401069757 0.0012232348065461282
-0.01728199876447662 0.024533686013061266 0.0006842577822970969
-0.01682371546609278 0.025273857978464112 0.0021469179368899275
-0.016958558706490257 0.025429659713668416 0.0034523908895643094
-0.01812939426107644 0.023683069329022668 0.00038659158279809357
-0.01592663367893769 0.026358838459905633 0.0033192487833028582
-0.019194810941636355 0.0231922183723356 0.00270083073791739
-0.019179560083168262 0.022597100744366206 -0.00013010833624276137
-0.017683427316159562 0.024414767104633743 0.0018629951815406658
-0.020649735924801054 0.02106627277369946 0.0017439636345376352
-0.02006481995717234 0.021949229497246554 0.0010547863799607086
-0.01889708769130003 0.02249577410429538 -0.0013060848222982728
-0.020577409349237054 0.01793009375657121 -0.0009696470779826999
-0.019494554733779076 0.021032927126382585 -0.0010564234510556558
-0.020358384970136256 0.019253012550730364 -0.0004240629756192239
-0.0156988586537149 0.020298107294543073 -0.006219841861812451
-0.017293705335356836 0.021969772877390926 -0.0035925239718512785
-0.017480091924640385 0.020939515905813368 -0.004187161101616548
-0.016443123177661098 0.021848256135679256 -0.004427242501338866
-0.015869104594415515 0.02126263598022001 -0.005361063154444401
-0.01645148226241641 0.018858105488976908 -0.006619764529370018
-0.01688709618012808 0.01965873179983398 -0.005649040857274534
-0.020347876728352324 0.016778960919465596 -0.002354132975906003
-0.019545595047213492 0.01714431629484805 -0.00344781417082322
-0.019563142562610714 0.018547099988560915 -0.00263260321869482
-0.018582841283851202 0.01747033378894941 -0.0048233061906038785
-0.018676823568613356 0.018935741922689382 -0.003849249392816347
-0.018892836587275794 0.02051773088316114 -0.002612279664923659
-0.017998929977806992 0.01719796901368489 -0.00592121536368346
-0.017942377671267808 0.019818009716131197 -0.004543197664464983
-0.02012785750062479 0.015520826215432638 -0.0034159405884718256
-0.017294880095357477 0.016962053036663587 -0.007193141904624883
-0.017890288566829737 0.01835019532120867 -0.005450794118979115
-0.01922765651542052 0.01622668175523398 -0.004477134663628621
-0.018392782568620866 0.02168996409022224 -0.002764192982571588
-0.015724861676498614 0.025782157258449873 0.00114260571583439
-0.014804988572709635 0.02607550767843105 0.00014654874683972877
-0.016710342560118163 0.024581352328651038 -0.0003837900824003505
-0.014232721022456086 0.02679509327372833 0.0010981026118158479
-0.015249944650686246 0.025405453673750907 -0.000916731792368154
-0.01507089215552448 0.02668446341818131 0.0024640063770780592
-0.0158276963049076 0.022897298761704155 -0.003995263746484155
-0.01569517884611068 0.023698525253879065 -0.0029709190042591658
-0.01651787060071622 0.023984653367141257 -0.0018849271182659031
-0.01776134734263745 0.023424907192646994 -0.0016478501698237987
-0.014466741214764434 0.022712678822438215 -0.0053831490411197684
-0.014535608740876296 0.024608604102057566 -0.0026426851546322437
-0.013973105962610753 0.02602502926029291 -0.0011035352348364319
0.014756721458532856 0.00438791246684773 -0.006866259134926359
-0.00021652966729644708 0.003185616265125125 -0.007862698296630874
0.0123231430834451 0.00375208659531261 -0.006783705749926082
0.002753531249015356 0.0028402747976844288 -0.007340929515053602
0.0072756965279976195 0.002712930604269674 -0.006767706202758961
0.016995302183368487 0.005062132029251242 -0.006991796349079059
0.005736419942406815 0.0026534293306345446 -0.0069057259699496325
0.013054520482041778 0.005353886381246421 -0.007591687288020338
0.00905192531908452 0.0030912258105693217 -0.006780336872472242
0.008616591352078127 0.004075335384710248 -0.007375052289269536
0.002205973442614045 0.004022033669398623 -0.008057842929010956
0.004660695025811985 0.00436224253920897 -0.007973931872170123
0.010694089629125818 0.004969797182530428 -0.007640759634444614
0.003717698146386444 0.001927540613966463 -0.006727072196785087
0.007374396155528811 0.004406855544312482 -0.007697138480484719
0.01551233328566502 0.005312375392350715 -0.0072955169119573995
0.013592579970973098 0.004104805919666004 -0.006838455086337526
0.019368226474373553 0.005161732617140506 -0.0067833988124531485
-0.0004957775835907777 -0.0005761252037843035 -0.004648768622201762
3.109874481125219e-05 -0.0014008912431005558 -0.003914795281141616
-0.001490972678236601 0.00034911226951614654 -0.00546574942934646
-0.0020394483903160543 -0.0005384085772302359 -0.00465825468138367
-2.6244678606988665e-06 0.0009053296436265204 -0.005989950811604347
0.0008541968687363658 -0.0005557071430448269 -0.0046885368424308144
-0.0009670646320319941 0.0021712438941497705 -0.007114041505591211
0.0005192286051040873 0.002089206614649098 -0.007063755925885627
-0.0025909130301817445 0.002083063627338666 -0.007008944925473474
-0.0029286826031307825 0.003557350164967965 -0.008330508881990809
-0.002055408576141416 0.0029228046777311435 -0.007773230431985039
0.0017959505463712177 0.001597811256104243 -0.0066417111216376095
0.000998131835817099 0.0004156399836158255 -0.0055650683615177665
0.008396053783400012 0.0004971809400268374 -0.004166939089199842
0.01060978563166797 0.001709316507102424 -0.005063084649857221
0.007608122309595088 -0.0009826979371734467 -0.0026145030666035406
0.00266805912608907 -0.0013012032399896756 -0.00342230049990427
0.020578947238505313 0.0016956597057591514 -0.002660681516987244
0.00966885839654457 0.00048142255642339717 -0.003843726163340386
0.022294127313292632 0.0019344855064800845 -0.002531089011856506
0.012655935164895223 0.0014279421397680335 -0.004242263454167301
0.01876618826870124 0.0013444678310493457 -0.002681435470174937
0.007248324213024416 0.0006821422924895772 -0.004659276107830195
0.027917946652127486 0.002726215428643973 -0.002116357878409735
0.004771097123621995 0.0014029650770091885 -0.006100286410330035
0.009364617339095351 0.0013393640459240948 -0.0049259019851101635
0.004459806688456633 0.00028305787409950607 -0.004857254634658997
0.00938054210417621 -0.0005414648278645196 -0.002709336685526808
0.0031846253870345493 -0.0002982352500484073 -0.00447861864606637
0.01164366611173704 0.0004336453898808541 -0.003314804101360683
0.0264034384472102 0.002508996601251587 -0.002223335319611845
0.00016304220625180016 -0.002404243820060241 -0.002724228199708679
0.014873497484443348 0.0008775952427176018 -0.00306397066834761
0.019330709648848126 0.002080941204284363 -0.0034127495204182927
0.015231498493522809 0.0019794219823800817 -0.004274549986533447
0.002324452814433661 0.0005518057306302914 -0.005684574025155182
0.0059199208302140914 0.001031804518305138 -0.005388628259341254
0.001368874506164331 -0.001818669565525818 -0.003124501038709742
0.013781751620952748 0.0010561342437169496 -0.0035353510122718606
0.004745048012831587 -0.0013068596414735846 -0.002918473290199185
0.02456888108142384 0.001960384297077122 -0.002017046447519769
0.005823128839399434 -0.0006282874246196374 -0.0034587362653410413
0.006251801225772309 0.00020400654882809838 -0.00433529954054266
0.017550679712389963 0.001627723811865992 -0.003305638312221911
0.016403797276624776 0.0016669995290708413 -0.003626376639373105
0.027864181727473257 0.0035660318537554985 -0.0030568554855748336
0.00955318732931357 0.002315324461668622 -0.0059880880284152085
0.011251926533978211 0.003129505123482595 -0.00648514896194659
0.022817849068192106 0.005839464491207927 -0.006748465245601898
0.020902540787626267 0.0032582184790574888 -0.004355986849401893
0.006963861578345424 0.0016629864106587461 -0.005878861390134377
0.020931424656019538 0.005436973698730038 -0.00674903587403888
0.016634668118105562 0.0032208018280548744 -0.005319068858715625
0.025328158258947325 0.0041433929088193 -0.004289569639325053
0.024485886457083043 0.0029413974760660556 -0.0031638003316496813
0.02527390400279174 0.0056737811626927535 -0.005988021902473412
0.01383564169330202 0.002034083045239137 -0.004670580619432361
0.02005671340640255 0.004431452951107246 -0.005847312146344749
0.02634337004696333 0.0036262767717122188 -0.0034810839825205313
0.02749414284503512 0.004905544930045269 -0.004619372326296663
0.01730685437667495 0.0023776028616001627 -0.0042321300423127425
0.01494116914110855 0.0034381250149559542 -0.005956951200289853
0.026553255745688 0.005297860189642834 -0.005272903121449906
0.021918492254609977 0.0037759378468560467 -0.004687173253656814
0.013311053120043515 0.0029394911249219125 -0.00579130927301757
0.012378055412892884 0.00232842096492876 -0.005337778958461878
0.024255304581040988 0.00496236231805501 -0.005444103343638705
0.023471065707592473 0.003943466451131706 -0.0045063577174679825
0.0179827893537861 0.0032769600793530577 -0.005063692315052222
0.018312213823316218 0.004375622852428882 -0.006196324013476124
0.022465656725057088 0.004852885527636227 -0.005744648762966706
0.021164716197293945 0.004340532026356004 -0.005486435003179644
0.02224706236879313 0.002877487208967033 -0.0036202341862596145
0.019133090988486492 0.0029060462951951633 -0.004384456289647289
0.026256877714123043 0.00658933178979674 -0.006765169923824013
0.008265754242326494 0.0019427709972933257 -0.005880682099430208
0.027293598108859576 0.004964593311601885 0.013898028535533966
0.027925649850347168 0.006115776519405268 0.014614760976336237
0.026143153413366704 0.008522252971279447 0.016447939442857072
0.02775928069736683 0.0079218658516301 0.01588227677908195
0.026058721242005336 0.006610976081583301 0.01561416541045945
0.023096423207299203 0.008292970712542529 0.016709685144582646
0.017660015984841577 0.0069800583504715675 0.016758656403079566
0.008339580312083317 0.005284604641551212 0.01707374448094684
0.01482473995679966 0.006381117383386798 0.016819893286933313
0.01610872320866085 0.006499698123357269 0.01672864148833776
0.020937116422107716 0.006573564522736364 0.016230679167843487
0.01365892058457327 0.00584490472497375 0.01672442970041243
0.023976333334936418 0.006273826793019591 0.015773170870034103
0.022109876774730985 0.00625605578463141 0.0159701491243392
0.02426781161615533 0.00788090818131031 0.01640996147751687
0.025334993285957223 0.007458200364868526 0.016117218707927483
0.019511026718376998 0.006742635836512579 0.016457183366791167
0.021682913801225893 0.0047968033367936916 0.014993526205006168
0.004904506830980477 -0.0015370765182275163 0.012157970049938318
0.007867551897883423 9.919467480246102e-05 0.013172731540533503
0.0037880908593223937 -0.0018334557859249027 0.012093468912228235
0.021361697373776 0.002901106521627791 0.013177520110668013
0.010505897671881804 -0.0003174795704402233 0.012216082004936662
0.0233857802448603 0.002648980358737642 0.012510652356568099
0.012008276941885507 0.00018614026800889123 0.012406908750582753
0.014372774414903922 0.0017477044580234604 0.013470677421956371
0.0250444595037164 0.005937025196543296 0.015433783429678617
0.014654324207820093 0.0007959919530775002 0.012467843553112123
0.006821627031157502 -0.0008516169160174606 0.012443981306906632
0.02632000963458892 0.003820979227237911 0.013070398911384803
0.020373520962875574 0.004211033179280337 0.014681422009968928
0.016926204383206807 0.0021359872522463217 0.013330691502844556
0.024518746534321192 0.0049674480303115946 0.014579344498198957
0.012090217350127747 0.0011152547286931583 0.013312501640415014
0.015489917824851006 0.0024647858174344428 0.013952715962602823
0.020293730618165445 0.0033454845657501153 0.013838496944333648
0.010876506882537778 0.0007640358594849048 0.01321357674515277
0.013134212934930795 0.0007215636172637585 0.012706781663463606
0.025892853292404296 0.004607660408444035 0.013939349430209032
0.02033486332755606 0.002097889550175426 0.012591377934008309
0.02337628503959326 0.004314039052655154 0.014165732392103957
0.018563441125551996 0.001974720209386705 0.012833643166790828
0.019069256423715826 0.0036279721164759744 0.014370952110521352
0.024653426275566947 0.003375444911655971 0.012971033985248619
0.022614610373458723 0.0033607656796149086 0.013376040421115978
0.009160131323216207 0.0003012935407608287 0.013107374181227302
0.02750960812482094 0.0039192891745086205 0.01292318952263731
0.018293821306805375 0.005575063114727663 0.016057424433104556
0.001302161179508897 -0.0008747637788914366 0.013273738480018378
0.018531090520388725 0.004627437589994454 0.015298388635410439
0.011545588323720735 0.003291864405446373 0.0151659135129154
0.010779373216513772 0.0022758009806496645 0.014482748512551342
0.0025374470519999217 -0.0008896867535818228 0.01310408754329213
0.011199346586295282 0.004782869208455783 0.016356721496671743
0.017246686533675608 0.004614757794807668 0.01545310457730308
0.0028086945737027373 0.0005211529231787089 0.014154186020791425
0.008599402503689934 0.0035885783331699546 0.01577131868587882
0.00650974948797934 0.0028623768859244564 0.015480500081051321
0.001128831318306814 -0.0021208862594514 0.012337757140818095
0.012893369685769 0.004555876020403384 0.015965263736918072
0.007048708185168776 0.0012260817276867396 0.014153297488240955
0.012280958277158143 0.0020038701894915193 0.014081378429313887
0.015830197219146965 0.004693585336785294 0.015695096190693165
0.019459678805689266 0.005288732362587129 0.015687971194345472
0.004920393618681488 0.0013679613739123258 0.014534919525747269
0.007818646308007554 0.0026197936035382337 0.015126369463875822
0.014228158499186419 0.004123292960651939 0.015461721930719204
0.003976805689412747 0.00046241465066695886 0.013959445978119048
0.00922542395041217 0.0021783347058886805 0.014606784747203127
0.0037951770971324447 0.0015322725368768254 0.01480534472501986
0.004540913803899711 0.003884201642766325 0.016518313763258043
0.007173264596911694 0.004270746969412817 0.016478470420755797
0.004858350635949723 0.0026453847393707233 0.015525108024152124
0.015811751830336646 0.003655903440913103 0.014899557534402315
0.005442242669529031 -3.020382252682651e-05 0.01339301210592398
0.01742831014435175 0.003693717825522221 0.014721636429255615
0.009423825006183533 0.0047449907008593846 0.016554948274286455
0.008580658945323855 0.0012313993649871494 0.013961222644851879
0.0132003139454421 0.002963311184326297 0.01470139558212122
0.00577331884788681 0.0035289114641237915 0.01608731452967056
-0.0074690725339015916 0.007889442396693312 0.01808586093011559
-0.0022621659493405736 0.011345890621048776 0.01860222102909939
-0.005450073218208968 0.009995691157344125 0.01834177372719951
-0.002908541504469538 0.01030230049233319 0.018493442673966347
-0.0008744588694035084 0.011481618796927022 0.01868273049713385
-0.006497285862230088 0.009396640559684068 0.01824491113438102
-0.007717566333444973 0.009363502072709834 0.01818038334497525
-0.004263287320269262 0.009559800929369344 0.01837049558275866
-0.00424883453335518 0.01081794030375743 0.01846270474979298
-0.005173660458623257 0.007712191154060686 0.018189821896817834
-0.015059063124494378 0.012020839087243149 0.016389219469778116
-0.013848791816527354 0.011466136496180605 0.016859609318831778
-0.012537706812559717 0.010614401496714637 0.017355592530116218
-0.015026253964883815 0.014803620146667378 0.016553552459223304
-0.013535769401924379 0.014868649478276352 0.01717338551813574
-0.01414539283565042 0.013013988237332751 0.016820825963773215
-0.01178794033415648 0.011432530249806429 0.017709943083651952
-0.012700190426753676 0.012278222887924024 0.017378549273752375
-0.015406955859679881 0.013317993739703276 0.01631564482116293
-0.0023472950512243634 0.013070799139933746 0.018587267447396964
-0.010394463619416984 0.01020250748685284 0.018090042237629916
-0.009115639996676913 0.01113659489166064 0.018159642112047368
-0.0073937889959981885 0.010878573557455957 0.01828319805753739
-0.004407675970126148 0.013281193511528592 0.018441356031713808
-0.008605241681515236 0.016016090726369586 0.018098683676942222
-0.007648461862979317 0.015297748149242243 0.018178661068524355
-0.010046517389704 0.012243513115777586 0.018073795922287996
-0.007729802196080431 0.012210107001096409 0.01823386003968288
-0.008286435757892839 0.014268223816056592 0.01815503533299326
-0.003857752509416176 0.012181946220100107 0.01850083886235505
-0.007652140602990372 0.01675058286119635 0.018149801580030805
-0.00702814643453985 0.013693630849250439 0.01825292827092058
-0.005157559424554593 0.012119498352103093 0.018412632577055554
-0.01116858564982787 0.01496145273681571 0.017721310862304523
-0.013490538466507992 0.016082966702808454 0.017226667652289994
-0.009844821608934873 0.016774198023819596 0.017871979092111762
-0.009504012632109763 0.014305245983655722 0.01806799776809046
-0.011734492412727972 0.013802197580704032 0.017677483437452967
-0.011263387905116648 0.012652816704196771 0.01782721426052273
-0.012338714037435184 0.014877877622160111 0.017506785696594505
-0.01256302991806931 0.016896571853915292 0.01735668491371836
-0.0068509870787550435 0.00647726470992242 0.017704265516548134
-0.008908846317004851 0.00406186344056649 0.015976869274237852
-0.009733957102697819 0.008756237099550758 0.017831074102047206
-0.01064867732975535 0.004901360818417565 0.015812411659422113
-0.012664054486341137 0.0004587082215465215 0.013186511276684638
-0.009269952492064425 0.007499445941825859 0.017410395797078513
-0.010011103396876688 0.003488035109733261 0.015375405820160937
-0.011194229543066907 0.004034963471218294 0.015252799606420928
-0.009346452861070725 0.005780337262527941 0.016613409213797115
-0.010994963836311846 0.0021635653861442287 0.014473232338097558
-0.010558580176197083 0.006602230436835943 0.01660543122649145
-0.008236634565668243 0.0058720675175346505 0.01700040880635207
-0.012387763587483667 -0.0008756939325995847 0.012672449137164457
-0.011490397852868945 0.006121403892065424 0.016098891968855212
-0.010845951271393556 0.008130785261877218 0.01720336000187802
-0.013428617032098269 0.0077946015319639225 0.01582707900665468
-0.015470506428015377 0.009326546712565192 0.015408323663807089
-0.01222341876407888 0.0072540535275222445 0.01622012012261981
-0.013516785073209458 0.006495678074322223 0.015261424372985326
-0.012754180237342535 0.0034186904422595474 0.014413053228233016
-0.012132643303765612 0.00856598288204464 0.01679231126950346
-0.013379339184919167 0.009206950350574481 0.016418552304407932
-0.014404985357306884 0.008807530543500388 0.015739320408347593
-0.014393360432256842 0.010403842907527697 0.016385533530696342
-0.01288546029061522 0.004708814600173991 0.01486412991519365
-0.011644515841251967 0.009592524886704045 0.017451098441651255
-0.01414342551153027 0.004113422648662166 0.013988726081171762
-0.01465148447843858 0.007382955873715409 0.01504314220224083
-0.014643270704595833 0.006244210492750054 0.01459051248349428
-0.013628752449475444 0.0014739914768157963 0.01319041043985543
-0.00844981389926238 -0.0028502940490794416 -0.002144918955091098
-0.0032993599444756656 0.000993957225073995 -0.006005093272775665
-0.005204115806688121 -0.0008095310668149499 -0.004302975470754786
-0.006542734740952814 -0.00279491892021655 -0.00245612426099641
-0.00337751804891222 -0.0011688724896947273 -0.004042219038762151
-0.007570512963421829 -0.0002172423312292711 -0.004755663924914104
-0.004451363590492166 0.001547009837761401 -0.0064653728922575765
-0.007768811727586156 -0.0021121673004082775 -0.0030313136138789293
-0.00591469250270398 0.0015067399545876108 -0.006376883102404415
-0.0036273453108160037 -0.00020593169150739645 -0.004906021908263325
-0.008476591600180624 -0.0012959487210571136 -0.0037458754075819127
-0.003624858322823618 0.0027762932585333605 -0.007608796742366201
-0.009558471028024347 -0.002400753295886144 -0.002706188510155685
-0.0020812583352881288 -0.0015373341643810502 -0.0037543534155728537
-0.004727311855432324 0.00014261351821646777 -0.005182812568563515
-0.0056130434208120595 -0.0017973384852404527 -0.0033932301540646865
-0.007007180625889585 -0.001283460407407093 -0.0038094038360095006
-0.0025999898717166767 -0.0026908608467151205 -0.002690520986791404
-0.006138214046149369 0.0006552359628750912 -0.0055972526251083475
-0.0037778944232171826 -0.0024606107448419175 -0.00285733564463239
-0.012515012664700741 0.0010593705998764844 -0.004283992035282318
-0.015141758620208397 -0.0008946692898650899 -0.0017979085577488555
-0.012427795574356373 0.00258194036973713 -0.005317738059655813
-0.012401031326258138 -0.0021917263197409327 -0.0022150714345879775
-0.013385424306775782 0.0019204032526705598 -0.004444568274203205
-0.013481426441789927 0.0032748343770401134 -0.005284128570810584
-0.01457876433313509 -0.0018715312115006003 -0.0014200220824628603
-0.015193708703623786 -0.0025801811885971544 -0.0006740953444145598
-0.013839215459855036 0.0009377652953061761 -0.003594149239033216
-0.012877519388425022 0.004894163242168887 -0.006619220688044923
-0.013996772320418259 -0.0006382762178010345 -0.0024930824053487764
-0.012328789994630536 0.005911040422488978 -0.007535751064145171
-0.012960939573168608 -0.0011161872229474622 -0.002658771396387376
-0.011642053200205699 -0.0008585599590029821 -0.003434922877458253
-0.007295828477135127 0.0033727169772385756 -0.007310596014578838
-0.01081353643711669 0.00435177363687446 -0.006999420691128436
-0.010220011369129605 0.0004901001579722256 -0.004689661600038586
-0.004829313314789469 0.0030655357120111114 -0.0077711805836208295
-0.010582004269595977 0.0058301924226947755 -0.008005876733923827
