0.000752908009875 -0.00645314133594 0.0110911684212
0.00121981297288 -0.0399783504942 0.0127572969106
0.000610978871767 -0.0309460454601 0.0129626251006
0.000828795137803 -0.0337108163572 0.012873090592
0.00100707157641 -0.0374224832242 0.0128497233378
0.00086794621299 -0.0322293676787 0.0127888364274
0.000495984967961 -0.0294716556574 0.0130093855311
0.000136941744163 -0.0388492726346 0.0136370686868
0.000334197239792 -0.0282741684464 0.0131053842689
0.000343467836073 -0.0358855924292 0.0133597525214
0.00173095879775 -0.0385994646053 0.0122761518792
0.00118067289748 -0.0348949369717 0.0126153653723
-0.00205842009313 -0.0395046880026 0.0146463264324
-0.000920986909589 -0.036817874006 0.0140884191734
-0.00127213522183 -0.0343561803572 0.0140604069016
-0.00106296525402 -0.0380739857468 0.0142140807007
-0.000155780096732 -0.0317424026238 0.0135142527672
-0.00130154245315 -0.0356372266354 0.0141485491032
-0.000729642554843 -0.0328293420947 0.0137793861998
-0.00204562458257 -0.0370495618182 0.0144925084054
-0.00296148028325 -0.0385268881876 0.0148999882442
-0.00151180269973 -0.0407128509067 0.0145302851529
-0.000145481203992 -0.0190181880931 0.0126715215954
-0.00114280870661 -0.0272524041313 0.0135508247571
-0.00242845737444 -0.0348708454479 0.0144824647555
-0.00107711865183 -0.0226714660484 0.0132208186064
-0.000190767636045 -0.0204272740742 0.012781192166
-0.0015429999415 -0.0291504079225 0.0138089253185
-8.7149073676e-05 -0.0218136089753 0.0128408744505
-0.000679758204604 -0.0303152798541 0.0136064964927
-0.00109160578346 -0.0125205097531 0.0125416363475
-0.00051160285937 -0.0085389798415 0.0120846502687
-0.00205691464733 -0.0310917214303 0.0141069507621
-0.00110173216377 -0.0143401192521 0.0126675234581
-6.06264892363e-05 -0.0174152934357 0.0125359176281
-0.00219251606915 -0.0251699273501 0.0137521103077
-0.00053042630395 -0.0237746573595 0.0131172431955
-0.000397518660184 -0.0158070367562 0.0125371939453
-0.000953169048152 -0.0252133299844 0.0133517359456
-0.000364717444401 -0.0263933149251 0.013239745356
-0.00144534253438 -0.0215226858327 0.0132632467759
-0.0191278499593 -0.023665553828 6.71811784892e-05
-0.0176567590476 -0.0169846213359 -0.000548027701821
-0.0172762649838 -0.0193519898747 -0.000944253002825
-0.0186587161503 -0.0222952957179 -0.000173028219283
-0.0177111625336 -0.0205843809043 -0.000719381076595
-0.017297835771 -0.0218763463362 -0.00107570890318
-0.0178343517129 -0.0183126973551 -0.000503953457083
-0.0181364021828 -0.0246694258454 -0.000666242716804
-0.0179656489004 -0.0232354513368 -0.000699527429478
-0.016992729899 -0.0160895679743 -0.000948498207994
-0.0155779377781 -0.0382250136021 -0.00118774496588
-0.0172557165056 -0.0317140954476 -0.0009653581949
-0.0172802026756 -0.0331309669845 -0.000895016825556
-0.0158112226197 -0.0394467570633 -0.00106242808269
-0.0169324534711 -0.0402468939816 -0.000685204523932
-0.0169483195402 -0.0343264506354 -0.000943110084308
-0.0146917181798 -0.0390331677729 -0.00142197104277
-0.0168138744253 -0.0305964841912 -0.00114961528091
-0.0163555410565 -0.0417168902963 -0.000795792226813
-0.0166047315178 -0.0360327511307 -0.00097210127157
-0.0151072404057 -0.0418125164526 -0.00117198980018
-0.0166572798103 -0.0374103931353 -0.000894948434398
-0.0150098373559 -0.02923295711 -0.00173810884335
-0.0151068115651 -0.0330044555039 -0.00155292431119
-0.0166387869988 -0.0252925466148 -0.00142641202065
-0.0167966581074 -0.0265404250416 -0.00132841517492
-0.0155731331305 -0.0276902655836 -0.00163781359867
-0.0168999429557 -0.0282462199717 -0.00122730897002
-0.0146119177055 -0.0365920969499 -0.00154819109864
-0.0159710584225 -0.0317526440106 -0.00135266342595
-0.0153746905015 -0.024612762468 -0.00182375720638
-0.0150556047938 -0.0344836402404 -0.00150634966536
-0.0157706012956 -0.016194046202 -0.00149685872526
-0.0159971854336 -0.0184404245809 -0.00148377221743
-0.0164672421796 -0.0136446487816 -0.00116403847968
-0.0165453280727 -0.0174037926077 -0.00125188983258
-0.016473268748 -0.0228204152554 -0.00144575709785
-0.0189474175076 -0.0354821895631 0.000254019514115
-0.0188733744569 -0.0294024615201 -1.54017477821e-05
-0.0196833704513 -0.0344404880122 0.000757659912008
-0.0189795725457 -0.0253580477981 -8.04630242011e-05
-0.0191382729768 -0.0271648696721 9.99954783485e-05
-0.0189286830239 -0.0330755421218 0.000155136211928
-0.019085551154 -0.031653974417 0.000220058886885
-0.0177832407585 -0.0272566798315 -0.000891896847075
-0.0193924004454 -0.0381124008458 0.000673848548696
-0.0182009445825 -0.0308440272068 -0.00045824716649
-0.0196430842752 -0.0409696046866 0.000959012608234
-0.0181541226529 -0.036748741014 -0.000228578822505
-0.0181589989902 -0.0344406467477 -0.000327757178125
-0.0176103924977 -0.0413501584673 -0.0003869456479
-0.0177081504127 -0.0355915590706 -0.00057731711596
-0.0182428904282 -0.0396669792465 -3.9879159078e-05
-0.0179082395662 -0.029146724713 -0.000729905997254
-0.018661647985 -0.0408468427951 0.000291718358439
-0.0182485199937 -0.0381966475889 -0.000101376508925
-0.0208934607344 -0.0211806611263 0.00316185640614
-0.0204790002072 -0.0174410455914 0.00433205098452
-0.0207073485301 -0.0185940337581 0.00580359337145
-0.0206333704083 -0.0189328934215 0.00366532674898
-0.0208293298585 -0.0202276707318 0.00421602166924
-0.0209585838117 -0.0201410317398 0.00677319657169
-0.0201577058401 -0.0152638855579 0.00355565760358
-0.0201959252851 -0.0238636117137 0.00111382319706
-0.0206239382352 -0.0199397198862 0.00280168509612
-0.0202340895084 -0.0224115978204 0.0015006767316
-0.0200358232913 -0.0169386061078 0.00228229738088
-0.0195141408683 -0.0176633286948 0.00135316493084
-0.0187742413748 -0.0107813145493 0.00177070927554
-0.0180871256583 -0.0109134523017 0.000759564221808
-0.0193018705059 -0.0118891694363 0.00228781754279
-0.019562083048 -0.0209046926343 0.000726626503757
-0.0195877525159 -0.0156159538493 0.00189751497055
-0.0188731979255 -0.014500891772 0.00111458561041
-0.0197779402764 -0.0193515983038 0.00136843719056
-0.0175631122623 -0.00580430285726 0.00110570711823
-0.0187942136375 -0.0132772263074 0.00126402695938
-0.0176434843136 -0.00738508390241 0.000881667141942
-0.0185674463549 -0.00956339888951 0.00173610496771
-0.0182259622994 -0.00824492547469 0.00153041440505
-0.0173783141367 -0.00360107392337 0.00166463604306
-0.0188265647165 -0.00875290568222 0.00263190155992
-0.019747345043 -0.0130208336702 0.00278201117838
-0.0183724026367 -0.00631112649077 0.00271556450388
-0.0179164897424 -0.00503568570869 0.00224882775245
-0.0188137562299 -0.00771242382276 0.00338366387118
-0.018593426919 -0.0054880482387 0.0049625779842
-0.0192531312467 -0.0101741216315 0.00313963930282
-0.0186906118564 -0.00666777773609 0.00397395151399
-0.0182171261326 -0.00461535772171 0.00335352946662
-0.0188918677438 -0.00682189393402 0.00556097409537
-0.0194368259246 -0.0103929070155 0.00507056262573
-0.0206757689164 -0.0180234184932 0.00721228857694
-0.0203091529094 -0.0160000172319 0.00501348353181
-0.0208968225489 -0.0193388332188 0.00790156007567
-0.0191956405923 -0.00881480959096 0.00527194788024
-0.0200240419912 -0.0138781516656 0.00696214497861
-0.0195787040936 -0.0111447723819 0.00612953155607
-0.0200369198298 -0.0143263836527 0.00452273342565
-0.0195436339261 -0.0112060770989 0.00421858927047
-0.0197583439994 -0.0123491453946 0.0057862091756
-0.0205022102209 -0.0171243559578 0.00577880242306
-0.0198518934425 -0.0131177464992 0.00466383350072
-0.0201927192545 -0.0150601605958 0.00629857671328
-0.017785089914 -0.0108702090129 0.0107573950196
-0.0176627880969 -0.00588117505466 0.00934352681503
-0.0173674223371 -0.00713840217095 0.0100754532973
-0.01684307684 -0.00601866973667 0.0103303507695
-0.0165846816273 -0.00467094561904 0.010207932628
-0.0177458984651 -0.00874818093406 0.0101412495386
-0.0169780457579 -0.00928012074466 0.011191272532
-0.0157943324387 -0.0099886636927 0.0119575801045
-0.0170347662678 -0.0121091986803 0.0119187097036
-0.0145883644537 -0.00802793748316 0.0120180894242
-0.0143072431516 -0.0038253906782 0.0111887585142
-0.0137241067028 -0.00490195570506 0.0116739450721
-0.0160851360039 -0.00737212670787 0.0112473083665
-0.014348288087 -0.00653698158607 0.0117822878412
-0.0153832511554 -0.0033907358268 0.0106429413702
-0.0154158864 -0.00607914616282 0.0112347516484
-0.0158339471334 -0.00876176572473 0.0116648066462
-0.0154596424333 -0.0217330203351 0.013891867983
-0.0163144738344 -0.0202445566237 0.0134536344316
-0.0176544634406 -0.0215453588314 0.0133044080339
-0.017287664002 -0.0176568994017 0.0128225720126
-0.0167974714475 -0.0186733668813 0.0130979797119
-0.0152795605673 -0.0195883226527 0.0136198716814
-0.0148927369856 -0.0157301066186 0.0131446238615
-0.0144989821927 -0.0096085920284 0.0123348304505
-0.0131443241862 -0.0119383938555 0.0130243596825
-0.0124609241153 -0.00499060094097 0.0121652021299
-0.0140605975715 -0.0143981488793 0.0131576190759
-0.015847771246 -0.0121768515767 0.0123745891014
-0.0135356709744 -0.0101736551427 0.0126629491809
-0.0132356232712 -0.00641403447603 0.0121803577917
-0.0145375828289 -0.0127442982156 0.0127909798506
-0.0155643911594 -0.017128927678 0.0131822396616
-0.0166568303831 -0.0134437656301 0.0123577788976
-0.0130411052645 -0.00789027445456 0.0124490131271
-0.0142039930266 -0.0113478534112 0.0126680329424
-0.0145441512823 -0.0208195135831 0.0139892070493
-0.0145213299143 -0.0180454599603 0.0135827960751
-0.0151502965167 -0.0140343563249 0.0128273733975
-0.0121333707723 -0.00362915308964 0.0120459254282
-0.018137233877 -0.0435095765535 0.00872420088089
-0.0200263193808 -0.0428883245079 0.00619676211682
-0.017839867003 -0.0436797174411 0.00415602161146
-0.0181055477617 -0.0435397859666 0.00740825359698
-0.0190561985407 -0.0432596184546 0.00390777254455
-0.0188040907684 -0.0433292287019 0.00515792446648
-0.0193445570192 -0.0431116591671 0.00716878428197
-0.0212891854216 -0.0424378630257 0.00651108626771
-0.0194565890715 -0.0429115482526 0.00971673189371
-0.0194020606594 -0.0430598298051 0.008475687397
-0.0153863304252 -0.0431847943006 0.0127038034246
-0.012333048023 -0.0432023799542 0.0125111642949
-0.0117711118857 -0.0433033744621 0.0114026702152
-0.0147616269675 -0.0433049479908 0.0113850166701
-0.00827549405998 -0.0431965929683 0.0125752030338
-0.0143358324656 -0.0431220105775 0.0133930827937
-0.0105717313033 -0.0431740838169 0.0128219815475
-0.0132250716915 -0.0432744643198 0.0117198166896
-0.0161447442603 -0.0433685188436 0.0106870549189
-0.0184456311329 -0.0429771384306 0.0108454197571
-0.0170853761358 -0.0431158555536 0.011612578608
0.00210168504446 -0.0428503237118 0.00805786669287
0.00291129150008 -0.042233071594 0.00599772590542
0.00184508330445 -0.0429342396286 0.00932061379692
0.000121898052051 -0.0430994718527 0.0105312023426
-0.000927061917641 -0.0430844615058 0.0115521122073
0.000270236289753 -0.0432980259683 0.00931466175119
0.00153419114302 -0.0428069339275 0.0108637246111
0.00139259330744 -0.0417583122586 0.0118855866878
0.000520916889246 -0.0407267625111 0.0133710617464
-0.00162068159114 -0.0423921481545 0.0133066636677
-0.000333580460711 -0.0424495084351 0.0124961217838
-0.000452858230164 -0.0413821522424 0.0137478800142
0.00224622042825 -0.0418168380162 0.0106707683515
0.00215172397581 -0.0408168205702 0.0115435545263
0.00285220696222 -0.0419839295746 0.00742643635945
0.00272964451939 -0.0417401893443 0.00913114154005
-0.0101884724057 -0.00665441287283 -0.00237555338685
-0.00862109052287 -0.00369715900967 -0.0025457002448
-0.0108630742465 -0.00514108107606 -0.00227871570424
-0.0114118620483 -0.00762850311908 -0.00223144465064
-0.0117147372943 -0.0113241000253 -0.00222503640206
-0.0115212244499 -0.00618175938299 -0.00220556657234
-0.0101431658789 -0.00369773893227 -0.00235614455686
-0.00933414476216 -0.0052593833178 -0.00247013227766
-0.0108540399927 -0.00932169731844 -0.0023152624167
-0.0152066015754 -0.0228058491238 -0.00188743926798
-0.0132820705015 -0.0136380468555 -0.0020494449862
-0.0101501064114 -0.00793473840923 -0.00239117947998
-0.0142177486346 -0.0189515601951 -0.00197793521331
-0.0132086846483 -0.0165465572337 -0.00208322778858
-0.00440830453016 -0.0053983545361 -0.00255131387767
-0.00574774972275 -0.00393589883021 -0.00257754956548
-0.00780473197309 -0.0173584827687 -0.0023367554543
-0.00831935078223 -0.0161555316669 -0.00235833576571
-0.00647524536111 -0.0100675530621 -0.00246755090668
-0.00809864485301 -0.0197656462171 -0.0022935722054
-0.00637547236656 -0.00604706410286 -0.00253967636851
-0.00744330738912 -0.00421891221005 -0.00257247245398
-0.00458061636478 -0.00419672572202 -0.00257287046794
-0.00824258312741 -0.00681850073333 -0.00252583720024
-0.00672806783199 -0.00883730818997 -0.00248962085401
-0.00601024755734 -0.0112687383713 -0.00244600227266
-0.00623275583738 -0.00759717298042 -0.0025118682288
-0.00775575344697 -0.0134106312921 -0.00240757783781
-0.00839562860137 -0.0146311711948 -0.00238568199254
-0.00787383336822 -0.0100734476956 -0.00246744516005
-0.00472951524284 -0.00698357240165 -0.00252287590114
-0.00794516590006 -0.00550482627472 -0.00254940383056
-0.00738067561656 -0.0115794797695 -0.00244042773507
-0.0117743648762 -0.0227233295349 -0.00208424912392
-0.0103230121432 -0.013795132843 -0.00230652213624
-0.00918771403987 -0.0135747492128 -0.00237235847535
-0.00906793234452 -0.0108154279426 -0.00242300746187
-0.0141549126058 -0.0209508446836 -0.00198189316539
-0.00898078538739 -0.0189574912266 -0.00229773903973
-0.0100023868825 -0.0196250324195 -0.00223100109745
-0.00845939861096 -0.00897447897677 -0.00248581489102
-0.00996810532353 -0.0221533382609 -0.00219249857165
-0.0103550614279 -0.0168395385705 -0.00225613514738
-0.0112437082408 -0.0129493525544 -0.00226949490769
-0.009525774708 -0.0120742758732 -0.00237776924673
-0.0120906630166 -0.0195181453134 -0.00211808351242
-0.0131984006177 -0.0200731330735 -0.00204841538232
-0.0117509117204 -0.0209463926454 -0.00211391919376
-0.0109836994467 -0.0187026159267 -0.00219187074651
-0.0121557177296 -0.0144886512845 -0.00219484799335
-0.00962647880999 -0.00938184117258 -0.00241524746267
-0.0122130787733 -0.0180843240866 -0.00213426634723
-0.0115937332491 -0.0156399323066 -0.00220730592942
-0.0105597204707 -0.0104946915657 -0.0023462467126
-0.0136601326373 -0.0224080751974 -0.00198577538214
-0.0129548448923 -0.021360541799 -0.00204122050932
-0.00998957938077 -0.0156835041118 -0.00229466150795
-0.0212917035172 -0.0277887865926 0.00356073325806
-0.0211085772383 -0.022649257604 0.00562042765187
-0.0210889197212 -0.022887216229 0.00399979202681
-0.0211624190541 -0.0234426447367 0.0066887762824
-0.0211747437422 -0.0245005813181 0.00488945483346
-0.0212315576494 -0.0262433480665 0.00390466447584
-0.0210569821263 -0.0211714918377 0.00627006342095
-0.0211592434677 -0.0248615165997 0.00321707095786
-0.0210168931479 -0.0236426197649 0.00296438958249
-0.0207857782125 -0.0259798271044 0.0023181771808
-0.0214130003005 -0.0335444828282 0.00556159119822
-0.0214130003005 -0.0400129033344 0.00450976040128
-0.0214130003005 -0.0326978288527 0.00874704104802
-0.0214130003005 -0.0337362617943 0.00776373437518
-0.0214130003005 -0.0363508417901 0.00556213644756
-0.0214130003005 -0.0345261766567 0.00652485811684
-0.0214130003005 -0.0354884542701 0.00747973916007
-0.0214130003005 -0.0320693367597 0.00612668089461
-0.0214130003005 -0.0324052005557 0.00748724528981
-0.0214130003005 -0.0355880643548 0.00421838659452
-0.0214130003005 -0.038126539393 0.00557909015805
-0.0214130003005 -0.0372526457188 0.00459637376838
-0.0214130003005 -0.032265709365 0.0046173433636
-0.0213130028411 -0.0285937209421 0.00826263701843
-0.0212869969547 -0.0272923009112 0.00624548898895
-0.0212036888653 -0.0248284000796 0.00703475773618
-0.0212598960605 -0.026879165104 0.00815391045585
-0.0213554657688 -0.0298276870947 0.00776717604318
-0.0213962681794 -0.0311846876756 0.00801950437199
-0.0212205027312 -0.0256070817517 0.0080721235386
-0.0212482024105 -0.0260354562462 0.00614752174981
-0.0213185031229 -0.0279879675555 0.00494274607966
-0.0211200532289 -0.0222239584378 0.00727066918245
-0.021361890179 -0.0292733331552 0.00454087867345
-0.0213826595257 -0.030366430462 0.00638034770778
-0.0213422168198 -0.0290613593881 0.00630020340348
-0.0213222251456 -0.0384031328789 0.00401667373624
-0.0211243865594 -0.0342218853348 0.00323359789181
-0.0203977346816 -0.0417652235109 0.00250193607241
-0.0208855101995 -0.0367423773161 0.00299688853563
-0.0209419753588 -0.0394039029389 0.00335787096288
-0.021086080102 -0.0411648787743 0.00380796178395
-0.0203306038716 -0.0402611445452 0.00222823464983
-0.0199569503325 -0.0393261347983 0.00141385845646
-0.0200499434814 -0.027986249941 0.00094119231068
-0.0211726954505 -0.0320176244591 0.00312719770092
-0.020838646671 -0.0332504759294 0.00261300937563
-0.0202093219597 -0.0333935011571 0.00152225914783
-0.0200926542037 -0.0258717414954 0.000897351344954
-0.020699710297 -0.0290687777562 0.00213626326915
-0.0200011182956 -0.0303024082938 0.000985650086975
-0.0201361331448 -0.0381117935776 0.00165869755246
-0.0200821572767 -0.0320451976476 0.00122473387033
-0.0211795030707 -0.0304819798839 0.00305308827543
-0.0200523016786 -0.0355136779152 0.00136684056537
-0.0205363237599 -0.0271479472198 0.00174343588165
-0.0202704464311 -0.0366166636642 0.00180947342649
1.66160780123e-05 -0.0434322290721 0.00431726554589
-0.00146807370397 -0.0437098464747 0.00378154275472
-0.00113459861975 -0.0432887989649 0.00185474578132
-0.00109551529513 -0.0434788486132 0.00788122264718
-0.00125915024442 -0.0435912968668 0.00641648221392
0.000785664285619 -0.0435421902925 0.00642411036697
-0.00238235888888 -0.043670152196 0.00571231084924
-0.00229442182561 -0.0435210317715 0.00769607617693
-0.00236299692518 -0.0433508407834 0.0100142531466
-0.00115580796633 -0.0433425899133 0.00973893311058
0.000580643442809 -0.0434440152145 0.00781435111415
-0.00261255231371 -0.0432626408107 0.0112841735644
-0.000341842823629 -0.0436276917261 0.00563164660788
-0.00267420384803 -0.0436313221008 0.00197737942896
-0.00189575905082 -0.0431862889796 0.000210927369838
-0.00366142765896 -0.043655774787 0.00130125621415
-0.00410831814472 -0.0438315011561 0.00259865497057
-0.00675719133163 -0.0438315011561 0.000639283300373
-0.0069232186413 -0.0438315011561 0.00249039036594
-0.00907464443631 -0.0438315011561 0.00138707085832
-0.00559053498008 -0.0438315011561 0.00126620695616
-0.0144501297432 -0.0438315011561 0.00232268696952
-0.0165713020261 -0.0438315011561 0.00204906095218
-0.0122277684523 -0.0438315011561 0.0023633782262
-0.0109603588159 -0.0438315011561 0.002016767871
-0.0112681349708 -0.0437121325836 0.00514568825387
-0.0147916034756 -0.0436491515565 0.006149208396
-0.00533600386832 -0.0438265953041 0.00327801721179
-0.00845598391152 -0.043710916557 0.00543298353467
-0.0131879539711 -0.0437051689396 0.00511429935529
-0.0165384084926 -0.0436155410346 0.00669716948754
-0.00954836128297 -0.0438099980211 0.00323700618369
-0.0122410007785 -0.0436680324114 0.00598737046899
-0.0173587565943 -0.0436693134096 0.00548423047637
-0.0166498203824 -0.0435529055773 0.00801078048123
-0.0161813366487 -0.0436900704577 0.0051549981404
-0.0125120414582 -0.0437581031636 0.00405826175847
-0.00718830363322 -0.0437740168381 0.00421710528881
-0.0110066189248 -0.0437994587119 0.00332413415936
-0.0138511109427 -0.0436020255994 0.00723283291063
-0.0059231283682 -0.0437631460233 0.00456457901653
-0.0139279279204 -0.0437697937136 0.00367944122923
-0.00798552961402 -0.0438230968355 0.00310550359838
-0.0151703620933 -0.0437644023603 0.00367782910338
-0.0151636639601 -0.0435831720529 0.00750925912974
-0.00271461274911 -0.0438288571191 0.00347405380808
-0.00979990097129 -0.0437443921547 0.00460037010729
-0.0164086748045 -0.0437754979674 0.00332810256742
-0.0054012945086 -0.0434310193623 0.00924476088159
-0.00696617187376 -0.0434512960666 0.00907132838453
-0.0131762082874 -0.043485899636 0.00901910867434
-0.00583102303651 -0.0435459909705 0.00767990345984
-0.00356972667964 -0.0432205947577 0.0120368403516
-0.00888211899821 -0.0432956435594 0.0113618985882
-0.00397724734079 -0.0433188783157 0.0107018871131
-0.00353013430293 -0.0437669078055 0.00445772306284
-0.00516246432879 -0.0433208863185 0.0107556627277
-0.0119868546002 -0.0434910148971 0.00886626116954
-0.00719269817546 -0.0432546339045 0.0118142832398
-0.00850657807422 -0.0435488886461 0.00782397689132
-0.00393121785652 -0.0435333797153 0.00772396413292
-0.0081899266123 -0.0434473796876 0.00920991864446
-0.016651048061 -0.0434762514799 0.00939221530424
-0.00426680799929 -0.0436914263168 0.00555525005429
-0.0148329414736 -0.043503343837 0.00889128385218
-0.0108285921395 -0.0435183025679 0.00840806294036
-0.00471211094422 -0.0435991164408 0.00686609085509
-0.00953447698339 -0.0435099543788 0.00843471488274
-0.00558660721526 -0.0436685692007 0.00596312901356
-0.0122984057009 -0.0435851479429 0.00758225896274
-0.00409189691441 -0.0434364824094 0.00907882306743
-0.0138997289177 -0.0433921121045 0.0103696021132
-0.0100766867311 -0.0432813404774 0.011642523912
-0.00927911451763 -0.0436672725189 0.00623540578418
-0.00473558477305 -0.0431625665212 0.0129218786642
-0.0126253823114 -0.0433810155277 0.0104357307176
-0.00707077250569 -0.0433489815741 0.0104974520795
-0.00693245953043 -0.0436162609163 0.00678123752932
-0.0059075431597 -0.0431918632706 0.0125962947926
-0.010447484395 -0.0433965904454 0.0100697477081
-0.00352471806978 -0.0431309801376 0.0132765361665
-0.0168224706002 -0.0343844268474 0.0143067491542
-0.0170869235826 -0.0321106908363 0.0141112000972
-0.0169118973558 -0.0366151994882 0.0143557712937
-0.0175418798963 -0.0267495077966 0.0137191406787
-0.0188201708195 -0.0338938427204 0.013470062415
-0.0180095539673 -0.028358672795 0.0135894472868
-0.0181806755148 -0.0318240957374 0.0136524185967
-0.0179506773763 -0.0329986683791 0.013791668024
-0.0155620765954 -0.041567920734 0.0145546021366
-0.017263458935 -0.0420451367208 0.013127866666
-0.0185043931957 -0.0422580831394 0.0121832497294
-0.0146859511106 -0.0327288605492 0.0147011324274
-0.0155141673211 -0.0339947526592 0.0146097968549
-0.0151066824354 -0.0283219151795 0.0143913140528
-0.0157953738952 -0.0395369893264 0.0148454610611
-0.0149630004835 -0.0382691105415 0.0149374829038
-0.0149758692268 -0.0297203617191 0.0144891156871
-0.0165187866418 -0.0301300180269 0.0141606879892
-0.0166745288114 -0.0228965126153 0.0137224878951
-0.0153882476537 -0.0317744994267 0.014517169091
-0.016429388472 -0.0274286481432 0.0140316509427
-0.0159339098602 -0.036034617028 0.0146257470112
-0.0150170050957 -0.0238835771023 0.0141660656732
-0.0173298985268 -0.0248671380873 0.0136782004489
-0.0156964038846 -0.0259357765607 0.0141206720297
-0.0163593013089 -0.0288111815129 0.0141248607278
-0.0187346418365 -0.0374726440794 0.0133354578122
-0.0182277101333 -0.0396781599995 0.0135191071823
-0.0184210959369 -0.0354593548478 0.0136856776238
-0.0178445028235 -0.0381831469122 0.0138794864292
-0.0192671996342 -0.0400954252282 0.0127964340193
-0.0173000660191 -0.0393220969018 0.0141628808545
-0.0190920603098 -0.0386755554737 0.0130127473644
-0.0185400664421 -0.0411646777539 0.0130805486116
-0.0174033414097 -0.0410500182105 0.0139249279897
-0.0202634457393 -0.0416716791106 0.0115502828519
-0.00242560863491 -0.0424339371861 -0.000740338757264
0.00199688819314 -0.0139339250208 -3.88864958709e-05
0.000870976887275 -0.0283192204923 1.56919737225e-05
0.000826283041009 -0.0297719446381 7.29719875035e-05
0.000666636117642 -0.0357750918287 0.000328459126482
0.00114890325513 -0.037109614729 0.000773663712786
0.00147760620613 -0.0311556621265 0.000648073361136
0.00257662937467 -0.007845462692 1.54378165516e-05
0.00137989620081 -0.0210704094734 -5.56447047798e-05
0.00163148514017 -0.0258244850597 0.000430263355721
0.0011088626435 -0.0386324920872 0.000838819671763
0.00192338387883 -0.0184006606464 0.000185183263101
0.00215648650828 -0.0115073402848 -7.08429847106e-05
0.0014505908636 -0.0326846220774 0.000723380773953
0.000310129559288 -0.0415289605182 0.00042068486118
0.000526039238696 -0.033945973685 0.000108650566314
0.00150592011621 -0.0237433024884 0.000205975045251
0.000188605061709 -0.0393086173642 0.000190728874505
-0.00221062372073 -0.0409772692217 -0.000927160717673
-0.000521042960006 -0.0351496830191 -0.000507431611535
-0.00251178352712 -0.0397283081234 -0.00112643411659
-0.000866817648145 -0.0392939345871 -0.000432751055328
-0.00162290334813 -0.0326323883041 -0.00112486531835
-0.00139154878694 -0.0344571812329 -0.000924704446687
-0.0007120940881 -0.0171663440962 -0.00156909705761
-0.00213925119855 -0.0358366022498 -0.00117570722333
-0.000415337015453 -0.0248231719368 -0.00102313392118
1.6098736895e-05 -0.0131545147808 -0.00146981367155
-0.000573391222622 -0.0380001360775 -0.00037518464666
-0.000652589186478 -0.0263826031925 -0.0010417533017
0.000113638041231 -0.00693310468076 -0.00176574580231
-0.000222683389066 -0.0301089064709 -0.000651562301087
-0.000573667594408 -0.0319774487804 -0.000702959720669
-0.00193785167722 -0.0386173932641 -0.000936599210904
-0.000426487405772 -0.027666341853 -0.000873318173466
-0.000541066452903 -0.0404833017131 -0.000225996290115
-0.000945773669503 -0.020027550547 -0.00151533757842
-0.00086811549369 -0.0289538203837 -0.000995854184922
-0.00223230614896 -0.0373361678636 -0.00113470392543
0.000971290897502 -0.00557216284381 -0.00127273957695
0.000403785950602 -0.031102078311 -0.000157707047766
0.000683030979828 -0.00808213331363 -0.00132929542957
3.0618416799e-05 -0.0220784328732 -0.000961972736893
0.00074519548136 -0.0266771901983 -0.000177220974503
0.00217525672903 -0.00586066284476 -0.000394889396108
0.00127058988728 -0.0149115578089 -0.000502471474952
0.000993002820023 -0.0106993550301 -0.000951811612014
0.000213855195763 -0.0328322146296 -0.000190423155364
0.000387085192303 -0.0167563532186 -0.00102416509285
0.000309426396068 -0.0145053452777 -0.00121376399032
0.00121310812298 -0.01985403495 -0.000249158560486
0.00157895051953 -0.00362624251159 -0.000954259807463
-0.000138425303552 -0.0365196412405 -0.000222608163855
0.00103256661043 -0.0136614981726 -0.000747085684039
0.00139476254036 -0.0169986414447 -0.000289386082929
0.000384833901425 -0.0255587102094 -0.000501452083237
0.000183777782921 -0.0181955382432 -0.00108377446062
0.00106495768104 -0.0225099487809 -0.000196862665193
0.00129334905521 -0.0067670769855 -0.000971337112835
0.00115521206329 -0.0123690060992 -0.000736400279312
0.00220881924016 -0.00464886714717 -0.000443078929047
0.000610558301835 -0.0241363010492 -0.000424818462854
0.00173995963935 -0.00885816233091 -0.000527515820373
0.00217660034542 -0.010129545441 -0.00013964807328
-0.0196448608792 -0.0150135619094 0.00954677290827
-0.019770445856 -0.0169200522107 0.010187939748
-0.0202224125643 -0.0178849826095 0.00932798814243
-0.0205414304758 -0.0193145280668 0.00912305887847
-0.0190680959139 -0.011177371163 0.00924489425221
-0.0197302824078 -0.0138975535944 0.0086867665065
-0.0209492404224 -0.0203861479265 0.0084067816166
-0.0207126863637 -0.0225858783422 0.00972519814336
-0.0204974070995 -0.0206595255584 0.00972800139959
-0.0195524509269 -0.0210985205454 0.0113437947584
-0.0203164085701 -0.0233889892532 0.0107797478452
-0.0185114232338 -0.0225813900298 0.012679640253
-0.0193886115265 -0.02327850164 0.0117938607592
-0.0183607202615 -0.00994877772322 0.00980087487297
-0.0176414758712 -0.0148984914627 0.0121721567922
-0.019232010708 -0.0131755122982 0.00974572870159
-0.0178497977968 -0.0130883807712 0.0113703314947
-0.0184052268729 -0.0144538860188 0.0111239442902
0.00317499996163 -0.0159450199432 0.00382848557481
0.00317499996163 -0.00883161004374 0.00460803396305
0.00317499996163 -0.0175855388129 0.00391929143369
0.00317499996163 -0.00529397831213 0.00615626001277
0.00317499996163 -0.00643113417815 0.00412623268626
0.00317499996163 -0.00678948915978 0.00585333764173
0.00317499996163 -0.0170531498031 0.00746756586383
0.00317499996163 -0.0191093358688 0.00453055415141
0.00317499996163 -0.00984588682115 0.00651044024357
0.00317499996163 -0.0143810460827 0.00616240905676
0.00317499996163 -0.0154774640816 0.00675323598742
0.00317499996163 -0.0115247384619 0.00680785731048
0.00525790129119 -0.0195907447511 0.00790476599717
0.00366165848949 -0.00972467761571 0.00216993461522
0.00338192005613 -0.0082251859898 0.00196744206152
0.00422626849038 -0.0157433729063 0.00295278029729
0.00464663863163 -0.0171264917453 0.00314826035721
0.0044409604632 -0.0134081981988 0.00267229847849
0.0040039826061 -0.0121527286063 0.00249188942359
0.00494148128037 -0.0183018728594 0.00331103575201
0.00449468704588 -0.00358604033301 0.007685326508
0.00609772584229 -0.00984525493548 0.00773904702336
0.00602040622779 -0.00835276783652 0.0058508207749
0.00583175139171 -0.00737815407849 0.00496407701793
0.00529758432327 -0.00461858223388 0.00665185315465
0.00511616110622 -0.00368132789661 0.0041839928092
0.00606326915301 -0.00857420290541 0.00462337369393
0.00670432710933 -0.0118859860376 0.00502546707563
0.00641133234508 -0.0103723395591 0.00507163470615
0.00511943597802 -0.0036982462814 0.00561008212044
0.00499511627592 -0.00305599562634 0.00673269748848
0.00556256330623 -0.00598749578919 0.00573566570818
0.00562066989248 -0.0062876814593 0.00387311427732
0.00709349988028 -0.0148611537732 0.00474361945485
0.00650547893218 -0.0111235739909 0.00627545935927
0.00548143668211 -0.00574988428974 0.00704904967738
0.00577276585581 -0.00726609430084 0.00679134565565
0.00598323876504 -0.00867185948914 0.00753583427801
0.00705417645639 -0.0139316232582 0.00564728982315
0.00621283972457 -0.00957616020567 0.00646119914752
0.00670562930179 -0.0124263245715 0.00688127405801
0.00701057788892 -0.0141690597233 0.0070782346798
0.00381858995774 -0.0203968070278 0.00798054884938
0.00435232527377 -0.0203016645604 0.00680458587716
0.00442168238297 -0.0204801467911 0.00508670702216
0.00465056519858 -0.0200788991225 0.00381735483358
0.00386599524847 -0.00285649998114 0.00306755862032
0.00391183020308 -0.00615767782554 0.00175451093211
0.0036339344099 -0.00427024116022 0.00150457725877
0.00604398499333 -0.0167088792685 0.00844077500676
0.00695836242445 -0.016291232833 0.00751554691753
0.0069163271975 -0.0170515356596 0.00649972042979
0.00676643308922 -0.0176029214578 0.0080566241277
0.00707587736881 -0.0159889083613 0.00598331996255
0.00709326446439 -0.0164103615766 0.0046386907674
0.00674854460711 -0.012848313329 0.00387097830397
0.00576495466181 -0.00748704110703 0.00333108266482
0.00529887830222 -0.0047091756774 0.00331298191785
0.0047544202962 -0.00355411074125 0.00273255098409
0.00573387936323 -0.00944636141731 0.00288992278358
0.00629467266151 -0.0106793066514 0.00336768739252
0.00494992353928 -0.00620950959969 0.0024960763791
0.00460808851691 -0.00475375220216 0.00233237826272
0.00549362946701 -0.0150379067332 0.00857771524437
0.00689768145726 -0.0147540177539 0.00815234600644
0.00584119459551 -0.0114500207612 0.00824396735661
0.00539801921043 -0.0197509817203 0.00551830129795
0.00623984465884 -0.0190223455181 0.00473874294713
0.0056521178826 -0.0193223447089 0.00366776464277
0.00651780643655 -0.018466519725 0.00575857821181
0.00593719098391 -0.0192927113906 0.00669912364378
0.00416499133461 -0.0178654507558 0.00879492665461
0.00406842250297 -0.0129903964646 0.00851591072868
0.00371635387567 -0.0166685467348 0.00872642376957
0.00400695962499 -0.0152356385478 0.008644413564
0.00456983267608 -0.011527119882 0.00842864147326
0.00400826513786 -0.00962501802901 0.00832158987858
0.00544304936116 -0.0135805732445 0.00854254158743
0.00467851984889 -0.00862398515802 0.00822813259822
0.00397828928754 -0.00657980882358 0.00810567967257
0.00553757083084 -0.0156505273405 0.00306878972953
0.00515416912916 -0.0124192533606 0.0026550487222
0.00485823891069 -0.00887857178787 0.00222739264403
0.00618161136506 -0.013682446004 0.00309684977645
0.00673537639259 -0.0153490174895 0.00346608404223
0.00666721059645 -0.0180241569575 0.00403553423672
0.0331324636161 0.0128905084713 -0.00477856602929
0.0315453463782 0.0152287034342 -0.00581670656088
0.0295434128983 0.00975643609567 -0.00671689741428
0.0339061480499 0.0144166056579 -0.0044020571071
0.0310769024143 0.0122523392546 -0.00594492903206
0.0290117691793 0.0175063037786 -0.00740322122615
0.0298497331907 0.0150846959183 -0.00679741344011
0.029188352508 0.0114668849704 -0.00700684893846
0.031436152091 0.0109896331613 -0.00567429719574
0.0322948343012 0.0139579442769 -0.00531836707406
0.0302574318871 0.0114252606178 -0.00638208044071
0.0306832696178 0.0134502568476 -0.00623244058175
0.0301775604279 0.0169078753311 -0.00669505717049
0.0328976942341 0.0149494208225 -0.00501538234264
0.0298393141163 0.0127733844033 -0.00669115455662
0.006953048029 0.0272656024357 0.00377511389876
0.0152053117949 0.027335378449 0.00343472599498
-0.00110749595102 0.0271974474858 0.00386815768393
-0.00597214782877 0.0271563150131 0.00396289468164
0.0187822977844 0.0273656232193 0.00324317168579
-0.00462348685247 0.0271677184521 0.00383517816579
0.0217572157159 0.0273907772763 0.00341991877703
0.0300913974196 0.0240662711125 0.00971906407077
0.0313860719343 0.0227697768097 0.0100158975396
0.029146778228 0.0233755781809 0.0119664694281
0.032946037396 0.0221828861426 0.00890527823883
0.0307036577209 0.0225578070767 0.0112073883239
0.0282034119712 0.0227379642458 0.0141323620318
0.0282386885768 0.0247036195569 0.0111279486494
0.0294981849674 0.0223528466185 0.01305698123
0.0297788208312 0.023580524293 0.0108499456043
0.0278629273754 0.0255377413527 0.0103525247405
0.00554864100178 -0.00192707836762 -0.00175190691079
0.0162770284412 -0.00163093312733 0.00159070972938
0.0246920802756 0.000290035305692 0.00109525756431
0.0173514955571 -0.00037209992841 -0.000343579526639
0.0042709136683 -0.00227274857252 -0.00157700597127
0.0207026128546 -0.000140028449614 0.000442877447878
0.0140343259346 -0.00155890694777 0.000644714938669
0.0176444166199 -0.0011283900312 0.00115872521602
0.0126880924294 -0.000404097673592 -0.00197510875372
0.020754795278 0.000751032131503 -0.00118310557444
0.0285097263336 0.00228747810115 -0.00120803800717
0.00915941270354 -0.0025802327219 0.000762810565447
0.0277298198292 0.00173373307684 -0.000468558177325
0.00992821920144 -0.00162627525837 -0.000719486612313
0.0109291986682 -0.00197076051356 0.000279313593539
0.00719929867508 -0.00219442924935 -0.000659972817039
0.0249740924149 0.0016965331631 -0.0013989053004
0.0194492528781 -0.000564465442356 0.000772015866678
0.0192130535774 0.000752443050759 -0.00174462903344
0.012734262454 -0.00187507461415 0.000757056709334
0.0235617276705 0.00118894049631 -0.000973904364904
0.0153940273218 -0.00234345435015 0.00258591657525
0.0179324577213 -0.00234646424679 0.00351171566747
0.0108034130117 -0.00104673006305 -0.00147204966478
0.0205613665844 -0.000879176861146 0.00175614235127
0.019655201387 -0.00209426928842 0.00367069955827
0.0121691089827 -0.00115084268665 -0.000784759423775
0.0236968052767 -0.00014457171394 0.00153673196937
0.019190837813 -0.00157490295091 0.00254360469076
0.0140408921712 -0.000411723487645 -0.00147060864045
0.0273943069869 0.0023553300817 -0.0017376596268
0.0166143442352 -0.00231686423845 0.0029792257398
0.0156488460597 -0.00113020008384 0.000438623671093
0.0161263392623 -0.000284926573027 -0.000948650775408
0.00835953867072 -0.0021417317323 -0.000336637343795
0.0227325702497 -0.00107012620633 0.00289574958064
0.0186411151932 -0.000277242654946 -5.11678169352e-05
0.0135040941311 -0.00101937135334 -0.000543491272404
0.022175737486 -0.000620575578561 0.0018640123838
0.0265272154465 0.00168416900592 -0.000813036122815
0.0145780192676 -0.00202716051119 0.00170621444557
0.0221755558647 0.000636864802776 -0.000457292054895
0.0227008145551 0.000139298677816 0.000651635519053
0.0209154331234 -0.00208495873134 0.00411037692585
0.0238568584022 0.000623307556612 0.000177247759641
0.022500098702 0.00128817041286 -0.00154194942399
0.0213368075338 -0.00135685681013 0.00291905714581
0.00874619453928 -0.00134082424183 -0.00167494273275
0.0253044006567 0.00116162674742 -0.000291721724721
0.00244371597086 -0.00262939238121 -0.00158104411026
0.030586625077 0.0211379854653 -0.00444470045716
0.0296950861793 0.0233039165548 -0.0034432818347
0.0301389722111 0.022251939204 -0.00391764510278
0.0297648506159 0.0212537821537 -0.00524692221273
0.0291078518311 0.0224222955836 -0.00490124148496
0.0323227525766 0.0210191833185 -0.00263444052738
0.0332952993653 0.0206579307356 -0.00189072122687
0.031133664175 0.0216463240641 -0.0033736194753
0.0282657926294 0.0237904311355 -0.00457701019376
0.0302646327415 0.00463955658776 0.0111227922736
0.0337137160933 0.00684897777697 0.00885461336545
0.0326114539745 0.0063801623844 0.00980826016529
0.030321165901 0.00705843146595 0.013382975458
0.0291548631335 0.00570836208662 0.0135685864861
0.0312909876262 0.00584614736522 0.0109773101449
0.0294800143282 0.00777450649737 0.015146107428
0.0301303895505 0.00595030955969 0.0125578155866
0.0317288025587 0.00713853849801 0.0116651021954
0.028828263579 0.00416496500534 0.0124969453253
0.0295217095057 0.00693014830045 0.0142788051615
0.0337580074891 0.0192250925939 0.0105451571077
0.0340123344723 0.0203638634339 0.0094321237543
0.0295133784693 0.0213831557932 0.0140617036643
0.0320287806132 0.021537094416 0.0109582072513
0.0316134659523 0.0190195585999 0.0132439506254
0.0325596731782 0.0199777264177 0.0114359193291
0.0332553631356 0.0168142004019 0.0128589597376
0.0298464558154 0.0200819521679 0.0145911620547
0.0306148956167 0.0203553144256 0.013482008834
0.0323559064487 0.0176793390504 0.0133139272481
0.0330169154331 0.0211501893281 0.0100573916317
0.0340292695157 0.0153645559665 0.0129693480826
0.0309473738444 0.0215492257796 0.0122367193559
0.0328776113329 0.0187237787714 0.0119497709788
0.0337411014137 0.0174361453681 0.0118382493487
0.031917641666 0.00850371050081 0.0122925668124
0.032335152194 0.0108117527351 0.013100982765
0.0325409045577 0.00784316867807 0.0110591149757
0.0333398247111 0.00932499874876 0.0108619175841
0.0310143484523 0.00829178216575 0.0133853022056
0.031103332624 0.0100928621775 0.014335657598
0.0315409904505 0.00944904709761 0.0133625577657
0.0303498091632 0.00850868460708 0.0144107808787
0.0332120834481 0.0129605100354 0.0131949008971
0.0341600785138 0.0118220222621 0.0112392826264
0.0331557986509 0.00757601673943 0.0100707516033
0.0340523799941 0.0084327202063 0.00937027130058
0.033363838281 0.0109112313761 0.0117722416754
0.0338761078101 0.0126982826893 0.0121431796609
0.0344909731401 0.0184352963269 0.0085631422294
0.0344609816374 0.0136157172066 0.00887983792403
0.0343464248048 0.0150447087479 0.010575113282
0.034527628736 0.0167373343622 0.00799032125759
0.0344539384353 0.0118215806365 0.00893799827161
0.0344651383791 0.0155805659849 0.00886769045355
0.0344911326861 0.00787160936596 0.00830224410395
0.0343517859594 0.0164598341183 0.0105320534714
0.0344023949659 0.0181581651641 0.00984013987438
0.0343533792411 0.0127997113556 0.0104193665071
0.0344088307355 0.0105638004457 0.00956096444535
0.0342687293343 0.0158408505227 0.0117206580662
-0.0187334467196 0.011846527549 0.0118357118914
-0.0171553184583 0.00152386829677 0.0103434340236
-0.0182738619824 0.00814390688374 0.0111296398242
-0.0192658880264 0.0148105483805 0.0121369797357
-0.0172280540393 0.00679307545579 0.0122808050013
-0.0184442477668 0.00616427689944 0.0100845911098
-0.0178929984722 0.0011728959462 0.00902318468872
-0.0188327689338 0.015473203932 0.0130901347267
-0.0169155051327 0.0098858559266 0.0139878522739
-0.0176473169037 -2.70818158205e-05 0.00894954349024
-0.0193598633866 0.0125001045382 0.011085554549
-0.0175276578304 0.0115064649942 0.0136375493869
-0.0175601690848 0.00298286764144 0.010262698859
-0.0176018195077 0.00494661493026 0.0109613944349
-0.0183027123271 0.0139722404409 0.0133553745405
-0.0183213081896 0.00478558743315 0.00974437363361
-0.0191150301453 0.013561965722 0.0118922691634
-0.0170711805636 0.00384848209633 0.0113846011097
-0.0196536054235 0.0167099746878 0.0122554193075
-0.0181206714919 0.0127781852998 0.0131819456849
-0.0184463712821 0.00944243133731 0.0113590842997
-0.0175286381393 0.00795498805728 0.0122515294634
-0.016786439961 0.0116292009231 0.0148745025728
-0.0167551241478 0.00868076630067 0.0137753738411
-0.0177302872639 0.0102692669485 0.0128301904168
-0.0166588228078 0.0143727399009 0.015178225995
-0.0179113964523 0.0164169248072 0.0139149253028
-0.0168914080771 0.0157225220031 0.014864161318
-0.0155173388194 0.0164953825585 0.0160029569429
-0.015621507117 0.014200089473 0.0160998745323
-0.0176503762335 0.0139487403652 0.0143454955864
-0.0167250352805 0.0129065310885 0.0152404238606
-0.0068928522993 0.00910069627277 -0.0101667487778
-0.000735434953741 0.00631647138905 -0.00933097379264
0.00115034265531 0.00901551945115 -0.0101086027615
-0.00264102935405 0.00698140667863 -0.00953237999529
-0.000194048480269 0.00746601183562 -0.00966325625163
-0.00553685067735 0.00963022673517 -0.0103152235256
-0.00135714105702 0.00805495568601 -0.00983946869623
-0.00424666057926 0.00752982122288 -0.00969863340874
-0.00524310376023 0.00661373409051 -0.00943617553415
-0.00302188930751 0.00570284654549 -0.00916188573529
-0.0061436072769 0.00806873584419 -0.00986333046384
-0.00228298889618 0.00899448280607 -0.0101167204383
0.01324360159 0.00650094247769 -0.00805646502286
0.0190873689958 0.00655964116897 -0.00751417199193
0.00322727477622 0.0050555620522 -0.00844318682853
0.00458797396258 0.0060307929498 -0.00870502393692
0.0102017788958 0.00634028729684 -0.00828623004444
0.00580923929941 0.00682250561444 -0.00890629361233
0.0023496338246 0.00752862937809 -0.00952637307298
0.0147197349505 0.00655646827632 -0.0079359088367
0.0081027497848 0.00580084377333 -0.00827179559466
0.0106431013205 0.00754303581615 -0.00872894245517
0.000283011358382 0.00583621039472 -0.00904343373548
0.00108393009936 0.00472329723431 -0.00851666633953
0.0126875928458 0.00791073274357 -0.00867933832405
0.0175240386078 0.00610953225142 -0.00748391104094
0.00430172071243 0.00787946527452 -0.00947891310541
-0.00207114648338 0.00484930340476 -0.00887310313119
0.00566318933867 0.00513016795873 -0.00823737431649
0.0163634558419 0.00680488583392 -0.00787697668218
0.00921081549437 0.00754359328448 -0.00886788832387
0.0214976785599 0.00634151687353 -0.00719268705748
0.0116463844701 0.00699266799113 -0.00840963115438
0.0142188232753 0.00774648923868 -0.00846474211678
0.00805659414659 0.0069994011051 -0.00876002995504
-0.000992885136804 0.00439971076932 -0.00858720506314
0.0093658147341 0.00556368178982 -0.00805374046011
0.00139276000205 0.00672453400002 -0.00929449840967
9.7748917746e-05 0.00849719065584 0.0181530394557
0.000756429162612 0.0108486367774 0.0185478989267
0.0026298555393 0.00715406558023 0.0178194031256
0.00256042016403 0.00837117368697 0.018039034739
-0.00222909800272 0.00856392894179 0.0182514245405
-0.00219964878645 0.00730384537419 0.0180256151644
-0.00391412116271 0.00707597327089 0.0180487008945
-0.000441255133301 0.0103893210442 0.0185105027607
0.00135641789771 0.00879649254116 0.0181596331723
0.0010439327067 0.00669467368652 0.0177964232911
-0.00338984294123 0.00876079772978 0.0183296749543
-0.000223225185521 0.00722315521867 0.0179377664078
-0.00232600010515 0.00352054294973 0.0162781134304
-0.00423432847489 -0.000368872138605 0.013927407886
-0.00649673766751 0.000928471709875 0.0146207302583
0.00269959105213 0.00523865201686 0.0174474812656
-0.00147032588113 0.00265490167314 0.0157950249802
-0.00628216730814 -0.000633262994516 0.0137075529084
0.00118714073603 0.00346634725012 0.0163561961871
-0.005395154392 -0.00132553474858 0.0133275642122
-0.000980152378387 0.00477919177891 0.017061627123
-0.00295708376696 0.00611900944036 0.0177889065283
-0.00224835663608 0.00490441112185 0.0170956734263
-0.000260279270029 0.00385608915254 0.0165404404021
-0.000938508544098 0.0058895506917 0.0177169569121
-0.00355955893364 0.00369735896946 0.0163436361459
-0.006217837891 0.00453163266687 0.016751804345
-0.00297963977495 0.00118253356827 0.0148805074005
-0.000434487457976 0.00213366212058 0.0155204381102
-0.00367913875821 0.00249777871656 0.0156333126548
-0.00480708453772 0.000654764796929 0.0145124181279
-0.00447518721869 0.00580562562068 0.0175567809558
0.00415404809388 0.00502001407088 0.0173642413907
-0.00652281277222 0.00245246058403 0.0155175767413
-0.0046931567703 0.00434360620583 0.0166887941992
-0.00600179877057 0.00622354184805 0.0177551407827
0.000349700944538 0.00532046995292 0.0174220928998
-0.00534676226325 0.00262363005609 0.0156552244037
-0.00136603469259 0.00139575796264 0.0150566272635
-0.00625952278425 0.00345746438363 0.0161177903468
-0.0171569221334 0.0252295863907 0.00372398481749
-0.0184433191217 0.0230119830516 0.00639991332307
-0.0165528826645 0.0256086551513 0.00467429269958
-0.018073074462 0.0241936976948 0.00381872499411
-0.0170763679588 0.024651804093 0.00594458751057
-0.0165277973571 0.0249029343239 0.00711797203459
-0.0174793228545 0.02389753203 0.00698149283157
-0.0189061008087 0.0233338427276 0.00363146581784
-0.0164302954815 0.0239922375095 0.0105100888582
-0.0170172542833 0.024037581834 0.00820805382943
-0.016232065062 0.0255962962447 0.00589112388443
-0.0191720101741 0.0225712754312 0.00519822194346
-0.0183670626879 0.0186471724983 0.0126539223613
-0.0157127501577 0.0188623859413 0.0148356428972
-0.0167198901833 0.0176905673593 0.0147191408242
-0.0168514376135 0.0214542831138 0.0121482617575
-0.0173411822268 0.0182699204167 0.0137975756051
-0.0175729992633 0.0200745895878 0.0124172368068
-0.0159817202427 0.0201163344748 0.01378214119
-0.0153358000583 0.017763765387 0.0158822615053
-0.0189483838796 0.0176246751232 0.0128125202727
-0.016001465607 0.0211099336775 0.0131165514416
-0.018675660564 0.0222117016223 0.00738366126415
-0.0171990915705 0.023439167248 0.00947030577906
-0.0185849789616 0.0202076467077 0.0111857809538
-0.018943316806 0.0213097186587 0.00820593149808
-0.019100560412 0.0203435613025 0.00945978519915
-0.0175661500925 0.0219386884534 0.0110635354719
-0.0198993757478 0.0186441962589 0.0101601237052
-0.0199511601245 0.0213250981734 0.00527424270326
-0.0179211397623 0.0228550966233 0.00842136769398
-0.0206347758216 0.0213841053405 0.00319986774914
-0.0200206157178 0.0206494350543 0.00626784578642
-0.0197793838642 0.0178596319191 0.0118921055256
-0.0182980528366 0.0210946391885 0.0104455301614
-0.0177917992566 0.0223375543018 0.00970851438606
-0.0198953997553 0.0193702518856 0.00888878018946
-0.0191780096365 0.019151547067 0.0113426453947
0.00518715856812 0.0057462463766 0.0174463902994
0.0195183879582 0.00872147790621 0.0170272001822
0.0138546103877 0.00716186439054 0.0171303836125
0.0130925115612 0.00895662521194 0.0174706313649
0.0161575286143 0.00845493188615 0.0171957051217
0.0211377814737 0.00886776775778 0.0169489152268
0.0141879856246 0.00841479864098 0.017313349733
0.00377123438366 0.00849017339869 0.0179823913317
0.0106547855159 0.0076531775837 0.0174121194626
0.00548007632899 0.00726800132121 0.0176756728672
0.015263509211 0.00941494361645 0.0174083682145
0.011415356083 0.00971589967017 0.0176999894979
0.0127321425142 0.0103658266111 0.0177227788931
0.0170681443476 0.00930061836042 0.0172759741744
0.00841512927267 0.00843246214049 0.0176802007076
0.0227317505305 0.00926488369084 0.0169130692645
0.0178629983245 0.00825743386828 0.0170560223781
0.00497891074879 0.00839581206287 0.0178908854427
0.0080220580153 0.0069988684531 0.0174715859431
0.00217091697531 0.0114503581557 0.0185652263106
0.00794854494854 0.00571444713769 0.0172671093795
0.00403222968315 0.0108190812537 0.0183450959434
0.00656170912521 0.00536291732541 0.0172973174063
0.0059830772494 0.0104341940032 0.0181594341732
0.00920880481775 0.0073629783362 0.0174560415245
0.00751308863894 0.00913809807916 0.0178519556246
0.00968662130276 0.00856598866255 0.0176217727926
0.00603162975094 0.00907520241385 0.0179351209569
0.0127926076136 0.00777123132362 0.0172965508764
0.0106615410261 0.00639467262614 0.0172068013508
0.010160234555 0.0096329818921 0.0177656246703
