-0.0212272002507 -0.0312660698709 -0.00561431711284
0.0128536832442 -0.0395177504829 -0.00530578347182
0.0125279103555 -0.0305524806635 -0.0052173746014
0.0249939160271 -0.0351537673102 -0.00512079448654
-0.0280675495931 -0.0287064342545 -0.00570968387614
-0.0239702965605 -0.0275644521647 -0.0056193015569
-0.0247813884301 -0.02352489366 -0.00561702093126
-0.0288823836785 -0.0344929295258 -0.00575394956789
-0.0201515521193 -0.0192248623655 -0.00550065739318
-0.0177251421956 -0.0164626563092 -0.00543726802786
-0.0148158021315 -0.00728221313618 -0.00534026423916
-0.0235703199111 -0.0181735434895 -0.005569304646
-0.0170004459071 -0.00448210173691 -0.00537873072181
-0.0123230064642 -0.0097002295154 -0.00529374002546
-0.0242269660342 -0.0144717082546 -0.00557117920762
-0.0270388869107 -0.0202759543485 -0.00565255654748
-0.0159216647643 -0.0111141005867 -0.0053775152065
-0.0185503495291 -0.0128778079332 -0.00544118547279
-0.0181113087978 -0.00798211986784 -0.00541496740207
-0.0229048596054 -0.011251605479 -0.0055312540438
-0.0107862731986 -0.0447160005569 -0.00638546873798
-0.0076379718489 -0.0447160005569 -0.00656093511693
0.00796745493876 -0.0430088816079 -0.00540755276553
0.0296847802008 -0.0435129954865 -0.00516348467808
0.0265191105482 -0.0441116146432 -0.00521304804346
0.04573686071 -0.0435250781884 -0.00497558243145
0.0487838021198 -0.042994810368 -0.00492883310842
0.0630127346653 -0.0437650847704 -0.00496983455335
0.066199654536 -0.043808667071 -0.00498437085517
0.0695957214665 -0.0371593113458 -0.00481783920326
0.0438127919172 0.0502520017326 -0.00507372808553
-0.0147561859131 0.049545206134 -0.00573245279708
-0.0140413986376 -0.0425284571967 -0.00565563287433
0.00344429652587 -0.0436717994669 -0.00547473819015
-0.00062282373662 -0.0441947608417 -0.00553741378564
-0.0247684020805 -0.0439552783549 -0.0058221800538
-0.0173583895204 -0.0427559655761 -0.00570155239691
0.0466544765545 -0.000324614186299 -0.00474100001156
0.0524212590514 -0.0158318360804 -0.00474100001156
0.0485832317158 -0.00821857056897 -0.00474100001156
0.0449802031469 0.00300931723621 -0.00474100001156
0.0445034752306 0.00601385192752 -0.00474100001156
0.0401869181041 0.0151087414595 -0.00474100001156
0.03414292913 -0.0279896100288 -0.00495165830735
0.0495758914283 -0.0189136078991 -0.00477085456561
0.0467908735428 -0.0279945093362 -0.00483717806758
0.0295164683398 -0.0153378563552 -0.00493626547552
0.0339835176732 -0.0214529446883 -0.00492350899872
0.0540174516034 -0.0283225358967 -0.00477324055125
0.0244261280468 -0.0183521875193 -0.00499599489005
0.0157360399155 -0.0137379457685 -0.00505377728874
0.0382787996287 -0.0224895940688 -0.00488931668236
0.0449216692322 -0.023062133039 -0.00483177044988
-0.00231566248341 -0.0100938402347 -0.00520070276256
0.0373371427533 -0.0285935368818 -0.00492547501298
0.0512952402071 -0.0348970898577 -0.00482764885095
0.0397030785714 -0.0140285595348 -0.00483811824308
0.0547280496351 -0.0360100642736 -0.00480161007277
0.02575444485 -0.0149347144434 -0.00496849816225
0.0348754810435 -0.00786790247981 -0.00485393248272
0.00935946428824 -0.0102574865195 -0.00509574815688
0.045038899108 -0.0336742863108 -0.00487875197757
0.0362252335799 -0.0146862714692 -0.00487258089389
0.0145846228229 -0.0203414826752 -0.00509409632587
0.0445266351401 -0.0139018542666 -0.00479387675087
0.0121782677428 -0.0122033870767 -0.0050790387849
0.0246770270406 -0.0234917782467 -0.00501699119076
0.0467829976217 -0.0184175576378 -0.00479389306688
0.0405826697891 -0.0307261971904 -0.00490574798238
0.00613813782022 -0.0141588775578 -0.00514257315727
0.0226100985484 -0.0127615243812 -0.00498712571473
0.0523362371203 -0.0198077034629 -0.0047499127349
0.0070710812395 -0.0172016629534 -0.00514790232526
0.048771298337 -0.015130765778 -0.00476101308804
0.0291320801407 -0.0229599877673 -0.0049742518956
0.0571762436675 -0.0382989882578 -0.00478980876353
0.01627207523 -0.00963614976332 -0.00503035508862
0.0391133809819 -0.0174153188721 -0.00485878917161
0.0610824378609 -0.0403887767073 -0.00476390659556
0.0186861600677 -0.0124106028804 -0.00502106063494
0.0420213777156 -0.0100504074132 -0.0047991208814
0.0212710149538 -0.0179494989981 -0.00502273524174
0.0539794545089 -0.0231887272666 -0.00475034301632
0.0421042663876 -0.0260583729519 -0.00487084095584
0.0358099513471 -0.0186893051713 -0.00489446279902
0.0483996656516 -0.0239530878244 -0.00480431747552
-0.00203095569655 -0.012962798774 -0.0052111135061
0.0479081126659 -0.0117630212816 -0.00475358126121
0.0429018294391 -0.0198939337298 -0.00483571323685
0.0284902898158 -0.0187581785452 -0.00496103983002
-0.00497544659427 -0.0120416892909 -0.0052336001157
0.0492147190694 -0.0298773802543 -0.00482375892313
0.0564724116041 -0.0264387348759 -0.00474248743525
0.0274783628918 -0.00803307360868 -0.00492164668647
0.0205293975117 -0.0224278410514 -0.00504972326691
0.00607916804447 -0.0108137920795 -0.00512796330792
0.0328217151347 -0.0147807429015 -0.00490382078854
0.0302106379531 -0.011421319492 -0.00491225037437
0.0248324039253 -0.00997488529466 -0.00495439154787
0.0490457579144 -0.0332688484788 -0.00484064222331
0.038464806978 -0.0110554301156 -0.00483586856812
0.059442896037 -0.0361348043577 -0.00475949106963
0.0555182979591 0.0472445936672 -0.00474100001156
0.0428489230883 0.0388755714766 -0.00474100001156
0.0513828271333 0.0444635773647 -0.00474100001156
0.0550774005056 0.0425680894048 -0.00474100001156
0.046666061339 0.0392483676407 -0.00474100001156
0.032041081083 0.0463319739119 -0.00492095526423
0.0369107432501 0.0487773731287 -0.00491036660129
0.0266145981967 0.0372927591153 -0.00485578809989
0.0419699373206 0.0419768827782 -0.00478550335043
0.0197820536479 0.0413174612992 -0.00496152701318
0.0224641860027 0.0381424669137 -0.00490057570008
0.0192914155797 0.0461148535664 -0.00502407471989
0.0303951404506 0.0397751073378 -0.00485468472031
0.0330950573374 0.0494287270705 -0.00494995962415
0.0351258994969 0.0424046186369 -0.00484749256613
0.0459353103778 0.0427661489229 -0.00476222895047
0.0101164011525 0.0478195424691 -0.00512096612357
0.0327157246252 0.0340083802112 -0.00476514086708
0.0435786892839 0.0466342310392 -0.00482892831292
0.0279389724551 0.0474470994836 -0.00496857745438
0.0477375323711 0.0459209345373 -0.00478573355215
0.0298977307182 0.0364815674864 -0.00481866458962
0.0525845867874 0.0478132941983 -0.0047685911859
0.0406019350906 0.0448853248939 -0.00483230404957
0.0403716235329 0.0477189276732 -0.00486875467982
-0.0029523873014 0.0469943380257 -0.00521932068259
0.0221708068604 0.0460868481969 -0.00499984709229
0.00197988067617 0.0469285208005 -0.00517760232013
0.0371535626002 0.0371061612515 -0.00476608661741
0.0387862356711 0.0408063425418 -0.00479764580122
0.0271302231178 0.0427941390668 -0.00491856948127
0.0238504877741 0.0413479645829 -0.00492814875861
0.014207916238 0.0443597552985 -0.00504485167784
0.0358164244323 0.0452853781106 -0.00487687912597
0.00448325430025 0.0449036269384 -0.00513215300948
0.0297383482097 0.0500566935006 -0.00498634443332
0.0470911103747 0.0499602632431 -0.00484034291028
0.00712836221745 0.0496384042285 -0.00516902039846
0.0160291629239 0.0500356414952 -0.0051003387091
0.0197198632103 0.0499938786654 -0.00506899080445
0.0229654894865 0.0499561227464 -0.00504140894493
0.0112009098597 0.018491746737 -0.00499833542059
0.032741319645 0.0276079717196 -0.00475345612851
0.0261132945617 0.0276592354512 -0.0048288059527
0.0226968566429 0.0241411914419 -0.00486764527411
0.0290221850234 0.0281129937634 -0.00479573661724
0.0198293812013 0.0220020660098 -0.0049002437884
0.0083821526854 0.0174458445448 -0.00503038008772
0.0163721453211 0.0212433199592 -0.00493954691602
-0.009714380933 -0.000988846023707 -0.00524846002931
0.00347971151863 0.00624831611294 -0.0050971799125
-0.00891668117597 0.00646163169485 -0.00522787405522
0.010929037314 0.0125900919829 -0.00500808823951
-0.0124825629509 0.000951848615976 -0.00527455671236
-0.0123166853803 -0.00349163908701 -0.00528005160723
0.00897065177636 0.00996145532228 -0.00503307823956
-0.00750596952283 0.00239572786377 -0.00521959389563
0.0273324626872 0.0240335249054 -0.00481602087738
0.00528928814531 0.00988174270218 -0.00507212391839
0.00152461620779 0.00865240566762 -0.00511392555895
-0.00436655525577 -0.00228670995351 -0.00519404535595
-0.00135865889348 0.00678075401828 -0.00514745773245
-0.00571029342243 0.00476973929821 -0.00519673924927
0.0134942072983 0.0153670238086 -0.00497644202406
-0.0103269029653 -0.00647230307885 -0.00526387981379
0.0170402798719 0.0171561008733 -0.0049360381256
0.00680313621146 0.0072525390908 -0.00506040990554
0.0204866405968 0.017150858882 -0.00489961524069
0.0360354475686 0.0251006854931 -0.00474100001156
0.0378977288715 0.0177441128605 -0.00474100001156
0.0658892364503 0.0644759518408 -0.000184534488404
0.0716713209845 0.0653607737919 0.00344749625911
0.0690582053106 0.0649064025514 0.00173344005603
0.0655099973083 0.0672495733252 0.000750890309459
0.0700010927602 0.0671998048299 0.000786123300861
0.0737766678908 0.0679621146287 0.00719890008484
0.0759163948874 0.0655470949752 0.00540380036036
0.0672401355537 0.0698969858038 0.00669334751094
0.0678548426219 0.0672077634788 0.00398179438521
0.0752119592212 0.0657779429512 0.000751611743077
0.0740088149689 0.0696454576469 0.00389684703279
0.0787402580627 0.0656575296813 0.00256539493117
0.0815106539442 0.0676062347397 0.00532469307641
0.0696773574928 0.0705434561376 0.00385140082658
0.072386032037 0.0720034994604 0.00551952708219
0.0661661481006 0.0696828182082 0.00272128088266
0.0683232155991 0.0724779175518 0.00568248743037
0.0740297272523 0.0713827230723 0.00773583349899
0.0822380512095 0.0659308966027 0.00731617031866
0.0706602530953 0.0706310269931 0.00773013737292
0.0792772700887 0.0672697340876 0.00747054181864
0.0662537497944 0.0727004177463 0.00781499966979
0.0772204603284 0.0697900071024 0.00578254837477
-0.100958495759 -0.0210529781655 0.00726900016889
-0.101760009222 -0.0154929888995 0.00453899987042
-0.102824784822 -0.0184377141975 0.00453899987042
-0.100048489451 -0.0211008209048 0.00453899987042
-0.104111802804 -0.0143077644461 0.00609574826039
-0.100097683206 -0.0255120978782 0.00481069577011
-0.0980044997208 -0.0304335294087 0.00462818721389
-0.102245484233 -0.017256869665 0.00705129225008
-0.0986212006442 -0.0185794108111 0.00636894921931
-0.0977347226137 -0.0244525060974 0.00674036427397
-0.0977694499848 -0.027894094192 0.00711914677788
-0.0977160036564 -0.00728745221736 0.00665037181872
-0.101638294222 -0.0128457066889 0.00612441950555
-0.0991755540359 -0.0102901839133 0.00623245740039
-0.106062442455 0.00347250585801 0.00551058087899
-0.102349253076 0.00653011013522 0.00424654242365
-0.103423659843 -0.00854712322137 0.00407153157182
-0.103075245226 -0.00241505465341 0.00413757794016
-0.100584244404 0.00293735364121 0.00432196793823
-0.103478151411 0.00318284421709 0.00415608708412
-0.105632260903 0.000164811306237 0.00400867748266
-0.0992105327279 -0.0134150950988 0.00455503259101
-0.0989267871098 -0.0013954134221 0.0044389011866
-0.100008204195 -0.00615016340905 0.00434860419443
-0.103926557545 -0.0119259604577 0.00402142652492
-0.105564725517 -0.00532781622253 0.00419872557904
-0.100331577081 0.00849224849302 0.00620952053272
-0.0977160036564 0.00181380885628 0.00650906143743
-0.0986200226792 0.00491717925618 0.00678747161574
-0.10271734355 0.00632267950064 0.00707967793117
-0.10119970763 0.00361260659673 0.00697144554854
-0.105435534626 0.00887227526066 0.00689805438467
-0.105903389948 0.00659816949617 0.00421265866558
-0.104541880781 -0.0111988262072 0.006881619433
-0.105153053422 -0.00743749054256 0.00713911576643
-0.104041162394 0.000388460624273 0.0071604941209
-0.105722726429 -0.00348708060002 0.00726213730148
-0.100971847015 -0.00253479341256 0.0069505303216
-0.0931522604008 -0.0427542733122 0.00335498807009
-0.0945325480071 -0.0343898484767 0.00319292434081
-0.0945221040167 -0.0377009416309 0.0034107633748
-0.0922373316421 -0.0476209544241 0.0034724743367
-0.0917343711767 -0.031323015185 0.00295058450757
-0.0975147922525 -0.0328637902598 0.00668164815395
-0.095682194584 -0.0272579994053 0.00538657293094
-0.0922594134545 -0.0363600422915 0.00515135919946
-0.0935938006626 -0.0327582954825 0.0053636665008
-0.095036528453 -0.0401047330339 0.00542037783262
-0.0954355448609 -0.0370950471948 0.00649333443672
-0.0946049798324 -0.0300510935651 0.00313932175891
-0.0965504896109 -0.0240648258485 0.00393814752921
-0.0966200421226 0.00986499991268 0.00438688157271
-0.0939696945907 0.00521359154562 0.00436306799935
-0.0920181974473 -0.00073163902422 0.00332923333483
-0.0922976091328 -0.013459075053 0.00378867359954
-0.0936965852903 -0.00325862989714 0.00437995060504
-0.0928088294717 -0.0190254603487 0.00419204420625
-0.0925597526252 -0.0229256402655 0.00413134479012
-0.0936121041202 -0.00612656059621 0.004382911126
-0.0958634918344 -0.0218629213322 0.00555167486223
-0.0959228618015 -0.000168457445073 0.00503210747912
-0.0952910346392 -0.0141289459686 0.0052689927178
-0.0938384284796 0.0069547751145 0.00196306075655
-0.092383456141 -0.0106418392993 0.00126399996225
-0.0965970497357 0.0029160164824 0.00361465877732
-0.0968280133458 -0.00339868595856 0.00357763610586
-0.0969201150768 0.00625810868562 0.0039210162151
-0.0934355084368 -0.00714506631089 0.00174872417085
-0.0953545513347 -0.0116035704962 0.00279970915438
-0.0970632061745 -0.00679419969979 0.0036314475023
-0.0935895998446 0.00187682035193 0.00172196965398
-0.0942933801578 -0.0150834811521 0.00230271089383
-0.097628548738 -0.00963373880016 0.00397803711416
-0.0956629978577 -0.0197255839574 0.00323656125638
-0.0968255981004 -0.016639398773 0.0037781612508
-0.0940404065295 -0.0264251140895 0.00301218218661
-0.0858926837851 -0.0579010332861 0.0054503252164
-0.0875478283826 -0.0545021067338 0.00534728741821
-0.0838692653813 -0.0601901050843 0.00533257868404
-0.088018349777 -0.04777740209 0.00399441100644
-0.0835364676556 -0.0531610808256 0.00221015224357
-0.0840701127777 -0.0484990916363 0.000766430334101
-0.0860076777767 -0.051375044545 0.00392335777932
-0.0831796599282 -0.0560998500928 0.00309981778732
-0.0889005759319 -0.0473714439003 0.00125687936835
-0.0907527600286 -0.0507244813499 0.00470467267811
-0.0829701585211 -0.0529546352073 -0.00276134103004
-0.0828916382661 -0.0622647812811 0.00205281270421
-0.0884645902558 -0.0514031829697 0.00102505213008
-0.0866496880662 -0.0493679592727 -0.00105424414648
-0.0840863926117 -0.0466732656387 -0.00365370869074
-0.085301859775 -0.0627266773277 0.0044719825264
-0.0890199200195 -0.0574199870923 0.00392820410462
-0.0842581591999 -0.0557974759881 -0.000481193890826
-0.0860552006502 -0.0588156738695 0.00221584777008
-0.0832693221667 -0.059380028954 0.000745999191047
-0.0860333802216 -0.053096714642 -0.000543359701389
-0.0881243982597 -0.0547027216143 0.00177984424597
-0.0825219211437 -0.0492730047606 -0.00417512560084
-0.090640482302 -0.0278796921075 0.00308031868518
-0.0905059029991 -0.0451335478971 0.00468631116474
-0.0905545690512 -0.0405482438882 0.0042670683581
-0.0904713617862 -0.0347118438546 0.00364839543976
-0.0899268145229 -0.0344465449841 0.000337082208618
-0.0892776768131 -0.0378846865442 1.20679580852e-05
-0.0874988641553 -0.0342820202671 -0.00238310510284
-0.0889985563044 -0.0315461178823 -0.00103069592752
-0.0828749880298 -0.0401386232987 -0.00206476277065
-0.0859203703312 -0.0444738185693 0.00131920331584
-0.0842868979849 -0.0428297269452 -0.000495877510213
-0.0872931155117 -0.0304229107822 -0.00303931550873
-0.0854989063703 -0.0324323973056 -0.0048212284766
-0.0841109491016 -0.0289418167812 -0.00650480667314
-0.0855404909096 -0.0435278574264 -0.00315102413315
-0.0900588536053 -0.0421252296623 0.00137785619123
-0.0880743470991 -0.0415182540894 -0.000807892639705
-0.0833722425896 -0.0372484319397 -0.0064420608436
-0.0864793151471 -0.0398461562007 -0.00275506040723
-0.085705939988 -0.0370284351613 -0.00402183192493
-0.0837924365393 -0.0403379787808 -0.00550321795858
-0.0829519080712 -0.0337283466024 -0.00708014009558
-0.0889845637751 -0.0282651926714 -0.00137273229168
-0.0887043809873 -0.037551915588 0.00288731545159
-0.088794359363 -0.0303507726634 0.00201812633815
-0.0873043159354 -0.0408292675456 0.00219936181348
-0.0851999759757 -0.0393292282932 0.000224067612099
-0.0844496649527 -0.0361792817882 -0.000830478851103
-0.0856034415708 -0.0320474121307 -0.000411000470945
-0.088450609723 -0.0262649370376 0.000711106888959
-0.0859394108758 -0.0266879410844 -0.00161976715165
-0.0835240042173 -0.0299555457125 -0.00331175488328
-0.0833035457347 -0.033558686161 -0.0023643275971
-0.0829029576105 -0.0442037405117 -0.0056198262753
-0.0505518448076 -0.0542201280027 -0.00813876452599
-0.0493355336256 -0.0439693282472 -0.00637899991125
-0.0545662120655 -0.0382960233732 -0.00637899991125
-0.0369315155014 -0.0533539965006 -0.00637899991125
-0.046081224724 -0.0383308161011 -0.00637899991125
-0.0350551579158 -0.0467731445281 -0.00637899991125
-0.0387069651282 -0.0509375107386 -0.00637899991125
-0.0497646092106 -0.0392727373295 -0.00637899991125
-0.0437319365071 -0.040728511055 -0.00637899991125
-0.0575119898388 -0.0394150297949 -0.00637899991125
-0.038816933656 -0.0440227589281 -0.00637899991125
-0.0344244988277 -0.0427225949628 -0.00637899991125
-0.0338459983468 -0.0510197211307 -0.00663083003289
-0.0577830129597 -0.0528772656845 -0.00637899991125
-0.0607997767557 -0.0523670442498 -0.00637899991125
-0.0474259976573 -0.0533696394148 -0.00637899991125
-0.0527749508676 -0.0495718042067 -0.00637899991125
-0.059247819894 -0.0464946378268 -0.00637899991125
-0.0558196673951 -0.050557731593 -0.00637899991125
-0.0562482187818 -0.046773407436 -0.00637899991125
-0.0473121884359 -0.0498740985921 -0.00637899991125
-0.0531362793791 -0.0450816019236 -0.00637899991125
-0.0407412527054 -0.0552790266967 -0.00637899991125
-0.0633248852686 -0.0467949075266 -0.00637899991125
-0.0628774666521 -0.0420450816348 -0.00637899991125
-0.0646944247545 -0.0383415134775 -0.00637899991125
-0.058482643552 -0.042277525308 -0.00637899991125
-0.0652418582024 -0.0501579524525 -0.00652461271718
-0.0637287556777 -0.0539408259435 -0.00652775761901
-0.0688048458283 -0.0482301161328 -0.00666262938446
-0.066689764436 -0.0414621909933 -0.0064158503771
-0.0681295054143 -0.0447292360863 -0.00655591748545
-0.0442305138914 -0.0472715779177 -0.00776453317369
-0.0412074105459 -0.0459747559702 -0.00757235372093
-0.0499834750761 -0.0496029237322 -0.00813001252873
-0.0424933562474 -0.0532822536711 -0.00766587369781
-0.0538826075291 -0.0525503721629 -0.0083801027746
-0.0407996657197 -0.0415589658436 -0.00753904355469
-0.0471338118341 -0.0463166222568 -0.00794526240103
-0.0431622759304 -0.0498542068634 -0.00770192372507
-0.0417367891768 -0.0381762582994 -0.00759202189106
-0.0694897019867 -0.050774380235 -0.00848991582894
-0.0662747071056 -0.0478322258998 -0.0082868933306
-0.0693855354717 -0.0412648741592 -0.00783371514688
-0.0603207310372 -0.0439065963689 -0.00801600641438
-0.0559204636204 -0.0418672223262 -0.00787528000576
-0.0523935846352 -0.0398062151178 -0.00773306080687
-0.0648748907496 -0.0437926258653 -0.00800814191315
-0.0605686527387 -0.0389717053164 -0.0076754757024
-0.0704224564087 -0.0457797797496 -0.00814526488503
-0.0581944187838 -0.0490545064037 -0.00833741723122
-0.0514103014875 -0.0468811511987 -0.00817586309252
-0.046875919685 -0.0428370324231 -0.00791254842313
-0.0615229628111 -0.0490921250714 -0.00835502041209
-0.0662689840233 -0.0527887484105 -0.00856199953705
-0.0371681134339 -0.0407085912293 -0.00723816698541
-0.0379167622228 -0.0373556073022 -0.00729763248966
-0.0383450883516 -0.0477963970443 -0.00736274584051
-0.0535582751543 -0.0556429997087 -0.00745955435033
-0.0607226617482 -0.0556429997087 -0.00818229060587
-0.0959416411125 0.0272797298149 0.00392756492054
-0.0960686010895 0.0187744245127 0.00330158461728
-0.0986186175881 0.0179101650394 0.00368951538951
-0.0973093573106 0.0245927672318 0.00396608658721
-0.101711264806 0.0205738923874 0.00444304822066
-0.101479251663 0.012075037662 0.00397030835148
-0.0992259973219 0.0101829018987 0.00357736432159
-0.095687061564 0.0154551620452 0.00312264571728
-0.10391628464 0.00993177863958 0.00431274999251
-0.104152075205 0.0128778987644 0.00442993330864
-0.0996899517962 0.0147029244821 0.00374505786237
-0.10356444328 0.0147369705565 0.00701468049893
-0.0942799767128 0.0329709341716 0.00407554713098
-0.100892871574 0.0238802618301 0.00456665840247
-0.103748568704 0.0171793673835 0.00455945422172
-0.0975860676603 0.0195526666887 0.00645400916011
-0.098005458357 0.0233395280234 0.00689380940993
-0.100083354325 0.0159800142115 0.00675968246171
-0.0976714663706 0.0126690462214 0.00586571962596
-0.0965700223184 0.0164965532162 0.00593029980248
-0.0957857540732 0.0368629604326 0.00684946608354
-0.0999652907935 0.0262570132117 0.00726900016889
-0.101432158558 0.0225199383808 0.00726900016889
-0.102686417138 0.0190257531352 0.00717842836856
-0.0988220839321 0.0303861399357 0.00617854005458
-0.0977775922461 0.0331722332449 0.00505287307721
-0.0945447653138 0.0220894119037 0.00566116616111
-0.0943305755175 0.028803979212 0.00577924979192
-0.0942546903755 0.0250394393656 0.0054414391952
-0.0947910772673 0.0330483773985 0.00677618916932
-0.0936068456816 0.00986499991268 0.00326286615193
-0.0914003491686 0.00987234308368 -0.000137705070673
-0.0884643529777 0.0105426401891 -0.0030749129693
-0.0901797704714 0.0134027746707 -0.00131615848776
-0.0916726054774 0.0170339944755 0.000347383151947
-0.0914332253604 0.0203242497136 0.000224095763034
-0.0927418598849 0.0228910002306 0.00165953713136
-0.0880752475527 0.0138311495766 -0.00345581681962
-0.089426461286 0.0170434610456 -0.00195284813531
-0.0922426034156 0.0143468343167 0.000831644168752
-0.0882621660048 0.0186725265185 0.000875681696921
-0.0891435152847 0.0307567651915 0.00285608798339
-0.0870965452206 0.036812332709 0.0014364635858
-0.0864325674451 0.0314898002352 0.000296891489751
-0.0877627013158 0.0276075081341 0.00122427923851
-0.0849995172277 0.0362945767584 -0.000644274738182
-0.0881539578755 0.0227811665843 0.00115370603486
-0.0934870717575 0.0132512446891 0.00414083456767
-0.0909133282456 0.012086029894 0.00258278854751
-0.0905128916466 0.0256700652377 0.00343046275635
-0.089873157011 0.0208021456595 0.00257805913213
-0.0924866861901 0.0182220332868 0.00415048961522
-0.0910896496007 0.0376197361436 0.00463433426661
-0.0917664418743 0.0280289968171 0.0043867320746
-0.0912725691071 0.034154195693 0.00450782831579
-0.0878364821034 0.0229368920571 -0.00329521659082
-0.0867477788295 0.0203576671944 -0.00451893159566
-0.0858825315262 0.0239670256036 -0.00521911089794
-0.0899991335062 0.0244593589382 -0.00103768348359
-0.0871850535304 0.0169238084083 -0.00424255436512
-0.0877001544658 0.0387980006635 -0.00163391059401
-0.085216724619 0.0230325129355 -0.00173051927347
-0.0862100527257 0.0205032484538 -0.000989910209975
-0.088467894237 0.0107409178496 0.000292084516744
-0.0881206117842 0.0145165662736 0.000322355745851
-0.0854965244571 0.0266750339096 -0.00108631650933
-0.0841837771189 0.0133558780644 -0.00417965123499
-0.0846147788143 0.0294155880895 -0.00171278210315
-0.0846843149894 0.0166160434398 -0.00316233054181
-0.0938929989934 0.0366089390846 0.00417127847872
-0.090160474906 0.0337406772117 1.10810784332e-06
-0.0861242339463 0.0312673624225 -0.00431090353105
-0.0866054696337 0.0342832379209 -0.00349435992856
-0.0855531719622 0.0282676287754 -0.00521549868707
-0.092147527815 0.0286973449894 0.0015123186693
-0.0888782119771 0.0283587988803 -0.00185263375487
-0.0877405824484 0.0263095285992 -0.00320735480926
-0.09064915814 0.0310735810182 0.000211024049457
-0.0934616899705 0.0254787617227 0.00254566847431
-0.0897386191263 0.0387435990577 0.000372475769039
-0.0917592240648 0.0362035079997 0.00188601222315
-0.084029649943 0.0104725130168 -0.00473471829131
-0.0835426462685 0.0345230950151 -0.00252632294359
-0.0835854564708 0.0257791837463 -0.00351546718673
-0.0833688991768 0.0377603127412 -0.00241217859677
-0.0884679444618 0.0553232845266 0.00601031035849
-0.0875465251078 0.0584343572742 0.00488676267708
-0.0787425639737 0.0579759698957 -0.00420083077848
-0.0811294544985 0.0552597819706 -0.00422147748036
-0.0831486959372 0.0594437574123 2.13810899743e-05
-0.0752239756828 0.0563333850557 -0.00421409601959
-0.0778213103935 0.0544345450811 -0.0038959581297
-0.079343879117 0.0554522156408 -0.00070185765031
-0.0862637485994 0.0580036032882 0.00148458811848
-0.0883401980956 0.0559140205544 0.00315980946779
-0.0840603949345 0.054711049843 -0.0014146076625
-0.0800432775577 0.0595409981906 -0.00100437131413
-0.0772418141286 0.0578433446809 -0.000784378312051
-0.0814055355857 0.0572956056367 0.00220013544995
-0.0840389552977 0.0575858020248 0.00432760671191
-0.0734203858803 0.0585668294571 -0.00344035791944
-0.0847141473511 0.0548041410061 0.00376303205894
0.0522822205487 -0.0701643018095 0.00421260097097
0.0485051323795 -0.0698564263171 0.00400728788307
0.0549934478453 -0.0726479166011 0.00698281183182
0.0658153620832 -0.0642440059932 0.00354617472397
0.0497490023223 -0.0729709530274 0.00624059073877
0.0574602750765 -0.072081718415 0.0055798579225
0.060412990368 -0.0707825046846 0.00471262284782
0.064761534212 -0.0693340980922 0.00398863533113
0.0666045000809 -0.0720295642147 0.00571333897744
0.060891115851 -0.0649282915451 0.00404859301219
0.0483511840817 -0.0695986155192 0.00720453587607
0.0535764187764 -0.0662625119137 0.00498712752352
0.0546562268352 -0.0686160232294 0.00683395051334
0.0637245972158 -0.0670687968212 0.00619944792935
0.0671945340824 -0.0668325362178 0.00622616331131
0.0578231004534 -0.0674529083196 0.00614059705657
0.0497032350409 -0.0669813766563 0.00530208802392
0.0610042288741 -0.0684843162568 0.00705541802236
0.071697720693 -0.0681477189606 0.00721580764678
0.066486450293 -0.0694972169233 0.00761815422965
0.063634720105 -0.0721881762692 0.00739060541148
0.0598859671689 -0.0714497570945 0.00770277287597
0.0524667077116 -0.0713253510732 0.0076970475351
0.0696475954136 -0.0708900758102 0.00751805254392
0.0683529788707 -0.0695242142075 0.00435929791135
0.0702786357731 -0.0658271569021 0.00294926297975
0.0849262882871 -0.0534599992414 0.0055849920755
0.0744096187975 -0.0582068576695 -0.000859806687533
0.0822739560211 -0.0560301992548 0.00456591005937
0.0816904604508 -0.0594630017877 0.00460222224786
0.0778193146333 -0.0589919945826 -0.00410023943858
0.083136829642 -0.0591743815035 0.000375567360845
0.074954899411 -0.0552814487011 -0.00375021352573
0.078283254255 -0.0533360018125 -0.00168472723885
0.0816335200243 -0.0528973545548 0.00158778208504
0.0794633049689 -0.0551692199703 0.00161242490537
0.0765478044782 -0.0558334236957 -0.00093065102954
0.0879289252235 -0.0523680001497 0.0038804377677
0.0875522180978 -0.0547344987253 0.00226138055886
0.0838315385107 -0.0560663749463 -0.00120516707978
0.0882287118914 -0.0578995114763 0.00461288876339
0.0814255188025 -0.057488581477 -0.00252940382221
0.085690048465 -0.0580382104482 0.0019631748992
0.0817037890179 -0.0544658614338 -0.00437958095241
0.0867203482449 -0.0559975954845 0.00719738792556
0.0877873887814 -0.0590067125572 0.00708126952267
0.0899679238994 -0.0559623046746 0.00644061829778
0.0842402268215 -0.0581176059919 0.00663980719624
0.0879149742421 -0.0447250008583 0.00355953759316
0.0909162265995 -0.045915824569 0.00283673537923
0.0887997381068 -0.0459648358333 0.000726936444127
0.0828699486812 -0.0514316275642 -0.00436287443791
0.0843349346141 -0.0478289963666 -0.00345243248565
0.0864902338297 -0.0459756970146 -0.00158183562507
0.0871085755971 -0.0517987568227 0.000423183167987
0.087445252074 -0.0486395094747 -0.000203360472688
0.0899871662254 -0.0492972460221 0.00281536300176
0.0839175657138 -0.0522765371838 -0.00071949105562
0.079602165889 -0.0506807660674 -0.00165741839579
0.0797143516597 -0.0475837127504 -0.0024693598878
0.0828630642185 -0.0496018268025 0.00218129057552
0.0859268507086 -0.0480066437114 0.00470176977986
0.0826726533962 -0.0461383783703 0.000654777991582
0.092908599589 -0.0467951979542 0.00672300020233
0.0912897057861 -0.0520190233306 0.0051590280886
0.0851800134242 -0.0523670017719 0.00280939625834
0.0880486307847 -0.0509220337515 0.00672300020233
0.0893703620846 -0.0475960774362 0.00672300020233
-0.0250409697694 0.055289823758 -0.00566047198946
-0.0223114232998 0.0515768800763 -0.00560693993934
-0.0286880105965 0.0528552053791 -0.00573199800101
-0.0117273608445 0.0516995267796 -0.00539936459008
-0.0261239597315 0.0581758004954 -0.00692499987781
0.0238611735691 0.0528471360656 -0.00692499987781
-0.0166766633514 0.0576810062841 -0.00692499987781
0.0394144120122 0.058168237363 -0.00692499987781
0.0202417608568 0.0559265198296 -0.00692499987781
0.0364616814685 0.0513613565437 -0.00692499987781
0.00340044149693 0.0558729074275 -0.00692499987781
0.00728938738406 0.0576571035825 -0.00692499987781
0.0232643540465 0.0563658052037 -0.00692499987781
0.0305023598992 0.0539245395995 -0.00692499987781
0.0145854161374 0.0549578630772 -0.00692499987781
-0.0129629802123 0.0577826523793 -0.00692499987781
0.0381038435655 0.0539886600516 -0.00692499987781
0.0336995497543 0.0584490001202 -0.00676629365829
0.0125439008203 0.0584490001202 -0.00675023563916
0.00140820248981 0.0584490001202 -0.00679245937707
0.0168465401399 0.0559841674203 -0.00528699997813
0.0354283679658 0.0562362343751 -0.00528699997813
0.0318816049327 0.0559833475457 -0.00528699997813
0.0258309289109 0.0558203767485 -0.00528699997813
0.0409805151868 0.0531227111797 -0.00528699997813
0.0097890344915 0.0577497375695 -0.00528699997813
0.0349153597558 0.0531365829644 -0.00528699997813
-0.0177481777792 0.0509429923871 -0.00692499987781
0.0122273038757 0.0528027200847 -0.00692499987781
-0.0304287788041 0.0549702402554 -0.00692499987781
-0.0323649137469 0.0524354174698 -0.00692499987781
-0.000893234028939 0.054157609282 -0.00692499987781
0.0206850123923 0.0519890533834 -0.00692499987781
0.00582594390835 0.0516312347857 -0.00692499987781
0.00935839823324 0.0509259105914 -0.00692499987781
0.0173297882142 0.0519169802915 -0.00692499987781
0.00253846911854 0.0512520772144 -0.00692499987781
0.0398934309052 0.0504318484114 -0.00692499987781
-0.0124171497632 0.0550781553059 -0.00692499987781
-0.0203217111915 0.0538184419789 -0.00692499987781
-0.00693676465404 0.055288044747 -0.00692499987781
-0.00380735438166 0.0548231295129 -0.00692499987781
-0.0338380001485 0.0582612527321 -0.00676412674689
-0.0042514138724 0.0571395464383 -0.00535282097933
-0.0162317516224 0.0540479070252 -0.00549821778728
-0.028345119172 0.0568823904033 -0.00572593257699
-0.00976006686798 0.0549918292995 -0.00540984352652
-0.0223559345027 0.0573814583864 -0.00563907671929
-0.00773149155632 0.0529641994783 -0.00535068239383
0.00778679286624 0.0550949437598 -0.00528699997813
0.0121579215222 0.0553728364966 -0.00528699997813
0.00223048164326 0.0536635698511 -0.00528699997813
-0.000275872426205 0.0565315291932 -0.00528699997813
-0.0010712900011 0.0509963933899 -0.00528699997813
0.0257316574547 0.0589267827384 -0.00692499987781
0.0539634657304 0.0590591810257 -0.00692499987781
-0.0063874532116 0.0594183248522 -0.00692499987781
-0.0136830765759 0.0621862078237 -0.00310300011188
-0.0258076114713 0.0626510094532 -0.00310300011188
0.0294840506013 0.058449998498 -0.0056097416707
0.0237452386631 0.061214617002 -0.00310300011188
0.0632814962968 0.0607996278143 -0.00310300011188
0.00528797740141 0.0603054317938 -0.00665047247897
-0.0308680707433 0.0599702234256 -0.00671933715715
0.00964164162848 0.0608954789692 -0.00636708691945
-0.0268853325775 0.0616827437047 -0.00587318691179
0.0405959899747 0.0611256083441 -0.00633658229192
0.0241756514366 0.0612537076962 -0.00622756161255
-0.023446171635 0.060413309224 -0.00651789166763
-0.0164414675383 0.0615981203595 -0.00594410303369
-0.0125881662863 0.060792519424 -0.00635781153287
0.0153395705718 0.0613021287835 -0.0061791607445
0.0291963208408 0.0611235006753 -0.00630645707576
0.0216579914049 0.0588782096514 -0.00692499987781
0.0180426966115 0.0584576991687 -0.00692499987781
0.00638689703512 0.0631527083344 -0.00409025556658
0.0185403811995 0.0636215933613 -0.0031679132118
0.0109061687665 0.0631180267178 -0.00422677874093
0.0383722977551 0.0633153558161 -0.00394345809749
0.0646045325995 0.0628250492944 -0.00440692603691
0.0213679254335 0.0625683240012 -0.00492093635068
0.0458475297301 0.0625172253773 -0.00486567027114
0.0507810184779 0.061817872756 -0.00568144739538
0.0553117873865 0.0617304959692 -0.00576472732413
0.0579239709895 0.0628124668206 -0.00445384318209
0.0418632234437 0.0629134439741 -0.00440915524002
0.0264752325223 0.0625373227877 -0.00493381566113
0.0323678677384 0.0632983414236 -0.00399247367791
-0.029534220151 0.0628812690098 -0.00400726077987
-0.0196262203214 0.0627462640724 -0.00446805353773
0.0328593271338 0.0613844259327 -0.0061728896341
0.0369529828511 0.0614850846865 -0.00607212194452
-0.0103023408865 0.0624750025458 -0.00508227860984
0.00116499826413 0.062558677688 -0.00499840732298
-0.00519577578741 0.0625628235272 -0.00499434248785
0.0481971908478 0.0599673087974 -0.00348023972328
0.0592567470065 0.0596758092398 -0.00359314205842
0.0542278799441 0.0591476758099 -0.00410836888208
0.0422349334367 0.0591021131964 -0.00423726383202
-0.00764116747931 0.0606022029035 -0.0033938107491
0.0165629357959 0.0590722939278 -0.00447450167582
0.0386718936767 0.0597023988908 -0.00373468815923
0.0257849006311 0.059292167561 -0.00420249860834
-0.0232046400922 0.0605075072303 -0.00361746015304
0.0127956553242 0.0597415228161 -0.00393911064364
0.0450843124017 0.0595548531295 -0.00380144169221
0.00600975287177 0.0604047955095 -0.00343652718038
0.00227789405765 0.0597996452607 -0.00398624091237
0.0200407051159 0.0597663279459 -0.00385141726552
-0.000541101014039 0.0601652132327 -0.00370077511824
0.034197990869 0.0596348713298 -0.00383330888936
-0.0106582453277 0.0591482697288 -0.00465989327783
-0.0197246312315 0.0592887229623 -0.00463931503138
0.0641127504445 0.060646539429 -0.00655602940566
0.0471158141685 0.05983822473 -0.00682629061179
-0.00189333418809 0.0600114399049 -0.0067683758638
0.0604439936408 0.0610065122881 -0.00643567195181
-0.0255284122634 0.0688219964504 0.00292097705811
0.0602919800297 0.0688219964504 0.00316540976212
0.0449715451141 0.0684354498601 0.00560260586849
0.0226533220706 0.0684870167835 0.00545539708954
0.0061659295528 0.0681251119641 0.00534929457404
0.0193631789431 0.0681434510917 0.00543601921187
0.0445491319666 0.0640924545228 0.00173285524616
0.0516056716206 0.0633141321982 0.000600283728503
0.0470889922944 0.0667195848148 0.00456288251831
0.050502487252 0.065830394717 0.00344406435036
0.0484832216639 0.0634717476083 0.000893423491641
0.0524502753729 0.063596067706 -0.00310300011188
0.0530856225176 0.0684778220366 0.00514665970605
0.0545547498986 0.0651126018379 0.00228512540515
0.063389633111 0.0671325225494 0.00313406761849
0.0578760962646 0.0646145894394 0.00136676995389
0.0581399113699 0.0667761906082 0.00346019987856
-0.0291851667405 0.064881247811 -0.00160034368305
-0.0316604407884 0.0672484208994 0.00111639810808
-0.0230202709319 0.0640559436216 -0.00275005627113
0.0138132453055 0.0644261534246 -0.00258637515237
0.0259422224745 0.0644601952347 -0.00255230224141
0.0218304538384 0.0644990440705 -0.00251341791306
-0.0156327457655 0.0644503535644 -0.0024635975066
-0.0103958595526 0.067152322862 0.000768768589563
-0.00567046474144 0.06591923381 -0.000743861495368
-0.0167099022813 0.0665519132258 7.76319254645e-05
0.00381129154749 0.0648316975487 -0.00210593837213
-0.00266949704953 0.0651712843616 -0.00166208059501
-0.0257170814694 0.0668688776357 0.00050750524804
-0.022858319481 0.0681523877467 0.00204101346346
0.000722614199173 0.0650077374112 -0.0018772723529
0.0165858879039 0.0653967729447 -0.00149146883102
-0.00816750527615 0.064277101801 -0.00271195659424
-0.0192539153686 0.0651028733809 -0.00165724790509
-0.0286375398658 0.0674933535696 0.0012763280593
-0.0115648707385 0.0646952169539 -0.00218959784038
-0.0313376096305 0.0624422013592 -0.00123724207953
-0.0138082159876 0.0632442761451 0.000126597651596
0.0214982779082 0.0624440987671 -0.000408855024266
0.0100121190581 0.0626946609383 -0.00024791587203
0.00642065193101 0.0625182226665 -0.00054379404713
0.0403930520223 0.063764807369 0.00146875940296
0.055939739174 0.0614890181093 -0.0015984543999
-0.00387763015309 0.0637703569846 0.000938031247
0.0178014380775 0.0633637596142 0.000715366606342
0.0084459929318 0.0642257548507 0.00166930548025
0.02900725707 0.0628804374819 0.000258955159833
0.0045482964317 0.0639417632666 0.00126313445498
-0.0104601732062 0.0637739821251 0.000855904566695
0.0327075053312 0.0629644485221 0.000412642732064
0.0137151300659 0.0640345870898 0.00149979929825
0.0369578764144 0.0627760356376 0.000233167252222
0.0259701121501 0.0619163654949 -0.00120411322748
0.0127032031451 0.0618994411865 -0.00144151409383
0.015713107208 0.0617831979757 -0.00160081884455
0.00244852115037 0.0619680799646 -0.00147994782307
-0.0103803068803 0.0620397804308 -0.00155317972952
0.0302780062642 0.0612027206676 -0.0024132679497
0.0425816393478 0.0612612395509 -0.0021106948705
-0.004361345959 0.0619347171665 -0.00164589065359
-0.0210308198607 0.0618812835821 -0.00200915222237
-0.0166748200239 0.0615253944889 -0.00258205758866
0.0602556914262 0.0622480742823 -0.00153070021534
0.0632225436859 0.0658913706521 -0.000764571944303
0.0614127154074 0.0672935080452 0.000883213863233
0.00221564163057 0.0685605973066 0.00255283856414
-0.0201576809976 0.0687739044166 0.00283694547573
0.00846538816386 0.0683768788973 0.00230814128297
0.0448743799153 0.0686545790132 0.00267801419665
0.0283698140043 0.0678644796541 0.00162566911164
0.0169466844366 0.0681303294064 0.0019797583499
0.0361762547265 0.0678797422648 0.00164599760983
0.060370806231 0.0651406603403 -0.00168148355212
0.0340312866857 0.06544851096 -0.00144169678594
0.0437786426257 0.0648341105002 -0.00211818158226
0.0557052941549 0.0658582744157 -0.000860297542486
0.0507426874835 0.0663868124472 -0.000262531710933
0.0396143720857 0.0652886117542 -0.00160367292184
0.0488127247937 0.0643734257624 -0.00263593155238
0.0307360170392 0.0649901302542 -0.001995240888
0.0463583793116 0.0662995719148 -0.000385250319435
0.0105189842598 0.066635736274 7.89150672035e-05
0.0195393139349 0.0669336442955 0.00044696884091
-0.00216639282464 0.0670260868781 0.000588275581852
0.0219297953793 0.0678242782929 0.00157448984309
0.00427696439863 0.066823862424 0.000324539027321
0.0318400775442 0.0671568687611 0.000716625861404
0.0234857804239 0.0661472298467 -0.000555310857045
0.0407046470499 0.067494773142 0.00113560500445
-0.00688045563319 0.0678796686456 0.00167663563951
0.0136846319231 0.0679091226975 0.00169127017038
0.0164530343988 0.0679077910652 0.00539318989481
0.0273336067292 0.0673881182292 0.005136004403
0.0423586639354 0.0661163444089 0.00401740170216
-0.0322086396404 0.0640411341816 0.000880110603317
-0.0278916702636 0.0673027571767 0.00422474222656
-0.0328638226168 0.0675999553399 0.00442819353808
-0.0185087365421 0.0653596108229 0.00245787106261
-0.0292012495358 0.0647033678337 0.0015994330449
-0.024656200523 0.064147064796 0.00111476401791
0.0223672442258 0.0645318523025 0.00221082694928
-0.0217233842336 0.064356040873 0.00139175121753
0.00940034814682 0.0669925378193 0.00449837509073
0.00152054036797 0.0653759801253 0.00281576897235
-8.95228885006e-06 0.067716366308 0.00505620628187
-0.0104281712826 0.0663524272706 0.00357953895634
-0.0030006960855 0.0664630924448 0.00379884902961
-0.0064555739902 0.0652371348025 0.00256091029925
0.012455771299 0.0663872679166 0.00395916190631
-0.0157712026628 0.0664030393873 0.00354772147566
0.00543711533601 0.0657274072099 0.00321486476356
0.0312275829974 0.0667733239862 0.00460918420485
0.0257740378078 0.0648714612 0.00261282063804
0.029014178357 0.0650187836833 0.00280311050669
0.0361310182701 0.0670403021002 0.00494177709646
0.0164438117588 0.0656171790792 0.00325050158861
0.0373243410649 0.0652631393486 0.00315587661411
0.0335138779307 0.065509578099 0.00335741371526
0.057233437483 0.0696725103969 0.00619953402095
0.0632130696271 0.0701619642939 0.00571691433799
-0.0231685609853 0.0688219964504 0.00525333517597
-0.0122955440257 0.0688219964504 0.00544475346839
-0.0148414431502 0.0694626742105 0.00356097150686
-0.00986917296016 0.0706561771985 0.0042060552251
-0.00512087999397 0.0705089190175 0.0040498824773
0.000187493814809 0.0711039504715 0.00463795030962
0.0213514314714 0.0703938786495 0.00392787959784
0.0519790447998 0.0714990197545 0.00503301897496
-0.0280363799292 0.0715261093936 0.00506010857171
0.0101735069977 0.0706851910382 0.00421919153109
0.0377432260342 0.0708182606112 0.00435226089603
0.0153139915616 0.0710682467846 0.00460224667856
0.0043150612393 0.0708534370577 0.00438743728752
0.0282009347634 0.0706247489124 0.00415874949977
-0.00293260243726 0.0689318283129 0.00593985571208
0.0393618392734 0.0691427008221 0.00642133327677
-0.0055815493703 0.0715520009398 0.00679884023311
-0.0222316408763 0.0715520009398 0.00669268958489
-0.0314809745634 0.0705503406215 0.00674239260489
-0.00805575141908 0.0695979500072 0.00637052174567
0.00207748392721 0.0699491589725 0.00669196374563
0.0087249359237 0.069957623579 0.00675492336746
-0.0259017743701 0.0699843203721 0.00647414363895
-0.0196111496146 0.0695538094052 0.00624146621667
0.0326991078017 0.0692690097164 0.00649368103735
0.0487160265116 0.0695196215148 0.00679765266578
0.0125635334088 0.0708419724427 0.00711117123518
0.0261427997751 0.0709390131859 0.00718821908112
-0.00248976768246 0.0714467267128 0.0069397026414
0.0179987393361 0.0711566340429 0.00710868809683
0.0361769803108 0.0708276090269 0.00726727415775
0.0481317373201 0.0695285614238 0.00356532500922
0.0555484505544 0.0690770709684 0.00346524765057
0.0423412441641 0.0706799646532 0.00421411358862
0.0345489473082 0.0703750968341 0.00390930672707
-0.0186380902558 0.0719634981385 0.00526059503688
-0.0331078918715 0.0737233493219 0.00561397413016
0.0339409722818 0.0733070332972 0.00781499966979
0.0480165040716 0.0733149099493 0.00781499966979
0.00395770633708 0.0732078645957 0.00770035170249
0.00642787910928 0.0721213471278 0.00757005883572
0.0294117691205 0.0716991303705 0.00770848961996
-0.0132684066327 0.0718971767223 0.00515418683482
0.0311424280577 0.0715995980781 0.0050945402024
0.0440046815415 0.0715520009398 0.0076698257639
0.0628773778353 0.0729487032833 0.005943910235
0.060538805708 0.0719098254698 0.00751518497409
0.0554334656971 0.0716738285286 0.00756744204925
0.0117085635693 0.0734205759051 0.00545953680813
-0.0248104939632 0.0740670073367 0.00558910745687
-0.00180937131758 0.0740933325989 0.00559665830166
0.0465408840772 0.0723830741895 0.00537067644042
0.00859967308171 0.0738102142232 0.00558183504389
0.0144771280656 0.0737166074052 0.00559980988261
0.0424403910344 0.0731740293871 0.00567021429417
0.0581345676375 0.072989815842 0.00586332320488
0.0501969222446 0.0735171004092 0.00621527741496
0.0014935394854 0.0741323250626 0.0056611219116
-0.0210501363629 0.0742809996009 0.00646159142419
0.0209316585989 0.0738976615296 0.00748937672186
-0.0122376802556 0.0741653225069 0.00695356557
0.0403827201883 0.0735025118242 0.00781499966979
0.0372606775929 0.0739259631068 0.00684264016929
0.0538705921303 0.0737954915261 0.00681211869966
0.024845530495 0.0740303033094 0.00628992217789
0.0312332705722 0.0739700094148 0.0069039634826
0.0178382313628 0.0740611905811 0.00671454919523
-0.00522430470147 0.0742466327219 0.00602009369078
0.0226121563809 0.0715810516105 0.00753755850734
-0.0295223467565 0.0734452790525 0.00690475103943
-0.00959621354209 0.0738068784558 0.00729990827808
-0.0166599646575 0.0738573149055 0.00708756140384
0.0704557160059 0.061418785643 -0.0054759248881
0.0655080005527 0.0586190795724 -0.00457744203393
0.0731808725626 0.0619095976141 -0.00422578483131
0.0754251521224 0.0634014637167 -0.00115418749837
0.0770960753343 0.0616016238744 -0.00266781077801
0.0709550873214 0.0641303643078 -0.00173503611872
0.0678611836067 0.063859989533 -0.0029155934004
0.0720467291376 0.061133939255 -0.000799285863125
0.0675810415818 0.0601981218373 -0.00267452144509
0.0709504805614 0.0584510006011 -0.00282381476
0.0734296111574 0.0596640967954 -0.00593285875876
0.0668790978773 0.0609936446633 -0.00630236124904
0.0834131628527 0.063045167299 0.00706406236921
0.0804967520427 0.0605761786874 0.00556941491809
0.0853531222302 0.0605008611674 0.00726900016889
0.0855846198586 0.0633670354485 0.00553126978767
0.0737937682269 0.0616947951057 0.00154151085703
0.0772567257187 0.0595089481716 0.00148327415484
0.0777512895867 0.0608324714258 0.00392179236758
0.0878526812949 0.0601966942201 0.0060543679853
0.0826894914299 0.0603833720515 0.000845453180151
0.0814604947648 0.0636034252439 0.00236677932141
0.0790103312429 0.0625714363113 -2.15457088929e-05
0.0853457295219 0.0609098659456 0.00342598538565
0.0869429138121 0.0585459230448 0.00384021791421
0.075593100246 0.0636288730763 0.00315867401197
0.078465382414 0.063727827003 0.0048413688703
-0.0756500218044 -0.0568991012333 -0.00695758000189
-0.0706440821363 -0.0611105649991 -0.00518772648966
-0.0711182762503 -0.0582143290164 -0.00763408168793
-0.0706204942879 -0.0578947623983 -0.00424093937281
-0.0735488113334 -0.0568171317192 -0.00356299010269
-0.0747680775941 -0.0590375965377 -0.00146599998698
-0.077244292605 -0.0588407441019 -0.00452348053057
-0.0744772903164 -0.0608842459233 -0.00372027405544
-0.0737042631581 -0.0597108126634 -0.00644223827902
-0.0704229995608 -0.0709900982545 0.00476008020195
-0.0763759870219 -0.0603068839312 0.00217467411117
-0.0739492211786 -0.0634375532994 0.0035320996774
-0.0794079078603 -0.0620934341975 0.00462808641628
-0.0802418431541 -0.0591143200641 0.00298216819076
-0.0704229995608 -0.0666499465371 0.0023731660658
-0.0724105971043 -0.0642828517221 -9.98406672085e-05
-0.0735333760146 -0.06689043358 0.00588981624801
-0.0768512271907 -0.0650092929658 0.00559556413652
-0.0801009786866 -0.0663607782004 0.00571376679259
-0.0804883985296 -0.0636028599281 0.00147613115841
-0.0782513603953 -0.0676201376403 0.00310881103838
-0.0808078950061 -0.0593319275337 -0.000914149294161
-0.0781324980529 -0.0613569475024 -0.00052137182557
-0.0759993177942 -0.0642672575625 0.000532573231611
-0.0723172255049 -0.068893245947 0.00296514221716
-0.0745593608033 -0.0673718034936 0.00213293574247
-0.0824289992452 -0.0654842632935 0.00445020743186
-0.0761293813885 -0.0693470470627 0.00541450483247
-0.0732675910103 -0.0609447012926 0.000819417138185
-0.0806132524464 -0.0565233169997 0.00129756112569
-0.0776494287478 -0.05772756601 0.000374183517316
-0.0750087392484 -0.0508863465525 -0.00855008627118
-0.0781144513336 -0.0376473318448 -0.00818686488301
-0.0759084775494 -0.0527800729227 -0.00583299994469
-0.0798325428285 -0.0395145391618 -0.00586796783125
-0.0800746203768 -0.0361549144381 -0.00596039119426
-0.076545038281 -0.0421489473152 -0.00612169274738
-0.0767849285611 -0.0470533497439 -0.00592429825425
-0.073113594968 -0.0422794839427 -0.00647845503672
-0.0726359981381 -0.0376977439789 -0.00668955621503
-0.0764212944612 -0.0390807020302 -0.00624241172703
-0.0712214607728 -0.0528486127347 -0.00710093233682
-0.0724395263002 -0.0500397500131 -0.0063544420032
-0.0725631774097 -0.0459045740476 -0.00642957707505
-0.0794156009606 -0.0459598246098 -0.00774308448581
-0.0784778070115 -0.0488075039449 -0.00784015053922
-0.0810753924272 -0.0430336849238 -0.00747001446405
-0.0782375868076 -0.0545719667185 -0.00685456435697
-0.0738985541394 -0.0478134587542 -0.00856199953705
-0.0740749249718 -0.0543645237031 -0.00807433031899
-0.0741348014422 -0.0396350546008 -0.00856199953705
-0.0743221566192 -0.0442822988018 -0.00856199953705
-0.080497984108 -0.0520594554115 -0.00583299994469
-0.0771253014137 -0.0499090307056 -0.00513458177751
-0.0791772239878 -0.0499040068775 -0.00279674056941
-0.0816781691402 -0.0474216769804 -0.000986892902213
-0.0778029631055 -0.054124214686 -0.00318540460901
