-0.037392422780036974 0.00822738294572492 -0.014999999664723873
0.0031188236524080995 0.013176757910244436 -0.014999999664723873
-0.005987722724523768 0.01247912916975424 -0.014999999664723873
0.002775652705043513 0.016514872656612875 -0.014999999664723873
-0.011365575801793905 0.01679351539557221 -0.014999999664723873
-0.02900302931989299 0.02444192413157128 -0.014999999664723873
0.04997823422496791 0.020032822419517333 -0.014999999664723871
-0.06380494107736588 0.020463304835656903 -0.014999999664723873
-0.0561660606417804 -0.006141564057595888 -0.014999999664723873
-0.013847692447805551 -0.00043976779510073675 -0.014999999664723873
0.008102908978852186 0.015334140261691692 -0.014999999664723873
0.027925416883759265 0.020257566486299186 -0.014999999664723873
-0.0491912805544196 -0.0026353739452273815 -0.014999999664723875
-0.06260739272617667 0.0026431742996247745 -0.014999999664723873
0.00960057684776527 0.006507851674802077 -0.014999999664723871
-0.05464149470071461 -0.007804410579870595 -0.014999999664723873
-0.03533351147752943 0.003425073930458218 -0.014999999664723873
-0.06457610581106368 -0.017125004305817846 -0.014999999664723873
-0.05234378680377111 -0.004880728998371716 -0.014999999664723875
0.0011746171577519584 0.0017893038126667923 -0.014999999664723873
-0.03357843205467906 -0.009025082461117485 -0.014999999664723873
-0.07180269959808518 0.0032065636130027084 -0.014999999664723873
-0.06916374999760388 0.01922718160306121 -0.014999999664723873
-0.0019049038161023692 0.007745197028804623 -0.014999999664723873
-0.057717797792404386 0.005236407530793206 -0.014999999664723873
0.04069601531921384 0.014959939158235408 -0.014999999664723873
-0.0715914196318426 -0.013604759202321157 -0.014999999664723873
-0.01062352941244473 0.02140951697278768 -0.014999999664723873
-0.06540248825227538 -0.012541091294849434 -0.014999999664723873
-0.023939151421794855 0.016947622135550594 -0.014999999664723873
-0.06652830464222087 -0.017747189943580058 -0.014999999664723873
-0.03008861552292802 0.02168486015001383 -0.014999999664723873
-0.029260224848713278 0.013183360602287716 -0.014999999664723873
-0.06231153123708501 0.018529954834691543 -0.014999999664723873
-0.06443103371733942 0.013300971304267805 -0.014999999664723873
-0.06756363711373495 0.008858713914722998 -0.014999999664723873
-0.02271500229201521 0.015099798161478465 -0.014999999664723873
-0.07127572450268084 0.022085337109760114 -0.014999999664723873
-0.057104758458084603 0.002211141598609391 -0.014999999664723871
-0.07352206900399874 -0.0008425581547315715 -0.014999999664723873
-0.0423635524445681 0.01713688369590988 -0.014999999664723873
-0.035058970739923215 0.01726379164331229 -0.014999999664723873
-0.019387383507731174 0.005328626604293798 -0.014999999664723873
0.042800639596567165 0.017964594372862415 -0.014999999664723873
-0.021764473487790873 0.01273562296523291 -0.014999999664723873
-0.056856584328780865 -0.003962127630920237 -0.014999999664723873
-0.05049223061307785 0.004889079630884351 -0.014999999664723873
-0.014272097081877398 0.006868013138287257 -0.014999999664723873
0.017811544923697693 0.009757852570192658 -0.014999999664723875
-0.03648081298866314 0.0124788302711431 -0.014999999664723873
-0.05898821424207361 0.009474120569255071 -0.014999999664723873
0.014468949429696969 0.011925882252847613 -0.014999999664723873
-0.04547989293221595 0.010111737452183148 -0.014999999664723875
-0.015806410176891408 -0.0038562392398563405 -0.014999999664723873
0.03388187347528801 0.02252841552956579 -0.014999999664723873
0.044823258653252734 0.017987312847157075 -0.014999999664723873
0.02450744244442323 0.014150226518700397 -0.014999999664723873
-0.05915523192180078 -0.00583616059140309 -0.014999999664723873
0.04246308655898165 0.020085493784786978 -0.014999999664723873
0.011693148240743443 0.009222152961676666 -0.014999999664723873
-0.035245395328040156 0.02448562117090819 -0.014999999664723873
-0.046651156806889436 0.0056633452308872834 -0.014999999664723873
-0.050081554733976644 -0.012045334515587676 -0.014999999664723875
-0.012978547732237698 0.021660933357723962 -0.014999999664723873
-0.058106019749875 0.022745235013494947 -0.014999999664723873
-0.011474062322767244 0.0036646032326529093 -0.014999999664723873
-0.06063531482905371 -0.002160339307120245 -0.014999999664723873
-0.009373912793317344 -0.0004913865205083826 -0.014999999664723873
-0.024491721787848746 0.022294305492146813 -0.014999999664723873
-0.029103641534256045 0.004410582783617042 -0.014999999664723873
-0.06713141969113387 0.01091233985352107 -0.014999999664723871
-0.06939079811514785 -0.008236479496589517 -0.014999999664723873
-0.0721528920614807 -0.021028111348384282 -0.014999999664723873
-0.019647649781012612 0.001130493665265281 -0.014999999664723873
0.03150382122186207 0.01616638330876665 -0.014999999664723873
0.01664390095668905 0.0114849479796772 -0.014999999664723873
-0.031539916734677154 0.011468981456607387 -0.014999999664723873
-0.01544512787436021 0.004090158377296292 -0.014999999664723873
-0.039278129624342496 -0.005628331625564609 -0.014999999664723873
-0.06357457011293312 -0.01476809708567514 -0.014999999664723873
-0.019269143932843347 0.011570426603190248 -0.014999999664723873
-0.034665875754367706 0.020620224987006976 -0.014999999664723873
0.04752741220489238 0.017546045042456382 -0.014999999664723875
-0.07375505567842712 -0.014132229655382775 -0.014999999664723873
-0.016342265034848386 0.005996750640771326 -0.014999999664723873
-0.0477979556004412 0.0075790536630790765 -0.014999999664723873
-0.044872483908928916 0.02255298725949406 -0.014999999664723871
0.018688615755843446 0.022842370160791426 -0.014999999664723873
-0.02456450924655337 0.008784735574512408 -0.014999999664723873
-0.004481078290228795 0.014731362095929271 -0.014999999664723873
-0.07125578812856788 -0.00043893741203334703 -0.014999999664723873
-0.0632059730455367 -0.012574446167902034 -0.014999999664723873
-0.0047458707025009985 0.002851339654767287 -0.014999999664723873
-0.052577663279215064 0.017035119924742895 -0.014999999664723873
-0.032038842924238725 -0.010728620881602851 -0.014999999664723873
0.00640220551581262 0.002641011763336757 -0.014999999664723873
-0.059040497494248 0.018079293729406042 -0.014999999664723873
-0.014922376579375427 0.012923351579528635 -0.014999999664723873
0.031902227364271465 0.012247505061763348 -0.014999999664723873
-0.030444937630851182 0.008065453933273063 -0.014999999664723873
-0.048930919816175866 -0.0062604182972650696 -0.014999999664723873
-0.04427516165755605 -0.013074517631961534 -0.014999999664723875
0.011046269461872617 0.02109814607429441 -0.014999999664723875
-0.07139888683864283 0.010211856548045805 -0.014999999664723873
-0.05423964477275735 -0.01769662866887527 -0.014999999664723873
-0.06806976533313214 -0.0019497166958211878 -0.014999999664723871
-0.04672243807582816 0.0025390571921993337 -0.014999999664723873
0.010446696183397936 0.012463256593973716 -0.014999999664723873
-0.0025952832588228853 0.005158869381570425 -0.014999999664723873
-0.035982830704585175 -0.007860306797982247 -0.014999999664723873
-0.0164665023927918 0.02322203510907675 -0.014999999664723873
-0.05198735237763476 -0.017176027464297573 -0.014999999664723875
-0.0504489716907426 0.013934311315849093 -0.014999999664723873
-0.0694307279707995 0.007849979123545705 -0.014999999664723873
0.011830846033645898 0.004858132502633721 -0.014999999664723871
-0.07313190308477967 -0.005076675031661789 -0.014999999664723873
-0.06500091144525122 0.024047844889221365 -0.014999999664723871
-0.04781189916112481 0.010793079059691658 -0.014999999664723873
-0.051752165374899295 -0.008162108638726623 -0.014999999664723873
-0.0027186634260608403 0.0005058089148871457 -0.014999999664723871
-0.02835347789020413 -0.003589279846668703 -0.014999999664723873
-0.02701225849622286 0.022354972903037125 -0.014999999664723873
-0.036568803806433535 -0.004182940779510268 -0.014999999664723873
0.046576943970923435 0.022831325224581436 -0.014999999664723875
0.00030964126658561755 0.014542691256594607 -0.014999999664723873
-0.017851934427930576 0.008009843925036331 -0.014999999664723873
-0.007944694631698172 0.006609182084933141 -0.014999999664723873
0.0465903523982097 0.019795985647197405 -0.014999999664723873
0.021492354080035872 0.02265112194648247 -0.014999999664723873
-0.06576395905778898 0.0011578762217994074 -0.014999999664723873
-0.04142378154884077 0.005409111630358767 -0.014999999664723873
-0.05193831727503985 -0.013343881933714496 -0.014999999664723875
-0.05606699540740578 0.016941475899112927 -0.014999999664723873
0.03779898124504048 0.012963535670984322 -0.014999999664723871
-0.0016046459337564906 0.010748665215324017 -0.014999999664723875
0.03696484210505392 0.02232837278433351 -0.014999999664723873
-0.02323426548993039 0.006920289839607517 -0.014999999664723875
-0.01350700837312962 0.004492585970393644 -0.014999999664723873
0.009526225136522513 0.010661323133275493 -0.014999999664723877
-0.07177588155005687 0.006985119560451213 -0.014999999664723873
-0.039360783931207954 0.01739789427107165 -0.014999999664723873
-0.044337311619725484 0.012861743630080196 -0.014999999664723873
0.056121472737088555 0.022373548253211983 -0.014999999664723875
0.026561507864109084 0.01879659509645735 -0.014999999664723873
0.016731776463970813 0.006297365751937474 -0.014999999664723873
-0.06286051217156802 6.25530361801508e-05 -0.014999999664723873
-0.0038335920266703225 0.02063285100267033 -0.014999999664723873
0.023807115332101333 0.00958011293431387 -0.014999999664723873
-0.011747180304151578 -0.00010768709409415041 -0.014999999664723873
-0.0728448190913346 0.019500422046334998 -0.014999999664723873
-0.07335169630449984 -0.009915913772874577 -0.014999999664723873
-0.06031973696093743 0.01988332482336564 -0.014999999664723873
0.014236431220995733 0.022475004987721627 -0.014999999664723873
-0.03987714686344837 0.0067852809243789235 -0.014999999664723873
-0.026388821216322314 0.02444268998645972 -0.014999999664723873
-0.05655923691253241 -0.018839287737609012 -0.014999999664723873
-0.05787805424672378 0.02038141233254328 -0.014999999664723873
0.06773898347380242 0.022853736392061796 -0.014999999664723873
0.03387233435792006 0.01709498530389031 -0.014999999664723873
-0.037144548788263516 -0.011123743309035185 -0.014999999664723873
-0.07112748749016078 0.014396493826239988 -0.014999999664723873
-0.026296144894797258 -0.003112488441548364 -0.014999999664723873
0.008005086005591846 0.012511593009764841 -0.014999999664723873
0.02038911924759526 0.01797756814392963 -0.014999999664723873
-0.06904125730137614 0.0015139194120515967 -0.014999999664723873
-0.01601565351502569 0.009036567222270166 -0.014999999664723873
-0.03859586451559735 -0.003207001005292691 -0.014999999664723875
0.05757599235981492 0.02043905701375464 -0.014999999664723873
0.026149320761055007 0.015804117239588123 -0.014999999664723873
-0.06841078975237867 0.022596707653274442 -0.014999999664723873
-0.058394122517970944 -0.0015502872723599966 -0.014999999664723873
-0.06945876230349532 0.013000693057767503 -0.014999999664723875
-0.06124423535896231 -0.014747141000226185 -0.014999999664723875
-0.06478876363685683 -0.000827487853210955 -0.014999999664723873
-0.06575202000835878 -0.007764862030296343 -0.014999999664723873
-0.0265616344145279 0.01595684338490016 -0.014999999664723873
0.028015133275001075 0.023941896818179435 -0.014999999664723873
0.017582122407060568 0.01374183078737085 -0.014999999664723873
-0.060825378959282736 0.022593112123287667 -0.014999999664723873
-0.033348277730961745 0.01847215732986505 -0.014999999664723873
0.005616323829049856 0.011897896923856007 -0.014999999664723873
-0.06537057666441083 0.02168555940218554 -0.014999999664723873
-0.04073752785857797 0.009121238364704675 -0.014999999664723873
-0.0036332850385533064 0.009150807234811525 -0.014999999664723873
-0.0188218708469661 0.018026010486581198 -0.014999999664723873
-0.06249770422781557 -0.01671063072609657 -0.014999999664723873
0.010869751284069626 0.01625848629883231 -0.014999999664723873
-0.0636098964011768 -0.02002377603444008 -0.014999999664723871
-0.020018572595486478 -0.0054096712109684185 -0.014999999664723875
-0.04363301597938195 0.007996579086435505 -0.014999999664723873
-0.05540162005780091 -0.015185830143004503 -0.014999999664723873
-0.05615033645292976 -0.012661530781754303 -0.014999999664723873
-0.06112129758705614 -0.006293938100192752 -0.014999999664723873
-0.06653183560151125 0.006699989133270679 -0.014999999664723873
-0.043794789976549064 0.003923444454114123 -0.014999999664723873
-0.07134260347418736 -0.015755393860724585 -0.014999999664723873
0.025880714073181994 0.022504054850613894 -0.014999999664723875
-0.022666879899630822 0.019928549209248227 -0.014999999664723873
-0.07367299947589039 -0.013167038534662083 -0.00932849543574011
-0.07360319673606294 -0.003401062287164129 -0.005855709944627767
-0.0737429558685899 -0.005009969975231409 -0.012808925375566858
-0.0735747329911031 0.01787075223339107 -0.004439598187931739
-0.07354779186060066 -0.0034084363635116586 -0.0030992386640171766
-0.0735701595417222 0.006232973773395084 -0.004212062582687759
-0.07346457893384091 0.00792470905931396 0.001040722681893285
-0.07333708766789256 0.01494591799543538 0.007383594318786595
-0.0736816507082241 -0.006913482494383192 -0.00975890653712561
-0.07355471630354182 0.015430871865530174 -0.0034437395394774223
-0.0733118721711299 0.021642908361723643 0.00863810111214493
-0.07350596203647777 0.014206080426617754 -0.001018145476717719
-0.07321940374757342 0.022256199942896203 0.013238536575092155
-0.07350775432619704 -0.0020029213895325654 -0.0011073144369669104
-0.07366459401248371 -0.00466431815008229 -0.0089103116876962
-0.07327447574780079 0.02050922452033184 0.010498626310410243
-0.0737173569757179 0.019903057726124426 -0.01153534408099065
-0.07374947531506384 -0.00196581690847223 -0.013133277101312997
-0.07368793896996792 0.022945294239547033 -0.010071756494048966
-0.07374804607207268 0.017486655316815442 -0.013062170231650532
-0.07361178436255292 -0.010279095903155986 -0.006282956564906907
-0.07348513672778786 0.010056419027500192 1.7943221878276468e-05
-0.0736264261625033 0.012548225766330343 -0.007011406917387955
-0.07336838567535628 0.0104856317499451 0.005826473975238568
-0.07330512487893016 0.018617300657078527 0.008973788486501742
-0.07361060640381821 0.023396866655830042 -0.0062243514440604
-0.07370485118536357 -0.0007726238376079067 -0.010913163241030607
-0.07354214140607691 0.0030673078140886646 -0.0028181205225692152
-0.07360011049043992 0.007962933944944874 -0.0057021648395486095
-0.07371487850742636 -0.01784468660095997 -0.011412036761760735
-0.07360771367795742 0.010309620445116402 -0.006080434222129611
-0.07377250687040772 0.004974151064085211 -0.014279129705862365
-0.0735621086602114 0.024028674537088995 -0.003811519787799312
-0.0734724727248705 0.020433622333600437 0.0006479953616595089
-0.07338615418124755 0.014126024517468135 0.004942465559372479
-0.07353971419781884 0.019891131067342912 -0.002697363462840662
-0.07361577509742744 0.0008502772758858784 -0.006481501295462588
-0.0736123964016024 0.005947111238804382 -0.006313406377282381
-0.07369096397310596 0.018138251270243985 -0.010222254698479063
-0.07364740702117206 -0.008720234920397786 -0.008055234448456608
-0.07366475554193955 0.009200627966860725 -0.008918348007646059
-0.07358714259946914 0.013815497697944847 -0.005056993837307448
-0.0735172041088678 0.024356255421527764 -0.0015774545523017658
-0.0735951624314359 -0.005797845124501363 -0.005455991873260811
-0.07346074401519398 0.004602387114095493 0.001231515333723047
-0.07353614361373542 0.00504465631827077 -0.0025197218311461037
-0.0737414787274536 -0.012294889519778713 -0.012735435505124734
-0.07370177405405647 0.0077642046176194125 -0.010760071586118601
-0.07339869864092434 0.01719811737247918 0.004318360865672985
-0.07342132017601616 0.01889088436776667 0.003192907351273277
-0.07349491226407065 0.0059181052823137435 -0.00046840359852755266
-0.07347340751275853 0.017561491861767038 0.0006014883359621486
-0.0736980449386398 0.010380990057716304 -0.010574542795332435
-0.07367275381781654 -0.0022436590175442883 -0.009316273597504653
-0.07336405025187898 0.019190412707573618 0.00604216745356078
-0.07361688669681997 0.017382169414638944 -0.006536804944744354
-0.07336995748476488 0.023999093974773112 0.0057482742237320765
-0.07364719146327138 -0.0005346008643188028 -0.008044510136606032
-0.07374274695204192 0.02229384141426029 -0.012798531480450043
-0.07368611565076807 -0.01004635216423507 -0.009981043773050742
-0.07341073272535491 0.022945166799809198 0.0037196480656799856
-0.0736494207320957 0.014436685628360727 -0.008155419428247018
-0.07377979860704574 0.010108085835835794 -0.014641903964640072
-0.07377180307163357 -0.006862741618156367 -0.014244114716801613
-0.07362577617400666 0.0029147629975321675 -0.006979069066093319
-0.07348460758295339 0.02257346252831948 4.426892927090163e-05
-0.0734514616911521 0.015027011136592425 0.0016933241443242543
-0.07365514706049223 0.02061645808974978 -0.008440312402676996
-0.07359111633074918 -0.007913574302745058 -0.005254692614876968
-0.07340182872182453 0.008013993245030788 0.004162634893267519
-0.07353933152584452 0.011342084481474928 -0.0026783249883692677
-0.07326931142430819 0.022526970825465988 0.010755558742300542
-0.07330944460141854 0.016694431628522993 0.008758876154688261
-0.07343773764222764 0.009582086471237993 0.0023761150792076203
-0.07376118769004436 0.007495522719509263 -0.013715984399040516
-0.07359156739097977 0.01993658512676322 -0.005277133502273514
-0.07361053770340335 -0.0012899520888041902 -0.006220933500802791
-0.07358386597991698 0.0022547194516214283 -0.004893977358745286
-0.07370973120554672 0.0029564957654693693 -0.011155951179301375
-0.073744066652531 0.012679567573933083 -0.012864188454981794
-0.07367202118508535 0.012215743767615169 -0.009279824078108827
-0.07372728945493406 -0.007868990662974688 -0.012029499035337473
-0.07342813298182618 0.012594904471256664 0.0028539605817149358
-0.07352804267380722 0.01726019663681678 -0.0021166885588621903
-0.07369898956903173 -0.015030917582889599 -0.010621539499584364
-0.07377814646333693 -0.022871859714211722 -0.014559707467548718
-0.07366560876772096 0.006808714900220318 -0.008960797202643811
-0.0736414478114818 -0.011738852968675443 -0.007758755298756598
-0.07370715383380438 -0.003990704889098219 -0.01102772327285927
-0.07349006720500646 0.002163683255549854 -0.0002273550256020095
-0.07356501441296942 2.5363538126374225e-05 -0.003956085116377324
-0.07373453736213675 -0.020064740055126783 -0.012390092717428273
-0.07376697938132493 -0.018077476644942764 -0.014004129269827102
-0.07376396011678184 -0.016126474208945175 -0.013853916568649692
-0.07346965427760334 0.013228653044161673 0.0007882171180115193
-0.07342562722922572 0.0063970177172314995 0.0029786253340839284
-0.07336529282352128 0.022069705989480055 0.005980347748751145
-0.07372398928209811 0.014635908568600774 -0.01186531074743958
-0.0733565869522628 0.016789852831105654 0.006413477214280164
-0.057163859229194924 0.02442571759600646 0.010713889348491205
-0.0239299064738472 0.024499389131673405 -0.00028186743012096997
-0.05562932147810154 0.024563316271615957 -0.00982323610116949
0.009290890079749266 0.02458405453488569 -0.01291850073574589
-0.03774088948815581 0.024593114501380672 -0.014270735178795886
0.023813775828447483 0.0245767265501838 -0.011824771159867149
0.05638444788094102 0.024583067650526688 -0.01277120449328312
0.015796592207727545 0.024595320143304483 -0.014599935621210355
-0.023137416501277805 0.024564310149574616 -0.009971576164968948
-0.06929292931798277 0.024482437474740118 0.0022482318130325647
0.027771974799829374 0.024537027629707334 -0.005899556353620407
-0.009572822870150422 0.0245202279035966 -0.0033921333633345823
-0.009769157200941986 0.024570089013839436 -0.010834093626256064
-0.06750564972128342 0.02443482784402812 0.009354150196427428
0.021729726937746635 0.024572313151873703 -0.011166054683474688
-0.0501793556963342 0.0245232466930612 -0.0038426991675912857
-0.042003392813432426 0.024595310433397997 -0.014598486380752559
-0.007473887726344268 0.024575457355651933 -0.011635339050832619
-0.029194173909910155 0.02454571426551587 -0.007196069772410076
0.036957479139055845 0.024571301500343784 -0.011015061846594159
-0.06677923058711084 0.02446427539358767 0.0049589914726185964
-0.048706791805103386 0.02454588212351822 -0.007221123217413888
0.060903847746519 0.024596867865986468 -0.014830939115541893
-0.06544340269848009 0.024435502835821236 0.00925340510515887
-0.06395711358945481 0.02454612508834779 -0.007257386641917167
-0.021016744110654476 0.024487484755710245 0.00149490593977043
-0.02220752411472405 0.0245802704228813 -0.012353707632865238
0.00782079625027917 0.02451920264774685 -0.00323911002999896
-0.05918653075788295 0.024481839661185188 0.002337457758840475
-0.020294871247516333 0.024504688627409253 -0.001072837316022817
-0.07366064526827977 0.024556720708149488 -0.008838823179154865
-0.015481860188791306 0.024528638041040916 -0.004647378350088817
-0.03549271549686987 0.0244543852216027 0.006435137241277436
-0.052117206030807106 0.024574026715938342 -0.011421810634653234
0.028256137880469545 0.024551836865018307 -0.008109891024705267
-0.07012175965174906 0.024445319508941153 0.007788229321533294
-0.03458958321993929 0.02456829088502762 -0.010565716065067175
0.020219048073899522 0.024551809777113805 -0.008105848051976276
0.019071407648829152 0.02459193604342231 -0.014094845848314483
-0.03278900345888213 0.02448274374474668 0.0022025198501935527
-0.06727687693843479 0.02445113461316206 0.00692030290902489
-0.07114066250870979 0.024505685056699242 -0.0012215581757228028
-0.0659644202386527 0.024494656158435494 0.00042454681918942597
-0.00309827955801055 0.02459077444266979 -0.013921472519891964
0.004081759680481252 0.024570084364255673 -0.010833399658203322
0.022494966810225486 0.02455632508385243 -0.00877977474875703
-0.01785942492874557 0.024483821987631424 0.002041588000442081
-0.018330566871130563 0.024588833043191267 -0.013631711267018499
0.050804742211737364 0.02458217612617451 -0.012638141094372793
-0.0346931116861437 0.02450118341821167 -0.0005496715173755112
0.025832501234917017 0.024572253944761417 -0.011157217796875372
-0.05444720575685039 0.02443689100058236 0.009046216237113944
0.0537941222010141 0.024590154144542145 -0.013828890666126794
0.024610676607532727 0.02454983155959465 -0.00781059156656577
-0.07169434109823444 0.02449280627625753 0.0007006487670293072
0.0330969433515867 0.02457871443976643 -0.012121471237521698
0.013268108373194192 0.024577432903941505 -0.011930197143580004
-0.059436155136308316 0.024464690308790973 0.0048970638011248705
-0.04361964514045114 0.024518902530123506 -0.0031943163337448846
0.045063159851255835 0.024580211734033346 -0.01234494809918791
-0.05599175071273721 0.02447143766863826 0.003889994692181564
-0.019844518807935557 0.024472810700217878 0.003685064509009909
0.006676411462875464 0.024588252302289934 -0.013545033479666829
0.002655295596064898 0.024511788988164505 -0.002132593152497918
-0.027836345119397678 0.024462124162881512 0.005280070833940818
-0.07083639906838421 0.024595670988775638 -0.014652300641604782
-0.04456823846955293 0.02445287633149036 0.006660344826957973
0.062462977215937916 0.024583059579199523 -0.012769999817018715
-0.011294887180565271 0.024533811297515404 -0.005419506546303188
0.0007675837329949656 0.024543568076400554 -0.006875742887687374
0.022169409906827135 0.02454092126422749 -0.00648069610835526
-0.026397175286227197 0.024523121103150688 -0.0038239543959865197
-0.0074139252855357635 0.02455855536634844 -0.00911265289024952
-0.04234344664364864 0.024563003057358958 -0.009776487682551894
-0.05189856659718674 0.02459077957980308 -0.013922239256565702
0.006368405573462615 0.02456059162486674 -0.009416572215439591
-0.0005978769835680367 0.02452589554879608 -0.004238050956293168
-0.05777822647455951 0.02452260202931498 -0.003746480652620742
-0.017629836027614615 0.024500235314264308 -0.0004081633987830587
0.015321507984864483 0.02457931417703673 -0.012210984305161088
-0.03933459529734989 0.024446692580602607 0.007583293155994356
0.02162709795006881 0.02459623028706237 -0.014735778037208425
-0.06241704958656514 0.024478128280060407 0.0028913955014343608
-0.008492559727965596 0.02450444949223744 -0.0010371454824987514
-0.03282203432689838 0.02454122720562768 -0.006526359025444265
-0.06294065009609301 0.024582855810986282 -0.012739586636517707
-0.030132368219345545 0.024476772208689834 0.0030937943089285225
-0.03496842961723463 0.024539019666695975 -0.006196875447389727
-0.04043865258457703 0.02453359856597461 -0.005387755555088665
-0.013990692663539125 0.024597461474485452 -0.014919537440762923
0.012748026071140945 0.02455071492228327 -0.007942436806161829
0.04217145555956951 0.024596290749429605 -0.014744802275381198
-0.07269817152374437 0.02458413488122189 -0.012930492731880273
0.013500385727323757 0.024592183778394755 -0.014131821234776853
-0.012946113564880336 0.02456193751482396 -0.009617451408283559
-0.032249145774759375 0.02457600802200081 -0.01171752809689555
0.0068494573776620715 0.024573733869702373 -0.011378102220608904
-0.061223082236818674 0.024522015116133875 -0.0036588816290479683
-0.046027383381744 0.02451761225954488 -0.003001738544606067
0.03965731387247043 0.02459736572817814 -0.014905246940393656
-0.0337036925107265 0.024523228265278797 -0.0038399487510097138
-0.01574114234100614 0.024480324050007097 0.0025636684891356502
-0.06403507337207338 0.02453075931665235 -0.004963986799641717
-0.04751738254796395 0.02447618546103239 0.003181368627466567
0.01482408505180071 0.02456635751479907 -0.010277153208277563
-0.0693218072784289 0.024565785436351215 -0.01019176832503937
-0.07078530778144418 0.024541899471273713 -0.006626697228897177
-0.016968485383775166 0.024518606434540666 -0.003150122942325693
0.009703630322910477 0.024568212182092965 -0.010553969352861486
-0.009989289884916694 0.02454381473101415 -0.006912557026484695
-0.07321070136972162 0.024413976185573085 0.01246633949350924
0.004688355492348282 0.024548290613111232 -0.007580599445632458
0.0016405698062649382 0.02452619110296472 -0.004282163539584147
-0.00934836998310773 0.024596840571831792 -0.014826865359191185
-0.0030564802350351514 0.024501217476583948 -0.0005547548589192368
-0.04040200003870346 0.024516063603996326 -0.0027705958163926642
0.053034514404694665 0.02457345903019051 -0.011337081378593336
-0.0037660564624691605 0.02452599415573433 -0.004252768416705458
-0.057677476543549974 0.02444266928243788 0.008183785702629173
-0.06354216514988502 0.024447371491758317 0.007481963084958087
-0.04435232225868274 0.02448033238122773 0.0025624250227828335
-0.03018854639134949 0.024581836638351763 -0.012587471246182095
0.03868194208048706 0.024559372983646827 -0.009234685380405469
-0.02893524255492605 0.02456712114033143 -0.01039112722209142
0.007818030039733869 0.02453561223463907 -0.005688303258711999
-0.038847669739632 0.024504182836573414 -0.0009973461108869924
0.035075526047639895 0.0245655226857556 -0.010152551799732944
0.018855705972530095 0.02457075136759159 -0.010932952441864409
-0.019334977807332128 0.024522566878764217 -0.003741234299286474
-0.04718542967253116 0.024532530262011222 -0.005228307127134419
-0.003453630758360488 0.02456262805917045 -0.009720517777269549
-0.06455101756968903 0.024472238301408003 0.003770497207497508
-0.05598792187462677 0.024515841246411173 -0.0027374081014623144
-0.05625813600634333 0.02449590078964332 0.00023878087965248807
0.010368201258195254 0.024516308009731248 -0.0028070743014977015
-0.04018797833276827 0.02457914604145789 -0.012185889430810934
0.03794970299720114 0.024587082862737437 -0.013370490180546292
-0.058896472446318085 0.024508517465742587 -0.001644305993536454
-0.04340537175893704 0.024576795764676064 -0.011835101685972956
-0.05856494068373483 0.024587503012722393 -0.013433199163104193
-0.04245187631368304 0.024439562999781086 0.008647410198447485
-0.07177110857180845 0.02457175364926875 -0.011082546792599533
0.010857099083635281 0.02453149922484585 -0.005074420910462929
-0.04758946563089595 0.024597491224741336 -0.014923977779556652
-0.04529934128298653 0.024549004921859276 -0.007687212741896736
-0.049324404960327486 0.024497126420444812 5.58508229950936e-05
-0.05697371607734006 0.024577376398015438 -0.011921763419293494
-0.05085638907559122 0.024545857774015134 -0.007217488961507923
-0.049239794286382914 0.024581126591992717 -0.012481494127680307
-0.06758942250053528 0.024527449538599408 -0.004469989842311452
-0.0072313957527265545 0.024524632460811626 -0.004049530272676644
-0.03119737111663872 0.024461686324314447 0.005345419904626073
-0.059054871674888515 0.024538965790278956 -0.006188834187325246
-0.04212631322169915 0.024498185174953162 -0.00010217231248982588
-0.02539520861729336 0.024556672471140923 -0.008831623622242178
-0.04964867540740233 0.024559739070491977 -0.009289325233812706
-0.01510461475875297 0.024506265755520854 -0.0013082296825168683
-0.013308571178840423 0.024512404604916112 -0.0022244762930927584
0.008331952373454264 0.024553166522297866 -0.008308347428695455
-0.04537527010371187 0.024574106209817936 -0.011433675398398383
-0.04726571546284543 0.02450649106353931 -0.0013418577608348354
-0.0618274461269165 0.024457449878535556 0.0059777255430083385
-0.002033806490233145 0.02454686985156996 -0.0073685453842250665
-0.01516340314634334 0.024567447290935636 -0.010439806439709648
-0.06882165773723484 0.02450976604919994 -0.001830661821341126
-0.007717322299225778 0.024540879081498927 -0.006474400175749455
-0.06788526658046057 0.024547010115656607 -0.007389480332405617
-0.060955874092019476 0.024574708843955288 -0.011523620834459215
-0.03683366655962208 0.024518849915517858 -0.003186463403824435
-0.006269998975392656 0.024511536096973922 -0.0020948481808761715
-0.07092144014587642 0.02451945076414804 -0.0032761423461518486
-0.02518942578456894 0.02448581122924981 0.0017446861263095209
0.03273781295075728 0.02454309054833166 -0.0068044700079657825
-0.07282844555474746 0.02444326803690023 0.008094419322811849
0.0179205521525665 0.024540224631422667 -0.00637672101381561
-0.05477230793356819 0.02445346020575683 0.006573199372947584
-0.04039248388997914 0.02455230513508331 -0.008179782112149989
-0.02223852993345947 0.02450777267947194 -0.0015331438111553818
-0.012159541264588701 0.024576799580717325 -0.011835671244638458
0.01201518539066498 0.0245654844723819 -0.010146848308430921
-0.05457054144404985 0.024577843208182702 -0.011991436611450723
-0.02878479182004179 0.024496188489744483 0.0001958405457914902
-0.04790885233890115 0.024568146698679405 -0.010544195704436586
-0.02213176403231379 0.024476578769490404 0.0031226658448504333
-0.06808663966774683 0.02441748897597927 0.01194204217065597
-0.06626004929109325 0.024479742856511826 0.00265041382785433
-0.05101343980015746 0.02445718428920464 0.006017365760349917
-0.05972219559137035 0.024450381549338162 0.00703270054769767
-0.05345023839748278 0.024535435693761765 -0.005661953861610929
0.033648942134470006 0.024596219017973642 -0.014734096082873967
0.027106552498582674 0.02458656708768113 -0.013293508792547957
0.03986684096242885 0.02457776911258974 -0.011980377562508264
-0.00952169812380457 0.024491652163976075 0.0008729044126761318
-0.03373181394860554 0.024462183390553383 0.005271230878745927
-0.034832854605383864 0.02455454185331086 -0.00851362081104156
0.031061768529881552 0.024557507842085498 -0.008956305911586096
-0.06988052469600554 0.024463055267843748 0.005141099878504966
-0.03759918967807345 0.02449390941834481 0.000536000616638378
-0.06732068480898158 0.024566604857835052 -0.01031407009673223
-0.0656982780245217 0.024575898968214605 -0.01170125140470977
-0.06218238709539746 0.024509179135549515 -0.0017430627277198463
-0.053970469522049855 0.024476737721941588 0.0030989415872146805
-0.057820289528946106 0.02456104992611092 -0.009484975418477037
-0.05387027797062938 0.02455115046060678 -0.008007442556750347
-0.03151498906447428 0.024529049736285814 -0.004708825430549352
0.01226917869696393 0.02452160899346202 -0.0035982662762996183
-0.011428719366180382 0.024590695666734483 -0.013909714912061808
-0.045543013608037974 0.024468815784348227 0.004281320890202656
-0.024163923358196095 0.024588174381332643 -0.013533403480554977
-0.012187006366130609 0.024546047325285203 -0.007245780209191317
-0.013677928262627065 0.02453705364712514 -0.005903439552139379
-0.03800992224212593 0.024549076194883855 -0.007697850511777137
0.06326064590598247 0.024596545393631326 -0.014782808890579827
-0.03993104933602938 0.02449262177076903 0.000728186912630646
0.0033074400841734877 0.02453505808565441 -0.005605594416018415
-0.039901836036816615 0.024592244469333585 -0.014140879588128309
-0.06562815181095343 0.024410976306331572 0.012914082875078276
-0.06220684805443229 0.024492815458404423 0.0006992782966975981
-0.05199030899455922 0.0244409206141039 0.008444781099465141
-0.060357799781654946 0.024435231672011667 0.009293877334632075
-0.04970613851603069 0.024441821843016326 0.008310269258043188
-0.00031415123572821335 0.024587536251153994 -0.013438160125384534
-0.04746315599506243 0.02449057553736094 0.0010335950280432145
0.04255775677031362 0.02456740087111561 -0.010432878105094075
-0.016710771732668744 0.02454009837271786 -0.006357876422120053
0.0017498039599459295 0.024589471525149995 -0.013727007126703345
-0.015880407496171017 0.024554160157254576 -0.008456651223530651
-0.07158364260412381 0.024557848965047566 -0.009007219810537048
-0.0016381412172726158 0.02457184860108517 -0.011096718712182478
0.017239701543575063 0.024585091866460188 -0.013073326416909076
-0.06129741371524341 0.024423824542075128 0.010996434844648583
-0.05193897697935558 0.024480422595361286 0.0025489602203784337
-0.045704954392292094 0.0244412934180304 0.008389138696129575
-0.02484194102065037 0.02457128282358125 -0.011012274268781291
-0.03276666181473173 0.024497851277309426 -5.2336819768627595e-05
0.020294920204856612 0.024535344343094647 -0.005648319427252174
-0.03940174517449967 0.024564987425607886 -0.010072662187764574
0.029780636096193976 0.024582786542493927 -0.012729248050692928
-0.05525419329086745 0.024591707041584865 -0.014060666453469454
-0.00507557398714293 0.024597607505854074 -0.014941333177703617
-0.03391165910985356 0.024584514722887404 -0.012987185544519206
-0.015437881159355769 0.02458782011451546 -0.013480527811258594
-0.052365439096231356 0.024499637538568597 -0.00031894310360800534
-0.021081265521216416 0.024534400297567607 -0.005507417043322322
0.01561767798260152 0.024536568922954454 -0.0058310926268675765
-0.02006535499023459 0.024554315992049353 -0.00847991015909488
0.047490694565623603 0.024584674891451306 -0.013011091311600463
-0.038864474260572074 0.024470413426585763 0.004042866712423064
-0.005113369466949874 0.024571530144745113 -0.011049187892739046
-0.04220641303895864 0.024542124933514587 -0.006660348325497089
-0.028030835334477915 0.02451397265915992 -0.002458514350321582
-0.01888187814562633 0.02453934650528589 -0.006245657349490932
-0.0713866943010923 0.024418833362361607 0.011741387392079814
0.004756332891153754 0.0245157638113528 -0.002725850624611337
-0.0720621951345188 0.024477987953474986 0.0029123397777941736
-0.03051178822703833 0.02451097810044494 -0.0020115650775658746
-0.07027585914501515 0.024581901804594474 -0.012597197555652723
-0.023949634985609206 0.0245393875019509 -0.006251776257602977
-0.027437776499627375 0.02455162664682461 -0.008078515160099789
0.030895661157896572 0.024597676212896533 -0.014951587964996935
-0.05579076509931751 0.024544240475958004 -0.0069761010779277365
-0.042364036535679044 0.024455894863945726 0.006209817382307522
0.001793033213842294 0.024568267580793307 -0.010562237819499148
-0.0273140193803632 0.02453753860778994 -0.005975821775057583
-0.035782962574104904 0.024467971897509586 0.0044072742091112805
-0.07049477297090231 0.02443231188289972 0.009729666959881268
-0.03178939521354866 0.0245531969352012 -0.00831288667014055
-0.04456596485035714 0.024504306531915914 -0.0010158081110126175
-0.011164837845507494 0.024502221505226435 -0.0007046099508701
-0.02437267704703114 0.02452451826136525 -0.0040324855711475665
-0.02228152587348832 0.024549744890444897 -0.007797655866471954
0.009841193120492876 0.024544419300701864 -0.007002791350795229
-0.06791240124242359 0.024582430348224816 -0.012676084701868444
-0.024961177007438422 0.024511766641345127 -0.002129257804749784
-0.035508582705285376 0.024485760186627018 0.0017523044318129444
-0.037205625841735576 0.024534558034891723 -0.005530959938622742
0.05902821899958993 0.024589881498657828 -0.013788197231362148
0.016587981419690014 0.024550814368239204 -0.007957279493153328
-0.0426316692096393 0.024469883380228465 0.0041219781463510095
0.04858048253814042 0.024572208730994683 -0.011150469470298924
-0.06078953044153374 0.02455230024007396 -0.008179051513394509
-0.05238060691695807 0.02446690624743046 0.004566326534749952
-0.04860616111232868 0.024458019938751435 0.005892641888565012
-0.005095774450072761 0.024538473108969554 -0.006115299628848225
-0.002267612585318827 0.024516551521276384 -0.0028434193253783924
-0.02671780079189821 0.024475027119652906 0.0033542554820717484
-0.0178678568928705 0.024575568346580277 -0.011651904868846888
0.023982260203355168 0.024530717676695936 -0.00495777187784347
-0.05908458706273749 0.02442128759976402 0.011375083129387387
0.04061412055878061 0.024555567675135174 -0.008666728618232325
-0.02000587090226457 0.024570156066805425 -0.010844101536348226
-0.05014037934748361 0.024472169386534792 0.0037807830143200276
-0.06441951199181035 0.02450795806460422 -0.0015608132469355062
0.03610177318708868 0.024547008548949725 -0.00738924649544685
-0.05704454214008106 0.024483381689325748 0.0021073041964653405
-0.02778113721448986 0.024579257236719575 -0.012202485746353738
-0.042748429511755365 -0.024681897227538885 0.0030749854918495478
0.0003836369367829027 -0.02466322662226095 0.005861644310443125
0.00028951196151768676 -0.02469266725811127 0.00146751748402139
0.05720320751046339 -0.024616923957252457 0.012772493093841073
-0.007144864633865725 -0.024606049775214404 0.014395506103877038
-0.01539296492653255 -0.02465263688234183 0.007442203252852256
-0.07186714771301511 -0.02466559643190933 0.005507941211013383
-0.06627321898621255 -0.024717706439030943 -0.002269675460796249
-0.007692245874045763 -0.024632811520209647 0.010401213922032863
-0.007432105139607811 -0.02468828633879776 0.0021213863466967037
-0.06392860366076976 -0.02474539219693315 -0.0064018800818655295
-0.04224549009954862 -0.024727171127072504 -0.00368231613332071
-0.02523413692610733 -0.02470410382538718 -0.00023943366080915636
-0.05724103581963594 -0.024752943367411778 -0.0075289209834180975
-0.022175274830626365 -0.024663983229138896 0.0057487178574846635
-0.04882350765264784 -0.02475867763666751 -0.00838478247005995
0.015353444380687933 -0.024628756435043874 0.011006450799420229
-0.03149142617329535 -0.024602961577134003 0.014856431407915545
0.014964865463518497 -0.024676205927498255 0.003924433659778841
-0.006131005209746123 -0.024670093573379966 0.00483672574954026
0.017042504255262752 -0.02466310448780374 0.00587987334250558
-0.050871954414530886 -0.024640446014344602 0.009261736647998618
0.03578580574481937 -0.024625377246370383 0.011510807555749358
-0.03424100146759153 -0.02466600507929517 0.005446949035103693
-0.05386745765262662 -0.02460583119054241 0.014428130697175088
-0.05371147451951647 -0.024767390898184534 -0.00968526987706512
-0.009966849673482818 -0.024614207923521342 0.013177871453875514
-0.04666807657774293 -0.02469472134591678 0.0011609370699328277
-0.06219988247606859 -0.02478322693110216 -0.012048857994564757
-0.06950755500111627 -0.024638896361606974 0.009493028210471948
0.00047511905326417386 -0.02464023956258184 0.009292550358467253
-0.02736311348259548 -0.024706657398168737 -0.0006205641064868572
0.00748427688069135 -0.02467913388680196 0.0034874246023496253
-0.03428745957936236 -0.02472423434085134 -0.0032439896249022993
-0.03213957928238277 -0.024642740398472293 0.00891929109427902
-0.03929836808591272 -0.02468907615565403 0.0020035031782171236
-0.055689901209621175 -0.02469737779851195 0.0007644514209513165
-0.05380340357105539 -0.02470553951763499 -0.0004537161869299722
-0.01056633430526658 -0.024679676629049147 0.003406418258589795
-0.00897139397376432 -0.024645522665331456 0.008504027188082987
-0.03396718564227593 -0.024634086652405608 0.010210895594059206
-0.04824804663249816 -0.024734546282174287 -0.004783086070713159
-0.024152780594224908 -0.024654622494426286 0.007145843100458805
-0.010470186288992628 -0.02466222849924158 0.006010617965692683
-0.039585661409737516 -0.02474554160250746 -0.0064241794318333914
-0.0678867088676171 -0.024616105017320606 0.012894722992070215
0.021994633811335207 -0.024612139234993786 0.01348663108123695
-0.030633025464925 -0.02465608759151871 0.0069271717894903995
-0.006123619291563749 -0.024621013811050682 0.01216206686587919
-0.0722989567387008 -0.024732002423327445 -0.00440340546672231
-0.06103614786474492 -0.02463451833407483 0.010146465463784662
-0.024573029019914393 -0.02468648794744913 0.002389803092503024
-0.0730646584106123 -0.024603251931023057 0.014813094986123392
-0.045031863006055016 -0.02468190208044345 0.00307426117739379
-0.0587013465893102 -0.024662488847187893 0.005971760044929228
0.018096073853071923 -0.02460554446327094 0.014470925832505992
-0.008489137215025335 -0.024666957515761298 0.005304794271614261
0.05520323620703602 -0.024622765538850695 0.01190061483210595
0.041844797264122414 -0.024623809661577054 0.011744775545710084
-0.030745281936796504 -0.024699477648875725 0.0004510407710638072
-0.06972924331129572 -0.02466982903110934 0.0048762096891526545
0.048428405764295065 -0.02460297759511135 0.01485404066389998
-0.013965092403677501 -0.024685237554877795 0.002576428937447696
-0.025530365479308637 -0.024733819491721945 -0.00467460983263068
-0.041832941290952594 -0.02464854649003171 0.008052709855762698
-0.06008750951975844 -0.02470207345017528 6.360755853325288e-05
-0.04113163688416294 -0.024753837048836512 -0.007662306333607557
0.031233511865137432 -0.02465724857171411 0.006753891081576682
-0.059819552912275954 -0.024751975349651782 -0.007384440652582869
0.039806020725669425 -0.024636575213153235 0.009839468441605248
-0.003550319292135652 -0.024680300129911577 0.0033133583844812994
-0.021231599104436477 -0.0246927957322629 0.001448342228465363
0.054343213176757624 -0.024606248408765973 0.014365859291151358
0.03364151671095926 -0.024618234713117054 0.012576857797891961
0.050020709908507 -0.02461940007479813 0.01240292313658454
-0.036579381729503764 -0.02472653410112566 -0.003587237588944381
-0.05434898616479297 -0.02461905809815128 0.012453964451233908
0.019105983473951933 -0.024636187280971514 0.00989736879454564
-0.003517781728723586 -0.024615968708100254 0.012915067661419416
-0.012490704767130142 -0.02461854612488697 0.012530378407324058
0.005190650582831462 -0.02461381233354417 0.013236914761899775
-0.0461290926029832 -0.024732093340504926 -0.004416975201105451
-0.0607131483416047 -0.024674938437125628 0.004113611416568199
-0.05400846610508571 -0.024721201131005104 -0.0027912715238638704
-0.050575545805891256 -0.02468708674849514 0.0023004297598979845
-0.011249265532237438 -0.02471364546779843 -0.0016635600655706742
-0.029958690364101183 -0.02473302596275599 -0.004556172617667652
-0.0703331047325516 -0.024731551986237527 -0.004336176018605601
-0.04969471079797226 -0.02467141266906002 0.004639845704427849
-0.032295487717688504 -0.024667893938472275 0.005165029621961808
0.02456209459446504 -0.024617517998150783 0.01268383023137399
-0.06452201346200699 -0.0246174507947646 0.012693860592252453
-0.02463898028526655 -0.024671297698750577 0.0046570054601998015
-0.019812859257785188 -0.024660304927415493 0.006297718373663389
-0.05184224328847396 -0.02471772415419017 -0.002272319515659444
-0.04990592606029233 -0.024725577907996968 -0.0034445221292858335
-0.07031776428928742 -0.02470701719560384 -0.0006742652415338349
-0.026959943767723153 -0.02468374811474152 0.002798733540256642
-0.0663007435156871 -0.02460314261918077 0.014829410194160047
-0.03749962602120724 -0.024643468818287696 0.008810571667564986
0.02422796608131393 -0.024662956708669834 0.005901929940059459
-0.01257192674566655 -0.024699204616782874 0.0004917918489203454
-0.04289289908288392 -0.024745620796529224 -0.006435999440656048
-0.024697577434295213 -0.024721770416064295 -0.0028762394832247107
-0.034896326979164685 -0.024687605861138318 0.002222950224370388
-0.07041538618784143 -0.02479190152358434 -0.013343573901110673
-0.058477809387127926 -0.024685869400540413 0.0024821235701865934
-0.027069412098680714 -0.024621453249748286 0.01209647896962757
-0.03230580127730451 -0.024721838093806403 -0.002886340643527389
-0.04149440015851855 -0.02467091308337346 0.004714410767443624
0.011713063470654275 -0.024657006571177822 0.006790010581642044
-0.049237074464968264 -0.02465075757687454 0.007722696738484014
-0.041223032450081146 -0.024707798051778116 -0.0007908109941599513
-0.05718883726558639 -0.024606071924042752 0.014392200307041764
-0.006042254488491867 -0.024702593760298614 -1.4050705459706428e-05
-0.024723209333334516 -0.02462281566204067 0.01189313375544652
-0.037224466790375485 -0.024749738256539578 -0.007050546000730715
-0.05219130331061825 -0.02473414217723755 -0.004722771872602672
-0.03744887200415354 -0.024682033122201692 0.0030547026967888465
0.03017174329034321 -0.024603767371907795 0.014736163474501664
0.030424395645232166 -0.024628601662552787 0.01102955118212099
-0.05233306501396572 -0.024625572938023567 0.01148159983254188
0.003760999636503795 -0.024625625726272356 0.011473720985722491
-0.004661463678131712 -0.0246587396218094 0.00653134618626379
-0.0355534793574376 -0.024741273045326757 -0.005787081044651691
-0.03880504139435198 -0.02470760045119124 -0.0007613183553421259
0.02273602579090911 -0.024653493163876022 0.007314399978511222
-0.040050434888602174 -0.024635865000342032 0.009945470403724704
-0.06774902194231924 -0.024692651449511736 0.0014698769776020863
-0.04314475494131226 -0.024622513382952606 0.011938250058528442
-0.0615779891691901 -0.024766702065544093 -0.009582458986714299
-0.03641945287299117 -0.02461358044689589 0.01327152472572921
-0.01669422532929712 -0.02463664533092787 0.009829003097171121
0.0618605081676489 -0.024609970113159903 0.013810380761390413
0.056246518263347256 -0.024602488216397652 0.014927082297412006
-0.0021220588416252933 -0.024653710030274917 0.007282031844005705
0.008880987850626042 -0.02460841670157526 0.014042233346071017
0.04592036794769156 -0.024604206631701313 0.014670602280365277
-0.03516018684969913 -0.024700961744747715 0.00022953382001686005
-0.06432865441271382 -0.024787951271339096 -0.012753983735660033
0.028383077768722263 -0.024619760312610327 0.0123491562735818
0.05917079436396564 -0.0246150429582707 0.013053239342945177
-0.06548134322244845 -0.024673292576329924 0.0043592623974679015
-0.014334355666157431 -0.02472137128078051 -0.002816667024709713
-0.06297874708339672 -0.024678443596068786 0.0035904531185847327
0.03468528388500257 -0.024640780394862054 0.00921182908453963
-0.05436600203941518 -0.02468041188366473 0.003296678711964621
-0.07200133145717949 -0.0247844593867368 -0.012232806683515965
-0.07006019039966134 -0.024682909063665007 0.0029239651032841344
-0.06349638914459776 -0.024698557977549405 0.0005883052128721755
-0.04720575209083566 -0.02468038488773533 0.003300707957058637
-0.06748094854080158 -0.02463251698374456 0.01044517460919891
0.000865059336986617 -0.024616884829585562 0.012778333046878624
-0.020505790447257987 -0.024675944103570643 0.003963511876363324
-0.02998511631327476 -0.024613003541955704 0.013357629981297178
0.0021547237768916525 -0.02464874514402086 0.008023059992650019
-0.008338716094622226 -0.024705224295480874 -0.000406668082033778
