-0.0535963131049 0.00119993919821 0.0149999996647
-0.05556319941 -0.0112331099515 0.0149999996647
0.0281084881567 -0.0245303226407 0.0149999996647
-0.0469928355967 0.00450553219847 0.0149999996647
0.00256564954033 -0.00858772233913 0.0149999996647
-0.0399097273451 0.00396730882479 0.0149999996647
-0.0339799560408 -0.0098669908582 0.0149999996647
0.0470455937733 -0.0241550907322 0.0149999996647
-0.0179289910597 -5.9959727815e-05 0.0149999996647
0.00539674097381 -0.00302087215469 0.0149999996647
-0.0418858671942 -0.00157741146275 0.0149999996647
-0.0458025051007 -0.0184850359067 0.0149999996647
-0.0657309272836 -0.00495105556518 0.0149999996647
-0.0332888648408 0.00528459679978 0.0149999996647
-0.00252284340029 -0.0114819089443 0.0149999996647
-0.0480098531969 -0.0177790516112 0.0149999996647
-0.0107233692145 -0.0102796020877 0.0149999996647
-0.0481668955843 -0.0205252831615 0.0149999996647
-0.0460638924714 -0.0210430219921 0.0149999996647
-0.0566481150527 -0.00177299765804 0.0149999996647
0.0510593395201 -0.0235927959552 0.0149999996647
-0.0101676627733 0.00198641308144 0.0149999996647
-0.0670430840465 0.00384029597401 0.0149999996647
-0.0256353236922 -0.0100054547506 0.0149999996647
-0.00673635461388 -0.00529706566578 0.0149999996647
0.0534294627145 -0.0231371501941 0.0149999996647
-0.0361165137971 -0.0227112961821 0.0149999996647
-0.0564512890041 -0.0135987259633 0.0149999996647
0.0406810541379 -0.0222631461303 0.0149999996647
-0.0145866979341 -0.00940454773293 0.0149999996647
-0.0331758945855 0.00331697739564 0.0149999996647
0.040439603241 -0.017300945858 0.0149999996647
-0.0311190722723 -0.0106599990943 0.0149999996647
-0.00794905290972 -0.00800759045119 0.0149999996647
-0.0177180517664 -0.0191607818356 0.0149999996647
-0.019000910438 -0.0244194061636 0.0149999996647
-0.0652764013697 0.0124118558602 0.0149999996647
-0.000359941367087 -0.00384205196166 0.0149999996647
0.0220744485337 -0.0174707382671 0.0149999996647
-0.0622673458838 -0.0196822700523 0.0149999996647
-0.0414874733488 -0.0106232004834 0.0149999996647
-0.0192410003644 -0.00211519344086 0.0149999996647
-0.00703708043758 0.000923078029245 0.0149999996647
-0.0143228017947 -0.0244690546945 0.0149999996647
-0.0630188161314 0.00509036024931 0.0149999996647
-0.0520708732546 -0.0138809623834 0.0149999996647
-0.0647802440058 -0.0227720097314 0.0149999996647
0.00368577025028 -0.0189307444521 0.0149999996647
-0.017976018902 -0.0219184703064 0.0149999996647
-0.0170963303734 -0.0103388988687 0.0149999996647
-0.0588651894099 -0.000351305657965 0.0149999996647
-0.0262037697583 0.00689407041797 0.0149999996647
-0.0216327836978 -0.014558062179 0.0149999996647
0.0442746266182 -0.018101978484 0.0149999996647
-0.0390278704691 -0.00907372342364 0.0149999996647
-0.0186829747376 0.00263575749588 0.0149999996647
-0.0594124776772 0.0185840206643 0.0149999996647
-0.00567888452829 -0.00714664541632 0.0149999996647
0.0248975603349 -0.018548566796 0.0149999996647
0.0459933338573 -0.0167949116959 0.0149999996647
-0.047910677334 -0.00507311672481 0.0149999996647
0.0293323716719 -0.0146308088301 0.0149999996647
0.0252581275601 -0.0117654776274 0.0149999996647
-0.0722786697158 -0.00978882134667 0.0149999996647
0.0703573547718 -0.0240781986143 0.0149999996647
0.00544622287276 -0.0106162839884 0.0149999996647
0.0302574693677 -0.0237426836311 0.0149999996647
-0.0255321363173 -0.0221206191098 0.0149999996647
-0.053147439824 -0.0109239131316 0.0149999996647
0.0569054361804 -0.0233520356279 0.0149999996647
-0.0342032269358 -0.00150189583409 0.0149999996647
0.00639399809458 -0.0064897544266 0.0149999996647
-0.0250961521865 -0.0159927026077 0.0149999996647
-0.0585763787252 -0.0102993855667 0.0149999996647
-0.0391350300492 -0.0223102373003 0.0149999996647
-0.0698413971862 0.0224972759504 0.0149999996647
0.03622562367 -0.0182282777659 0.0149999996647
-0.0311611079139 -0.00808892053361 0.0149999996647
0.00275960750823 -0.0171128418764 0.0149999996647
-0.048252552553 -0.0239528406141 0.0149999996647
-0.0553277733003 0.0073724879384 0.0149999996647
0.00929781669396 -0.0171084821142 0.0149999996647
-0.0499247316144 0.0119593922941 0.0149999996647
-0.054284809166 -0.0206857619228 0.0149999996647
-0.0627006068529 -0.0124475249912 0.0149999996647
0.0339141683196 -0.0230742457441 0.0149999996647
-0.0730943830737 0.00457107663687 0.0149999996647
0.00165060324195 -0.0134426619278 0.0149999996647
-0.0278671411186 0.00333742628894 0.0149999996647
-0.0489242184762 0.00595081609457 0.0149999996647
0.0492411797839 -0.0190208995636 0.0149999996647
-0.013277346141 -0.0179335973439 0.0149999996647
-0.0211384053021 -0.00600293155075 0.0149999996647
0.0163819519253 -0.0158775886066 0.0149999996647
-0.0286340981969 -0.00654956386606 0.0149999996647
0.0224346018173 -0.0134014135704 0.0149999996647
-0.0109263198534 -0.0229019887835 0.0149999996647
-0.0222731016394 -0.0181089686521 0.0149999996647
-0.0349054846052 -0.0206479306501 0.0149999996647
-0.0209829043283 -0.0126572321255 0.0149999996647
-0.0511885574217 0.0156823100164 0.0149999996647
-0.0720429009627 -0.0206667014651 0.0149999996647
-0.0196595003573 0.00527847713545 0.0149999996647
-0.0284785111123 0.00653640621644 0.0149999996647
-0.0453409521473 0.00330542530391 0.0149999996647
-0.0511640714393 -0.0121291594162 0.0149999996647
0.0151684553638 -0.00810678272973 0.0149999996647
-0.0134398311713 -0.0212032923793 0.0149999996647
-0.0381558742154 -0.000115809409218 0.0149999996647
0.0473774691032 -0.0218945161157 0.0149999996647
-0.0450500840325 0.000674825426069 0.0149999996647
-0.0608503999534 -0.0112111228668 0.0149999996647
-0.0358651306795 -0.00346522104356 0.0149999996647
-0.0523924469555 0.013425819786 0.0149999996647
-0.0373422378245 0.00844060321957 0.0149999996647
-0.0624652414323 0.00311009860333 0.0149999996647
-0.0708780074147 -0.0138486406495 0.0149999996647
0.0169899456044 -0.0190545005208 0.0149999996647
-0.0266926647337 0.00146775476863 0.0149999996647
-0.0314811402795 -0.0198950588705 0.0149999996647
-0.0137320687785 -0.0113598101583 0.0149999996647
0.0389686612878 -0.0157226878155 0.0149999996647
-0.0303646169263 -0.00279984419116 0.0149999996647
-0.0256152639916 -0.0242538068393 0.0149999996647
-0.0611757100096 0.0148024821028 0.0149999996647
-0.0462337344702 0.0153291260522 0.0149999996647
-0.0689652175497 0.00515695791053 0.0149999996647
-0.0635765660158 0.0147408748413 0.0149999996647
0.0596558202068 -0.0218127595929 0.0149999996647
-0.00942794758 -0.0184526087812 0.0149999996647
0.00713878831168 -0.014463279234 0.0149999996647
-0.00286668630374 -0.0242647871958 0.0149999996647
-0.0242957296606 -0.0195062895908 0.0149999996647
0.0189655750265 -0.00680053938147 0.0149999996647
-0.0442756739041 0.00634715836413 0.0149999996647
-0.0699636250433 -0.0114225602835 0.0149999996647
-0.0126597659545 -0.00618229887962 0.0149999996647
0.0565182904817 -0.0208652101873 0.0149999996647
-0.0521673804706 0.0102339009551 0.0149999996647
-0.045073906401 -0.00452871291727 0.0149999996647
-0.0476508276685 0.0111081611139 0.0149999996647
0.0150715822312 -0.0229501735732 0.0149999996647
-0.0522233215163 -0.00716325197319 0.0149999996647
-0.0584012582132 0.00453350663385 0.0149999996647
-0.0685557139959 0.00217980767721 0.0149999996647
-0.0621635321296 -0.0166384861368 0.0149999996647
-0.0124891032936 0.00259478043711 0.0149999996647
-0.0672561970317 -0.00618640951543 0.0149999996647
-0.0704851627869 0.00696466506178 0.0149999996647
-0.0497351610575 -0.00715357931157 0.0149999996647
0.0146509074613 -0.00556021484818 0.0149999996647
0.00238894941562 -0.00317035904006 0.0149999996647
0.0250724371771 -0.0241719427907 0.0149999996647
-0.0335593308509 0.00950060649914 0.0149999996647
0.0316773544625 -0.0210525260602 0.0149999996647
-0.0226917742881 0.00356997902963 0.0149999996647
-0.0369608472206 -0.00573245890232 0.0149999996647
-0.0619124872649 -0.0233805083398 0.0149999996647
-0.046771395924 0.0132093332918 0.0149999996647
-0.00346927382921 -0.0132944868907 0.0149999996647
-0.016716673782 0.00253602707276 0.0149999996647
0.0169019027797 -0.0215542888727 0.0149999996647
-0.0563083439533 0.00156596919852 0.0149999996647
-0.0506861443531 -7.67369646369e-05 0.0149999996647
0.00447227594004 -0.0156888441547 0.0149999996647
-0.03252873587 -0.00631436019965 0.0149999996647
0.0138987285837 -0.0208140331303 0.0149999996647
-0.0585641530144 -0.0178597834128 0.0149999996647
-0.0481283672909 -0.0106032380936 0.0149999996647
-0.0581353107223 0.00822761847637 0.0149999996647
-0.0653717314843 0.0164694837275 0.0149999996647
0.0620202478134 -0.022918304945 0.0149999996647
-0.0191544923194 -0.0113795612817 0.0149999996647
-0.00272014587289 -0.00808395426503 0.0149999996647
0.00448734531438 -0.00756168799031 0.0149999996647
-0.00582890197751 -0.0165628997892 0.0149999996647
-0.0421620714952 0.00396812678843 0.0149999996647
-0.0301278117464 -0.0181281438002 0.0149999996647
-0.00753448550766 -0.0143870835976 0.0149999996647
-0.0648423754454 0.0103624010564 0.0149999996647
0.0532252755303 -0.0190545120817 0.0149999996647
-0.0424271035935 -0.00698477816383 0.0149999996647
-0.038278843492 0.0112785764528 0.0149999996647
0.00797932588405 -0.00951384962002 0.0149999996647
-0.0596340255761 0.0118367703493 0.0149999996647
-0.0119241635908 -0.013686411597 0.0149999996647
-0.0721016216905 0.0215729035182 0.0149999996647
0.00566204664673 -0.0192005942166 0.0149999996647
0.017319771351 -0.0135334166301 0.0149999996647
0.0374199390583 -0.0139715031593 0.0149999996647
0.00264426457314 -0.0111344522135 0.0149999996647
-0.0532752139541 0.0173503330431 0.0149999996647
0.051258221024 -0.0213268319072 0.0149999996647
-0.0611133902803 -0.00284438760349 0.0149999996647
-0.00511261569876 -0.0031352243357 0.0149999996647
-0.0379709954468 -0.00396652373827 0.0149999996647
0.0105540981538 -0.0114054600369 0.0149999996647
-0.0468226313618 -0.0154600804036 0.0149999996647
0.0123640135238 -0.0178647713826 0.0149999996647
-0.0692798214941 -0.01875516359 0.0149999996647
-0.00139904303823 -0.00135662739609 0.0149999996647
0.0121053612396 -0.00939959987499 0.0149999996647
-0.0711099031909 -0.00739402561266 0.0149999996647
-0.0448609535084 -0.0143866168255 0.0149999996647
-0.0313826489285 -0.0162116804071 0.0149999996647
-0.0327913680999 0.00766707568765 0.0149999996647
-0.00809096414137 -0.0104595997033 0.0149999996647
0.0260364476029 -0.00944462450251 0.0149999996647
-0.0655359378074 -0.0201030017568 0.0149999996647
-0.0561957365153 0.0155654696236 0.0149999996647
0.0684053041047 -0.0231839663624 0.0149999996647
-0.00903383408062 -0.0237690383769 0.0149999996647
-0.00379276288218 -0.00173406916587 0.0149999996647
-0.0113609805429 -0.0164899878592 0.0149999996647
-0.0196457106746 -0.0147907114019 0.0149999996647
-0.0443806808796 0.0131266386612 0.0149999996647
-0.0304266955227 0.00185914609199 0.0149999996647
-0.0677587959177 0.0164972924161 0.0149999996647
-0.00511414244963 -0.0226316932867 0.0149999996647
-7.01932263331e-05 -0.00813349278545 0.0149999996647
-0.0721401445477 -0.00334785334129 0.0149999996647
0.0347025946275 -0.0170017839032 0.0149999996647
-0.0312991925206 0.00416555778761 0.0149999996647
0.0265333937578 -0.0225896001878 0.0149999996647
-0.0428092174639 0.00128974120684 0.0149999996647
0.0448279188257 -0.0202410264397 0.0149999996647
-0.0650893124379 0.00408042166244 0.0149999996647
-0.0166391694408 -0.0244685510529 0.0149999996647
-0.0383271103232 -0.0133617115543 0.0149999996647
-0.0671038558147 -0.00296661445745 0.0149999996647
-0.000558755542335 -0.0103199325164 0.0149999996647
-0.0683299944788 -0.0240737492934 0.0149999996647
-0.0293057034834 -0.0152026143844 0.0149999996647
-0.0436490544697 -0.0243967222858 0.0149999996647
-0.0566865603994 0.0112362720305 0.0149999996647
0.00100235998361 -0.0155495059172 0.0149999996647
-0.070580634953 0.0187281040472 0.0149999996647
0.0372377214375 -0.023601946264 0.0149999996647
-0.0408101766869 -0.02422692644 0.0149999996647
-0.0248952983645 0.00276117418034 0.0149999996647
0.018823827485 -0.0103902482501 0.0149999996647
-0.0462651929589 0.00947587826265 0.0149999996647
0.0351264004786 -0.0149986690702 0.0149999996647
0.021216729876 -0.0198601455313 0.0149999996647
-0.0196861726651 -0.00898563857554 0.0149999996647
-0.00109909889341 -0.0140094223478 0.0149999996647
-0.0352411571994 0.00789591603635 0.0149999996647
-0.0134503790066 -0.00398522378259 0.0149999996647
-0.0599792264447 -0.0153131118444 0.0149999996647
0.00140446784821 -0.0191180669743 0.0149999996647
-0.0170293349087 -0.00409960096985 0.0149999996647
-0.0206772354516 -0.0198981629217 0.0149999996647
-0.058442666364 -0.0049046372346 0.0149999996647
-0.0424304865692 0.0134214549897 0.0149999996647
-0.0558679311184 -0.00813464196236 0.0149999996647
-0.0713319211452 0.0102723604574 0.0149999996647
-0.016081527271 -0.00765335646985 0.0149999996647
-0.0377005379076 -0.0204040057054 0.0149999996647
-0.0382801684557 -0.0111797267816 0.0149999996647
-0.0430691821644 -0.0159452248847 0.0149999996647
0.00879394541044 -0.022062382947 0.0149999996647
0.0119944712281 -0.0200501486816 0.0149999996647
-0.0322850630247 0.000213633274596 0.0149999996647
-0.0104762754263 -0.00238060945076 0.0149999996647
0.0238607098333 -0.0208676972402 0.0149999996647
-0.0279987392361 -0.000543437299896 0.0149999996647
0.0186611016984 -0.0228574005589 0.0149999996647
-0.00374925749712 -0.0208712269241 0.0149999996647
-0.0270360706001 -0.016753961854 0.0149999996647
0.060720022834 -0.024535419009 0.0149999996647
-0.070079617468 0.0126689492641 0.0149999996647
-0.0481519191235 -0.00313297664296 0.0149999996647
0.0266749916549 -0.0160233612808 0.0149999996647
-0.0657869186295 -0.0112716407132 0.0149999996647
-0.0510419518439 -0.0188450842695 0.0149999996647
0.0733291912627 -0.00805104951769 0.00776447190122
0.0733285851918 -0.00178285235614 0.0077946747986
0.073355130908 -0.00339421101719 0.00647179742415
0.0734500948723 0.0138857668605 0.00173936982724
0.0733151476206 0.0201413807013 0.00846432178922
0.0732289856025 0.0105146287939 0.0127581138091
0.0732459322279 0.00603214619809 0.011913596857
0.0732227631583 -0.010058564141 0.0130682026591
0.0732062502895 0.0131396333706 0.0138911038145
0.0733448736708 -0.0110191948645 0.00698295586801
0.0735763169417 0.018737822156 -0.00455077200968
0.0734099511366 0.013923893275 0.00373988996127
0.0736314013558 0.0200684657168 -0.00729584487036
0.0733126537389 0.00637086737282 0.00858860171266
0.0735324061497 0.00563643880265 -0.00236252465111
0.0732694992033 0.0226079154781 0.0107391618422
0.0733613338019 0.00208488809158 0.00616268283584
0.073304193744 0.00332661166582 0.00901019651184
0.0733546159039 0.0181569621674 0.00649746210205
0.0732499844576 -0.00810824500098 0.0117116583205
0.0732771204476 0.0116588437912 0.0103593652836
0.0731991412248 0.0168491820318 0.0142453764509
0.0736337568362 0.0151811706635 -0.00741322771749
0.0734315664415 0.0179238108262 0.002662714359
0.0732765618213 0.00964260276794 0.0103872038253
0.0733880079419 0.000173356010827 0.00483340559983
0.0734680742609 0.00961639565283 0.000843386224908
0.0734413079657 0.0231575036869 0.00217725591858
0.0734042888711 -0.00356297712613 0.00402206290544
0.0734369071825 6.5688008316e-05 0.00239656424203
0.073269056321 -0.0164919371768 0.0107612324053
0.0732217077246 0.00123583321918 0.0131207990707
0.0734779259947 0.0121245836674 0.000352435605916
0.0735349842954 0.0194946892422 -0.00249100378751
0.0733976656731 0.0116035255693 0.0043521228938
0.0734407332533 0.0071423079266 0.00220589609444
0.0732667767131 0.0137836937253 0.0108748342286
0.0732634146421 0.00276602869649 0.0110423794409
0.073241656936 0.00852721109389 0.0121266514541
0.0733954107909 0.00894353757755 0.00446449253599
0.0732999803276 -0.0111265118699 0.00922016761349
0.073701422543 0.0219362134238 -0.0107852758498
0.0731882397481 -0.00192464405973 0.0147886398866
0.0732641313725 -0.0143018568435 0.0110066619487
0.073442158651 0.0210091953429 0.0021348629241
0.0735936121781 0.0118640023397 -0.00541266161743
0.0732351979713 0.0206363787032 0.0124485270524
0.0732994331567 -0.00488325076299 0.00924743529089
0.0737244335243 0.020131791801 -0.011932003491
0.073392292226 0.0235854918205 0.0046199028815
0.0734921027414 0.0139700561834 -0.000354047404145
0.0733163268743 0.0126490365933 0.00840555494145
0.0732428958498 0.0153005732052 0.0120649115098
0.0732338809419 -0.00508739138695 0.0125141598073
0.0734708935765 0.0165508138544 0.000702888647605
0.0732427443186 0.0178147284272 0.0120724629052
0.0734526803433 -0.00206989330998 0.00161052564351
0.0732487170284 -0.00119319222747 0.0117748192994
0.0732910613284 -0.00705118411638 0.00966463639706
0.0735252046315 0.0121252971635 -0.00200364469176
0.0733412428458 0.00765475307544 0.00716389414632
0.0734946546692 0.00445838617965 -0.000481219996452
0.0731853400091 0.0102384031268 0.0149331452773
0.0733661192513 -0.00618444898134 0.00592420508775
0.0733155543093 0.000930901227836 0.00844405489187
0.0733946170372 0.00415088476062 0.00450404840252
0.0732120075468 -0.00733965407067 0.013604197054
0.0731869564789 0.0242812645233 0.014852590234
0.0734013468954 0.0162144397925 0.00416867311753
0.0735709294284 0.0137414359762 -0.00428229104307
0.0733636042768 0.0126341134548 0.00604953614983
0.0731939206382 0.00622522272333 0.0145055388041
0.0734037927111 0.0198599270068 0.00404678850717
0.0734439973887 0.00256566487565 0.00204323140159
0.073353874561 0.00537053938558 0.00653440612854
0.0736407514942 0.0131808457801 -0.00776179901792
0.0733460548348 0.0102478998542 0.00692409382071
0.0732298233301 -0.0128494259251 0.0127163665484
0.0735813405762 0.0160057148554 -0.00480111946101
0.0735589526824 0.0223334138044 -0.00368544271887
0.073576765908 0.00995705357987 -0.00457314576258
0.0735108784955 0.00744492042913 -0.00128971702856
0.0735325911601 0.0239162531427 -0.0023717444463
0.073288637684 0.0162371725166 0.00978541612486
0.0736344312664 0.0174206569516 -0.00744683722471
0.0736791185812 0.0169266810243 -0.00967378176583
0.0736739678464 0.0198107513332 -0.00941710040523
0.073481005015 0.00153978966752 0.00019899592183
0.0731846944953 0.0214534366489 0.0149653137647
0.0735506100788 0.00815996564837 -0.0032696979873
0.0734951467746 0.0225561798288 -0.000505743540149
0.0733608420448 0.0203221647778 0.00618718902847
0.073496320115 0.0198476560152 -0.000564215705155
0.0732158980122 -0.0178441074888 0.013410319876
0.0732647260734 -0.00319343811739 0.0109770256665
0.0735400396858 0.0149237711943 -0.00274293375816
0.0735986462677 0.021631862338 -0.00566353008577
0.0733837949259 -0.0081113701196 0.0050433567436
0.0733524807195 0.0160628402405 0.0066038667302
0.0733464883162 0.0231010899868 0.00690249174177
0.0732204932094 -0.0155166682453 0.0131813231373
0.0733966577163 0.00664423872932 0.00440235334381
0.0483214621213 -0.00975062639445 0.0149999996647
-0.0206463206666 0.0212754418512 0.0149999996647
-0.0638660750734 0.0214279827606 0.0149999996647
0.0587893139658 0.0214883036934 0.0149999996647
0.0496024275686 0.0185296577334 0.0149999996647
0.0363736973749 -0.00234751853451 0.0149999996647
0.0648667392963 -0.0166867128516 0.0149999996647
-0.0520983038411 0.0193211349549 0.0149999996647
0.0381421984655 -0.00484145119979 0.0149999996647
0.0617277405066 -0.00488020722914 0.0149999996647
0.0162290865624 -0.00396216406838 0.0149999996647
0.0544218764887 -0.00579681553821 0.0149999996647
0.0239202616256 0.0220458213465 0.0149999996647
0.0393568100196 -0.0101739365987 0.0149999996647
0.00269094881061 0.00685398768201 0.0149999996647
0.0335026180427 0.00927798072928 0.0149999996647
0.0574933197779 -0.00105640846233 0.0149999996647
0.00948062334032 -0.00252182415739 0.0149999996647
0.0678541630791 0.0113531882854 0.0149999996647
0.0620686729533 -0.0125579404945 0.0149999996647
0.00757419219029 0.00195669405049 0.0149999996647
-0.0177197806708 0.0193355612428 0.0149999996647
0.00677609640354 0.0155229557369 0.0149999996647
0.0222804936527 0.0119123524782 0.0149999996647
0.0687842146041 -0.000477464290344 0.0149999996647
0.000236101484259 0.0167248148122 0.0149999996647
0.0620472392522 0.00770693509098 0.0149999996647
-0.00285200123304 0.0014877705094 0.0149999996647
0.0284115321798 0.0118612391136 0.0149999996647
-0.0115991131286 0.00943337785895 0.0149999996647
0.0428580211633 -0.00506994984227 0.0149999996647
0.0383729602667 -0.00779240359873 0.0149999996647
0.0474051021246 -0.00534765248698 0.0149999996647
0.0691602759585 -0.0109387391362 0.0149999996647
0.034655922369 -0.00995319642639 0.0149999996647
0.0527494390656 -0.00403407555109 0.0149999996647
0.0459649743026 -0.0113486918152 0.0149999996647
0.0253119092248 0.0115999703275 0.0149999996647
0.0183300361824 0.00222816052289 0.0149999996647
-0.0291889655304 0.0125844360358 0.0149999996647
0.0424491061617 0.00354408567883 0.0149999996647
0.0584652721029 -0.0150598947614 0.0149999996647
0.05281659942 -0.0126822533505 0.0149999996647
0.0570735252856 0.0177024346266 0.0149999996647
-0.0574540314872 0.0239589141913 0.0149999996647
-0.0286612674928 0.0095528878347 0.0149999996647
0.0628881862581 0.0243773313299 0.0149999996647
0.026828645543 0.00255494935599 0.0149999996647
0.0541982436013 0.00683906534875 0.0149999996647
0.0630009705931 -0.00971634684539 0.0149999996647
0.0432367226765 0.0220754677454 0.0149999996647
-0.0136221228785 0.0129308019613 0.0149999996647
0.0195083564474 0.000431544795831 0.0149999996647
0.0421880684379 -0.0136973170929 0.0149999996647
0.00761389503196 0.0207465373215 0.0149999996647
-0.0267869052963 0.0241431088681 0.0149999996647
-0.0226401254116 0.0130950798025 0.0149999996647
0.0447471931151 0.00111911352558 0.0149999996647
-0.00594331573814 0.00898099085697 0.0149999996647
0.0686445652283 0.0135186376805 0.0149999996647
0.0373806615554 -0.00015437578404 0.0149999996647
0.043488619882 0.013781130699 0.0149999996647
0.0543830203856 0.0171264393353 0.0149999996647
0.0723301684852 -0.0222386022017 0.0149999996647
0.0106978861943 -0.000703849064449 0.0149999996647
0.067391314649 -0.00679043222433 0.0149999996647
0.0595969368763 -0.00459010896638 0.0149999996647
0.0110908814553 0.0114952179312 0.0149999996647
0.00833211742294 0.0173293126134 0.0149999996647
0.0561299684487 -0.00706809878958 0.0149999996647
0.0297157073229 0.00892874679334 0.0149999996647
0.0508459439928 -0.013945010348 0.0149999996647
0.0398971454689 0.0212021149905 0.0149999996647
0.0149043176705 0.00705012828477 0.0149999996647
0.0487253395737 -0.0134189199557 0.0149999996647
-0.0347733789886 0.011684869283 0.0149999996647
0.0541000856796 0.00107732796225 0.0149999996647
0.0528954691969 0.00850575235507 0.0149999996647
-0.0121837869784 0.0198706672627 0.0149999996647
-0.0069770903856 0.00338564769255 0.0149999996647
0.0731441090381 -0.00412809836116 0.0149999996647
0.027791118817 0.00995755945966 0.0149999996647
0.00521676132374 0.00706802181184 0.0149999996647
-0.0424604174921 0.022122321721 0.0149999996647
0.0689876464762 0.00799427171009 0.0149999996647
0.00522647412555 0.0110247572587 0.0149999996647
-0.000101620690149 0.020845894314 0.0149999996647
0.0123326114464 0.00740356249009 0.0149999996647
0.00757263637082 0.00911685834009 0.0149999996647
0.057549071079 -0.0182794201279 0.0149999996647
0.0505222282247 0.022685417684 0.0149999996647
0.0134110092836 0.0165623617202 0.0149999996647
0.0212402108569 0.00482387329326 0.0149999996647
-0.0272012848934 0.0200019218554 0.0149999996647
0.0194118970962 0.00700526495622 0.0149999996647
0.0451417905959 0.00362670654632 0.0149999996647
-0.0187081338924 0.0070135991594 0.0149999996647
0.0146123696481 -0.00244743338464 0.0149999996647
0.00370314205623 0.0174851057304 0.0149999996647
0.0212348175293 -0.00276940233933 0.0149999996647
-0.0251826101259 0.0223701057347 0.0149999996647
0.0327395955027 0.0229573166146 0.0149999996647
0.0691934173334 0.0161225416885 0.0149999996647
-0.063512493795 0.0237246476314 0.0149999996647
0.0152777967408 0.0142470606824 0.0149999996647
0.0642287018627 -0.0133212387443 0.0149999996647
0.0255278128155 0.0237411472044 0.0149999996647
-0.0311211949642 0.0132484045178 0.0149999996647
-0.0155108952487 0.0216030331086 0.0149999996647
-0.0289125255533 0.0241537292436 0.0149999996647
0.0552409282822 -0.0171496907996 0.0149999996647
0.0521593435193 0.00611931637986 0.0149999996647
-0.028733275178 0.0181426567472 0.0149999996647
0.0189287001544 -0.00315215435985 0.0149999996647
-0.0162691112149 0.0144694134175 0.0149999996647
0.0375649996856 0.0212692136822 0.0149999996647
0.0408588492302 -0.00636134901033 0.0149999996647
-0.00251750842775 0.00435713526308 0.0149999996647
0.0311227546618 0.0150298765348 0.0149999996647
0.070266681195 -0.0218901174659 0.0149999996647
0.0699595198086 -0.00266480011689 0.0149999996647
-0.00381395845922 0.0139534042011 0.0149999996647
0.0325311158206 -0.000342850240713 0.0149999996647
0.061200199348 0.0013556092698 0.0149999996647
0.0728005941439 -0.0139392937408 0.0149999996647
0.0353496299614 0.00556507740405 0.0149999996647
0.0675476775818 0.0206744946769 0.0149999996647
0.0511126007964 0.00404075275434 0.0149999996647
0.0224666556531 0.00965067149547 0.0149999996647
0.0474820842511 0.0215216977036 0.0149999996647
-0.0135605295457 0.00797331007533 0.0149999996647
-0.0339586681293 0.0179660566907 0.0149999996647
9.31371890521e-05 0.00559219291987 0.0149999996647
0.0385324976687 0.00845724200507 0.0149999996647
0.0573082310904 0.011694173326 0.0149999996647
0.0602862284433 0.00938181281693 0.0149999996647
0.00166788820443 0.00185403536694 0.0149999996647
0.0677226990107 0.0013221980843 0.0149999996647
-0.0179847880542 0.0129352686175 0.0149999996647
0.0224984858586 0.0073839155405 0.0149999996647
0.0243975547929 0.00199677571989 0.0149999996647
-0.00993499636056 0.0212571403483 0.0149999996647
0.0397441221493 -0.0130547364389 0.0149999996647
0.0508820861851 -0.00519679430672 0.0149999996647
0.0194544233404 0.0220018154739 0.0149999996647
0.0179795880069 0.0192092777435 0.0149999996647
0.0720152632747 0.0184238129089 0.0149999996647
-0.0616427425963 0.0208680875539 0.0149999996647
-0.00704096174982 0.00606859856665 0.0149999996647
0.0420032707581 0.00736068492751 0.0149999996647
-0.0387492990406 0.0180736347207 0.0149999996647
0.0713547040986 -0.00687542854936 0.0149999996647
0.0489589561325 -0.00355299554378 0.0149999996647
-0.00946825900675 0.0176830661386 0.0149999996647
0.0494621423476 -0.00757756138152 0.0149999996647
0.06271317193 0.0159171155234 0.0149999996647
0.060895466859 0.020924799056 0.0149999996647
0.0716701361873 -0.00901862671744 0.0149999996647
0.0587849141394 0.00782346937276 0.0149999996647
-0.00675515212512 0.0150359977585 0.0149999996647
-0.0116260259713 0.0127273020946 0.0149999996647
0.000477348276403 -8.95565013565e-05 0.0149999996647
0.0335033210381 0.0041785076334 0.0149999996647
0.0128897503686 0.00457380618225 0.0149999996647
0.0240108718441 0.00610022704491 0.0149999996647
0.0111773071468 0.0198844381206 0.0149999996647
0.0267730306475 0.0175353710005 0.0149999996647
0.0533363702724 -0.00745269109426 0.0149999996647
0.0289081478982 -0.000616708438221 0.0149999996647
0.0507345891549 -0.00282040750975 0.0149999996647
0.0626626111194 -0.00757674720058 0.0149999996647
0.0344521876065 0.000882299056515 0.0149999996647
0.00279257987978 0.0197255623123 0.0149999996647
0.0173079309169 0.0120102424756 0.0149999996647
-0.0225766432349 0.0162226008205 0.0149999996647
0.0514702744951 -0.00879358048739 0.0149999996647
0.0598131142413 -0.000666026839366 0.0149999996647
0.0713684373478 -0.0109879329842 0.0149999996647
0.0104099879198 0.00939589056207 0.0149999996647
0.0611577047342 0.00363584299592 0.0149999996647
-0.0667820692873 0.0242232936911 0.0149999996647
0.0608159755225 0.0146636696314 0.0149999996647
0.0650987422247 -0.00100973116677 0.0149999996647
-0.030584783456 0.0159823497238 0.0149999996647
-0.0332263664876 0.0214255848622 0.0149999996647
0.0347036037765 -0.00506515524671 0.0149999996647
0.0266872986572 -0.00254253043177 0.0149999996647
0.00795706807051 -0.000365022111355 0.0149999996647
0.00251178734576 -0.000449535915562 0.0149999996647
0.0621548046541 0.0131299346016 0.0149999996647
0.0676534574344 -0.0127310048963 0.0149999996647
0.0357723349479 0.013931381933 0.0149999996647
0.0249773312232 0.0185015670957 0.0149999996647
0.0296995825886 0.0180135017623 0.0149999996647
-0.0235370616911 0.00802311811869 0.0149999996647
0.0251647754691 -0.00629489598006 0.0149999996647
-0.00321045139059 0.00834605667703 0.0149999996647
0.0719037640306 0.0142362953726 0.0149999996647
0.0236226205852 -0.00210114242559 0.0149999996647
-0.0142174371975 0.0184796793092 0.0149999996647
-0.00456426723886 0.0199674962433 0.0149999996647
0.0493151485416 0.00223952959881 0.0149999996647
0.00678783209866 0.00413681655016 0.0149999996647
0.0594976987926 0.0129830702206 0.0149999996647
0.0234591215783 -7.21741702682e-05 0.0149999996647
0.0319461593587 0.00201163453761 0.0149999996647
-0.0295091526814 0.0204284365256 0.0149999996647
-0.0584929370521 0.0220035578489 0.0149999996647
0.0157256803443 0.00256973960706 0.0149999996647
0.0084696567705 0.0121635369642 0.0149999996647
0.0662538305327 0.0143824416035 0.0149999996647
0.0406942482474 0.0104396813116 0.0149999996647
-0.0197915716461 0.0162753294122 0.0149999996647
0.0161896798655 0.00921361445281 0.0149999996647
0.0549172230395 -0.0101504103296 0.0149999996647
0.0237619991529 0.0153218285976 0.0149999996647
0.0547637190969 -0.00375880200015 0.0149999996647
0.00595987444655 0.0220876474399 0.0149999996647
-0.00116607224606 0.00928646882102 0.0149999996647
0.0411170046286 0.0169716608261 0.0149999996647
-0.0441352688902 0.0153211156073 0.0149999996647
0.0386076354252 0.0177152335253 0.0149999996647
0.0730312591376 -0.0241888398175 0.0149999996647
0.0530417460764 -0.00175570339129 0.0149999996647
0.036287441757 0.0183999496294 0.0149999996647
-6.86805436111e-06 0.0243510011715 0.0149999996647
-0.0355468240769 0.0210881568352 0.0149999996647
0.07296883421 0.0081424001012 0.0149999996647
0.0485847194806 0.00472103026264 0.0149999996647
0.0100569324568 0.015446319104 0.0149999996647
-0.0232763964415 0.0241791496469 0.0149999996647
0.0275307136574 -0.00715286647262 0.0149999996647
0.0198776804718 0.0183455819678 0.0149999996647
0.0474753531891 0.00303179493303 0.0149999996647
0.0354068916119 0.01646633609 0.0149999996647
-0.00459542497947 0.00643726282774 0.0149999996647
0.0725459455964 0.00418919003069 0.0149999996647
0.0305308222283 -0.0064050497534 0.0149999996647
0.0558438478553 -0.0120991338344 0.0149999996647
0.0424103504656 -0.002527097766 0.0149999996647
0.0444375534444 -0.0146629247754 0.0149999996647
0.0598588047648 0.00506298443855 0.0149999996647
0.0538158658822 -0.0148548714364 0.0149999996647
-0.0464610110807 0.0212470302174 0.0149999996647
0.0500862772015 0.0155861002643 0.0149999996647
0.00298497066966 0.00980740389202 0.0149999996647
0.0655201957063 0.00745512434835 0.0149999996647
0.0228687164438 0.0202793334036 0.0149999996647
-0.039739600107 0.0206735773679 0.0149999996647
-0.0472392364585 0.0243886668688 0.0149999996647
0.0631611235591 -0.0150391328189 0.0149999996647
0.0146133934162 -0.000272253178062 0.0149999996647
0.0122593322349 0.0219085029864 0.0149999996647
0.0260408979677 0.0146340417123 0.0149999996647
-0.0254489869183 0.0129369031552 0.0149999996647
0.0444072459599 0.0173086701485 0.0149999996647
-0.0136891654346 0.0161491162061 0.0149999996647
0.000247822816432 0.0106295483188 0.0149999996647
0.0552163709098 0.0213265533317 0.0149999996647
0.0661265057819 -0.0149786870246 0.0149999996647
0.0153541369148 0.0121874714755 0.0149999996647
0.0521877214606 0.0144595179192 0.0149999996647
0.0196906499829 0.0120555489557 0.0149999996647
0.0527463439705 0.00273520899852 0.0149999996647
-0.0577841215605 0.0200329319373 0.0149999996647
-0.00506640608895 0.0178845450158 0.0149999996647
0.00638010925344 0.0134742091953 0.0149999996647
0.0677632017592 -0.0207523429405 0.0149999996647
0.0657657516403 0.0053307528288 0.0149999996647
0.0147669108641 0.0229647796242 0.0149999996647
0.0692914721066 0.00271994235102 0.0149999996647
0.0566061812046 0.00341718661176 0.0149999996647
-0.00992062944185 0.0111439055423 0.0149999996647
0.0494078851078 0.00693896011752 0.0149999996647
0.0322022432093 0.00749481088218 0.0149999996647
0.0731647235049 0.00215684506033 0.0149999996647
0.0675219547111 0.00407575691334 0.0149999996647
0.0284194313587 0.0162146280009 0.0149999996647
0.0415302792104 0.00531320844915 0.0149999996647
0.0474013915793 0.0176644571735 0.0149999996647
0.0355770958115 0.0119772664458 0.0149999996647
-0.0496358665712 0.0204883129108 0.0149999996647
0.055882661887 0.0135210223605 0.0149999996647
-0.0505703364314 0.024024616525 0.0149999996647
0.0482997152071 0.0107334653296 0.0149999996647
0.0710540214782 -0.0158112376647 0.0149999996647
0.0164646846634 0.000733399248362 0.0149999996647
0.0427242753069 0.00926377370314 0.0149999996647
-0.00660335455561 0.0196144063581 0.0149999996647
0.0266014021288 0.021940761458 0.0149999996647
-0.0329052654905 0.0162996652004 0.0149999996647
0.0325044506776 -0.00344281940103 0.0149999996647
-0.00494593485699 0.0122266751129 0.0149999996647
0.0656193184007 0.020091749386 0.0149999996647
0.0290716801423 0.0232644561211 0.0149999996647
-0.0275840904627 0.022354089508 0.0149999996647
0.0365749667981 -0.0062346584914 0.0149999996647
-0.0501074833649 0.0185476607605 0.0149999996647
0.0515670820283 0.0204086509493 0.0149999996647
0.0161369645935 0.0206650798968 0.0149999996647
0.0103855444278 0.0179973679385 0.0149999996647
0.0452702556625 0.0114654006404 0.0149999996647
0.0415696910989 0.0127174777516 0.0149999996647
0.0709187583647 0.00883400024775 0.0149999996647
0.0374620674513 0.0157966560861 0.0149999996647
0.0340248297619 -0.00692078010775 0.0149999996647
0.0713984173232 -0.000171895432546 0.0149999996647
-0.00172396606387 0.0180139680964 0.0149999996647
0.0701309439672 0.0121903112429 0.0149999996647
0.0281348029028 0.0192847400459 0.0149999996647
0.00555558203558 -0.000669846379327 0.0149999996647
0.0262008193128 0.00567410843079 0.0149999996647
0.0439554852999 0.00528006363276 0.0149999996647
0.051709530661 0.0167508165988 0.0149999996647
-0.0103769379899 0.00409522688653 0.0149999996647
-0.0449333839622 0.0196417028904 0.0149999996647
0.0378438876023 0.00556888289668 0.0149999996647
0.0567485538009 -0.0044222726336 0.0149999996647
0.0610914796277 -0.0159043041025 0.0149999996647
-0.0133112458547 0.0218082235317 0.0149999996647
-0.035920145982 0.0188995128496 0.0149999996647
0.0286521054638 0.00375805035949 0.0149999996647
-0.0226306383045 0.0182741204999 0.0149999996647
0.0656942463485 -0.0198765675166 0.0149999996647
0.0414355518356 0.0242833358864 0.0149999996647
-0.0446057096252 0.0173126580061 0.0149999996647
0.0184177865987 0.00996422971027 0.0149999996647
0.0565724312244 0.00781436740365 0.0149999996647
0.0555688313989 0.0232781651004 0.0149999996647
0.0606006527532 -0.00264572664489 0.0149999996647
-0.019630948774 0.01892123577 0.0149999996647
0.0167917401005 -0.0016842907396 0.0149999996647
-0.0178163645403 0.0221664418517 0.0149999996647
-0.00208472742839 0.00638979788871 0.0149999996647
0.0404008810485 -0.008390635706 0.0149999996647
0.0713460245635 0.016499536252 0.0149999996647
0.0582128569363 0.0239334653148 0.0149999996647
0.0565337299345 0.00551072874806 0.0149999996647
0.067285945832 -0.0033464634324 0.0149999996647
-0.00659133691191 0.0222999106942 0.0149999996647
0.0544160345068 0.00382617738983 0.0149999996647
-0.0173003542255 0.0106419444937 0.0149999996647
-0.0241280649367 0.0111758232423 0.0149999996647
-0.0325951299899 0.0195070648798 0.0149999996647
0.0437152362336 -0.0102936331641 0.0149999996647
0.0642877488603 0.0121626616517 0.0149999996647
-0.0102180959599 0.00717330464474 0.0149999996647
0.0523179015011 -0.0105784561217 0.0149999996647
-0.0480980738794 0.0170765079998 0.0149999996647
0.00354320642328 0.0122572779416 0.0149999996647
0.0450734566312 0.021399188169 0.0149999996647
0.0306891502234 0.00412846696324 0.0149999996647
-0.0161622691181 0.0174532519104 0.0149999996647
0.0651025770968 -0.00606953150859 0.0149999996647
0.0457453872999 0.0140362317888 0.0149999996647
-0.0124840417848 0.00477270002332 0.0149999996647
-0.019561242271 0.00915840820672 0.0149999996647
0.0713818711951 -0.0182122835829 0.0149999996647
0.0327609380199 0.0116179340636 0.0149999996647
0.0589165195109 0.0188602258446 0.0149999996647
0.0179146411629 0.00483018657538 0.0149999996647
0.0425464269285 -0.00764323210965 0.0149999996647
-0.0121865919647 0.0236232165082 0.0149999996647
0.0384997518329 0.00243933858005 0.0149999996647
-0.0283753886304 0.0155413700465 0.0149999996647
0.0429488156145 0.0158298723022 0.0149999996647
0.0662970381861 0.0231270406075 0.0149999996647
0.0211121763784 0.0234909330843 0.0149999996647
0.0150903145035 0.00488258350962 0.0149999996647
-0.0542691823206 0.0234169968732 0.0149999996647
0.0603579890267 -0.0138447240095 0.0149999996647
0.0521315647605 -0.0163308071353 0.0149999996647
-0.0084925498668 0.00945263158152 0.0149999996647
-0.0214631035003 0.00870480320665 0.0149999996647
0.0314031300555 -0.00907570271134 0.0149999996647
0.0481209614574 0.0152150110488 0.0149999996647
0.00316297002313 0.0156073331994 0.0149999996647
0.0563709924295 0.00135633241435 0.0149999996647
0.0401351150588 -0.00283442573527 0.0149999996647
0.0213980787617 0.00139051910766 0.0149999996647
0.0637871481856 -0.00406675076062 0.0149999996647
0.071147725989 0.00673137549425 0.0149999996647
0.0357827512009 0.0235154253485 0.0149999996647
-0.0400309674585 0.0229977884676 0.0149999996647
0.0695980609074 -0.00801091589274 0.0149999996647
0.0128413510479 0.0126695402725 0.0149999996647
0.00677725298787 0.018622095147 0.0149999996647
-0.0155374052238 0.00870171699097 0.0149999996647
0.0697117398023 0.0219067149646 0.0149999996647
0.034591992787 -0.00126601029465 0.0149999996647
0.0584651808589 0.0159285546603 0.0149999996647
-0.00500414466162 0.00438342832257 0.0149999996647
-0.0244242575835 0.0201119726016 0.0149999996647
-0.00235985817766 0.015285278659 0.0149999996647
0.0294956861036 0.00663752162887 0.0149999996647
0.0641788253674 0.000950354541031 0.0149999996647
0.0364745954258 0.00184821769872 0.0149999996647
0.0384045249887 0.0136719001712 0.0149999996647
0.0489417542819 0.0128352747909 0.0149999996647
-0.00174477539556 0.0123197783273 0.0149999996647
0.0552551867111 -0.00102740874091 0.0149999996647
0.0343433260213 0.0204037963489 0.0149999996647
-0.0420687156806 0.0185950349436 0.0149999996647
0.0712120222502 0.0234326728538 0.0149999996647
0.0106692524772 0.00454710700101 0.0149999996647
0.0615605095219 -0.0203483120392 0.0149999996647
-0.026397171092 0.0147436830099 0.0149999996647
0.0269563312228 -0.000121659989875 0.0149999996647
0.0432597674034 0.0112456134668 0.0149999996647
0.041676631237 0.000498080129063 0.0149999996647
0.0355560751674 -0.0116650807221 0.0149999996647
0.0294175728734 -0.00363855764135 0.0149999996647
0.05336987805 0.0193298195005 0.0149999996647
0.0335217852451 0.0176296649742 0.0149999996647
0.0647549301091 -0.00882494913152 0.0149999996647
0.0684297638866 -0.0146649087823 0.0149999996647
0.0294502414458 -0.0084273833907 0.0149999996647
-0.0407955960484 0.015744140378 0.0149999996647
0.0105461853431 0.00157513259112 0.0149999996647
0.0503187316312 0.011391707111 0.0149999996647
0.0295950962655 0.00188431933191 0.0149999996647
0.046859620479 -0.0148172747132 0.0149999996647
-0.00485641280389 0.0237091516722 0.0149999996647
-0.0116302332667 0.0150921933037 0.0149999996647
0.0294772149482 0.0212195116217 0.0149999996647
0.0546435366431 0.0150631395962 0.0149999996647
0.0130758714495 0.00155063164044 0.0149999996647
0.00122041954985 0.0149191826086 0.0149999996647
-0.0250495112453 0.0167646921986 0.0149999996647
0.0216800340611 0.0163946114754 0.0149999996647
0.0595285745 -0.017726835154 0.0149999996647
-0.0532740804493 0.0214897409504 0.0149999996647
0.0586572190256 0.00290085221846 0.0149999996647
0.0231982398951 -0.00571932482487 0.0149999996647
0.00104177498142 0.00843546822752 0.0149999996647
0.0627878244601 0.018885464266 0.0149999996647
0.0168435498297 0.0172640729471 0.0149999996647
0.0499427650779 -0.0161652300009 0.0149999996647
0.0642679358567 0.0225384908889 0.0149999996647
0.036623926181 0.00736797481785 0.0149999996647
0.0438176701886 0.0241993043822 0.0149999996647
0.0599207194295 -0.00941693690634 0.0149999996647
-0.0364661819011 0.0158193327936 0.0149999996647
0.0704020739297 0.020021268365 0.0149999996647
0.057394072678 -0.0106476985269 0.0149999996647
0.0646788969824 0.015858051232 0.0149999996647
0.0125754085159 -0.00257726401726 0.0149999996647
0.00884287254864 0.0224465372317 0.0149999996647
-0.000969705517522 0.00254366869757 0.0149999996647
0.0405723392428 0.00263366827087 0.0149999996647
0.00405256280293 0.00358641708149 0.0149999996647
0.044664726438 -0.00699384297392 0.0149999996647
0.0581867194709 -0.00677308653869 0.0149999996647
0.0639249373894 0.00300709937899 0.0149999996647
0.0189804074087 0.0150261081955 0.0149999996647
0.0685266927543 -0.00495829712697 0.0149999996647
-0.0377758888027 0.0135581020608 0.0149999996647
0.0357338209635 0.00943356388345 0.0149999996647
-0.0304588751377 0.0229752667829 0.0149999996647
0.00442509073194 0.00138068551597 0.0149999996647
0.0115997613785 0.0239054667598 0.0149999996647
0.0659230397744 0.0181143341085 0.0149999996647
0.0458845006791 0.00660787672244 0.0149999996647
0.0307295784182 0.0114423707385 0.0149999996647
0.0264300724576 -0.00455887663089 0.0149999996647
0.052991656273 0.0109775163102 0.0149999996647
-0.0451098689238 0.0231017448631 0.0149999996647
0.0377979702444 -0.0117155871719 0.0149999996647
0.0412984726414 0.0195588037461 0.0149999996647
0.0378373317121 0.0108893505771 0.0149999996647
0.0208291265268 -0.00623112667964 0.0149999996647
-0.00935151002423 0.0145278907145 0.0149999996647
0.0132519282405 0.00936016097382 0.0149999996647
0.0685094869478 0.0187798599108 0.0149999996647
0.00205844912103 0.0218949802795 0.0149999996647
0.0448942553003 0.00894297229645 0.0149999996647
-0.0372082382568 0.0227748618471 0.0149999996647
0.0396508646667 -0.000273293128141 0.0149999996647
-0.0555649548479 0.0217680707388 0.0149999996647
0.00964590462651 0.00710584296778 0.0149999996647
0.0453662011369 -0.00248606879159 0.0149999996647
0.0557452599438 -0.0151561325918 0.0149999996647
0.0489754501883 -0.0010891393928 0.0149999996647
0.023279241276 0.0040861188557 0.0149999996647
-0.0214538339114 0.0110174999413 0.0149999996647
-0.0331906976004 0.0141645155784 0.0149999996647
0.0670262303236 -0.00934141198481 0.0149999996647
0.064627525315 0.00941120527225 0.0149999996647
0.00148611313053 0.0244331339205 0.00960697472822
0.0455227734912 0.0244363656806 0.0091246222407
0.043681636002 0.0245499499547 -0.00782826249191
0.0184928208684 0.0244040654484 0.013945554695
0.0368014090547 0.0245458658121 -0.00721868867762
-0.0244579116765 0.0244587795811 0.00577926238414
0.061624178416 0.0245457852777 -0.00720666861241
0.0125739531761 0.0244670645825 0.00454269441851
0.0106136401573 0.0244747371823 0.0033975297416
-0.013672205786 0.0244573667456 0.00599013345549
-0.0414892128813 0.0244326540866 0.00967859175818
0.0361924230385 0.0245328967263 -0.00528300331788
-0.00771200572974 0.0244430325963 0.00812955972794
-0.0426867728573 0.0244128448342 0.0126351979924
0.0306426115994 0.0244693222564 0.00420572800413
0.024987121502 0.024466819216 0.00457931630783
0.0519877037115 0.0244399984843 0.00858241248526
0.0144639477309 0.024436757716 0.00906610947368
-0.0142239223465 0.0244142437496 0.0124264045484
-0.0174497673397 0.0244518693789 0.0068106363278
-0.00948415112387 0.0244549478911 0.00635115667893
-0.0282366313823 0.0244548131145 0.00637127259869
0.0494388543449 0.0244816750487 0.00236202680095
0.0163914201517 0.0245025813717 -0.000758321382935
-0.0336233806223 0.0244088656013 0.0132291136244
0.044981180713 0.0244227669016 0.0111542917035
0.00484222979865 0.0245001901633 -0.00040142444352
0.0735505044309 0.0245513887205 -0.008043003758
0.0642181056546 0.0244717906916 0.00383730467006
0.0262230536217 0.0244948491619 0.000395740323276
-0.00582434810075 0.0244752052629 0.0033276669201
0.0329505544941 0.0244692581388 0.00421529780396
0.0620717529341 0.0245142253758 -0.00249623327277
0.0706344721282 0.0245558041456 -0.00870202273927
0.0611737287134 0.0245615112523 -0.00955383010478
0.043100313753 0.0245160949386 -0.00277527262066
0.0614004759285 0.0244135032313 0.0125369297194
-0.0241436691589 0.0244398742878 0.0086009492767
0.0401564962143 0.0244991307911 -0.000243309124755
0.00108141087935 0.0244115731102 0.0128250076231
0.00704328644397 0.0243982939135 0.0148069782179
0.0320182747644 0.0244831945508 0.00213523532935
-0.0351007982649 0.0244246706265 0.0108701535259
-0.0376553288909 0.0244351640213 0.00930397446569
0.0393260506893 0.0245150364866 -0.00261729463533
0.0289641164412 0.0245240734626 -0.0039660976639
0.0271425105354 0.0244066492984 0.0135599052615
0.0347125838057 0.0244586229786 0.00580263589588
0.0590371713236 0.0244667700663 0.00458665208725
0.0514169949066 0.0245269514766 -0.00439565219307
0.0298189443001 0.0245052399795 -0.00115512871011
0.0481094275884 0.0244124094491 0.0127001808671
-0.0199410727452 0.0244106289102 0.0129659330689
0.0522304958632 0.0244828283579 0.00218989102226
-0.0319706421636 0.0244459783243 0.00768989861722
-0.0145032658222 0.024400053926 0.0145442896623
-0.0092682576267 0.024409944127 0.0130681395666
0.0686723422222 0.0244574890693 0.00597187617516
0.0239235006342 0.0245173269723 -0.00295915833552
0.0376829956656 0.0244962457277 0.000187297566712
0.0333753536276 0.0244169028317 0.0120295264314
0.0724406995879 0.0244122600557 0.0127224783994
0.0077113663553 0.0244320059336 0.00977533105388
0.0184038955176 0.0244950811007 0.00036112256516
0.015162173749 0.0244117020405 0.012805764293
0.0454410212025 0.0245065172903 -0.00134577220463
0.0383212341676 0.0244634068624 0.00508862305386
0.0628320995995 0.024530179647 -0.00487746889522
0.0666722441352 0.0244274564218 0.0104543629838
0.0650041935037 0.0244884161185 0.00135589650754
0.00485576156654 0.0244046492281 0.0138584233514
0.00540127021813 0.0244643071774 0.00495424762108
0.0268035370263 0.0245315557116 -0.00508285176704
-0.018861066037 0.0244664202826 0.00463885863681
0.0405147847302 0.0245321711675 -0.00517471090753
-0.00187577266772 0.0244905101721 0.00104335104271
0.0502593403317 0.0244146929729 0.0123593562616
0.0371482027081 0.0244104994661 0.0129852530863
0.0172248825711 0.0244537659338 0.00652756829462
-0.0337300685372 0.0244392534842 0.00869360657875
0.00143380294514 0.0244727114463 0.0036998785391
-0.0358052526795 0.0244023509402 0.0142014515601
0.0678931824051 0.0243977579464 0.0148869733409
0.054526291101 0.0245656429783 -0.0101705059159
-0.0690349795608 0.0244007224323 0.0144445125634
0.054956334843 0.0244777445473 0.00294866906886
0.048995516598 0.0243990034923 0.0147010708824
0.0241709558191 0.0244282068678 0.0103423560699
0.0410703381513 0.0244557034059 0.00623839322308
0.0479101874045 0.024539637943 -0.006289155542
0.0345172547823 0.0245095848912 -0.00180362329474
0.0665339195043 0.0244973914038 1.6301051245e-05
-0.0158539472559 0.0244683370367 0.00435277579393
0.0385621136844 0.0245309720051 -0.00499573136198
0.0463840621764 0.024454596845 0.00640355164717
0.0563688201992 0.0245188469875 -0.00318602639008
0.0616286990343 0.0244710159228 0.00395294185894
-0.0321564702615 0.0244295114409 0.0101476435708
-0.00115619989509 0.0244257848809 0.0107038468278
0.0735232068121 0.0245716204779 -0.0110626704604
0.0100510886535 0.0245083658404 -0.00162167533988
-0.0221307741674 0.0244157369975 0.0122035316222
0.0638694128394 0.0245023597657 -0.000725245852504
0.0333960641658 0.0244954597536 0.000304607188934
0.0676308886845 0.0245422532232 -0.00667949605348
0.0296087381232 0.0244320523419 0.00976840444746
0.00297499773559 0.0243986403975 0.0147552641732
0.057831372426 0.0244532485335 0.0066047922596
-0.0117233031309 0.0244088024951 0.0132385324603
