-0.0225529475792 0.0174092626892 -0.011936342821
-0.0294811507277 0.014402701176 0.0137892754823
-0.0364417592289 0.0200929995626 0.0360814080461
-0.0274860093494 0.0200929995626 0.00488658807387
-0.0261174706352 0.0200929995626 -0.00124850701315
-0.0341453561861 0.0200929995626 0.0335028621314
-0.0300742875921 0.0200929995626 0.0158783629216
-0.0289476832033 0.0200929995626 0.0107140489749
-0.0267889612182 0.0200929995626 0.00870359193533
-0.0254847638206 0.0115360002965 -0.0354363851572
-0.0252548993096 0.0115360002965 -0.026455714638
-0.0259088616535 0.0115360002965 -0.0301308606513
-0.0270525274534 0.0115360002965 -0.0161981168185
-0.0321068483861 0.0115360002965 0.0118600064225
-0.0246025344223 0.0115360002965 -0.0388523253023
-0.0363579899643 0.0115360002965 0.0218987007564
-0.0371614856973 0.0115360002965 0.0274384861286
-0.036585671794 0.0115360002965 0.0182315844811
-0.0342601336768 0.0115360002965 0.0246178735107
-0.0326332808981 0.0115360002965 0.0076456075664
-0.0392487228675 0.0115360002965 0.0404690657701
-0.0377190113856 0.0115360002965 0.0373219862003
-0.0380078600156 0.0115360002965 0.0309825736423
-0.0343148062887 0.0132016059499 0.0335826338551
-0.0218915092393 0.0200583666512 -0.00952607805214
-0.0285113707066 0.0188271715269 0.0183196553037
-0.0329334995115 0.015429331584 0.0317382910849
-0.0347362357071 0.0137121159337 0.0365403798618
-0.0280426640672 0.0166390227093 0.0117693613263
-0.0297337978163 0.0160793522817 0.01838961715
-0.0307420954648 0.0190524625938 0.0289912059536
-0.0271968232854 0.0167286164476 0.00807514736267
-0.0311991208273 0.0157671256396 0.0244734533149
-0.0319339430164 0.0196042318275 0.0355610018418
-0.0321180452753 0.0177392213109 0.0326512677938
-0.0279614242678 0.0183555013415 0.0148513758197
-0.0261860788455 0.0168168425126 0.00362281389295
-0.0238981970525 0.0177504535808 -0.00497844331861
-0.031193447357 0.0171377098255 0.0272055525585
-0.0302276235077 0.0167578485366 0.0220170319701
-0.0325508245193 0.0147878291357 0.0286944638964
-0.033191143563 0.016910885343 0.0358998668706
-0.0341619987011 0.016145081407 0.0385444277525
-0.032969774922 0.0189760259444 0.0384722562855
-0.0356349436757 0.0159139114458 0.0428899480939
-0.0358555547875 0.0137077065227 0.0407308443571
-0.0370671058205 0.0126789528454 0.0430535978685
-0.0329031794542 0.0128764135488 0.02638792858
-0.0284056466357 0.0143199892758 0.00838196158985
-0.0273991683544 0.0150417406343 0.00539926627827
-0.0260415018034 0.0154567920098 -9.05781671033e-05
-0.0191745660103 0.018315285021 -0.0258643974496
-0.0202486553426 0.0178078078474 -0.0219914837917
-0.023765148115 0.0166110778029 -0.00809176346788
-0.0175315329393 0.0184658410946 -0.0334315999611
-0.0209578024349 0.017594273138 -0.019115430821
-0.0180695288169 0.0200929995626 -0.0309242879679
-0.021828131206 0.0200929995626 -0.031062635728
-0.0203540913427 0.0200929995626 -0.0281488617767
-0.0231280348204 0.0200929995626 -0.0145004862926
-0.0276730040654 0.0200929995626 0.00118825415351
-0.025897396066 0.0200929995626 -0.0129008513601
-0.0190327094964 0.0200929995626 -0.0409980580839
-0.0360464737073 0.0190230506232 0.045024040267
-0.0410196766325 0.0163153633895 0.0434295982102
-0.040414789684 0.015566493548 0.0377486908346
-0.0385547981681 0.016324101787 0.030301193747
-0.0265569022032 0.015863471623 -0.0279759627937
-0.0387502339987 0.0178745353001 0.034204141089
-0.0359247708789 0.014640295303 0.0144963641266
-0.0346108274294 0.0157949459543 0.0104211097879
-0.0399094131277 0.0144052686794 0.0331081229427
-0.0352263048976 0.0173054335862 0.0162569771659
-0.0301464384892 0.0160388830365 -0.0104685969451
-0.0324049560252 0.0147821244194 -0.00207016978109
-0.0328088615091 0.0167459137091 0.00362134649576
-0.0257697567171 0.0155805795442 -0.0322830437953
-0.0309916786075 0.015620335712 -0.00722638238995
-0.0369239217525 0.0167627700902 0.0233391814544
-0.0377642314015 0.0169053721675 0.027632028616
-0.0341277978871 0.0149940179184 0.00657716826608
-0.0391379643445 0.018610195282 0.0449218899961
-0.0355226326802 0.0118796198883 0.00908914216456
-0.0266739058631 0.0123566684346 -0.0330101117806
-0.0327740777644 0.0121662471272 -0.00388494432277
-0.0418824020371 0.0137087593335 0.0414052976816
-0.0394213397972 0.013671284458 0.0295324716457
-0.0347220064785 0.0122522341694 0.00556652329448
-0.0417049224178 0.0119312359565 0.0388432747077
-0.0409167293689 0.0127164764407 0.0358070640752
-0.0384970551352 0.0132656135435 0.0246971029478
-0.0314857639035 0.0127640783291 -0.00950667550623
-0.0334138879799 0.0140910806323 0.00159807533379
-0.0289422248643 0.0130051013034 -0.0213972372183
-0.024609184083 0.0141393811332 -0.0402156096658
-0.0302707196617 0.0132268450174 -0.0147253532742
-0.0277485343558 0.0144939238991 -0.0247178202169
-0.0371371629416 0.0142088924811 0.0194989698047
-0.0295388724996 0.0131578844469 -0.0183165177473
-0.0418909072223 0.0127405890014 0.0442499662789
-0.039873351714 0.0149153544991 0.045538529227
-0.0339927479743 0.0120186671166 0.0292790181265
-0.0188911925358 0.0171928723741 -0.0308013599099
-0.029863741011 0.0129876722291 0.0110468565036
-0.02428555394 0.0123903654832 -0.0222690651082
-0.0281076914561 0.0124409302319 -0.0010203951686
-0.0231413889167 0.0120910728041 -0.0298808808207
-0.02513102784 0.0150943785158 -0.00571373967512
-0.0270185763256 0.0131938019254 -0.00369727945403
-0.0189714714135 0.0162613253796 -0.0344608193847
-0.0282115758643 0.0131665616188 0.00274563782741
-0.0262533404026 0.0127859047373 -0.00970268360108
-0.0208187059022 0.0160629171852 -0.0251724300588
-0.0296782811328 0.01217699185 0.00645764309085
-0.024680727679 0.0132944889344 -0.0161148113305
-0.0224011706228 0.0160850643938 -0.0163695898148
-0.0197629211331 0.0167120158203 -0.0281228149207
-0.0319583260409 0.0121427069292 0.0188495207899
-0.0206512280886 0.0132017878591 -0.0386897090733
-0.0243125288505 0.0145491308566 -0.0126168284751
-0.0232731219447 0.0142769930608 -0.0195328086849
-0.0217776366537 0.0122838566282 -0.0365343343054
-0.017234637887 0.0174851780055 -0.038627417109
-0.0212476714086 0.0139703558829 -0.0320250211113
-0.0229510482 0.0135485772993 -0.0245113868458
-0.0221290935619 0.0139028841683 -0.0274732469304
-0.0261226021721 0.0176546332235 -0.0254645972355
-0.0282108796417 0.0179958425379 -0.014873735168
-0.0369968413612 0.0197256171163 0.0307112984461
-0.0295208032442 0.0186727390036 -0.00661567904929
-0.035821855334 0.0194788890399 0.0245612941021
-0.0341841415785 0.0183034702994 0.0136277273137
-0.0354848078695 0.0189782858878 0.0215463822936
-0.0389868588697 0.0199750125244 0.0406035123199
-0.0330705376877 0.0182318688895 0.00824499892712
-0.0390363310874 0.0185270280688 0.0368473588143
-0.0248525824101 0.0159891995989 -0.0357338522132
-0.0310575315058 0.0171241639234 -0.003926092936
-0.0318774946199 0.0171142611818 -8.29553318327e-05
-0.0280320745648 0.0168340673234 -0.018842068766
-0.0273090063795 0.016615013574 -0.0227441674226
-0.0233971500745 0.0200863535317 -0.0262627602759
-0.0220554090545 0.0190884219766 -0.0375761413844
-0.0217710849882 0.0186614940106 -0.0406335304305
-0.0239347173287 0.0190726044012 -0.0295580371436
0.0255188006299 0.0148623241013 -0.0387347452598
0.0240107402657 0.00550311671758 -0.0392731503492
0.0200982330375 0.0135878079136 -0.0416020005941
0.0211798021023 0.011846471017 -0.0391804935517
0.0200001883623 0.0165792414398 -0.0377990007401
0.0228402120504 0.0149611505187 -0.0377990007401
0.028083563427 0.00812753417882 -0.0391752122351
0.0281415426973 0.00546870051663 -0.0404412441792
0.0226293093779 0.018090674792 -0.0389080322364
0.0246505962113 0.0154523085075 -0.0414840153676
0.0271329611594 0.0121633825331 -0.0399150293954
0.0179024102946 0.0194475179428 -0.0416020005941
0.0130853088451 0.0228465534357 -0.0416020005941
0.0103949924734 0.0239020799506 -0.0416020005941
0.00383546670064 0.0239514140474 -0.0395152534178
0.00932104773819 0.0219080492097 -0.0383629808464
0.00643722389048 0.0231260856509 -0.0383936149635
0.0161976652145 0.0191129201844 -0.0378526959209
0.0112394399082 0.0238509678145 -0.0377990007401
0.0140811219359 0.0255286814173 -0.0377990007401
0.0141405381751 0.0221499041837 -0.0377990007401
0.00231936123562 0.0256902084487 -0.0416020005941
0.010783460291 0.0209324513004 -0.040479574872
0.0132761514941 0.0200533140132 -0.0394173526316
0.0064561387177 0.0281152942638 -0.0394990834228
0.0114211185356 0.0269322029448 -0.0392111328177
0.0138825546609 0.0257023495464 -0.0411124260818
0.00293892772601 0.0283902074266 -0.039638729226
-8.41233478089e-05 0.0281181333863 -0.0416020005941
0.0207009547908 0.0202589550218 -0.0396828742846
0.0168430371156 0.0239911814565 -0.0384260143665
0.0193445598442 0.0216413879224 -0.0378497187106
-0.0153580000624 -0.0362152935356 0.0329921459041
-0.0153580000624 -0.0386590503207 0.0401108159514
-0.0153580000624 -0.0332202011133 0.0183446689965
-0.0153580000624 -0.0294884145873 0.00564866860863
-0.0153580000624 -0.0300892853386 0.00850180989987
-0.0153580000624 -0.0286748903872 -0.00370111988096
-0.0219675714336 -0.0265040006489 0.015587538788
-0.0279961005013 -0.0265040006489 0.0270999420277
-0.0153580000624 -0.0322203296496 0.0218390248128
-0.0243598641224 -0.0265040006489 0.0275904523704
-0.0183601079156 -0.0266747692528 -0.00726123192228
-0.0317383074667 -0.0265040006489 0.0317608200758
-0.0203146134384 -0.0265040006489 0.00191956059237
-0.0217607892288 -0.0265040006489 0.00471066421343
-0.030886777349 -0.0267471577028 0.0268011372203
-0.0272352853621 -0.0265757191496 0.0133009967613
-0.0234743069399 -0.0324753871575 0.0454030488089
-0.0284203903878 -0.0284341552737 0.0454049925282
-0.0156884339046 -0.0406718358176 0.0429095962522
-0.0327382656473 -0.0292301482883 0.040055197171
-0.0304393079514 -0.0287414777748 0.030462691302
-0.0287496543474 -0.0285292888955 0.023883485076
-0.0291518726035 -0.0290545955923 0.0269711172711
-0.0311013969473 -0.0304083262611 0.0381156688497
-0.0279333992737 -0.0277101953722 0.0184088551759
-0.0319455718051 -0.0287265438825 0.0356738034013
-0.0178812926701 -0.0391511038322 0.0453834874348
-0.0263256783463 -0.0317751548079 0.0454037050659
-0.0320373007393 -0.0273139054186 0.0454056463933
-0.0168351021692 -0.0366557252505 0.0451741686293
-0.0202662384157 -0.0338578634125 0.0447969761696
-0.0281349358653 -0.0265653037985 0.0421027549471
-0.0158068627525 -0.0356148330067 0.0427765365169
-0.025112079624 -0.0284646955295 0.0411717285602
-0.0180691961815 -0.033963173535 0.0426901368588
-0.015653049668 -0.0348623039668 0.0397530280597
-0.0201252153052 -0.0322783699049 0.0419678974924
-0.0229464494 -0.0301599256591 0.041654362646
-0.0165996943632 -0.0289617823007 0.013078074722
-0.0173816625479 -0.0314394436341 0.029508961453
-0.0168117532006 -0.0282548890553 0.0100356420503
-0.0208212954515 -0.029211188737 0.0303969639957
-0.0155969674832 -0.0330384021053 0.0314562754139
-0.0217587041788 -0.0276380180702 0.0253861641514
-0.0211803719003 -0.0273827015526 0.0218109217214
-0.0206724667212 -0.0304072581727 0.0363387417474
-0.0155365500219 -0.0336652870365 0.0346369834806
-0.0186467197861 -0.0266112292602 0.00803531590082
-0.0230595126434 -0.027751651209 0.0309226961695
-0.0197058584262 -0.0294417281851 0.0274330474707
-0.0216237637054 -0.0292535400093 0.0336615427263
-0.0173256931368 -0.0265374368684 0.0026389995592
-0.0170707160533 -0.0301280587159 0.0212015850884
-0.0178243850497 -0.0285580499989 0.0155132311391
-0.0161311840338 -0.0265408581711 -0.00185902623918
-0.0156367343605 -0.0303488001118 0.0169799155224
-0.0182956057273 -0.0316734911832 0.0342375369188
-0.023798327538 -0.0279954263993 0.0350419846604
-0.0196066490135 -0.0278695830373 0.018508204173
-0.0231076060359 -0.0289773433192 0.0374796609624
-0.0257504849279 -0.0272327605996 0.0378808686623
-0.0181366592044 -0.0324274021881 0.037452944055
-0.0154196589855 -0.0312764161582 0.000199885555195
-0.0165793431779 -0.0329695469005 0.00670226791008
-0.0198902315078 -0.0365238384955 0.0288644543054
-0.0208828312281 -0.0371592781184 0.0337654161131
-0.0220771270141 -0.0376170495677 0.0383671846487
-0.0161347873945 -0.0353756030778 0.0164310180532
-0.0174469094665 -0.0358629296897 0.020772228599
-0.0186209152493 -0.0395974704967 0.0392687072416
-0.0162438868215 -0.0384592551245 0.0302728944292
-0.0159801960654 -0.0368713732713 0.0228000787438
-0.0178748849055 -0.0385055277799 0.033190627602
-0.0158429240692 -0.0402663621231 0.037611385112
-0.0184671593062 -0.0365583830215 0.0258647697909
-0.0177821162751 -0.0336197267286 0.0119669232289
-0.0183007959404 -0.034058766514 0.014923408266
-0.0248236744745 -0.0330291126533 0.0272498633798
-0.020626789724 -0.0302574891102 0.00482344575293
-0.0212324045612 -0.0307243623864 0.00832243530595
-0.0246022611037 -0.0322710686443 0.0236639188252
-0.0227434416799 -0.028261572414 0.00280571184693
-0.0228229645774 -0.0311313197208 0.0142947223137
-0.0252168407515 -0.0335475577848 0.0303671557338
-0.0191470435885 -0.0288668771452 -0.00301718745603
-0.0206104404056 -0.028903640817 0.000182944987029
-0.0162093141669 -0.0281504311413 -0.0115065371523
-0.0179277381158 -0.0314821238088 0.00374642333043
-0.0179544280236 -0.0302242277512 -0.000704451902703
-0.0222584015122 -0.0326308203168 0.0186425677973
-0.0219873666411 -0.0334545447463 0.0211908605915
-0.0248137675195 -0.0345133476475 0.0330583480429
-0.0246690379826 -0.0362463755823 0.0395712144015
-0.0209745206181 -0.0351494450162 0.0255209431246
-0.0215335990241 -0.0361789980596 0.0310829927118
-0.0199503204972 -0.0321557594476 0.0107598498105
-0.0200053302057 -0.0341536220243 0.0191353523002
-0.033185202106 -0.0291183632445 0.0428965862002
-0.0296827181253 -0.0313797371633 0.045070204832
-0.0263636674628 -0.0341132637521 0.0358454905862
-0.0273480588573 -0.0345606046396 0.0404350698098
-0.0250245623624 -0.0308106834981 0.019195958177
-0.0248217438555 -0.0288428957258 0.0113768028296
-0.0274416059799 -0.0320636237089 0.0316228148539
-0.025767271287 -0.0294275546184 0.0166061202101
-0.0287241239061 -0.0327367411343 0.038284641436
-0.0240489333537 -0.0286846816293 0.0082522245435
-0.027012349146 -0.0314422261375 0.0279686340969
-0.0267109706453 -0.0305942469634 0.0239225015131
-0.028243895207 -0.0320702337189 0.0342996776558
-0.0258873572105 -0.0354752490533 0.0449081916805
-0.0285510371924 -0.033599794351 0.0428053406582
-0.0229088074138 -0.0377907208417 0.0423279252445
-0.0205173396046 -0.0384014704768 0.044870953267
-0.0200304270332 -0.0393790445143 0.0419758292777
-0.0338415365784 -0.0213347825702 0.044680519998
-0.0252177687039 -0.0215377797059 0.0145794348504
-0.0163384524933 -0.0206881382381 -0.0304798066118
-0.0181767335156 -0.0223624167752 -0.0135350919447
-0.0279308007344 -0.0212416705533 0.0255224283609
-0.0180464831113 -0.0209941875971 -0.0210873006907
-0.0156179070151 -0.0248193852418 -0.0127870964477
-0.0191021435461 -0.0240004867589 -0.000962909366581
-0.0171251583456 -0.0250199895859 -0.00485178518052
-0.0230280281404 -0.0224471869173 0.00915477647698
-0.0209892973285 -0.0220367167569 -0.0022858286979
-0.0169913593163 -0.0213522007609 -0.0241087316119
-0.0217024218564 -0.0227903084973 0.00481660963566
-0.0271143059351 -0.0213162126213 0.0221550305541
-0.0170498474824 -0.0224827031336 -0.0180941305549
-0.025212758642 -0.020783152881 0.0107207468481
-0.0164884177046 -0.0234975645474 -0.0155116653438
-0.0220161132235 -0.0204904571387 -0.00543403199276
-0.0209263586025 -0.0228918996663 0.00177221033188
-0.0160532124846 -0.0228360294555 -0.0208710226067
-0.0195617793413 -0.0224289735505 -0.00684184279599
-0.0192896887269 -0.0209371082466 -0.0156732823141
-0.018056069108 -0.0230674760286 -0.0105049783056
-0.020835011707 -0.0207246426104 -0.00966288621671
-0.0260437337264 -0.0216035732874 0.0187035980147
-0.0209387023439 -0.0240363855944 0.00764616604148
-0.0227247941919 -0.0233904375501 0.0125579194774
-0.0202192384885 -0.020320000127 -0.028402523083
-0.0208336043975 -0.020320000127 -0.0127250741571
-0.0319524624422 -0.020320000127 0.020383758217
-0.0288962053849 -0.020320000127 0.0140236681893
-0.0344772323249 -0.020320000127 0.0364270936857
-0.028053637264 -0.020320000127 0.00728454912865
-0.0339440085757 -0.020320000127 0.031663068851
-0.0330275301723 -0.020320000127 0.0280358444303
-0.0308595251646 -0.020320000127 0.0317032435881
-0.0287400641053 -0.020320000127 0.0105423555631
-0.0250111576904 -0.0264999996871 0.00440515898391
-0.017486022184 -0.0264999996871 -0.01469880316
-0.0270026737571 -0.0257501747245 0.00745362233777
-0.0313357595853 -0.0254024117325 0.0221184699716
-0.0341714309762 -0.0263177238331 0.0361481522743
-0.0270996497961 -0.0244334931725 0.00270532778595
-0.0241861702071 -0.0245138790086 -0.00775014141777
-0.0239365990761 -0.0232256043551 -0.0136689831104
-0.024585693535 -0.0258674630159 -0.00102382762791
-0.0212941460516 -0.0227453246525 -0.0252973432295
-0.0297980477401 -0.0255441607671 0.0169853703362
-0.0251643636642 -0.0245228511255 -0.00410026911046
-0.0369151705672 -0.020320000127 0.0420814928115
-0.0242294403169 -0.0264478197242 0.0244402567627
-0.0154119007042 -0.0260595158236 -0.00848625513334
-0.0251726458793 -0.0264999996871 0.0162527703466
-0.0299171881949 -0.0264999996871 0.0341983273225
-0.0217038751779 -0.0264999996871 0.00871590093213
-0.0259720516131 -0.0264999996871 0.0205067300519
-0.0236122817076 -0.0264999996871 0.012641229963
-0.0284397243563 -0.0264999996871 0.0311678166219
-0.0295179703632 -0.0264999996871 0.0371732762299
-0.0153590003029 -0.025503234648 -0.0230128678322
-0.0198428062561 -0.0258892510602 -0.0132214487446
-0.0169871077008 -0.0262598239606 -0.0177661364696
-0.0170336261401 -0.0240794102975 -0.0298178894468
-0.0210407936295 -0.0259264681091 -0.0102404313575
-0.0170881682088 -0.0246641245809 -0.0264308598683
-0.0203726690721 -0.0246724565633 -0.0186693137721
-0.0228931764877 -0.0259185836255 -0.00598667704048
-0.0198123900071 -0.0241889381933 -0.0225741140093
-0.0175246107804 -0.0220488986647 -0.0393895347765
-0.0172215485536 -0.0228142376319 -0.036103734105
-0.0190269363302 -0.0235532467309 -0.0278266661492
-0.0211361773175 -0.0248665715805 -0.0157913689239
-0.030683048053 -0.0264999996871 0.0406943373823
-0.0204485960186 -0.020320000127 -0.0350390403528
-0.0250328887739 -0.0226854722142 -0.0111878555719
-0.023320605682 -0.0219630956992 -0.0201509465551
-0.0296294552802 -0.0244404781301 0.0123253874026
-0.0308053256573 -0.0207049558948 0.00758662850119
-0.0375378728259 -0.0204937857019 0.0356468266764
-0.0295127443072 -0.0208083636693 0.00226235008634
-0.0330455798655 -0.0203353880956 0.0166237253858
-0.0223403818859 -0.025958393978 0.0190213715179
-0.0193621917803 -0.0249658388073 0.00446677167547
-0.0257351700438 -0.0240027673141 0.0261796682625
-0.030244950901 -0.0210167783172 0.0345033823772
-0.0248401175268 -0.0233258265144 0.0206485680497
-0.028210868253 -0.0224368329173 0.0309729130952
-0.0281370141815 -0.0234944543229 0.0339186981821
-0.0231198009199 -0.0242182964488 0.0167199755277
-0.0270296119542 -0.0231340543762 0.0285332428033
-0.028489385899 -0.0239439631804 0.036655390749
-0.0204170955496 -0.0258416529989 0.0112239453296
-0.0255233730705 -0.0233887211557 0.0234840900188
-0.0307127634328 -0.0216289066484 0.0379406031968
-0.0347737626939 -0.0241027296807 0.0451118156656
-0.0373269025407 -0.023487862659 0.043343952011
-0.0243863581592 -0.0217515578556 -0.0164566491335
-0.02861814405 -0.0237980113532 0.0064008151881
-0.0341600899014 -0.0246399444177 0.0312112342466
-0.0318019629351 -0.0237510881516 0.0191751970175
-0.035815874801 -0.0258027109655 0.0411639478476
-0.0330595802041 -0.02536192943 0.0287630006024
-0.0355421912262 -0.0219369656508 0.0299460505138
-0.0301547658594 -0.0227392218305 0.00973745229977
-0.0362618102947 -0.0241473849788 0.0384503721738
-0.0267537916636 -0.0208150934821 -0.00910784461247
-0.0340127208873 -0.0220623763291 0.0239525489788
-0.0272744074448 -0.0212103250459 -0.0059708343375
-0.0354869752741 -0.0238847853706 0.0345971581242
-0.0282392939019 -0.0219899593213 -3.87891496365e-05
-0.0362831155694 -0.021950934449 0.0330366543723
-0.0338857479186 -0.023462482052 0.0269358341982
-0.0277294960876 -0.0217299085166 -0.0027925901025
-0.0315514653261 -0.0222327705289 0.0142289835739
-0.0316054673971 -0.0222931257156 0.0419572757957
-0.0305989935468 -0.0254185531303 0.0443370688978
-0.00863822507853 -0.0302436351781 -0.00879899971187
-0.00533761113782 -0.0325180142341 -0.00898076259914
-0.0029153506463 -0.0332753962911 -0.0113064910288
-0.00210926142612 -0.0321378000415 -0.0181161190407
-0.00200936913392 -0.0327386948259 -0.0144435363952
-0.00285522616619 -0.0291897816848 -0.035017599531
-0.0013006320594 -0.0287881773365 -0.0381023292956
-0.00326356377448 -0.0310330077016 -0.0243632106804
-0.0027163276055 -0.0299566092704 -0.0307459301409
-0.00359161123411 -0.0315477720707 -0.0212762589807
-0.00737580732279 -0.0254712082442 -0.0416020005941
-0.00413264470344 -0.027646969469 -0.0416020005941
-0.00273068254459 -0.0288604057563 -0.0142039521555
-0.00817997790454 -0.0270237701742 -0.0148700472822
-0.0143711208401 -0.020941255665 -0.0359253279514
-0.0143451304333 -0.0227303361766 -0.0268782964228
-0.0104751732974 -0.0256167907871 -0.0183682339741
-0.00575369488935 -0.0281672695282 -0.0129187295238
-0.0125510550699 -0.0222518177308 -0.0321615233075
-0.00742109753318 -0.0257197543934 -0.0227008634132
-0.0138883438876 -0.0222861488766 -0.029860969218
-0.00476016230588 -0.027833890628 -0.0161918789288
-0.0104747163009 -0.0236558098329 -0.0283305516271
-0.00717246276197 -0.0281967952691 -0.0105130428863
-0.00975020170472 -0.0269963685878 -0.0125127461386
-0.0131192628361 -0.0254676214437 -0.0149221621725
-0.0125686826168 -0.0237626504286 -0.024458615229
-0.00980657036585 -0.0244041793595 -0.0255911928642
-0.0131708256464 -0.026181635482 -0.0112130611279
-0.00752764923144 -0.0263125923308 -0.0195198982639
-0.00418555707451 -0.0290861121154 -0.0107442812355
-0.00969152120068 -0.0252977435971 -0.021234890751
-0.00957648887026 -0.0222198741223 -0.0409583093232
-0.0153580000624 -0.0232402125525 -0.0341194439805
-0.000618999998551 -0.0284225027476 -0.0226473593919
-0.00998328094181 -0.0230413170701 -0.0330425153079
-0.00494713762039 -0.0267641498029 -0.02191200316
-0.00492353803513 -0.0262916661766 -0.024908699302
-0.00906378491363 -0.0229384089468 -0.0358806034133
-0.00318339456964 -0.0265609659955 -0.0273919450833
-0.00369917419179 -0.0257306220871 -0.0313264558495
-0.00711888331131 -0.0249761859892 -0.0278479129884
-0.00767919105525 -0.0241958499983 -0.031364795252
-0.000850971178426 -0.0262640823729 -0.0348141875435
-0.00360312657805 -0.0277172770615 -0.0191929590804
-0.0115218274392 -0.0216972561489 -0.0377294016899
-0.00113203447376 -0.0269472813115 -0.0298908353388
-0.00176900752554 -0.0274467309573 -0.0252603056943
-0.00698512826162 -0.0232895803897 -0.039380884664
-0.00298445212137 -0.0247133107271 -0.0407508906767
-0.00288251050645 -0.0250704334287 -0.0375786958976
-0.00820070589928 -0.0271192632194 -0.0379605405884
-0.00482571652071 -0.0302439938486 -0.0268474101539
-0.00623882957913 -0.0292115464246 -0.0300734297757
-0.0050383800036 -0.0281034208083 -0.0385788718932
-0.00606588725679 -0.0283756760606 -0.0351295397266
-0.00469588801024 -0.0319104288934 -0.0176481591567
-0.00589538525476 -0.0304039941627 -0.0239557417192
-0.004848801393 -0.029236533343 -0.0325117413838
-0.0102427288098 -0.0297001699903 -0.0188436093704
-0.0101038034669 -0.0291012932862 -0.0225284043937
-0.0104129393263 -0.025712883605 -0.0406845031964
-0.00500595142506 -0.0324956263622 -0.0136969540204
-0.00984225254685 -0.0308553892905 -0.0131854419038
-0.00736842514067 -0.0305188549754 -0.0202880626688
-0.0088888331389 -0.0286177304251 -0.0281899728727
-0.00764656663954 -0.0283646962221 -0.0322457119943
-0.00727230866676 -0.0321167915213 -0.0111888128425
-0.00736304005611 -0.0312323484238 -0.0161471183204
-0.0147924290308 -0.0236949168734 -0.0392432541244
-0.0113069793311 -0.0271545441358 -0.030175677731
-0.0107598884401 -0.0300564486206 -0.0155247476318
-0.0129489254736 -0.0256378041499 -0.0339935805642
-0.0118090553005 -0.0273730215857 -0.0275343093574
-0.0122335920641 -0.0253569487123 -0.0375870484133
-0.013234695734 -0.02944012924 -0.0118248379826
-0.0138981300895 -0.0281853299653 -0.0169619805213
-0.0143541518979 -0.026268660239 -0.0264364872526
-0.0145952063218 -0.0252053222502 -0.0317276601715
-0.0130557934931 -0.0277007046944 -0.022154228328
-0.0117853453209 -0.0272803001251 -0.00898933951002
-0.00960497471902 -0.0426918241254 0.0446820507505
-0.000618999998551 -0.0395848182122 0.0311238942934
-0.000618999998551 -0.0320156564422 -0.00237117076332
-0.000618999998551 -0.0333603873043 0.00494527817881
-0.000618999998551 -0.0405423112828 0.0382092621133
-0.000618999998551 -0.0395918579506 0.0346065772116
-0.000618999998551 -0.0383138957081 0.0231085824091
-0.000618999998551 -0.0348366605665 -0.00152425971237
-0.000618999998551 -0.0379506008463 0.0177206638601
-0.00832806165209 -0.0361500776074 0.0376318770053
-0.00210037431297 -0.0375389094681 0.0373589294884
-0.0123535595497 -0.0302903636662 0.0111780090709
-0.00827838774364 -0.0334705303611 0.0234350953469
-0.00994404427071 -0.0346270726781 0.031925631715
-0.0108454976092 -0.0317608445347 0.0173276598791
-0.0103341577565 -0.0302273141995 0.00824413783206
-0.00472081595392 -0.0352299810363 0.0285470172268
-0.00797589310167 -0.0355379503966 0.0344101846803
-0.00607260101972 -0.0337050276956 0.0218977536802
-0.0145003762186 -0.0280679122523 0.00171388614088
-0.00420717716884 -0.036416437454 0.0344097527331
-0.0123851087934 -0.0290966030571 0.00465745466117
-0.0110716709985 -0.0326989702772 0.0227734361604
-0.00818160473706 -0.0328033543485 0.0196442550426
-0.0132179652644 -0.030739815001 0.0147557345636
-0.0122865162028 -0.0318891238429 0.01987898768
-0.0121230852228 -0.033411292745 0.0280355201157
-0.0107561534747 -0.0332626827865 0.0254673772703
-0.00278852906749 -0.0360627673698 0.0306483263858
-0.0129556486531 -0.0337694100451 0.0310704707636
-0.00645721376884 -0.0343643369238 0.0260141380057
-0.00845660934804 -0.0345364082998 0.0295215670501
-0.0101666856668 -0.031225514343 0.0135157302973
-0.00591818189957 -0.0355529669572 0.0318562850749
-0.00407067966367 -0.0304166999361 -0.00250659156432
-0.00782717818943 -0.0303760528607 0.0045285871767
-0.00269048656176 -0.0303129180203 -0.00584614425574
-0.0131793446974 -0.0270504595328 -0.00622174040476
-0.00541603952836 -0.032720438404 0.0147512829
-0.00731574628004 -0.0300463671738 0.00143965878525
-0.00366747186609 -0.0328673867954 0.0122904842515
-0.000625498301946 -0.0370448187693 0.0329417236184
-0.00543044897223 -0.0314600607024 0.00676656365053
-0.00437016024867 -0.0322478267157 0.00971604125458
-0.000847867905207 -0.0336113940905 0.0115458987647
-0.00441183798252 -0.0312767675397 0.00362357290838
-0.00796993745062 -0.0292656349174 -0.00225357833878
-0.00198748111551 -0.034769500245 0.0211210803764
-0.0101596101115 -0.0292311580603 0.00177869022339
-0.00213939669713 -0.0314905408686 0.000570456754463
-0.00156259921994 -0.0355620461629 0.0253346464596
-0.0109104754527 -0.0283244852584 -0.00252749666033
-0.00737429237663 -0.0316314391678 0.011630232033
-0.00668581474753 -0.029215366044 -0.00506639891391
-0.00288507525184 -0.0323350224275 0.00738694812015
-0.0153163055689 -0.0318543149396 0.0135048760921
-0.0151592215154 -0.0367177946623 0.0373397766808
-0.0149991817667 -0.0324115292771 0.0252169572375
-0.0152586911435 -0.0353450343343 0.028956845292
-0.015341629091 -0.0350783290646 0.0254182047082
-0.0153580000624 -0.0383294228667 0.0347634881437
-0.0142870385773 -0.0390438595504 0.045405998826
-0.0146075821103 -0.0343932585254 0.00910222186029
-0.0135625625019 -0.0358850394618 0.0138176710699
-0.0148682038608 -0.0380471763694 0.0256845774464
-0.0132632826721 -0.0367508715202 0.0171027873312
-0.0137270410671 -0.037398746302 0.020788074379
-0.0130577570572 -0.03446198818 0.00663986372538
-0.0130513027954 -0.0392495068102 0.0279619317973
-0.0109584084478 -0.0366723125615 0.0128286830446
-0.0118174770243 -0.0415990197934 0.0372432956654
-0.011079314487 -0.0372319444251 0.0156354909937
-0.0102535984103 -0.0388498919949 0.0220613214227
-0.012297007098 -0.0388801661286 0.0251402316952
-0.0133756978635 -0.0398439157495 0.0312247883807
-0.0133815728829 -0.0403967215445 0.0338341749798
-0.00990595508757 -0.0356066793592 0.00634923670391
-0.00926282844396 -0.0412224848697 0.0319833927987
-0.00801503499169 -0.0398528230328 0.0240100148953
-0.00603564298544 -0.036053490034 0.00370851216998
-0.00821940832413 -0.0375562987426 0.0134553525767
-0.00782991727303 -0.0382133402435 0.0160694133682
-0.0100015374124 -0.0363187301113 0.00981655959853
-0.0098936905584 -0.0399078552664 0.0265711824231
-0.00690007807646 -0.0372311044513 0.0103085142067
-0.00893929131462 -0.0385618292125 0.0190685572341
-0.0081583704402 -0.0348931456812 0.00099997132308
-0.00429809448043 -0.0407507295631 0.045405998826
-0.00785184684217 -0.0400027567641 0.045405998826
-0.010231745492 -0.0368122993673 0.0417622286531
-0.00737423177887 -0.0369935173769 0.0401041358162
-0.0132446294523 -0.0359655333836 0.0410460037632
-0.00381987516286 -0.0378610401494 0.040455117091
-0.011429731561 -0.0356079964506 0.0382164687191
-0.00438324067093 -0.0388788735857 0.043388853302
-0.00719069666863 -0.0380344550556 0.0430099002229
-0.0132924644415 -0.0370823180657 0.0436834276314
-0.0101427422844 -0.0381594451008 0.0443550716559
-0.00613153598265 -0.04354959548 0.0445348792399
-0.00356285265018 -0.0435535601191 0.044065572783
-0.0122781049746 -0.0413173871002 0.0451699110923
-0.00514782878739 -0.0294226840327 -0.00771865074142
-0.000618999998551 -0.0314749171658 -0.00790944070942
-0.00921481941434 -0.0420249159187 0.0357184176003
-0.0065405004876 -0.0417462170918 0.0317329811983
-0.00666910203646 -0.0428142667403 0.037080196987
-0.00579610155872 -0.0396147859992 0.0205835160572
-0.00650763504038 -0.0411469414582 0.0287712321874
-0.00961494983783 -0.0426592594845 0.0392118161333
-0.00521780109024 -0.0403562091615 0.0239649856311
-0.00436652120484 -0.036990757404 0.00660616547433
-0.00294470915337 -0.0422655797632 0.0325409267464
-0.00508577464931 -0.0385845628405 0.0149728765881
-0.00525157361796 -0.0424250513259 0.0344099418751
-0.00477736479585 -0.0436696751614 0.0404653439668
-0.00216467142026 -0.0438709673102 0.0402737931427
-0.0034776485209 -0.0393639720853 0.0181595211285
-0.00299856578318 -0.0417118750396 0.0297744788763
-0.00758406487358 -0.0435046058896 0.0414356300263
-0.0132627301723 -0.0310361916658 -0.00521774831626
-0.0131855152105 -0.0323432797297 -0.00113138676844
-0.0150117983833 -0.0291875663019 -0.008354793036
-0.0120629600781 -0.0306455465318 -0.00840941389043
-0.00725085394011 -0.0331205972087 -0.00690353101049
-0.00768311607537 -0.0341748145651 -0.00245942823064
-0.0115213423648 -0.0336170024867 0.000889105782454
-0.0136799181247 -0.0331829679364 0.00255764303822
-0.01054190877 -0.034828445701 0.00382893576894
-0.00255434494127 -0.0337989660311 -0.00818627761151
-0.00118374329941 -0.0349053973124 -0.0041304034658
-0.00368884196832 -0.0356046354584 -0.000475408427637
-0.00222414065478 -0.0376924643136 0.0096098344845
-0.00241611636815 -0.0384153073748 0.0132092726547
-0.00154913880126 -0.0430538882654 0.035983843894
-0.00167324082818 -0.036846996053 0.00534947560567
-0.00262642285926 -0.0402075224392 0.0220927605636
-0.00253326287033 -0.0411949312311 0.0269548408284
-0.00260078365983 -0.0362482866089 0.00253563847742
-0.0042445324901 -0.0347326724161 -0.00416349958666
-0.0132281974575 -0.0420580355789 0.0416930912936
-0.0192628774004 -0.020320000127 -0.0253727957757
-0.0182694656284 -0.020320000127 -0.0329404691507
-0.0192216268831 -0.020320000127 -0.0377527286288
-0.017385674374 -0.0179358475769 -0.0362704107652
-0.0208669319328 -0.0153983281065 -0.0289603793784
-0.0208929702287 -0.0159677863832 -0.0261220177756
-0.0204378432851 -0.013971503121 -0.0380907663699
-0.01997526548 -0.0157869492132 -0.0320689445642
-0.0183837266082 -0.0173214208582 -0.0336398186566
-0.0228910645415 -0.013577993344 -0.0263417777031
-0.0219869542519 -0.0152636517327 -0.0233835690647
-0.020903222441 -0.0140104981796 -0.0353243582454
-0.0184068142532 -0.0162496995702 -0.0385816521506
-0.025470756097 -0.0125487496525 -0.0168985546468
-0.0241940829013 -0.0128666550945 -0.0224776782207
-0.021589873487 -0.0185797978027 -0.0155410984228
-0.0227131644315 -0.0153170616046 -0.0200042529729
-0.0184508040188 -0.0184129341841 -0.0296915136491
-0.0216555105569 -0.017415466239 -0.018593820121
-0.0200628230485 -0.0178858522905 -0.0241818531672
-0.0247826430926 -0.0142712645197 -0.0139895270916
-0.0204909463511 -0.0182984551688 -0.0211341029717
-0.0231862589802 -0.0164516611482 -0.0146903847587
-0.026444792067 -0.0126576615495 -0.0113770148845
-0.0235750391864 -0.0149758341506 -0.0172288643036
-0.023247053487 -0.0173693011899 -0.0118086688998
-0.0277170685381 -0.0127709221452 -0.0216442214992
-0.0272700329967 -0.0127083142241 -0.0243254101076
-0.0232841493793 -0.0202268561451 -0.0237440661444
-0.0212964987001 -0.020320000127 -0.0318006675471
-0.0222668374287 -0.020320000127 -0.026551291911
-0.0233507295201 -0.020320000127 -0.0108673293372
-0.0255310820623 -0.0163990019951 -0.0251315515311
-0.0252977713394 -0.0149149767066 -0.0305934097099
-0.026155798867 -0.0143746197309 -0.0270980569122
-0.0283845442081 -0.0139487978351 -0.0153141815904
-0.0279052513822 -0.0158543447906 -0.0128306442204
-0.0258563354603 -0.0173403906027 -0.0206359781068
-0.0262099796795 -0.0188587361369 -0.0143793606814
-0.0272314344228 -0.0152025595088 -0.0185522871496
-0.0244696835846 -0.0138794245051 -0.0382410242028
-0.0246321235446 -0.0151332170551 -0.0337736159491
-0.0229211397844 -0.0158908780437 -0.0405084671231
-0.0213348740144 -0.018378534919 -0.0409052789963
-0.021844638801 -0.0187137708825 -0.0371322987544
-0.025169807328 -0.0193868703353 -0.0183874318102
-0.0244184415952 -0.0173601450011 -0.0286157998874
-0.0233830820675 -0.0178927516241 -0.0322728431314
-0.0167161923058 -0.0193441646032 -0.0412906860855
-0.0192241266631 -0.0158761093307 -0.0414561440016
-0.0362987630691 -0.0122379995883 0.0155158803951
-0.0359390773716 -0.0122379995883 0.0357509995085
-0.0313798233314 -0.0122379995883 0.0121724713975
-0.0376189721508 -0.0122379995883 0.0304220865216
-0.0357437972889 -0.0122379995883 0.0267436361624
-0.0320930959641 -0.0122379995883 0.0154300113896
-0.0303449356113 -0.020320000127 0.0169669855703
-0.0335013308828 -0.020320000127 0.0391505323563
-0.0364606600171 -0.020320000127 0.0390719677068
-0.0311913770668 -0.020320000127 0.025397459125
-0.0343429602462 -0.0122379995883 0.0129764345835
-0.0321942868638 -0.0122379995883 0.00631357459659
-0.0320596935803 -0.0122379995883 0.00311323682938
-0.0264155309759 -0.0165158026844 0.00151579217344
-0.0277456589881 -0.0131976681463 -0.00264050091827
-0.0279256833075 -0.0147396016644 0.00375092972806
-0.0289387112816 -0.015155631324 0.0108648257463
-0.0269028573718 -0.0133135635177 -0.00694533201916
-0.0271722738993 -0.0167678110683 0.00662468537148
-0.0299546028441 -0.0143979964753 0.0138955148384
-0.0304281953532 -0.014522776872 0.0169777867094
-0.0245895850733 -0.017426066646 -0.00550843634369
-0.024512082944 -0.0183415822289 -0.00274393892047
-0.0244529964715 -0.0167841912647 -0.00851355091708
-0.0298483921232 -0.0130182708445 0.00848309464158
-0.028247991022 -0.0132746038233 0.000435263487423
-0.0265241925826 -0.0156401970905 -0.000935192719646
-0.0334092782662 -0.0130559962464 0.0285132513
-0.0384350356226 -0.0122379995883 0.0420311378684
-0.0337523815159 -0.0194243509315 0.0420815421074
-0.0354988611753 -0.0186985563685 0.044994447968
-0.038279917579 -0.0135142135592 0.0451402723086
-0.0348252357276 -0.0161955963473 0.0413694288784
-0.0340463511141 -0.0142412063467 0.0346182883016
-0.0318997842836 -0.017033274302 0.0304279991022
-0.0289105758165 -0.0177218533369 0.0175158016992
-0.0275486530196 -0.0170549017075 0.00946368346166
-0.0340879547451 -0.0129937288476 0.0320599137945
-0.0273395341041 -0.0187896670968 0.0122909333075
-0.0298503680861 -0.0174878434937 0.0215365711052
-0.0318895044945 -0.0185183859923 0.0336632611361
-0.0315337374443 -0.0146168329216 0.0233154097797
-0.0285706735908 -0.0172554718918 0.0148427869714
-0.0260313616809 -0.0180926991637 0.00443198952149
-0.0304441701979 -0.0154042368112 0.019795405439
-0.0315251653178 -0.0164531835212 0.0273358203286
-0.0353863675922 -0.0138305066266 0.0395082342551
-0.034205426152 -0.0153089128078 0.0374790717092
-0.0415146280798 -0.0134147695631 0.0392876264505
-0.0272084481629 -0.0181456630301 -0.00998075711118
-0.0286766200104 -0.0153121461477 -0.0102220000699
-0.030954379144 -0.0132143219036 -0.0048872776945
-0.0298515583438 -0.0136704640328 -0.0081117890606
-0.0321190011371 -0.015011032397 0.00118979968938
-0.0310511894645 -0.0153075951113 -0.00215605081504
-0.0284840421345 -0.0176919392076 -0.00703638698065
-0.029682609553 -0.0183403017348 -0.00179192902164
-0.0311338444388 -0.0178530723161 0.00226701919882
-0.0297993579909 -0.0168072788093 -0.00415545027014
-0.0412534482765 -0.0125038019364 0.045405998826
-0.0243837404966 -0.019962296955 0.000551415125844
-0.030071468019 -0.020294010668 0.0286491659176
-0.0287911465033 -0.020320000127 0.0195413583459
-0.0319578515425 -0.017912589348 0.00543076605413
-0.036223078941 -0.0199689961057 0.0281864028842
-0.0317118157985 -0.0203145097856 0.0102726778606
-0.0327392293157 -0.0196304266982 0.0128741973711
-0.0347768393496 -0.0174585406452 0.0164496741655
-0.0389519646739 -0.0177748376971 0.0350282212618
-0.0339805919051 -0.0148926537337 0.00804311900948
-0.0355628490742 -0.0145207539361 0.0141293351259
-0.0367838007424 -0.0163552535151 0.0229436435614
-0.0336048140832 -0.0168517140058 0.0102288454855
-0.0360373825661 -0.0190570656568 0.0251953954226
-0.0375130296491 -0.0191288469917 0.0316640646131
-0.0392379132932 -0.0187216812072 0.0381755928112
-0.0354142882922 -0.018784963817 0.0219471425386
-0.0403488420409 -0.0141962323563 0.035129244755
-0.0366297627427 -0.0151932407446 0.0200400294155
-0.0403990734989 -0.0155517760354 0.0376727476909
-0.0394005614897 -0.014854006882 0.0319715414329
-0.0377891997897 -0.0155247859151 0.0258419834777
-0.0403449058403 -0.0174272904706 0.0406335006778
-0.0384662726949 -0.0153581997195 0.0286145382684
-0.0385515165975 -0.0198492815848 0.0445100086563
-0.0401287639978 -0.0161307107332 0.0453708085224
-0.0414353893155 -0.0146903300703 0.0423854742354
-0.0402310305373 -0.0123901421045 0.0327378248494
-0.0386176137908 -0.012262968268 0.025313902178
-0.026993540114 0.000125999999 -0.0294249353278
-0.0261182806221 0.000125999999 -0.040299190919
-0.0287227628514 0.000125999999 -0.0208052058679
-0.0289931221394 0.000125999999 -0.0176473785007
-0.0286474582556 0.000125999999 -0.0255527520549
-0.0278535929151 0.00636480521462 -0.0359877161869
-0.0285111487899 0.00752525991444 -0.0297980254801
-0.0263419220048 0.0089798012987 -0.0404701576783
-0.0274494477383 0.00863405083257 -0.0342890847223
-0.0269183759305 0.00870394887137 -0.0374299142282
-0.029402892161 0.00902245626968 -0.0215451316928
-0.0288003456189 0.00943787847974 -0.024488509102
-0.0279794726748 0.0101072519943 -0.028078032575
-0.0233306698258 0.00690755006763 -0.0384857972635
-0.0259449410743 0.000268256100692 -0.0334853594957
-0.0241728219008 0.00535993766581 -0.0359227579645
-0.0237418935187 0.00819120747304 -0.0339492727333
-0.0249410675745 0.00568101426573 -0.030793344812
-0.0273029299354 0.00158196676983 -0.0232164450104
-0.0256724092809 0.00441365273133 -0.0284441374214
-0.0230168876213 0.00926369169029 -0.0365743501982
-0.0263714400871 0.0038854505355 -0.0250982761686
-0.0269960603471 0.00378448277815 -0.0215109570315
-0.0251567171141 0.00292029612296 -0.0339456294204
-0.025653145128 0.00271896347253 -0.0312895900393
-0.0265939694499 0.0019521881012 -0.0268763948357
-0.024211373606 0.00264498234715 -0.0405758783488
-0.0223576479463 0.00974551606902 -0.0398900992264
-0.0278804825166 0.00232366604299 -0.0403172907268
-0.0280957352281 0.00361578003927 -0.0379622256774
-0.0317744854424 0.00173027176958 -0.0176152665498
-0.0304598795929 0.00237713055536 -0.0249161608529
-0.029665666839 0.00217861412249 -0.0299809148745
-0.0290553457013 0.00268605107244 -0.0331405959062
-0.0306539947147 0.00440513895374 -0.020965980756
-0.0293120669984 0.00533395617519 -0.0282414431267
-0.0296305557257 0.00671103168086 -0.0240786994396
-0.0310887243679 0.00850538842297 -0.0118978440457
-0.0310958634316 0.00521548592857 -0.0168682816218
-0.0315281344973 0.00576171467145 -0.0132354936711
-0.0303404668662 0.00752401139881 -0.0182408503056
-0.0319048357073 0.003312341732 -0.0145305438627
-0.0305530522167 0.00864562857311 -0.015153593602
-0.0284770970893 0.00582591857766 -0.0328994405855
-0.0327035067963 0.0020061952012 -0.0111433461296
-0.0293428339683 0.0114510266604 -0.0109497598081
-0.0294553104031 0.0024898896264 -0.0109953414819
-0.0270247552979 0.00846773637929 -0.0159392619909
-0.0275307336324 0.0093008981068 -0.0125451793959
-0.0277141773901 0.00514839408734 -0.0159476691275
-0.0262498946659 0.00983699575254 -0.0183858561387
-0.0281783889411 0.00627369579942 -0.0124583832401
-0.0259545975376 0.00665619043839 -0.0235832670848
-0.024452405641 0.00835877544721 -0.029697922387
-0.0234761710457 0.0105664321616 -0.0322868732113
-0.0253538461087 0.00917256061713 -0.0237204180469
-0.0285719452609 0.00236055174607 -0.0146008335142
-0.0263608351859 0.007432162197 -0.0203748474464
-0.0275559816071 0.00386306415555 -0.0182948794887
-0.039173532707 0.00665795609411 0.0448106742057
-0.0283618940746 0.00845390839913 -0.00949960327932
-0.029071722722 0.00504893982833 -0.00955132425116
-0.0326342858498 0.000125999999 -0.00416461090924
-0.0361048989915 0.000125999999 0.0184768770036
-0.0367569227085 0.000125999999 0.00830204349623
-0.0392526490428 0.000125999999 0.0303520449854
-0.0422964745041 0.000125999999 0.0364616549268
-0.0398427659859 0.000125999999 0.0336878790057
-0.0382878742235 0.000125999999 0.0162712795187
-0.0361870453534 0.000125999999 0.0138395233125
-0.0286058170157 0.0115329995751 -0.00727966530831
-0.0327471952172 0.0115329995751 0.0147539925171
-0.031414822708 0.0115329995751 0.00403615606533
-0.0386193361662 0.0115329995751 0.0345824873126
-0.0353098438238 0.0115329995751 0.0120788685786
-0.0313492200745 0.0115329995751 0.000800035261214
-0.0359284644973 0.0115329995751 0.0149856285056
-0.033494139422 0.0115329995751 0.02139272886
-0.0371801814466 0.00639835513689 0.0113073656768
-0.0363251122862 0.00734104429225 0.00832798553335
-0.0389544208101 0.0104388535656 0.0240083842224
-0.0375763870033 0.0092518213814 0.0162647812279
-0.037254038449 0.00810118071478 0.0135043881833
-0.0423058639926 0.00174774657535 0.0449615720023
-0.043308733437 0.00452960416696 0.0445485632268
-0.0429379059187 0.00832967175142 0.0441658640468
-0.0386379091612 0.0106175496931 0.0445943422192
-0.0332420171767 0.00704047658519 -0.00459080968986
-0.031884301199 0.00603714964678 -0.0104589203398
-0.0315440910677 0.00851946313289 -0.00892868224797
-0.0320573004374 0.00994645951 -0.00556052242045
-0.0338413364422 0.00979305477685 0.000534685288449
-0.0333378476591 0.00336437071026 -0.00750638908658
-0.0340950892043 0.00325704812472 -0.00444835240553
-0.0349477948798 0.00677037673333 0.00189455917993
-0.0345332539162 0.00510364284404 -0.00131697284435
-0.0351345776511 0.00910191943023 0.00480233530141
-0.0318592518418 0.00252723435372 0.00492870609113
-0.0306459774296 0.00257929196985 -0.00236541302227
-0.0332744012427 0.00136556094142 0.0120442066528
-0.032448751176 0.00240591171381 0.00835129462444
-0.031778220692 0.00568959159411 0.00843630190896
-0.0337730801391 0.00139901897763 0.0151115983309
-0.0301145173797 0.00243195921041 -0.0057756683898
-0.0296232960643 0.00884543360316 -0.000644970889555
-0.0299250201426 0.00528181908806 -0.00332123537762
-0.0313272795177 0.00551303865193 0.00547753713089
-0.0340027748378 0.00302791973819 0.0185648926335
-0.028851752881 0.00977961124541 -0.00414392786482
-0.0325918104921 0.00397478407068 0.011203129868
-0.0303300444205 0.00625313829738 0.000364057573854
-0.0292131499855 0.00630053645452 -0.00635129479629
-0.0350084740651 0.000630497968486 0.0216338523909
-0.0310894670316 0.00344296702953 0.00141709006514
-0.0328063994307 0.00930857195514 0.0175118165543
-0.0341273814374 0.00547448663993 0.0216849745178
-0.0348064936067 0.00440998686147 0.0245704260023
-0.0336716641548 0.00877169278226 0.0218570870027
-0.0301538667174 0.00898697818249 0.00258505950733
-0.0330546415166 0.00556710301406 0.0158300498253
-0.0323698392052 0.0082607493628 0.0142430069295
-0.0349447033117 0.00920777545299 0.0292509193882
-0.0356725669947 0.00628028774469 0.0308851386569
-0.0313387738927 0.00984233967726 0.00983391937983
-0.0359489461287 0.00969609726242 0.0352013827719
-0.0364209181812 0.00221126113646 0.0317007871754
-0.0353717089181 0.00423045728772 0.0275486086705
-0.0370258103194 0.00124637265054 0.0342572335201
-0.0362305408742 0.00586050222163 0.0336271678643
-0.0344528884953 0.00740655116182 0.0250616418731
-0.0306221938491 0.00908724703839 0.00525600466888
-0.0374697472445 0.00250081006958 0.0374576416751
-0.0352234475276 0.00245929327205 -0.000249395183618
-0.0358385563003 0.00401779815376 0.00328847446073
-0.036708571435 0.00474035352254 0.00771732764498
-0.0387913468608 0.00412741590837 0.017434721397
-0.0380633046829 0.00479323672795 0.014259834328
-0.0399798001718 0.00196286385938 0.0220879103846
-0.0359208644419 0.000830514496912 0.00200730896612
-0.0376338738083 0.00338875307716 0.0115041335258
-0.030540394268 0.000125999999 -0.00927399392367
-0.0418888064286 0.0015511720067 0.0316214586197
-0.0394446832923 0.00150512938004 0.0193977004642
-0.0438717556071 0.000509413607986 0.0415387540422
-0.0405629159375 0.00188312372845 0.0249903014314
-0.0435798113689 0.0063918162388 0.0423522697354
-0.0388986814277 0.00651483770377 0.0195352710673
-0.0425927488579 0.00804322455049 0.0385754050013
-0.0420290336612 0.0074485833555 0.0352902919303
-0.0398325269404 0.00864143714728 0.0261762941758
-0.0409261795828 0.00988590258935 0.0326450580314
-0.0427305362656 0.0101061608302 0.0413924102576
-0.0415810997718 0.00689904594986 0.0325990037682
-0.0405167184099 0.00839658468442 0.0291483031958
-0.0394553267935 0.00661054571035 0.0222629899316
-0.041547398497 0.00431911047333 0.0308179200259
-0.0405838203363 0.00433981561677 0.0261681696541
-0.0431951422956 0.00418225513756 0.0387077891561
-0.0421173060553 0.0041214020845 0.0334559003664
-0.0437824431395 0.00360647352499 0.0412013837028
-0.0371490094422 0.00643038694372 0.0386733802027
-0.0370014507633 0.00923804068272 0.039843004935
-0.039173236894 0.00116545047869 0.0423157589156
-0.0378755681546 0.00439528031544 0.0405123162869
-0.0296797090476 0.0235362692621 0.0388824938009
-0.0312128738292 0.0222433143058 0.0408122781814
-0.0172093165905 0.0272240005434 -0.00916222608472
-0.0228835429165 0.0272240005434 0.00605129134687
-0.0132904771908 0.0272240005434 -0.0156458417251
-0.0140614742835 0.0272240005434 -0.0101728027679
-0.0234271990111 0.0272240005434 0.013648019387
-0.0221835482364 0.0272240005434 0.0104299426889
-0.0307397071529 0.0272240005434 0.0333774797575
-0.0235910177795 0.0272240005434 0.0257746555189
-0.0338085391901 0.0272240005434 0.0410828127622
-0.0321067992961 0.0272240005434 0.0384088577934
-0.0274876712969 0.0272240005434 0.0290397989467
-0.0248456496856 0.0272240005434 0.0204375660496
-0.0233285416665 0.0272240005434 0.00233928236724
-0.0247497149889 0.0246192870612 -0.00531486478182
-0.0270641844846 0.0254496163114 0.00651532996301
-0.0238729582832 0.0232786987564 -0.0140588980316
-0.0214459603327 0.022539618854 -0.0259174756549
-0.0257863418357 0.0252818562754 0.00119131992211
-0.0315949854633 0.0271396079356 0.0299422218114
-0.0259246227589 0.0258965263189 0.00424559963238
-0.0288189223739 0.0246222899849 0.00943222738881
-0.0308793544375 0.0265568545648 0.0249299484872
