-0.119628574347 -0.0138896802484 -0.013565920626
-0.116796141935 -0.016949970943 -0.0136227345513
-0.10051894606 -0.0132446938579 -0.0139492282697
-0.119838669127 -0.0167451519625 -0.013561706471
-0.113208076729 -0.0106597269868 -0.0136947052249
-0.0963055846417 -0.0143988976912 -0.0140337413546
-0.11132900213 -0.0155424235932 -0.0137323963639
-0.106465767278 -0.013733919706 -0.0138299448386
-0.114014682038 -0.0134024645032 -0.0136785260519
-0.108287806761 -0.0108715207702 -0.01379339773
-0.0734363416216 -0.0183990296076 -0.0137536328353
-0.0763838018886 -0.0183916285832 -0.0137502905336
-0.0916323368738 -0.0168536591857 -0.0139647493896
-0.0981025961927 -0.017508932259 -0.0138536404324
-0.0943997232947 -0.0171092428286 -0.0139210413585
-0.086607195669 -0.018172772712 -0.0137685510806
-0.0897959866041 -0.0196253110682 -0.0135392327177
-0.101095502328 -0.0180084496329 -0.0137718933604
-0.0928989716937 -0.0196656868911 -0.013528270611
-0.104333690287 -0.0176013837968 -0.0138298699617
-0.108997533809 -0.0181147795678 -0.0137434350705
-0.0696781705809 -0.0160652513362 -0.0139314060079
-0.077949914916 -0.0159679283575 -0.0140148228552
-0.0812868253368 -0.0165313278529 -0.0140033323519
-0.0844008107132 -0.0153159674059 -0.014123026633
-0.0744353607094 -0.0155995787636 -0.0140100684197
-0.0875345177831 -0.0154380489382 -0.0141427225245
-0.0620566799572 -0.012733070108 -0.0141108575507
-0.0624014022063 -0.0184266766483 -0.0136875556191
-0.0646809805446 -0.0167100063436 -0.0138371208069
-0.0590381549341 -0.0129762688907 -0.0140648607139
-0.0563424795968 -0.0152724097308 -0.0138680613587
-0.0573294162995 -0.0180846575142 -0.0136664954859
-0.0514894189604 -0.0115073682933 -0.0141054144696
-0.0609260027231 -0.0151877657867 -0.013916584861
-0.0542191884247 -0.013006691317 -0.0140182317809
-0.0788004738058 -0.011039577945 -0.0139941277777
-0.107947525982 -0.00787502483674 -0.0136579705528
-0.0891751822537 -0.0105007541569 -0.0139037551566
-0.0957342732082 -0.0115075181483 -0.0139137648358
-0.0864340686795 -0.00946547139114 -0.0138689477854
-0.104497831055 -0.0109829906251 -0.0138339693091
-0.0768932649959 -0.0132014220853 -0.0141135348414
-0.0804085131318 -0.0137471018959 -0.0141192043296
-0.0896052930538 -0.0131962460187 -0.014035444288
-0.0925659813861 -0.0142789154409 -0.0140712686436
-0.111912266818 -0.00795281778446 -0.0136375720233
-0.0646105035297 -0.011180916045 -0.0140880526765
-0.0671953608194 -0.0100078884512 -0.0140137715537
-0.0863051421633 -0.0123360354359 -0.0140127840164
-0.0719152393192 -0.0120483953433 -0.0140865560776
-0.0942364780893 -0.00921552335304 -0.0138087200648
-0.118495069873 -0.0077336575665 -0.0135863458804
-0.0830605540848 -0.0120940289832 -0.0140205900891
-0.0732764328891 -0.00949033859472 -0.0139507479402
-0.0682084547609 -0.012771809759 -0.0141453012203
-0.101787140837 -0.00950472014759 -0.013776900561
-0.098178945057 -0.00975969461884 -0.013811698623
-0.0117367318519 0.00552231039361 -0.00057423058226
-0.0351662454967 0.00597605774952 -0.00271740231233
-0.0244807606288 0.00578119494717 -0.0016180541148
-0.0322444230851 0.0057981623525 -0.00367466553074
-0.0292787603643 0.00580157910687 -0.00278914031505
-0.0375829087986 0.00627394555204 -0.000403945266708
-0.0219936783338 0.0058361787146 -0.000349334140998
-0.0128768840337 0.00528066562684 -0.00334063177718
0.0237082664557 0.00437973331196 -0.00193626917754
0.0184815431769 0.00463178837763 -0.000891842099144
-0.00459217929034 0.00527950055576 -0.000974987953581
-0.0186359500242 0.00574079735916 -0.000348592146027
-0.0168699778797 0.00546595232387 -0.0026161743647
-0.0094495295927 0.00521127927427 -0.00305750992561
-0.00145985742079 0.00522817729202 -0.000594196449955
-0.0270623945011 0.00599703960509 -0.000180100502469
0.0376034253714 0.00406462302324 -0.00112966971757
0.0100909248799 0.00487872355711 -0.000807017402444
0.00196631687192 0.00512262695029 -0.000676461146203
-0.0486321455604 0.00630483621024 -0.00105145083011
-0.068650837814 0.00600354602927 -0.00314896538791
-0.0462512746813 0.00588322686235 -0.00398660039937
-0.0433225947441 0.0062590754701 -0.00137002682319
-0.0516992076759 0.00615069458025 -0.00212455023158
-0.0631550130424 0.00602021670473 -0.00303290789026
-0.0491942929178 0.005901811535 -0.00385721808321
-0.0738087378451 0.00582718475357 -0.00437675297132
-0.0546479526639 0.00600540691573 -0.00313601031441
-0.0589520405154 0.00600838980191 -0.00311524413089
-0.112763275755 0.00534131383653 0.00177656046512
-0.0754986397481 0.00594814340033 0.000118193743765
-0.0954766292862 0.00562281526148 0.000358863640731
-0.0979163242968 0.00558308646717 -0.00190900741387
-0.118097263607 0.00525445342762 -0.000179900409991
-0.0541764334858 0.00629536120553 -0.000321694907256
-0.0926205549794 0.00566932451292 0.000118308298184
-0.115163186311 0.00530223290533 0.000104208108174
-0.103628381653 0.00549006945036 0.000173417435204
-0.106545239186 0.00544257038491 -0.00130442957639
-0.112958161409 0.00533814025457 -0.00210968286937
-0.0720442665768 0.00600439554686 -0.00121098994447
-0.100180390581 0.00554621766868 3.69323496623e-05
-0.108389965055 0.00541253026338 0.000874076749197
-0.117182508007 0.00526934960805 -0.00295499295965
-0.0790635023605 0.00589009200749 0.000270037275164
-0.0878418027473 0.00574714328276 9.68793879388e-05
-0.121002682211 0.00520714063745 -0.00165985008345
-0.0602637126602 0.00619623395347 -0.000344490547664
-0.103120309136 0.00548419840105 -0.00333245139855
-0.0843892070729 0.00579126508959 -0.00233801516407
-0.0804905117634 0.00582809125289 -0.00320485919093
-0.0762944565363 0.00589630428509 -0.0030048709017
-0.0903085695435 0.00569288323612 -0.00270552851643
-0.112615808812 0.00447711952622 -0.00586951417492
-0.121283965066 0.00495593636486 -0.00432970558555
-0.115281784838 0.00463331152566 -0.00537512066149
-0.103532908688 0.00444300865805 -0.00639293103901
-0.0952759029201 0.00554500844218 -0.00422757916523
-0.118063883593 0.00392733138187 -0.00688487512673
-0.121581677162 0.00381776983479 -0.00696835379633
-0.100335626762 0.00550277005696 -0.00407876236238
-0.107572541908 0.00525997451884 -0.00429106358644
-0.0881541845136 0.00550044296989 -0.00467951983724
-0.0979715125454 0.00495739883997 -0.00546562509197
-0.0418025858659 -0.00318016191696 -0.0125698784885
-0.0690693119827 -0.00349192822163 -0.0129301893211
-0.0452388079393 -0.00329247808249 -0.0126309880734
-0.0566640283979 -0.00407770604982 -0.0129227160201
-0.0484892823306 -0.0049416814491 -0.0130205638674
-0.0611157288131 -0.00248453662494 -0.0126280314697
-0.0651129147787 -0.00421894197445 -0.0130439589864
-0.0739518384364 -0.00285896441942 -0.0128466036565
-0.0543455475677 -0.00277434576618 -0.012617528284
-0.0395754028331 -0.00718424392943 -0.0134068878828
-0.0519764821043 -0.00571256368351 -0.013223827738
-0.104243664355 -0.00613996475117 -0.0134330283588
-0.0617384610605 -0.00821799069638 -0.0137805784544
-0.0759378549338 -0.00888073564172 -0.0138908013213
-0.0894882664911 -0.00725006664928 -0.0136185150488
-0.0934014930446 -0.00646904943535 -0.0134881598345
-0.0673724929017 -0.00675328842725 -0.0135361513525
-0.0833697559025 -0.00498161148986 -0.0132402912753
-0.0863419404536 -0.00574743398813 -0.0133679579993
-0.0772986564245 -0.00632452919522 -0.0134644154397
-0.0993849232695 -0.00633357825744 -0.0134654303534
-0.0900218927772 -0.00392640068274 -0.0130641413847
-0.0952682943588 -0.00449052009467 -0.0131581146893
-0.0788351201433 -0.00302752607767 -0.0129144664837
-0.0565428899916 -0.0094813314782 -0.0139914102062
-0.0746597922075 -0.00617107825651 -0.0134388800835
-0.0811565954683 -0.00752494483246 -0.0136645491029
-0.0697940947359 -0.0088623678576 -0.013887875245
-0.0647415164111 -0.00816027389277 -0.0137708845158
-0.0627112145555 -0.005725949235 -0.0133287542122
-0.0595330100154 -0.00538526386516 -0.0132294552831
-0.0533997988551 -0.00844312239452 -0.013794717571
-0.0493955282161 -0.00870395470503 -0.0138101906816
-0.0435581494151 -0.00815981625582 -0.013644431944
-0.0465014049964 -0.00879285297404 -0.0138010791588
-0.120234675234 -0.00462469995992 -0.0128487274955
-0.100722842806 -0.00387853515953 -0.0129170234428
-0.0848951468563 -0.00227286055468 -0.0126086431861
-0.113508359746 -0.00511601305787 -0.0131444670266
-0.121264157997 -0.0014111169811 -0.011662232267
-0.10358767736 -0.00344668921267 -0.0127101223929
-0.105390540184 -0.00121296297819 -0.0118664770671
-0.114447148866 -0.000516616259358 -0.0114556180867
-0.110792873091 -0.00533016122552 -0.0132696056464
-0.0980389974323 -0.00256804061464 -0.0124871957148
-0.117614077887 -0.00340815960813 -0.0124519640187
-0.108144672303 -0.00267862301539 -0.0123515051849
-0.118476460255 3.94914919251e-05 -0.0111832616988
-0.049138900162 -3.74079664176e-05 -0.0115469294154
-0.0645353864635 -0.00152168888626 -0.0122909511839
-0.0673005559535 -0.00154935415017 -0.0123048019103
-0.0576434379255 -0.00146589259157 -0.0122630255486
-0.079231436534 0.000418927759669 -0.0112002904697
-0.0514365254415 0.00119248215701 -0.0109090217239
-0.0817938651185 -3.16890564232e-05 -0.0114315895056
-0.0702653500931 -0.00089096522981 -0.0119468752834
-0.0597894349028 5.6496579885e-05 -0.0114835562532
-0.0746550836545 -0.000456421417138 -0.0116928034834
-0.100506352961 -0.000944657538285 -0.0118390723068
-0.0915112164921 -0.00125207240221 -0.0120454453353
-0.0886009293003 -0.000656848676841 -0.0117377750474
-0.0957113147154 -0.000668186333001 -0.0117117344432
-0.0652231408332 0.000942752633649 -0.0109812875797
-0.0651808687998 -0.0272851702757 -0.0080630585495
-0.0558701943561 -0.0259769084244 -0.00947277357922
-0.0460646999412 -0.0258301990961 -0.0095093479654
-0.0749685874572 -0.0267752437443 -0.00879860658716
-0.0616159802239 -0.026851737958 -0.0085234424461
-0.050543553618 -0.0252680362056 -0.0102327102976
-0.0497372253651 -0.0273361368872 -0.0077889206477
-0.0527198789749 -0.0263738806508 -0.00896214256067
-0.0442572341602 -0.0271554155446 -0.00792549225014
-0.0707093737289 -0.0260285053719 -0.00961788760452
-0.0786096055208 -0.0277260541388 -0.0073894164692
-0.0595088028607 -0.0281199611706 -0.00628674923838
-0.0677887214092 -0.0279826511453 -0.00669361329617
-0.070871219071 -0.0279516748943 -0.00680224453571
-0.0472317685312 -0.027791834076 -0.00681433619522
-0.116532810179 -0.0274708722866 -0.00682732306478
-0.119580551366 -0.0277264049968 -0.00625025836283
-0.0969952019575 -0.0272696176716 -0.00806409170666
-0.113652674439 -0.0265208936789 -0.00858690482296
-0.110308385047 -0.0271020041492 -0.00774363530204
-0.104637090836 -0.0267995002948 -0.00852096063198
-0.101942188265 -0.0274861968668 -0.00746709047348
-0.107691147393 -0.0277662086222 -0.00670724853709
-0.0835289569487 -0.0276591023867 -0.00750482947718
-0.0645651876348 -0.0284771672018 -0.00541260772968
-0.0892776389074 -0.0277586593717 -0.00709187513532
-0.0759886944148 -0.0282445022414 -0.00588914619268
-0.112371515231 -0.0218169632043 -0.0123512850369
-0.122060757715 -0.0208058209717 -0.0126586509615
-0.11039775663 -0.0241803152107 -0.0107791052951
-0.121525147713 -0.0239214852048 -0.0105006665925
-0.106838213296 -0.0234950183757 -0.0114056287754
-0.109299507815 -0.021880202412 -0.0124339053662
-0.117192547287 -0.0205967853071 -0.0130059695813
-0.104165406111 -0.0231651267061 -0.0117468456363
-0.117177271662 -0.0227874203857 -0.0114737609325
-0.0741240551541 -0.0215846190719 -0.0127898042309
-0.085998169835 -0.0213134359822 -0.0128604243442
-0.0773752209267 -0.0217865252239 -0.0126826956213
-0.0672266668137 -0.0209596221047 -0.0131070773378
-0.106810653248 -0.0206701552595 -0.013061109503
-0.103430203683 -0.0204016823444 -0.0131992802102
-0.099042145682 -0.0227046563099 -0.0121646002514
-0.0795303267931 -0.0199822812357 -0.0134990905416
-0.11435379057 -0.0197617485292 -0.0134430275723
-0.0698513722994 -0.020415615954 -0.0133443264475
-0.0948701660518 -0.0223388122197 -0.0123509239912
-0.0824697381666 -0.0204122904561 -0.0132889457114
-0.0916256647512 -0.0233257569305 -0.0119136605534
-0.059254306707 -0.021500253068 -0.012853681147
-0.0686777447786 -0.0238863948665 -0.0116610329331
-0.0624288098632 -0.0215477320305 -0.0128298518248
-0.0626872103851 -0.0238947414312 -0.0116570592604
-0.0564391523308 -0.0220896623959 -0.0125592500568
-0.0843335070742 -0.0235660411714 -0.0118205964521
-0.087155177589 -0.024076220095 -0.0115655708244
-0.0545654921552 -0.0241034054699 -0.0115530584582
-0.0975116582302 -0.0246044102513 -0.0109494403779
-0.0941905512413 -0.025994248228 -0.00958608373679
-0.0993307737588 -0.0263795312267 -0.00908802463623
-0.120370069448 -0.0261529068192 -0.0089040977093
-0.092266323714 -0.0272103736404 -0.00837367244567
-0.117196975809 -0.0258565332084 -0.00927174554979
-0.0591453393936 -0.0243546690277 -0.0113053852897
-0.0877923776174 -0.0260440349848 -0.00961293947688
-0.0775284455804 -0.0243999275685 -0.0112588838435
-0.0662715915788 -0.0249308430942 -0.0107283349836
-0.0800929899609 -0.025151630701 -0.0105064810312
-0.0842768736012 -0.0257922303807 -0.00986515344636
-0.0732108779235 -0.0245169517026 -0.0111420614948
-0.0939084051573 -0.0149918694934 0.0128761007478
-0.105988652818 -0.0126309096264 0.0127070070398
-0.121601810737 -0.0137759777498 0.0121644324344
-0.109018211036 -0.0118707476461 0.0126775777563
-0.106737677859 -0.01579698508 0.0124407535771
-0.11621379069 -0.0137144218097 0.0123259134144
-0.119065986922 -0.0126261933074 0.0123269746372
-0.0997640615384 -0.013915906322 0.0127888495593
-0.0969264248297 -0.01412965948 0.0128548866467
-0.117181938328 -0.0107073444301 0.0125299404623
-0.109637441605 -0.0150528545167 0.0124138619345
-0.113389158781 -0.0135220935328 0.012422927425
-0.118739045452 -0.0164793873938 0.012038963899
-0.0783353995486 -0.00755936152945 0.0131626283866
-0.0800562521675 -0.00518006730528 0.0131077353259
-0.0838364468037 -0.0105522173475 0.0131215414841
-0.0908359284578 -0.0101399960849 0.0130157503923
-0.0991901531831 -0.0110330906071 0.0129070463015
-0.0744737195953 -0.00498565921124 0.0131854766467
-0.0854432989442 -0.0084541128593 0.0130718517344
-0.087953611433 -0.00979908221204 0.0130528390276
-0.0874735533001 -0.012536951531 0.0130944517728
-0.0944206308343 -0.00839315268566 0.0129420980266
-0.0820847997192 -0.00734606530473 0.0131060547781
-0.0996820904522 -0.00679598230926 0.0128462528712
-0.10424231022 -0.00833820027325 0.0128002894338
-0.112807442303 -0.0100620531328 0.0126990889855
-0.110415923988 -0.00812190756325 0.0127088482305
-0.101460686339 -0.00945839621463 0.0128544579161
-0.0900517581073 -0.0136956985012 0.0130721023733
-0.106931505016 -0.00910526627986 0.0127713789724
-0.0824846756112 -0.0133778390765 0.0131767911436
-0.0964294523033 -0.0108662094204 0.0129445943266
-0.0785697180244 -0.0114190331151 0.0131869995967
-0.0703950653628 -0.00698255582921 0.0131869995967
-0.0681296155589 -0.013913164967 0.0131869995967
-0.0740962424121 -0.0139561331582 0.0131869995967
-0.07527949819 -0.0113152664955 0.0131869995967
-0.0601677160485 -0.0158496926591 0.0131869995967
-0.0688503525696 -0.0102290490775 0.0131869995967
-0.0656256636983 -0.0131085988882 0.0131869995967
-0.0620480872299 -0.0132306732978 0.0131869995967
-0.071965179716 -0.0106020137596 0.0131869995967
-0.0731793701909 -0.00803331427939 0.0131869995967
-0.0760175101962 -0.0161654569291 0.0129769382409
-0.0777138024114 -0.0195001886058 0.0121070223099
-0.0658680768677 -0.0160542687984 0.0131285153217
-0.0703838019073 -0.015722594889 0.0131581478299
-0.0790401239934 -0.0154946333865 0.0131110809692
-0.0810346156316 -0.0179926015486 0.0124506570421
-0.0630304234956 -0.0164531585301 0.0130613845832
-0.0978668141036 -0.0170246364762 0.0123684331453
-0.0880207783487 -0.0156341602803 0.0129257250927
-0.0946686258787 -0.0176889871562 0.0122618530877
-0.105379473246 -0.0182873629336 0.0118912136797
-0.0894925308846 -0.0180418256958 0.0122755189012
-0.103140172581 -0.0164932300411 0.0123988196771
-0.0835723463322 -0.0161627864513 0.0128793856696
-0.110109169178 0.00354984712516 -0.00812729123089
-0.0799548936107 0.00449286743888 -0.00735133209701
-0.106084357638 0.00416603893684 -0.00691103414189
-0.0949478085699 0.00421414500834 -0.00730562969326
-0.0829603295662 0.0051131069304 -0.00580787606707
-0.0909437548976 0.00455515805213 -0.00671289481042
-0.117723793368 0.00229069630653 -0.00928903625442
-0.099728932767 0.00245880374522 -0.00935008890022
-0.0965506378469 0.00276481975428 -0.00908465374523
-0.103069535086 0.00283135846679 -0.00893514740637
-0.114525448502 0.00243150263163 -0.00918900263296
-0.106432729057 0.00203840276611 -0.00968498137861
-0.055409802589 0.00386610851511 -0.00810731841973
-0.0465138575661 0.00177153996695 -0.0103295355634
-0.0587311977821 0.00350596051663 -0.00856860680195
-0.0500595521296 0.00351607271196 -0.00841561355252
-0.0405642228659 0.00325453685915 -0.00855621127563
-0.0439130046372 0.00250382937188 -0.00945938711451
-0.0359089485585 0.00447147577314 -0.0071047364705
-0.0820978322791 0.00246083282538 -0.00949093582298
-0.0624398033188 0.0012835239864 -0.0107486421227
-0.054458137531 0.00180120452998 -0.0103267213635
-0.0875490609892 0.00199256410037 -0.0098865323065
-0.111843467314 0.00120426645314 -0.0104332714929
-0.0728031001384 0.00334444860115 -0.00873663113338
-0.0855851328494 0.00335665043928 -0.0086244018859
-0.0674804883017 0.00328826236173 -0.00883123063226
-0.0847610460574 0.00114949727303 -0.0106981446153
-0.0638605569233 0.00295495524472 -0.00917195701221
-0.0905461133308 0.00156179256223 -0.0102663624866
-0.070138568162 0.0021860973151 -0.00984256852115
-0.0773671115618 0.00404933759559 -0.0080404319455
-0.0576492033363 0.00151965460502 -0.0105652589269
-0.0380164060822 0.00528794755916 -0.00552006359594
-0.0334082173609 0.00489038081092 -0.00625557960572
-0.0482150171934 0.00476245380914 -0.00675817612853
-0.0513213828252 0.00515327865829 -0.00601189154357
-0.0454327353047 0.00456030693052 -0.0071249868532
-0.0720623534816 0.00488787206262 -0.00672600350874
-0.0637892364679 0.00509472809479 -0.00620981526394
-0.0679446697477 0.00494610874399 -0.0065806797779
-0.04152134478 0.00566519683078 -0.00478626840165
-0.0604904560423 0.00512910295803 -0.00612403627971
-0.0568259965962 0.00511689092035 -0.00615451018094
0.011224170298 0.00372442541282 -0.00521302127381
0.0179924859977 0.00232591250407 -0.00653175711417
0.0237501029417 0.00231200356777 -0.00618318240024
0.00804602221736 0.00274447336217 -0.00664053750298
-0.00304213109571 0.00380939735365 -0.00601356007604
0.0391945817089 0.00309667053071 -0.0042202056641
0.0344965174734 0.00313303913107 -0.00447334496232
0.00350540150198 0.00317590435335 -0.0063896135537
0.0204522153407 0.00297628604702 -0.00556206855239
0.0145023307244 0.0027699263993 -0.00619832700289
0.0414155713973 0.00107940625973 -0.00660177711022
0.0284836490704 0.00182815702393 -0.00648739317261
0.0370029261127 0.00215555590549 -0.00553644872966
0.031886050136 0.00171526882135 -0.00641230316382
-0.00554658901666 0.00498287028883 -0.00358947568822
0.0206469441488 0.00423876775328 -0.0029451594249
0.0135726754619 0.00437830002377 -0.00336528308449
0.0436293649586 0.00346330824203 -0.00287089689138
0.00547550122799 0.0046059845167 -0.00357383014651
0.0296372035942 0.00402039312893 -0.00257570845605
0.0329044403588 0.00409624125081 -0.0018196484217
0.00243965083847 0.00461211163579 -0.00396945971565
-0.000583489091889 0.00485088885937 -0.00343129772616
-0.0179423852416 0.00445320961494 -0.00598836176214
-0.00776087593204 0.00424679872381 -0.0056316247109
-0.0236234759371 0.00474914158341 -0.00579022124667
-0.0264391961946 0.00507197209311 -0.00530493358996
0.0170853477078 0.00410002503308 -0.00397674820152
-0.020966513119 0.00524429662501 -0.00449072848729
-0.0824809769002 -0.0262672560291 0.00767253381002
-0.0825177978793 -0.0239049689769 0.00954741539802
-0.116637066486 -0.023630738123 0.00923362849622
-0.0602153025852 -0.024196131658 0.00966368062185
-0.087787909143 -0.0258393091617 0.00792961696595
-0.0992858850561 -0.0252019336986 0.00825652583473
-0.0751381727835 -0.0260739018866 0.00794042524931
-0.0784582819049 -0.0255751406766 0.00828467929457
-0.0918333869689 -0.0246411619215 0.00881782444356
-0.114933759628 -0.0255875378867 0.00714547415273
-0.117957354185 -0.0255813763096 0.00701648545418
-0.104153257179 -0.025783841857 0.00740325159467
-0.120779242656 -0.0247754919944 0.00782378751487
-0.1067319205 -0.0271006863811 0.0057603842018
-0.122353811048 -0.0267922038052 0.00541469237582
-0.109432658585 -0.0269181945897 0.0058503712146
-0.0906098271808 -0.0266028179047 0.00706349107972
-0.111537567352 -0.025206115927 0.00774060801741
-0.0486478804338 -0.0286103556109 0.00291220367716
-0.103785486663 -0.0274624620128 0.00486132457903
-0.0558237219342 -0.0283100039575 0.0035719787519
-0.0941232719809 -0.0270648700816 0.00613049615358
-0.0852017126537 -0.0271351481053 0.00612571801533
-0.0725244128374 -0.0277482437549 0.00473824461597
-0.0525672942726 -0.0284483879273 0.00326696609164
-0.0911975314644 -0.0276872209376 0.0045166984766
-0.0883822901223 -0.0273852918395 0.00538709087358
-0.0813416283707 -0.0277320409632 0.00459970635497
-0.100701574405 -0.0276161505748 0.00451157648334
-0.0496580910586 -0.0257438262197 0.00829919918123
-0.0678992246692 -0.026703088872 0.00733909733497
-0.0716768251714 -0.0259588847966 0.00808242360804
-0.0536032663643 -0.0248825471844 0.00915949870759
-0.058094052562 -0.025921334049 0.00812110454383
-0.0518038994056 -0.0273084219799 0.00594806702722
-0.0597701935849 -0.0272831523844 0.00600535769179
-0.0561745941791 -0.0272198249185 0.00615361644034
-0.0647604964261 -0.027084312933 0.00646763280451
-0.0262015326133 -0.0135853911816 0.0128848016271
-0.0161906622352 -0.0112266100218 0.0126003110879
-0.00708769119356 -0.0137106108509 0.0120981393662
0.00561968564612 -0.0135645076306 0.0115872100561
-0.0223881986429 -0.0134453318091 0.0127365387829
-0.0162207769157 -0.0138986889537 0.0124609865116
0.00270262821828 -0.0123705983254 0.0117690618758
-0.0307923742822 -0.0116117851841 0.0131759767686
0.0173877241927 -0.0142467182084 0.0110710470857
0.00983137223779 -0.0124354614612 0.011474711158
-0.00500920921049 -0.0117103392924 0.0121185281771
0.024875758098 -0.0135799398164 0.0108005179659
-0.045118246539 -0.0145206491799 0.0131869995967
-0.0413280771195 -0.0133393443773 0.0131869995967
-0.0489763988076 -0.0146728166673 0.0131869995967
-0.0332562028066 -0.012839398838 0.0131869995967
-0.0391247114683 -0.0179551598799 0.0123133593917
0.00638983121482 -0.0168801848457 0.0108787191015
-0.0303844528676 -0.0192092460217 0.011669109863
-0.010883263117 -0.0170957149701 0.011471760393
-0.00377685040454 -0.0144478383053 0.0118739243945
0.00372994720717 -0.0153176269278 0.0113729372578
-0.0134343778608 -0.0151330719099 0.0120629153326
-0.0288304257684 -0.0141944746361 0.0128769931926
0.0229349419997 -0.0160456621159 0.0104692490887
0.0392082109801 -0.015183617196 0.0100769175246
0.0141268597171 -0.0164441911978 0.0106987871382
0.0345607195934 -0.0153761132512 0.010202520865
-0.0261437929718 -0.0166694443977 0.0121514058423
-0.0196515367164 -0.0139582868266 0.0125925678855
-0.0243748903913 -0.0188233997445 0.0115412683696
0.0111185580573 -0.0163216858505 0.0108424795071
-0.018199005712 -0.0170909863191 0.0117471749822
-0.0211882748528 -0.0188012012127 0.0114274271104
-0.00779208522368 -0.0170289876054 0.0113727391638
-0.000517477557072 -0.0148838271524 0.0116416723702
-0.0306090525348 -0.0165831644006 0.0123405640949
0.0305421014821 -0.0155130820962 0.0103185713025
-0.0342688687306 -0.0166010546201 0.0124732304059
0.125408996337 -0.0725025660725 0.00348698403504
0.123704679909 -0.0723816356905 -0.000565357820479
0.126563501456 -0.0725912922091 0.00607671574693
0.139389437898 -0.0403920002282 0.00442482760555
0.132079585755 -0.0403920002282 0.00105714185388
0.136786636786 -0.0403920002282 1.25499975138e-05
0.139797101273 -0.0403920002282 0.000676246149887
0.141574559883 -0.0403920002282 -0.00721923185422
0.141502336547 -0.0403920002282 -0.00382127002872
0.14237022638 -0.0403920002282 0.00563101053076
0.138581894387 -0.0403920002282 -0.00303566344691
0.142948471548 -0.0403920002282 -0.000841929716008
0.147568121958 -0.0475242400221 0.00776458203544
0.147068206007 -0.0418214028381 0.00660019935204
0.144872986324 -0.0430195875636 0.00914711319632
0.129885278525 -0.0403920002282 -0.00475640861425
0.136542610428 -0.0403920002282 0.00978202798236
0.13054337451 -0.0403920002282 0.00577289268023
0.140622885821 -0.0503305085098 0.0129690704966
0.137024011133 -0.0444203321517 0.0115507298943
0.140093979875 -0.0472015333238 0.0122181703067
0.138175489813 -0.0516234420449 0.0132793522916
0.13735290206 -0.0482303607251 0.0124650711752
0.140191414714 -0.0445114394646 0.0115725940813
0.120540000498 -0.069115530728 -0.00304250018135
0.120582827321 -0.0597459508897 -0.00195774493632
0.120792122188 -0.0638138328331 0.00120452123179
0.122582726408 -0.0514254708608 -0.000540989939394
0.12096333684 -0.0562469175123 -0.00191931125053
0.124069623818 -0.0475295709884 0.00290312044088
0.121454899356 -0.0552685318645 0.000489262829954
0.124958851986 -0.0447110580058 0.00295853264202
0.146478335603 -0.0403920002282 -0.00463476435651
0.146063263765 -0.0403920002282 -0.00153713917489
0.145915370141 -0.0550296026453 -0.013094163424
0.148928298202 -0.0560559136369 -0.0102785558435
0.146209395034 -0.0518143816327 -0.0115585102861
0.147352838279 -0.0583684005941 -0.0121593482115
0.146037451307 -0.0622227303542 -0.0136558082638
0.146609931862 -0.0671737468675 -0.0132975415543
0.14622783528 -0.0461358141368 -0.00919755044452
0.147507646275 -0.0448103136579 -0.00658775528414
0.1450993543 -0.0436104612897 -0.00957783182347
0.148174858129 -0.0478040663951 -0.00714324056703
0.125195004626 -0.0471268650251 0.00552920286407
0.121390770203 -0.0564901820076 0.00308295341179
0.123447030275 -0.0565087094673 0.00741740041693
0.123285451092 -0.0521677310195 0.00450345373538
0.129821254463 -0.0709754581393 -0.0141319049607
0.136876474378 -0.0696725125759 -0.0166065440377
0.13590745008 -0.0640078671199 -0.0166519184649
0.133149866687 -0.0648082408082 -0.0163930355789
0.135457477076 -0.0670595756468 -0.0165426902952
0.148958497123 -0.050050869136 0.00682679706041
0.148555680283 -0.0462022727091 0.00554779472942
0.150080320324 -0.0560444759352 0.00716506047404
0.149758801618 -0.0533621873655 0.00641000607385
0.14931390084 -0.0468501713201 -0.00331446704918
0.150674210719 -0.0529640727084 -0.00235177668708
0.151336548228 -0.0559409431157 -0.00279186684609
0.149912049773 -0.0495385467023 -0.00230697141649
0.150141817768 -0.0508846069403 0.0011973750409
0.150572291802 -0.0532077612847 0.00335697640855
0.147416858016 -0.0405971443778 0.00394544715148
0.149465717006 -0.048996302106 0.0043471927159
0.151307732174 -0.0560504619855 0.00286134515642
0.148667736032 -0.0440793047833 -0.00192472485456
0.14888014482 -0.0457624385895 0.00113568341487
0.13338076403 -0.056928325587 -0.0160178333902
0.133239628604 -0.0543193744397 -0.015176663075
0.133672096444 -0.0512477781296 -0.0143032670154
0.133449496781 -0.0428788335335 -0.0116499315324
0.13230772104 -0.0453388052794 -0.0121940336706
0.130358800314 -0.0554673706618 -0.0149719126814
0.131779485811 -0.0624472701809 -0.0159185536922
0.131124109001 -0.0678087355984 -0.0160749317838
0.136888865217 -0.0517965309774 -0.0147915496492
0.138590063762 -0.055266754915 -0.0160074943414
0.134713000863 -0.0468070714563 -0.0130552784541
0.139794422772 -0.0579122659886 -0.0162219184217
0.13667038846 -0.0598113513144 -0.016672344578
0.139361983884 -0.061421516305 -0.0163903654426
0.13433446311 -0.0728324446475 0.0118519645433
0.141173260617 -0.0728225041705 0.00939029320544
0.132163345899 -0.0715709357967 0.0132098409468
0.140112069278 -0.0723340065242 0.0130427848302
0.137412162904 -0.0719702216416 0.0132145557026
0.142972671647 -0.0712588373259 -0.0143581775043
0.135206835717 -0.0715756224459 -0.0148090422174
0.151785999537 -0.0600271578479 -0.00130650269889
0.151785999537 -0.0634245465333 -0.00372231027647
0.151785999537 -0.0665813203035 -0.00310319033322
0.147162167484 -0.0637331987132 0.0106456030151
0.148895034616 -0.0580107534373 0.00891370455268
0.14911086119 -0.0662486135114 0.00869582549153
0.148338947542 -0.0612740737784 0.00946913432133
0.138177385921 -0.0554126728292 0.0141272188078
0.134711551794 -0.0489701027855 0.012541657342
0.133562897248 -0.0524204816906 0.0132576566724
0.129913226079 -0.0582063729127 0.0131116262581
0.132196290166 -0.0629885531526 0.013913294818
0.123450210802 -0.0712390719802 -0.0083159946123
0.121605636254 -0.0699887630093 -0.00639434538693
0.123112998 -0.0688171816144 -0.00981807064577
0.136918999293 -0.0729359984398 0.00134625482406
0.135110765094 -0.0729359984398 -0.00204564308039
0.139732079187 -0.0729359984398 0.000998404534525
0.138333365788 -0.0729359984398 0.00820440269136
0.138104536768 -0.0729359984398 -0.0016785867017
0.133061298338 -0.0729359984398 0.00643462307001
0.142876359444 -0.0729359984398 0.00678921422385
0.135968386222 -0.0729359984398 0.00970750698979
0.137752565425 -0.0729359984398 0.00442039607186
0.13477388904 -0.0729359984398 0.00289444894546
0.140325070523 -0.0729359984398 0.00514312132421
0.145999865447 -0.0729359984398 0.00616955886963
0.1437001766 -0.0729359984398 0.00404805082187
0.130367059798 -0.0725526976922 -0.00944276911848
0.131671712993 -0.072373930081 -0.0121176214813
0.133373462849 -0.0725833590358 -0.00970196019181
0.120910932736 -0.0706977415432 -0.000140385505237
0.123479082796 -0.0532433163242 -0.00792029895498
0.126641592674 -0.0423588885189 -0.00676972342171
0.124629287976 -0.0547053504224 -0.0102399168281
0.124718362787 -0.050870100185 -0.00842511719567
0.120637509649 -0.0644798864276 -0.00406583361682
0.120920243822 -0.0582153840476 -0.00420179939335
0.121341598553 -0.061616264396 -0.00567947505482
0.124891849348 -0.0478636902889 -0.00703781329379
0.121880578946 -0.0565107993521 -0.00631835379001
0.123057061421 -0.0512149492212 -0.00476767765733
0.121895787412 -0.0650266529399 -0.00726457598084
0.122297074263 -0.0597292636111 -0.00796756228417
0.124208424117 -0.0598502369635 -0.0107807473531
0.12307697477 -0.0653626433418 -0.00986873880194
0.12890857746 -0.0542050449283 0.0120203193848
0.127426749292 -0.0570403025815 0.0116539298722
0.126722964685 -0.0513313240618 0.00923092650597
0.128501352872 -0.0495363208805 0.0101830955958
0.129773997324 -0.0447824134655 0.00975860761249
0.125319309106 -0.0536993207137 0.00874359913649
0.127973265854 -0.0447658655265 0.00777604924379
0.126336139027 -0.0428363532561 0.00507920922054
0.124873363618 -0.0508257988732 0.00696959593908
0.128543626452 -0.0421024152564 0.00723894736409
0.132042738805 -0.0460464322572 0.0113311046588
0.132491645198 -0.0430053932958 0.0108078398192
0.13350815587 -0.0555491100078 0.01393559152
0.150547271768 -0.0720122681356 -0.00290925150369
0.15052684576 -0.0718201364465 0.000719398090659
0.150173365797 -0.0597744760661 0.00712299358086
0.1513829466 -0.0699358278289 -0.00141536632343
0.151325868617 -0.0684858958913 0.00309188704568
0.151552763325 -0.0630771616014 0.00306128275747
0.151752787635 -0.0588968752359 0.00268873946613
0.151783896424 -0.0630743264412 -0.000206778494645
0.150602414009 -0.0654084846237 0.00600688775078
0.149820230815 -0.0633718352226 0.00764238828739
0.150572636161 -0.0684329919033 0.00591874093954
0.14783561325 -0.0704694358602 -0.0117031737739
0.148377714906 -0.0622739176314 -0.0112263791712
0.149282100579 -0.0675143096496 -0.00992865164813
0.150537141317 -0.0693669822404 -0.00776499025084
0.151397093117 -0.06966793533 -0.00445530549851
0.143230096353 -0.0403920002282 -0.00972098579085
0.144218680612 -0.0459629821278 -0.0113644162404
0.14021102498 -0.0428113783019 -0.0117377405899
0.139175593127 -0.0458596745458 -0.0127982918377
0.140648935687 -0.0500265779756 -0.014248024501
0.137629088084 -0.0488886738316 -0.0138521293638
0.135743016818 -0.041058100828 -0.0111277471824
0.143692638073 -0.0505272737357 -0.0131883699427
0.141364630837 -0.0528353294057 -0.0148259937158
0.121119695756 -0.0602083193399 0.00260511729973
0.121527522114 -0.0630343886918 0.00412100131946
0.120704208051 -0.0672512277351 0.00131667449453
0.122849210049 -0.0600046400074 0.00678630480315
0.122439179109 -0.0648590011059 0.00635394043978
0.1390574065 -0.0679319580113 0.0143001600125
0.139633660467 -0.0599830474026 0.0144889997318
0.134262800596 -0.0590152959981 0.0144889997318
0.137168405089 -0.0590969257325 0.0144889997318
0.138186924053 -0.0629482726506 0.0144889997318
0.137034642266 -0.0659498208802 0.0143774164809
0.134132967954 -0.0691564231138 0.0140432481439
0.135121880866 -0.0640173019005 0.0143321883473
0.127346102828 -0.0595036661587 -0.0134341203885
0.127960493734 -0.0568394903552 -0.0136829781423
0.126047760924 -0.0647826190392 -0.0128823233013
0.128665627838 -0.0680158957924 -0.0147407073658
0.129631238349 -0.060352782761 -0.0149897922346
0.129020172049 -0.0641075277498 -0.0147880709146
0.12567272157 -0.069963719606 -0.012483477743
0.12426966924 -0.0628659019885 -0.0110735161105
0.143603354131 -0.0492332463604 0.011881679179
0.145914371314 -0.0494755790865 0.0098861996819
0.143910608843 -0.053106540838 0.012540120884
0.146408417601 -0.0526613760395 0.0102133060388
0.14422397957 -0.0454087251914 0.0104103770324
0.145364941483 -0.0551459982266 0.0117381538543
0.147775918898 -0.0550706153854 0.00957743373779
0.14120576755 -0.0534043565793 0.0135197343664
0.141805402922 -0.0563161954659 0.0138963410278
0.146513579817 -0.0579869129493 0.011146135628
0.142248426121 -0.0628740342465 0.0135814910859
0.144224612029 -0.0583675066264 0.0130052328824
0.141166534267 -0.0697616532775 -0.0160985800413
0.144368854676 -0.0668027723944 -0.0147408769821
0.141668923549 -0.0667926855447 -0.0161109084813
0.142936860937 -0.0571789613141 -0.0151073055195
0.141755248734 -0.063556763176 -0.0159071348569
0.143441150373 -0.0609120224084 -0.0151186970296
0.14995085269 -0.0503082029263 -0.00531158781512
0.150883558497 -0.0550160127177 -0.00624966064647
0.149347784186 -0.0526663385135 -0.00775755461659
0.151621819504 -0.0583125762274 -0.00439146081905
0.150124922588 -0.0606259209385 -0.00857332258084
0.150423011994 -0.0653681428661 -0.0082255731293
0.150761902111 -0.057540773677 -0.00715401207225
0.151152943022 -0.0615843071484 -0.00613480085566
0.151177297763 -0.0674026624531 -0.00590553151121
0.123247125755 -0.0712636587395 0.00576990153425
0.130697348935 -0.0682819248042 0.0131542915218
0.129227172813 -0.0629572242691 0.0126738534956
0.128383723578 -0.0712681321636 0.0117278759542
0.125625523581 -0.0715406587388 0.0102212631298
0.12857302559 -0.0665634513988 0.0121076561257
0.127117963905 -0.061606982385 0.0115313878734
0.124875383005 -0.0683548009222 0.00969689361879
0.125462341622 -0.0634297359935 0.01013597749
0.125149248335 -0.058456533905 0.00980296222373
0.121546305526 -0.0697868577551 0.00352306721859
0.124060454244 -0.0613534678803 0.00884661404935
0.122292112259 -0.0678659079155 0.00604164129753
0.147661870201 -0.0724219795463 -0.00699261946135
0.144918906974 -0.0724659726614 -0.00856731814495
0.140201634664 -0.0726701710174 -0.00689526598673
0.145547388234 -0.0723149898658 -0.0116337594773
0.141665320606 -0.0728766748445 -0.00121422050082
0.144747714106 -0.0727392642573 -0.00239826402898
0.1480543995 -0.0727136299287 -0.000870796072598
0.136878031207 -0.0727720186438 -0.00668263155052
0.141059648619 -0.0727759601973 -0.00391569808198
0.14713747557 -0.0729117459906 0.00309387548246
0.144773641348 -0.0728558587928 0.000296982699168
0.141524637774 -0.0723509534259 -0.0124433543423
0.140689236481 -0.0725264066047 -0.00970482410604
0.138719340885 -0.0723136578734 -0.0140202755918
0.136105715197 -0.072613607115 -0.00973392230625
0.144896806432 -0.0709483905785 0.0115650122981
0.147387073197 -0.0708836802237 0.00929255230805
0.148865340769 -0.0720871119948 0.00694785589537
0.146648570092 -0.0673176638146 0.0109060842818
0.141130667912 -0.0695432970179 0.0135654236581
0.143749897014 -0.0654930839099 0.0128260987575
0.14447936623 -0.0681103808967 0.012352903067
0.129593362317 -0.0430967162499 -0.00970902228565
0.127984812179 -0.0469324764332 -0.0100200774826
0.127647878829 -0.0509782129803 -0.0114753029956
0.130135633305 -0.0484457180587 -0.0123705574467
0.128528745581 -0.0535032539234 -0.0131788630141
0.1301392187 -0.0508947698049 -0.0133657357995
0.124478251051 -0.0459404644606 -0.000959674615253
0.121995017554 -0.0531100669212 -0.00324525359471
0.12540053255 -0.0432776493384 -0.00373696075619
0.125730484269 -0.042325011312 0.00142778313206
0.124486393421 -0.0464412862156 -0.00446637531103
0.127799019421 -0.0726003174754 0.00862480642744
0.131493246582 -0.0729359984398 0.00207078887887
0.129918316944 -0.0729359984398 0.00526986058111
0.131821091837 -0.0729359984398 0.00899533921472
0.130170220696 -0.072902021721 -0.0013868295161
0.131956627275 -0.0727946310871 -0.00650147755827
0.131915453371 -0.0729128153577 -0.00343771388334
0.126999680845 -0.0724128471326 -0.00961586384095
0.128920071117 -0.0726242279094 -0.00679334204876
0.129170052831 -0.0727495655388 -0.00393545015071
0.125861894499 -0.0724908674623 -0.00515565303701
0.126884137207 -0.0727924999865 0.000738054206944
0.123349344549 -0.0723467305762 -0.00324917278726
0.144676708389 0.0212676640393 -0.00360848222606
0.14315196965 0.0232313814541 -0.00268305455571
0.14177504693 0.0250688881027 -0.00453508280868
0.143315313735 0.0229382254172 0.000685634573678
0.146443015228 0.00973699986935 -0.00719846536422
0.13809171323 0.00973699986935 -0.0086509909239
0.139138119036 0.00973699986935 0.00206494244257
0.142089791221 0.00973699986935 -0.00473159196107
0.137292902597 0.00973699986935 -2.53453374152e-05
0.13621347841 0.00973699986935 -0.00493291691095
0.135525407691 0.00973699986935 -0.0102835981771
0.135287653306 0.00973699986935 0.00237791480088
0.131951139472 0.00973699986935 0.00464102713767
0.140270789446 0.00973699986935 -0.000877344941413
0.141842195255 0.00973699986935 -0.00744972094898
0.138549635125 0.00973699986935 -0.00308577505191
0.14055676211 0.00973699986935 -0.0100874088033
0.144356270486 0.00973699986935 0.00680829244144
0.146728598637 0.00973699986935 -0.00412726016314
0.146288454686 0.00973699986935 0.00288041819106
0.141594426351 0.00973699986935 0.00688488147668
0.131023017455 0.0338199995458 0.0086558704919
0.127389040164 0.0338199995458 -0.00660847321916
0.12609562854 0.0338199995458 -0.00370636526798
0.126427882241 0.0338199995458 -0.0107889574306
0.12058927795 0.0274738469093 0.0147838493889
0.126922187846 0.0136195743532 0.0138012204282
0.134471289367 0.0324304601276 0.00566152895323
0.13531493006 0.0312277378942 0.0119657778246
0.134160271143 0.0329748934319 0.00188773587374
0.137361237589 0.0293098911612 0.0129172250633
0.133723167516 0.0327957758193 0.0101323386704
0.133694689744 0.033644912794 -0.00168137731234
0.124604902161 0.0338199995458 0.001129652787
0.12532081113 0.0338199995458 0.0108978918966
0.121847668641 0.0338199995458 -0.00109067868086
0.128183396297 0.0338199995458 0.0125061949427
0.117963591412 0.0338199995458 0.00276116590369
0.119012416661 0.0338199995458 -0.0070793678381
0.120355963643 0.0338199995458 -0.00421655083017
0.127957238419 0.0112791760531 -0.0112307139839
0.122064558259 0.0254956215121 -0.0128315192772
0.125193831396 0.0174380858575 -0.0117840679208
0.132874399596 0.00973699986935 -0.0119779194652
0.14983099699 0.0107964915158 0.00445636806535
0.14657473098 0.00973699986935 0.00877922618025
0.128200622863 0.0281021216516 -0.0134990001097
0.121529121382 0.0320525916253 -0.0134990001097
0.124333196269 0.0301529327457 -0.0134990001097
0.128395278007 0.0321005033817 -0.0134990001097
0.130710975426 0.0265742537823 -0.0133878130959
0.134951953587 0.0208531716276 -0.0129404195217
0.133607215921 0.0234672468501 -0.013082279953
0.128373396043 0.0217055614451 -0.0131767627317
0.124411083808 0.0231347499743 -0.0130033760028
0.126739096954 0.0196670169646 -0.012856624394
0.126453800549 0.0253438853797 -0.0133714615234
0.128625391631 0.016594347458 -0.0127128454494
0.128879725489 0.0136022141703 -0.0124495846194
0.133301603619 0.0123517753448 -0.012433138871
0.135599666306 0.0164860835552 -0.0128096674648
0.137658688171 0.0105005355548 -0.0122645387863
0.131411503411 0.0211911791228 -0.0132381800302
0.132808594248 0.0174729326923 -0.0128995439082
0.137988228402 0.0136937831899 -0.0125553610908
0.139943115502 0.0265768122408 0.0102837488787
0.141513747859 0.0246238638014 0.011413953358
0.140236736854 0.0266337802823 0.00312832608154
0.142740427113 0.0234913765331 0.00544094557492
0.14057105693 0.0260374434452 0.00652177685809
0.143987224885 0.0217507385486 0.0096605225433
0.139779195163 0.0273957130215 -0.000569879556871
0.135899140629 0.0313734473078 -0.000575108232484
0.138510403818 0.028514917638 0.00494066211832
0.137267603403 0.0298599625565 0.00272918462054
0.136828998927 0.0300985605103 0.00827473373121
0.138663668346 0.0286682528242 -0.00333977988456
0.138666766989 0.0282437482301 0.00795043411876
0.135938722328 0.0314345119048 -0.00328873686066
0.123930847801 0.0200364618602 -0.0116490853296
0.118961677755 0.0309922594751 -0.0116576166277
0.120143121839 0.0286407012669 -0.0119994792153
0.119727661369 0.0287895147685 -0.00852796269666
0.121361672916 0.0246488161591 -0.00456241604734
0.117845621466 0.0320948901498 -0.000934707472899
0.120940567816 0.025039650767 3.36979354673e-05
0.118914044631 0.0292944614247 0.00243056650404
0.1208168028 0.026128379141 -0.00670572216566
0.122906625159 0.0216871032922 -0.00873247483766
0.121795161911 0.0242292689629 -0.00915064876302
0.119265800707 0.0292048277616 -0.00337614258358
0.119576864189 0.0281581580963 -0.000474488089479
0.123934632749 0.0189161019672 -0.00485894027161
0.117893647787 0.0313300913415 0.00452430715064
0.118207992429 0.0317527479811 -0.0048414265167
0.126121938454 0.0146275791868 -0.00997026600292
0.125285268286 0.0162315763298 -0.00771262418513
0.138032366061 0.0247727760077 -0.0120664506204
0.131645934402 0.0319100763792 -0.0131261512439
0.137017877293 0.0284094749118 -0.0118921715228
0.140699492427 0.0190108171675 -0.0120046049601
0.144326447926 0.0134838216771 -0.0116044987564
0.141219953326 0.0113463436154 -0.0122771954815
0.14163642703 0.0150821205961 -0.0120668911186
0.135089699336 0.0256133167671 -0.0128388886672
0.133156311878 0.0286438051926 -0.0130697881429
0.137668437802 0.021796666427 -0.0125226700557
0.138896213563 0.0168979970729 -0.0124848574432
0.144095316693 0.0176808977132 -0.0108840452701
0.142630303103 0.021142668793 -0.0108743709823
0.146638623469 0.0159366866325 -0.0100093075457
0.124099456285 0.0228740448784 0.0148251471632
0.126044875222 0.0168615995078 0.0143113850598
0.124235936242 0.0263071745581 0.0150347684953
0.128703661174 0.0207943751108 0.0149268722779
0.12759526648 0.0237302913324 0.0150375459613
0.132329639292 0.0163371389536 0.0148402095323
0.128670021029 0.0164007813505 0.0146903941686
0.130683685566 0.0189304491003 0.0149100463734
0.130980989101 0.0127941937614 0.0145941868565
0.122983013331 0.0291117266375 0.015132362738
0.119718052618 0.0314031599299 0.0151182639456
0.133081077101 0.0110959425679 0.0145598645232
0.137505333308 0.0145128221656 0.0147506147303
0.141064097063 0.0124008672416 0.014632713052
0.133958064994 0.0193147285081 0.0150186852323
0.135059659731 0.0130808255079 0.0146706723
0.14983099699 0.0117354820535 -0.00236830138374
0.14983099699 0.0115181275213 -0.00542109812302
0.149209971643 0.0129855899198 -0.00755244154021
0.145693964715 0.0194442471924 0.00831321705071
0.147023212739 0.0171780444497 0.00271554503246
0.146620940183 0.017962350346 -0.000923679894055
0.148020830673 0.0155463171691 -0.00522701377759
0.146756705617 0.017776150476 -0.00394664967927
0.127115951009 0.0122658440399 -0.00880409764823
0.12436867922 0.0177011299879 -0.00202220954895
0.126696851125 0.0126669336772 -0.00270778960278
0.125528566375 0.0152839861074 -0.00343831837429
0.120065000297 0.0266347383734 0.00364640196704
0.122779629734 0.0211755071346 -0.00200812988377
0.126512886218 0.0133503807665 -0.00603141359988
0.128069557424 0.0100208766759 -0.00690719873278
0.12069598774 0.0253129844437 0.00922831228318
0.123354170506 0.0199472859815 0.0115084381407
0.126938871167 0.0121957697689 0.00334577208917
0.125150136544 0.0161807739032 0.00997036784532
0.121158685003 0.0244789881855 0.0118044476493
0.123129782813 0.0202658419331 0.00838698434646
0.126875101704 0.0125754165842 0.00876012626221
0.126930242547 0.0120608195651 1.74240360103e-05
0.122123183813 0.0223946633708 0.00963646079204
0.119804412011 0.0272853655708 0.0122272740134
0.124040720868 0.0182262647645 0.00479191153313
0.125295307412 0.0157534229805 0.00716741309235
0.117284998298 0.0328176296675 0.0127445079998
0.12544653294 0.0151803316366 0.000156785838383
0.121470294971 0.02362516305 0.0031882263983
0.123024205253 0.0203249304021 0.00301443652124
0.119265199055 0.0283083996663 0.00630251328179
0.124408411478 0.0173851193798 0.00208289053769
0.121440362078 0.02368873526 0.00720867590413
0.118681591642 0.0295478793599 0.00932015750963
0.137274504505 0.0205869780419 0.0148126709583
0.14121230718 0.0163065757664 0.0146008048811
0.138058215933 0.0175860908908 0.0148204676855
0.134178840007 0.032795028107 -0.0121594302904
0.132983773022 0.0338199995458 -0.00645206513925
0.134660264005 0.0327177228427 -0.00921291816488
0.137402988689 0.029972467352 -0.00610430559039
0.130333908698 0.0261143304503 0.0151380002499
0.131277835732 0.0231934767146 0.0151380002499
0.12820718331 0.0302831557562 0.0151380002499
0.125389254898 0.0303349491427 0.0151380002499
0.127568055544 0.0268606118522 0.0151380002499
0.122611587847 0.0320573876056 0.0151380002499
0.134702809317 0.0281452471588 0.0147909616906
0.139286317606 0.0232933043976 0.014551900319
0.131485099608 0.0336379009578 0.0146648319022
0.135437429657 0.0244097580636 0.0148636360334
0.130778640642 0.0296715259167 0.0151012606352
0.145308023418 0.0185936949159 0.0132429249516
0.139790990863 0.0260310688013 0.0133091811965
0.149310747119 0.0114967160499 0.0131911022463
0.149702130237 0.0120676648905 0.00907954680968
0.14954142963 0.0126482802782 0.00162588709531
0.148145001018 0.015224086483 0.000222808566115
0.148507306303 0.014327496211 0.0131695511624
0.148204580612 0.0149945870959 0.00660766360119
0.147262696755 0.0166282790692 0.00910741919865
0.148309294756 0.014870668148 0.00333688946527
0.141461178279 0.0214269814329 0.0142193032348
0.143377304717 0.014661438542 0.0144335146579
0.145805056055 0.0130024148499 0.0139538143358
0.144856629595 0.0206069537758 -0.00950465922751
0.141821487282 0.0246990540195 -0.00970524497343
0.145442872327 0.0199348582602 0.00468631812706
0.14564405604 0.019728883908 -0.00695211912215
0.145182240087 0.0204062892714 0.00143844562587
0.140733746039 0.0262970599766 -0.0072193996243
0.143530557376 0.0228216787364 -0.00787147070946
0.139700182535 0.0272836763798 -0.0103329112406
0.102287336741 -0.02509204714 -0.00929409938216
0.105258401062 -0.0251603044193 -0.0097570461665
0.0951529964805 -0.0225287150168 0.00447242237311
0.0951529964805 -0.0174843335081 -0.00218235766523
0.0951529964805 -0.0176559076593 0.000669166030884
0.0951529964805 -0.0185346942816 0.00407111485566
0.0951529964805 -0.0129159956631 0.0071266079104
0.0951529964805 -0.0047441683931 0.0049779765152
0.0951529964805 -0.0147430455676 -0.000513926235747
0.0951529964805 -0.00410624078095 0.00829487413087
0.0951529964805 -0.0186793025763 0.00686087991171
0.0951529964805 -0.0231415065019 -1.60273989681e-05
0.0951529964805 -0.0154628552691 -0.00572808242089
0.0951529964805 -0.00923179943746 -0.00344314600116
0.0951529964805 -0.0143774736829 -0.00332711286165
0.0951529964805 -0.00277715273001 -0.00577505648706
0.0951529964805 0.0028787219552 0.00595454191623
0.0951529964805 0.0018817524932 -0.0030000296707
0.0951529964805 -0.01255215394 -0.00648142054015
0.119237996638 0.00336514755298 0.0049558297769
0.119237996638 -0.013819161295 0.00376886527905
0.119237996638 0.00241643341528 0.012278008807
