0.08780531914424203 0.0022883984187402574 0.010641680208334479
0.09080661118095762 0.0023966104167391735 0.010800739742974273
0.09515299648046494 0.004913488180284914 -0.0018537864592792182
0.09238147501414098 0.005796411283174851 0.004413934260901914
0.09269264660889481 0.004602725537105578 0.009072684856183618
0.09116563676737671 0.005560762679949444 0.006817711225802988
0.046915637836196206 -0.02410855544538809 0.0037332429150000947
0.07692520057627827 -0.02541158423463167 0.0047145982064775455
0.05436606936568693 -0.0243530119740338 0.00413497174286337
0.050569633257611435 -0.024047154536986023 0.004292851796744513
0.07220867826297342 -0.024662033724857067 0.005623686762950589
0.08371850009087589 -0.025622538769937617 0.005090193234111929
0.09032086347502405 -0.024710014386732922 0.007542757302938448
0.07967588131305715 -0.024865224886763793 0.006069156799331484
0.06154016812364881 -0.023945016123511027 0.005791565232228383
0.06595736116698903 -0.02364601816983468 0.006845234336488469
0.07553621287910316 -0.02426587698963984 0.0067395979934106506
0.06932508432511664 -0.023553412169992374 0.007237726911783493
0.07777260127585586 -0.023280398226981525 0.008259970041838169
0.09273294370645646 -0.023867267023537038 0.00882201447607477
0.056557593201282806 -0.023221554313489608 0.006560981416831297
0.0856593566317581 -0.024345326350200862 0.007675111001494623
0.0829696609244181 -0.021002262736457607 0.010130300519842997
0.0677299894839146 -0.021567200364322626 0.008804750380748448
0.08047305489587865 -0.02255788975343801 0.009037993062582694
0.061360108562340726 -0.022078354355373905 0.008086190381625342
0.08853962943744043 -0.02250525955446023 0.0095922397452181
0.05181182287573356 -0.022725966839590467 0.006712449105602089
0.07253885568533291 -0.022675273796033332 0.0084430898931473
0.08905963269312117 0.000814722991531737 -0.00947075320004961
0.05004252456746583 -0.000610060901881055 -0.007965491434718737
0.056463504365151386 5.43492574813047e-05 -0.008039907491595721
0.07388315570829146 0.0015282972954978149 -0.00840638289268934
0.05327056478623518 0.00021683419849745464 -0.007755992050816965
0.08532147427886974 0.0022571851858726195 -0.00876673000443861
0.06316030267114885 0.0011949973281036085 -0.007893240959347526
0.04671039619728779 -0.0016110893993920876 -0.00825562297516178
0.07974808019960462 7.181849252677628e-05 -0.00928979533391915
0.0646423322086111 -0.002528374992428216 -0.009464961078159211
0.0716566481603014 -0.002320204959554085 -0.009731917088181
0.058835879839018196 -0.0010848043481177306 -0.008680731553735162
0.07671507671775064 -0.0021742277982820307 -0.009925879738805356
0.08246780450713004 0.0015689804239018463 -0.008899581677817838
0.06843478109008509 -0.00023890277494240434 -0.008850499670580818
0.07727721047201784 0.0027375462543054673 -0.007917196797441475
0.08782242941170983 0.0033434770386382134 -0.008260823806135333
0.09374873034717292 -0.025471247628684475 -0.0016197432574711502
0.09491812222138962 -0.0253762583929048 0.004182964780304764
0.09222030973115218 -0.025782888017388574 -0.004899277300470413
-0.14924684171420716 -0.0067997946629374615 0.013289924948374486
-0.1631060142544193 -0.007173072263224922 0.013791014490452773
-0.15227805767276484 -0.007374614027059027 0.013439726336188177
-0.13915201133593716 -0.008063926118823997 0.01305015933699661
-0.15614386164669064 -0.006666623078856404 0.013513291859346403
-0.1307488431582312 -0.008119878275483104 0.01276934832714459
-0.14620851462110848 0.006416696958815754 0.0010439214826042879
-0.17011252975224453 0.007691375406796019 -0.00017878386407512814
-0.15529687890004878 0.006901332782973564 0.00043955243147051346
-0.1584739196238576 0.0070707480597284635 -0.0014753059410868195
-0.16653140683711457 0.007500412500587906 -0.0013435742983361385
-0.1631695977285942 0.007321144474135189 -0.0009671054255580407
-0.16909225998116784 0.0076369696560808055 -0.0027517174633678717
-0.12292300164699554 -0.017214687235298173 -0.002283983281786513
-0.12292300164699553 -0.021977745871779603 -0.0008463216811006287
-0.12292300164699554 -0.014450592049192018 -0.001729613582309334
-0.12292300164699554 -0.008750499120214118 0.002820014853665068
-0.12292300164699554 -0.024599202711260766 -0.0061130433312288086
-0.12292300164699554 -0.004541218515489637 0.003347108341413685
-0.12292300164699554 -0.011204434641791793 0.004784437242410498
-0.12292300164699554 -0.016139108847527592 0.0004425860621174874
-0.12292300164699554 -0.0047981395757178535 0.0006154652325810065
-0.12292300164699554 -0.020463254085892633 0.005027104003723288
-0.12292300164699554 0.0023869892892254595 -0.002339903523682151
-0.12292300164699554 -0.0067058490498362044 -0.006348817411605973
-0.12292300164699554 -0.011285484125472015 -0.005992450003545863
-0.12292300164699556 -0.0066912000482811495 -0.0019926782349580256
-0.12292300164699554 -0.008666272856509621 -0.004077947844990451
-0.12292300164699553 -0.021066891624931763 -0.005295743123082358
-0.12292300164699552 -0.0003157766218365945 -0.002338281427292496
-0.12292300164699554 -0.011513450688373575 -0.0029275026823755218
-0.12292300164699554 -0.0029425996757455296 0.008193285815413502
-0.12292300164699554 -0.02706016047241918 -0.003154848069602648
-0.12292300164699554 -0.015473234930852724 -0.01025792864283745
-0.12292300164699554 -0.007900502235247811 -0.009460378454988927
-0.12292300164699554 -0.005286479093315321 -0.01110826198943188
-0.12292300164699556 -0.0029564957738358807 -0.00923920935657511
-0.17442056005687367 -0.013010364339930486 0.013585364969545502
-0.17421937392658235 -0.018258403045884025 -0.015700822165069652
-0.17112940061055135 -0.014611069377470818 -0.01605006231484389
-0.17076018274824165 -0.009376390238800013 -0.016037549121284987
-0.17437585647716436 -0.010809859155914023 -0.015700866540216876
-0.17520896454892315 -0.01330645864036445 -0.015643254288402852
-0.1751914451003331 -0.026501517692083178 0.008368560882761698
-0.15099902496067405 0.006672150289612764 -0.0010127478740821236
-0.13046723474646618 0.005577295289692128 -0.0006017699770753961
-0.12337088931489366 0.00519888360732725 0.0017484837634593074
-0.1453864733936585 0.006372861718993767 -0.0017883645739079994
-0.12547692874197774 0.0053111878814658675 -0.0015855903176535504
-0.13292583210823644 0.005708399669107769 0.0010214944510757644
-0.12823116601487877 0.00545805722007409 -0.0028951232193910213
-0.13638904286875475 0.005893074925253167 -0.0019952973798868408
-0.14271745823021878 0.006230536838110568 -0.0006564953640936018
-0.13977633653360955 0.006073701912304664 -0.00018768115424834856
-0.13369220000762105 0.0057492661360678335 -0.0015780141386510372
-0.12292300164699554 0.0043926588596635546 -0.004747455564734951
-0.17322516503510463 0.003965099885589805 0.009699357872573046
-0.15353097613654598 -0.02842559619727703 0.004158086639033989
-0.13797304544384448 -0.02823184810102418 0.0033844450406000483
-0.1533188142144066 -0.028981122658396433 0.001185109450491204
-0.14680766466706008 -0.0286233764826275 0.0023296830676486253
-0.15011605602057057 -0.028578664724249102 0.002950169033270485
-0.1651222925357446 -0.02886768291580183 0.003154275593271073
-0.15838642593432806 -0.02920710335661163 0.0005726761027599306
-0.14006309654342292 -0.0286050496125601 0.0016457858657568107
-0.16010142436966152 -0.028817653103903412 0.0028382801108325895
-0.17643088129293513 -0.020742955271359616 -0.014779642809788777
-0.1775635901299165 -0.023684903927428242 -0.009025252831973175
-0.17748761553015613 -0.026140057303166774 -0.002281774064265109
-0.1771208460866322 -0.026557835344622378 -0.008315454554864788
-0.17759700119495392 -0.006033886769771586 -0.003187395820870894
-0.17759700119495392 -0.01569309248725509 -0.009696797225218202
-0.17759700119495392 -0.016997450266290584 -0.005178522374911862
-0.17759700119495392 -0.020450630609989008 -0.00968605481813504
-0.17759700119495392 -0.019866737270774093 -0.0014256802674769246
-0.17759700119495392 -0.0173485521436217 0.00011919975597966576
-0.17759700119495392 -0.005922410012719419 -0.005895857417114888
-0.17759700119495392 -0.0004129152435478774 -0.0032142013239339013
-0.17759700119495392 -0.024139391926723548 -0.005205182983182293
-0.17759700119495392 -0.013288348539515958 -0.008394555991681263
-0.17759700119495392 -0.008770995460750226 -0.0017400775605361878
-0.17759700119495392 -0.012663192784595772 -0.0008295635332155864
-0.17759700119495392 -0.021507454567457687 -0.004466980478563429
-0.17759700119495392 -0.011681862226989201 -0.0038344083038119466
-0.17759700119495392 -0.02335117352460552 0.0005308881168668944
-0.17759700119495392 -0.008718915011553495 -0.005394811771446909
-0.17282308169573726 -0.022488142795692737 0.01114242086171024
-0.17476877216351447 -0.017779601502817172 0.012637667183364877
-0.140444118741486 -0.02038306506288295 0.011299358668667193
-0.15724092608633206 -0.0201795311322584 0.011899709416954462
-0.1676094647252128 -0.02175936369540512 0.011705754376789794
-0.1589381781771538 -0.017306165345552578 0.01290470853721793
-0.1597056723395458 -0.021724457644434068 0.01146651504690569
-0.163673057116642 -0.02201621049292389 0.011495827226280713
-0.15188550821876026 -0.0170233549890492 0.012774537521170026
-0.15443434456237753 -0.01899047529592212 0.01220425646562213
-0.16676842737896205 -0.01606112868753635 0.01356530196060999
-0.14403471195275247 -0.019307388289588938 0.011769362605422882
-0.16098850814649374 -0.01940360371048478 0.01227547146647671
-0.1468248039533429 -0.019444997895007393 0.01181234292004675
-0.13860702920808418 -0.018278927456224274 0.011937579625698391
-0.1663030152729141 -0.01850976691852865 0.012739983818119222
-0.1710221767349147 -0.019417226903956537 0.012549552255590426
-0.17143558840041093 -0.016990324737656996 0.013332960303160044
-0.17691263879788788 -0.010306672659330846 0.012565666872662177
-0.17717280383858314 0.002429042817013648 0.006911099853162439
-0.17753826271933465 0.0009667688206475458 0.0038140913500314968
-0.17747377009395027 -0.0014094943463531595 0.007768679228165823
-0.1775970011949539 -0.020168184978672017 0.003885429346119819
-0.17759700119495392 -0.01547291295375635 0.001955068423042776
-0.17759700119495392 -0.003117209769669465 0.005683674316294768
-0.17759700119495392 -0.0019217566394870577 0.0012656769530656527
-0.17759700119495392 -0.01544500947645298 0.005921980884396757
-0.17759700119495392 -0.006887672690020714 0.001795342774265062
-0.17759700119495395 -0.024152685959548316 0.0037501482560912515
-0.17759700119495392 -0.012672374628658301 0.002870027088119311
-0.17759700119495392 -0.004301755000308268 -6.4249175550658e-05
-0.17759700119495392 -0.010193790407762042 0.0014180940852709571
-0.17759700119495392 -0.004460938911437275 0.00836139325262534
-0.17759700119495392 -0.012916483829841664 0.0072977693325156565
-0.1775970011949539 0.00282294197232171 -0.0016552130792759872
-0.17759700119495392 -0.009849900662463065 0.00972828169034013
-0.17759700119495392 -0.00768492919998238 0.0058024156759932015
-0.124427359976258 0.004526065302114843 0.00430763443398257
-0.14192767800921877 0.0022257691479633003 0.00953048989134209
-0.13142599412610034 0.0031236957499316403 0.007842109301715899
-0.12554691365594361 0.0027750224519525624 0.007806770121560053
-0.12861855375486395 0.002880920163365878 0.00790674841448239
-0.16145046786615164 0.0031968118090505457 0.009847482228376062
-0.1380143328082169 0.001664199942377127 0.00985908587236831
-0.15062697197656907 0.0026163548268724733 0.009716742055745842
-0.137697933047124 0.005208846925005025 0.0044154723828300916
-0.14626171083477 0.005144844477947799 0.006004943020651731
-0.13235771921960737 0.004790617174687846 0.004843204533817174
-0.14313507715444926 0.005004134891252614 0.005932786396716587
-0.16296682542498003 0.005990399893689494 0.006100063650231901
-0.1577839914500867 0.00570612743838485 0.006138487189423613
-0.1291866501053574 0.004457074053449032 0.005361049480555166
-0.1642698442523703 0.0039237898302468795 0.00924553386819365
-0.16898660989924552 0.0059385685002408435 0.006619511587433097
-0.16805823097090516 0.00434590991552515 0.00888957047288585
-0.15131992784453785 0.005033756341225515 0.006720386791775022
-0.1576913730907565 0.0041639329421881265 0.00843725996446176
-0.16629857714591612 0.005565280891185264 0.0069802188989044845
-0.14041440887909076 0.003951365400560515 0.007550503267124817
-0.1350344006245156 0.004169061696429428 0.006858256263505019
-0.15463998850350386 0.004865174938252423 0.007197765438893153
-0.13243042966239435 -0.02303927657122374 0.009832009634968157
-0.12515366499523287 -0.02215457762120364 0.009913344883168007
-0.14970553286146027 -0.02280553682749606 0.01065319552705341
-0.12898077188606172 -0.021827394000466446 0.010214948233959964
-0.1524526787203418 -0.0232390029242676 0.010579262935974389
-0.13125337767531522 -0.01979902253419652 0.011191068059044905
-0.13552357875606663 -0.02078480701225817 0.010940563536128633
-0.1418453114891701 -0.022861550067544457 0.010301428994264786
-0.15684432411948887 -0.02366369024850538 0.010497603810407992
-0.16605985942044282 -0.024250050419112375 0.010398493159546494
-0.146768529127142 -0.024085607245863644 0.009730347722896562
-0.161181360768367 -0.024970977179426073 0.009601437164548535
-0.17638497703094164 -0.00011999094888202762 -0.011967825395006567
-0.17688896997840978 -0.004622719309175627 -0.013262258068375443
-0.17393687325934445 0.0028300434491789392 -0.012299346740105896
-0.17723213951431682 -0.011513226507165953 -0.014105929433296577
-0.17755806670798946 -0.01617505192343859 -0.01299374870480851
-0.17759700119495392 -0.0023782192045204036 -0.01044542593408919
-0.17759700119495392 4.0067710991576284e-05 -0.00875489493733424
-0.17759700119495392 -0.009856346571065261 -0.011050550206581456
-0.17759700119495392 0.0011432113909869296 -0.005304701455837802
-0.17759700119495392 -0.007454405748586465 -0.00848758599712771
-0.17759700119495392 -0.01306144712004337 -0.011171613716005963
-0.17759700119495392 -0.0068027559797650405 -0.011254987497860164
-0.17759700119495392 -0.002540705931415279 -0.006062775673680072
-0.13300790458104114 -0.028418655663045075 -0.0001885908948407477
-0.13859850390681197 -0.028687204767418394 -0.004117761503435739
-0.13026676551155075 -0.02828352521722134 0.0019062882648561345
-0.14415866311302714 -0.028772855945174827 0.0008091488403376308
-0.14103972733094844 -0.028712553507968704 -0.0013577394938604059
-0.1364181609207684 -0.028531864712139473 -0.00012123616789942119
-0.14940841469600677 -0.028973483095865987 -0.0003703794290985797
-0.1351518210194766 -0.028529028889438403 -0.0033855690743152854
-0.12578896339200438 -0.028107682331617496 0.0008677204745825243
-0.130149558001666 -0.028021345230475395 -0.0053305971284935754
-0.1280434576925864 -0.028079536927691773 -0.0020907570259363004
-0.13195391690787686 -0.028325502697909205 -0.0028225994083963674
-0.1467896336495041 -0.019681603506299505 -0.014810403828506886
-0.13906613623286684 -0.019496830349868655 -0.014400486280484827
-0.15198573170287893 -0.01856128432017934 -0.015217290915198727
-0.12547888643302502 -0.01829105014301872 -0.013772130948071577
-0.13219389041030588 -0.01807718051683741 -0.014167975101274034
-0.14155297763416527 -0.016574622940845163 -0.014846565105398146
-0.12418183847651339 -0.014415648867539816 -0.014108256842368983
-0.15633764071702208 -0.01830865358474411 -0.015485843825166273
-0.12296127016150306 -0.005768805920087864 0.011765405528424016
-0.1420369035814443 -0.015301071262520054 0.012769975689291032
-0.13285131343508344 -0.01441325600458972 0.012601358900140327
-0.14920999673029625 -0.015270173662479092 0.013059250419043178
-0.15554023268063635 -0.015387448483489443 0.013283079308203171
-0.16368040591200889 -0.01612575589366439 0.013443052743925788
-0.12971623240858648 -0.016375346103173982 0.012050875485044982
-0.12607411477050642 -0.015274695446806763 0.012146935501596673
-0.1457427817858949 -0.014939382605128322 0.012994662531337166
-0.13511398370092123 -0.01803361760691331 0.011902620682959423
-0.12548295375029409 -0.01866239371189226 0.011386416180951958
-0.1761843971722581 -0.008163654548568879 -0.015194593692996666
-0.1748698912413082 -0.0035863376805289004 -0.014546098247873653
-0.17397076869507802 6.370929053370594e-05 -0.013929814041101
-0.1728502732916985 -0.006101667922798598 -0.01569122822706965
-0.17515406138036482 -0.006752281714792914 0.013837999664247036
-0.17309405315888515 -0.009252452503450873 0.013837999664247038
-0.166486647895657 -0.010455728686189342 0.013837999664247036
-0.1711025136327662 -0.012587004969480961 0.013837999664247036
-0.12551921990997605 -0.011744707767946314 0.012606440884982723
-0.13845612166276852 -0.01086092093490136 0.013050053753408411
-0.14385812278997218 -0.009237935123324431 0.013241355816004649
-0.13622707070673523 -0.009109099272471343 0.01298282767056453
-0.12764864666677855 -0.009624579000689741 0.01268901044431702
-0.1280959356101739 -0.012438073227150813 0.012690592929069459
-0.12388849637087691 -0.009267125850068239 0.012563044204798118
-0.13162447240132336 -0.010714105271070903 0.012818760364058272
-0.15292914192093682 -0.010186400312333366 0.013520526782118226
-0.16118247383075618 -0.009048912817480345 0.013811396545957927
-0.1575389404137611 -0.013313619776448408 0.013530746588461737
-0.16117065473150122 -0.013913427925619335 0.013614215705979473
-0.1673648464818741 -0.013174803220608858 0.01382785983014976
-0.15023649932394384 -0.0104032340181488 0.013431872934421267
-0.14169026223063985 -0.0109481863305433 0.013156289240887138
-0.15748941866484556 -0.010180705822486296 0.01365604285416355
-0.14436331139914804 -0.012152799252869013 0.01318684661063068
-0.13530531371741958 -0.0121843194934967 0.01291685569359638
-0.1512854102152055 -0.013486088595670508 0.013338250179370438
-0.1397032362306538 -0.013603672016732836 0.012989894450012019
-0.14705711632696905 -0.012421135999786177 0.01325590375357967
-0.1638817155882349 -0.01189740171662007 0.01377621569361466
-0.15717906460329062 -0.012527701915597565 -0.01585921176199618
-0.16743920704961296 -0.017674556430169443 -0.01607049739803317
-0.16442829134708645 -0.015863085810564788 -0.016025480881381452
-0.14034553525622956 -0.014139393627840207 -0.014945219757447063
-0.16143110157273954 -0.017907825863671012 -0.015763574798202618
-0.1607499067379948 -0.013335982229423142 -0.015988203722821243
-0.14720657014192848 -0.0131456081012883 -0.015336752712597514
-0.14732685593645858 -0.016932490366184973 -0.015128984701134883
-0.15291692946881558 -0.01513280130702123 -0.015503842598682907
-0.1441463880555186 -0.014797189524301447 -0.015093947990900816
-0.13058353937901385 -0.014207014407494865 -0.01446409902673709
-0.15657837115739864 -0.015400127444682736 -0.015667784050640215
-0.1367602767517258 -0.01502666924916194 -0.014719862607757766
-0.16615151957754412 -0.009797932416531336 -0.016106000170111656
-0.16845654686322964 -0.00756178620815108 -0.016106000170111656
-0.17058938418654004 -0.017571561260285636 -0.016106000170111656
-0.16799123494677298 -0.013255405329032369 -0.016106000170111656
-0.16396402738848148 -0.012962467367013123 -0.016106000170111656
-0.163936594414252 0.0015939871966289298 0.011031403480385872
-0.14751095460569877 0.0015721028988011417 0.010349623788905402
-0.15422695534222589 0.0026142943125609646 0.009954059269748133
-0.15758999898009923 0.002209371727884336 0.010360838148414578
-0.1598551529925475 0.0008150149754123591 0.011366826778313872
-0.16904473906917777 0.001814639105151828 0.01110386497791038
-0.17465957957704703 -0.0019430402443851979 0.012919829848410194
-0.17661926288649366 -0.002835390115925336 0.011420215436581574
-0.17678148160023707 0.0009369160139019775 0.009326540411211172
-0.14543596440428763 -0.00035495384573288165 0.011387997953083939
-0.13266640960302525 -0.0001579914694965342 0.010725113765592176
-0.17093045257379325 -4.2223178067625144e-05 0.012385624361748799
-0.13506696316100497 -0.0020648786340163616 0.011712727717326173
-0.12603444419982987 -0.0018855640965944357 0.011225379640201387
-0.12711655965270002 0.0005250389785452802 0.010161282635239917
-0.13736162318062867 -0.0008263596316423262 0.011243896519649589
-0.12992681586673854 -0.0016439302605032306 0.011288207140531265
-0.15230651998893324 0.00011995387165266775 0.011476562597671793
-0.15485450449746954 -0.0012762410359071147 0.012235080126042477
-0.14030863931403828 0.00025320451846519426 0.01087764853236617
-0.1663475665231874 -0.0017444133843598764 0.012932969765135882
-0.14775003632613762 -0.0020528797681859143 0.012269048663756735
-0.16273636094934352 -0.001405052875828309 0.012631029638812252
-0.1587396962570819 -0.0014473083826600603 0.012477935279532797
-0.1763702371426738 -0.02859055254526658 -0.0051996870216484406
-0.17620260185380382 -0.028759603004285678 -0.002353317857151518
-0.17719333171085566 -0.02776794597805167 0.00017425555901684698
-0.16716486753234683 -0.02917868379936853 0.00046639995718390065
-0.17082167169192125 -0.02887163176651728 0.0036117952803947587
-0.16223331790237 -0.02923426840828756 0.0007854001728220185
-0.1700649210847109 -0.029194734238576943 -0.0003412278340806825
-0.17328439043306054 -0.029202442883510104 -0.001109195110137844
-0.1734523321288751 -0.02892749774283549 0.002353691763462664
-0.1650265514314996 -0.029255860950080627 -0.0017631223335062831
-0.14701443246599283 -0.028918911725030087 -0.002761485611828147
-0.16190017585400057 -0.029097089027185954 -0.0033490603233610897
-0.15453403484869324 -0.029013746620458847 -0.0029902971225840265
-0.1665413691689674 -0.029045300055905048 -0.004221510605037705
-0.15709196973221837 -0.028753046725236004 -0.005460703117336752
-0.15030207143126473 -0.028870461821618825 -0.004042309816050947
-0.17434823457886064 -0.028682053500114987 -0.00746185648686541
-0.17283993551268895 -0.029157879815094545 -0.003975332809167818
-0.1639285378310447 -0.028746117246036706 -0.0061040469522000125
-0.14213350522250856 -0.028687779501545323 -0.004620220069061251
-0.1605044370940305 -0.028778439333904168 -0.005578376856324709
-0.12927390595609428 -0.026986530673553485 -0.008088758415186283
-0.12507166984394213 -0.02614534150792041 -0.00915272567315814
-0.15067111015737375 -0.0258155927043741 -0.011619709665752015
-0.15391790975864877 -0.026490977846197087 -0.010755891547830621
-0.14099772613947653 -0.025770126657224543 -0.010966528652267549
-0.13696839137874744 -0.025700884364772563 -0.010776986422837432
-0.133372915926827 -0.02621185530979464 -0.00966814137539132
-0.1623652444004602 -0.026161309787848155 -0.011932305819051338
-0.12787391543340126 -0.025753064551566257 -0.010007153298305694
-0.1237038099952185 -0.027282875408279395 -0.0071834858636714806
-0.14342165737798854 -0.024992106360704265 -0.011869981577882067
-0.16277404752064167 -0.023832936591891132 -0.014077699725525902
-0.1594951445213389 -0.024330083448652742 -0.013454332088909539
-0.16618900234390216 -0.024800995208625824 -0.013495218795890336
-0.15605188925101213 -0.025630176770578546 -0.012154755987306058
-0.16955853066643617 -0.023810036073397167 -0.014533781468130452
-0.17272892064262615 -0.023742065063242945 -0.014292367778211424
-0.17128087997065594 -0.02051027149742362 -0.015973422243957973
-0.15266364708506253 -0.022522814117467788 -0.014152321401173406
-0.127231456779878 -0.021904660025155485 -0.012825239511451977
-0.12957814706659498 -0.020773155645791887 -0.013422159889956247
-0.1570496760179016 -0.02300263761464909 -0.014232201156009906
-0.14448065001781768 -0.021869302444415213 -0.013906805956092672
-0.12298896295900869 -0.021386361038546055 -0.012769601750913118
-0.13678617536462365 -0.02207244356771467 -0.01334954583142715
-0.1685923031850075 -0.020863550239740916 -0.015716991815171114
-0.13475088024320936 -0.01991470144301543 -0.014064060618775921
-0.14195468336323527 -0.01991324787377935 -0.01449047098218961
-0.14963297802656664 -0.020875370697964357 -0.014591814085191852
-0.15838586800931925 -0.02078764973100737 -0.015141418174826737
-0.16557130823070124 -0.0204573837534437 -0.015687241683502922
-0.14765427499617134 -0.024324205271216835 -0.012692968005426287
-0.13000406520155278 -0.0238697231774807 -0.011858061646364488
-0.1252140392122734 -0.02367999216689631 -0.011682431503441618
-0.134743489899288 -0.02395386867781695 -0.012111330549377573
-0.14017476841276907 -0.023135282739854962 -0.013103805548883787
-0.13276539160424472 -0.027894085792994246 0.003987440106949592
-0.12497895534296016 -0.02746439840596316 0.00434353256891918
-0.14769682698233288 -0.027855429671165423 0.005456542262224551
-0.12961619950567746 -0.026930302507064314 0.006102213410026883
-0.13545842503976618 -0.02723396481021618 0.005881772751232618
-0.1689033791048032 -0.028268944944063634 0.006150922854281147
-0.15996775374091737 -0.028095349534518838 0.005916173707218657
-0.15664693490744072 -0.028178696475562367 0.0053297329343461085
-0.17441075244764326 -0.028545726517053248 0.005722382726287659
-0.1277126254088139 -0.028047761613921092 0.003113872611432172
-0.14166826557758078 -0.02805776260949356 0.004362076453950675
-0.15391172784136664 -0.027318345365238195 0.007049935128608348
-0.1239624076202036 -0.026020895511623617 0.006765308736005561
-0.13884430823224328 -0.02633124307046429 0.0072376153718045
-0.12704975231396173 -0.026285112778627984 0.006665540240989782
-0.12690489488386536 -0.024302498247633142 0.00861990993067463
-0.14328483055497876 -0.027208020758124743 0.006602540057281371
-0.13084427242073807 -0.025239154162158387 0.007899333482146477
-0.13465172956214985 -0.0250175837185189 0.00831800593460353
-0.1464651655288467 -0.026402056947380598 0.007566671991090313
-0.14142896455612422 -0.025095880492634788 0.008593885449406197
-0.1571779515116947 -0.02597419160635303 0.008517435978895265
-0.1724114449943539 -0.02760781435696843 0.007710145865119644
-0.16214044316747778 -0.027035951098987248 0.007759120846154771
-0.16408869737269396 -0.025796127510584646 0.009010913043584461
-0.16843316257891522 -0.025976681140519 0.009047565073325945
-0.16649522380897386 -0.02742130351778432 0.0076047096164814885
-0.13719379003495216 -0.024180297386526422 0.00924988736620906
-0.15165325851208167 -0.025670553238270208 0.008540073074449097
-0.16575219569043856 0.0073816847553579736 0.001189121051754267
-0.12636717763165836 0.0053521243943671455 0.00204848115868437
-0.1604772194552832 0.007110537124756611 0.0012973435707034123
-0.1376913571467393 0.005933049736051668 0.0018279758893362341
-0.17529929166928537 0.0066315654097571 0.0032102139979900864
-0.17670463748497278 0.0050065739886564035 0.005366098176344081
-0.17697483213916587 0.00533983198761917 0.0008491673135211108
-0.15317653013959687 0.006479850623993442 0.00261254771404198
-0.16894061556539475 0.006959980677818002 0.0036404933629649375
-0.16339351096392554 0.006859138027228452 0.003015840392646623
-0.14850905587695387 0.006111179065269264 0.0031826824064260647
-0.14171184723657831 0.00600881517979197 0.002335392004513516
-0.15849332936246585 0.006658625976505877 0.002894230508044894
-0.1718491038117026 0.007044427715131479 0.0038461233843572517
-0.12998139880020404 0.005456772876033123 0.0023223964137552137
-0.14435812903975584 0.005830408233623889 0.0035078832796738815
-0.17339203913777568 0.005943278954307313 0.006234348290577384
-0.17093529268479352 -0.003924679708162161 -0.015608445720905452
-0.15106682015216014 -0.004814023940822207 -0.014693030379019143
-0.15427691654498643 -0.005504974822144233 -0.015019987531256197
-0.1481607346526791 -0.00491560879977856 -0.01455302278308369
-0.1449996253803063 -0.0052893375893650766 -0.01445719959959056
-0.12460151431069516 -0.005967379783156941 -0.013451147031332527
-0.13814566930420366 -0.004766308921111753 -0.013942409676744105
-0.16369312518634765 -0.0029306165463550754 -0.014976539949937103
-0.12767612132571507 -0.00596123384597589 -0.013629318440201783
-0.13115638319521936 -0.004585787259627079 -0.013488743366637603
-0.15680818928326112 -0.0034482615572642384 -0.014703581569686642
-0.16026044077123497 -0.003437228975571315 -0.014902603885365625
-0.14143680181421298 -0.0048562424006728805 -0.01415726592323323
-0.12931918985630003 -0.009509984799737798 -0.014112643432439797
-0.12770712351558605 -0.012556479192971105 -0.014284471658268343
-0.1501912300989564 -0.011586847258191126 -0.015466210636166189
-0.13120814385940777 -0.01140336727608321 -0.01438211742038682
-0.13337269414438568 -0.00936683677789358 -0.014328419479659169
-0.1254063735167555 -0.011136396535422335 -0.014032612821691754
-0.14487118179268293 -0.011494098165275949 -0.015158829619884415
-0.14129726906031365 -0.010529028502338847 -0.014874536208772748
-0.13659042008367525 -0.012210788198729734 -0.014754590996354431
-0.13406656657098684 -0.013015226823760152 -0.014681886911069366
-0.14953878927291683 -0.008599832496680145 -0.01516522826834559
-0.145132469657846 -0.008427248415131573 -0.014904263212604681
-0.1655199261181248 -0.0066748424307083885 -0.015880592614030038
-0.16279376617199282 -0.007766515321553284 -0.015827718158189355
-0.13375727686673838 -0.006587869878254419 -0.014104279480705601
-0.13696961456957546 -0.007904143119455953 -0.014402389210954263
-0.15489102095964194 -0.009965608974886433 -0.015586964939104494
-0.15877037664614657 -0.006918758093747564 -0.015526900750385713
-0.16050583039987285 -0.010230447678208769 -0.01592357300463373
-0.13683059901303343 0.003616421555967746 -0.00903935002646826
-0.15789678862924378 0.0037740920259420182 -0.010704188512477723
-0.14174428260035066 0.003758617667548557 -0.009298984364641964
-0.16728894347897047 0.00468687177782958 -0.010417994538182415
-0.16428393251891643 0.0039212314073403315 -0.011087696850489711
-0.14789066876461268 0.003941919650232646 -0.009617121375013315
-0.17051823983144415 0.00494218342285827 -0.010391040391056875
-0.1537770757776021 0.004631741342282797 -0.009294013043980543
-0.1735113687561742 0.0057471921532708265 -0.009670833284243471
-0.16921664021425778 0.0033475837619122073 -0.012070927889915557
-0.12955532663854438 0.0031110501948816227 -0.008989737308692193
-0.13570877546546253 0.0016197049303136122 -0.01102258448895788
-0.13336032642317536 0.0031714392861783174 -0.00926494048679033
-0.1518795308794911 0.00256659240176976 -0.011502449782786582
-0.14469861132925382 0.002786335440657461 -0.01064962191398206
-0.15472617313361797 0.002583115851517558 -0.01173697169416134
-0.1269026602049656 0.001382918254672151 -0.010482617577982656
-0.13175682283320822 0.00143660488897947 -0.010857039070117038
-0.12347124049257131 0.0033123071248486913 -0.008215988267398156
-0.1598674406965102 0.005161305983310901 -0.009171998119806861
-0.14511376823990302 0.0046205169769133955 -0.008470574340722145
-0.17747864175114214 -0.023977126587690314 0.00708271306438785
-0.1769554576906946 -0.026997100284128963 0.005392887144054018
-0.17673164803693953 -0.02247168194009306 0.009518389213530671
-0.17699233659953148 -0.01567049676213835 0.011984871318538905
-0.17759700119495392 -0.0078067786486410735 0.011692425959728163
-0.17759700119495392 -0.013068889009634963 0.010717118433273921
-0.17759700119495392 -0.017500244444988315 0.0078294767997545
-0.17759700119495392 -0.020849023203821333 0.007293726389877294
-0.17759700119495392 -0.02002362168172528 0.010063139893653986
-0.15130608072530427 0.006475063653886136 -0.004476571698552875
-0.13880212112875473 0.006021540846600316 -0.003524688287269095
-0.14829565884117293 0.006400120733171507 -0.004067671777692006
-0.1563860952134585 0.006849693588994317 -0.0038641831199876216
-0.1619632404751172 0.007128597333610769 -0.003886648885573241
-0.170846861337917 0.007359940577894887 -0.005039816083086253
-0.16467831889172388 0.0071216137186307935 -0.004646805153701354
-0.1681165702476349 0.0069134013066355395 -0.006452201593473453
-0.13879669453516122 0.005272833734094461 -0.0065826838098246255
-0.14963827498984358 0.00541629003127285 -0.0075815471871694545
-0.15733920207396615 0.0056441700998054985 -0.008006245117540606
-0.16462518882450267 0.005987229520613611 -0.008119911857138258
-0.12608255498137644 0.004842814935595693 -0.005747022230843161
-0.1305651167880131 0.0054740718781124955 -0.004189969072966046
-0.15892334359714605 0.006524171442055925 -0.006113313050857733
-0.14346156147761802 0.005733548868239919 -0.005936949884656838
-0.1336451874488363 0.005170108353021884 -0.006070941179743857
-0.1354609589730746 -0.027318282766202063 -0.007975170202268378
-0.14654877849971193 -0.02722483852000901 -0.008938315420669503
-0.14354307524697546 -0.02694184854884417 -0.00922088562516504
-0.16057353518106554 -0.027219331020561486 -0.009957875486238279
-0.13922208594236293 -0.026977399224459866 -0.008847067631050162
-0.16533895602632867 -0.027337525628420456 -0.010092596234327572
-0.16980527703845555 -0.027177059052174893 -0.0106971424832799
-0.17413431959397924 -0.026066639250270574 -0.011908908561140177
-0.17720722094298494 -0.02336807522933039 -0.012494478878684151
-0.1503399113001658 -0.02806135230420474 -0.007297383507557794
-0.17211793766441633 -0.02801609496370886 -0.009338384013492167
-0.12695308414488318 -0.02764990856188207 -0.006487026173043477
-0.1476151679137377 -0.028428104446840095 -0.005957747686079165
-0.14495037914495337 -0.028495993544346176 -0.005520780003546308
-0.15853358482942326 -0.02810388835859365 -0.00788642426595601
-0.168410885473765 -0.02861515746211317 -0.007212865103743772
-0.15437150551286768 -0.02845814756600265 -0.006458176274065749
-0.17656491055421988 0.0031152243883983176 -0.00887102054953982
-0.17660494946427538 0.0056424788658032835 -0.005748706829427698
-0.17258018237488426 0.00769233303337911 -0.002302478461465657
-0.17730724307278672 0.005444293244068619 -0.0027951388474962025
-0.1752628771555827 0.007135140889093379 -0.0014355301052835973
-0.17417933802978955 0.0070509751450996685 -0.0046008463016063515
-0.1360584722465335 -0.0007918096984935538 -0.012398406703506882
-0.1341496437519843 -0.002726221649713797 -0.013095119859456134
-0.14937573970575663 0.00015412584507858075 -0.012905144381682238
-0.15614494001020637 -0.0007413364157787289 -0.013751347949179323
-0.14532355993580862 0.0006060723367651405 -0.012434556864961338
-0.1416585855878335 -0.0011823639025952545 -0.012948663108423724
-0.13123951438625092 -0.0013363927723698665 -0.012301557321078044
-0.12559330895943074 -0.0016819604883258547 -0.012062981350318773
-0.1699949876323827 0.0001240785389428705 -0.014294390845718227
-0.15936355922497392 -0.0010100880535820513 -0.014043179928773688
-0.1479249789188274 -0.0023297460229538816 -0.013807781617353597
-0.16752858295528533 -0.0025794058416556387 -0.015092707581903734
-0.16486471403167302 -3.784126677429855e-05 -0.014037894359585185
-0.1530030584267598 -0.002285557345427599 -0.01410241526195462
-0.1577665351121673 0.0017898347611194861 -0.012503225770982725
-0.16157660035266624 0.000995589435147676 -0.013290906293881438
-0.14227391899093225 0.00150090321772314 -0.011634753854924946
-0.1396629770993979 0.0009051496375241216 -0.011851348497909524
-0.16672027042530857 0.0018664179854631004 -0.013065124491805174
-0.14768088463477055 0.0019040551821876866 -0.011737277523594544
-0.17220978688405716 -0.004261960447780882 0.013530449129512711
-0.16939193189101676 -0.004894016641788719 0.013761139984256904
-0.13270337866832893 -0.0037889911812525765 0.012207867031925848
-0.14154283651103583 -0.005927510076278156 0.012871325900952274
-0.13779722226014665 -0.004225480774053433 0.012470849477863418
-0.16076361796500144 -0.005765118596857144 0.013592314412463322
-0.1655140047815632 -0.005125005663238999 0.013680535252937595
-0.1329921522460656 -0.006684531418635501 0.012653268917776177
-0.12575529809224184 -0.005046436800797598 0.012126997199185122
-0.12856538687433905 -0.004263867010646101 0.012118615229486616
-0.14528547305304068 -0.005378038161143392 0.012934060549684996
-0.15657863556616625 -0.003149413339613995 0.012949625165391344
-0.14369853402167815 -0.003039171659764558 0.012461140354138388
-0.15041202989144348 -0.004134540580236382 0.012931565010037803
-0.16823061980113466 -0.00729463541766167 0.013837999664247034
-0.052721436648110166 -0.01723235453087486 0.01287560923383418
-0.039944661665128334 -0.015342267110726372 0.012967726094748739
-0.04862473504259007 -0.01724337712271237 0.012757323079316254
-0.041948806243363175 -0.018368157025446752 0.012299414938430292
-0.045799042038529664 -0.018417959052198465 0.012396172399730487
-0.04290887945526163 -0.015381463599182413 0.01304201287791137
0.04437800124287605 -0.012882442761324761 -0.0071822749998496395
0.04437800124287605 -0.011670048484362639 0.004168536550166227
0.04437800124287605 -0.01014611580333173 0.0017065144068818673
0.04437800124287606 -0.014531991635708232 0.008741208437876402
0.04437800124287605 -0.008853048925737309 -0.0007189300977541529
0.04437800124287605 -0.003991980265123653 -0.006150872974670414
0.04437800124287605 -0.0061659113679806135 -0.0014208823473257004
0.04437800124287605 -0.0039712907753422 -0.0032468662750767562
0.04437800124287605 -0.014412298231467287 0.003789816239090173
-0.12291499972343445 -0.0131546261859266 0.001246179406440881
-0.12291499972343445 -0.012116681580145849 -0.010857716220704122
-0.12291499972343445 -0.01694372938375417 -0.00559125767841594
-0.12291499972343445 -0.01998838423750556 -0.0027404549686172518
-0.12291499972343445 -0.021960015882534826 -0.007860480606632834
-0.12291499972343446 -0.009847472991836768 0.007114117941581457
-0.12291499972343445 -0.010394786084437599 0.00021583356564547546
-0.12291499972343445 -0.0015465280428492948 0.003810802472570856
-0.12291499972343445 -0.00308756239125458 -0.0019003596865368629
-0.12291499972343445 -0.00019975071948593638 0.006832689822552715
-0.12291499972343445 -0.007239892259523588 0.005802468094362886
-0.12291499972343443 -0.00659774081141422 0.008407472257396893
0.04437800124287605 -0.016402452911860915 0.006236250995263438
0.04437800124287605 -0.02116678309428821 -0.0018335146308938967
0.04437800124287605 -0.01753136384272526 0.00041434788836381136
0.04437800124287605 -0.01668880448402957 -0.0030925619699866294
-0.12291499972343445 0.00154225743577565 -0.005719213247518789
-0.12291499972343445 0.00046446988510405614 0.00048486218743076044
-0.12291499972343445 0.0020897033248600113 0.0036002358440155474
-0.12291499972343446 -0.003135405821510663 -0.006259597638477954
0.02667290942721908 0.00440307060599947 -0.00033711502957015885
-0.017631891141763965 0.005731727593967999 0.0015560228312875124
-0.012608613455039457 0.005577689663841436 0.00024513573019215
0.008818644507653423 0.00493672671213397 -0.0001475673416060228
-0.02743100610902264 0.006023144349082597 0.001183923025551838
0.014641238100872674 0.004763444708620827 3.369375162051529e-05
-0.023887760687203614 0.005915841474001516 0.000695246520845622
0.003058412523982394 0.005110706420582931 0.0004977138079550183
0.04437800124287605 -0.007051115575893649 0.003392902239515569
0.04437800124287605 0.0008094757835265659 -0.0011451301770638164
-0.12291499972343443 -0.018275877921484867 -0.01155802234682889
-0.034185400971032856 0.005341933910832479 0.005793909572210637
-0.0299592672902611 0.005595550029435843 0.004079730692163707
-0.038009779397284074 0.006103627200681689 0.0018814154035496336
-0.033315842808379764 0.005795830148418944 0.003226872713860156
-0.12291499972343445 0.0032323612165395424 0.006788898547699048
-0.12291499972343445 -0.01315716571683972 0.007069625373624802
-0.12291499972343445 -0.02173814123641038 0.0021206511067762687
-0.12291499972343445 -0.011759450777417756 0.010675304525681668
-0.12291499972343443 -0.024636523860208676 -0.0013808407645742578
-0.12291499972343445 -0.01923822124112626 0.0003648830174406856
-0.12291499972343445 -0.025075040276256698 0.0036718772856597407
-0.12291499972343445 -0.017645279540530707 0.003278807871938864
-0.12291499972343445 -0.017394910938448197 0.0061937819726006335
-0.06065483512723864 -0.028445516683891572 0.0031067672928773854
-0.08149855592681979 -0.02853972967009764 0.0022635124027593433
-0.07503638379760952 -0.028578200400630797 0.0023191586600568026
-0.10044374344946633 -0.02819011308479529 0.0028204891691964687
-0.10787206409399173 -0.027774962075933718 0.0038843761306927515
-0.11156780977826294 -0.02785554177359213 0.0035406410999848713
-0.05661737184876898 -0.028523191351223495 0.0029784391173800634
-0.09598293869908284 -0.02803157707793459 0.0034216963790040375
0.008195583731529007 -0.0009393071557609782 -0.009393894446144704
-0.029513526006140336 -0.001429044839589791 -0.011488386710258407
0.010494366496132113 -0.0027695299650456833 -0.00994269865304935
0.016336318759636197 -0.0019159627824512976 -0.00933537857178244
0.02412220868341297 -0.0032975254685462117 -0.009442155473631132
0.018948082875364054 -0.003825083415602208 -0.009896971161176847
0.021365792208699323 -0.0006793321008991011 -0.00863003346233792
-0.0066031347487925714 -0.0029388628839033884 -0.010873179686667657
0.029679328177310157 -0.000433360074258396 -0.008118081810681459
0.032716074986580176 -0.0034859308928373374 -0.009073934919124494
0.036967790750153745 0.00024723393620097137 -0.007500158049476832
0.0253596351639606 -0.0005915883215064628 -0.008395154652719047
0.039169926187295825 -0.0026685086507023926 -0.008448663521014973
0.03984302939266418 -0.00016009439697932864 -0.00750217821455184
-0.003108735220814997 -0.0006894507355164257 -0.00987751155072103
0.01371920306211873 -0.0002719432899628305 -0.008870471839162168
0.007751420985837896 -0.0035354810216771245 -0.010360662020974874
0.03438265818350074 -0.0013536731819730257 -0.008213764170436049
0.003963528046282382 -0.002446546748958635 -0.010157131695127821
0.0006185885283779904 -0.003863400122416329 -0.010842413296489557
-0.002143831603887498 -0.00320644118599966 -0.010743872230257455
0.0280051292335545 -0.0027052690483730093 -0.009029428967892286
-0.013601169478258944 -0.0007133078447706687 -0.010419414693611361
0.03630843623163177 -0.003919401508628139 -0.00904901845104195
-0.011435683407992945 -0.0064939757993338326 -0.01208545783977208
0.013265226880761193 -0.005130189758748502 -0.010618205979680603
-0.005002847106478886 -0.005370428411089544 -0.01150141789821164
-0.011984619834662386 -0.0037757158765939517 -0.011395758797255406
-0.01746684609682292 -0.005216871295974222 -0.012020589945071105
0.02914675344395895 -0.006507935979763426 -0.010267325634560339
-0.03641099678519619 -0.005871727701757903 -0.01304311079530164
-0.028713949978253064 -0.004321425991488056 -0.012290170381088577
0.03266462264241858 -0.006008619586904056 -0.009978186500208076
-0.01497913659076109 -0.0030711154746019672 -0.011345022194938072
0.019572499086177718 -0.006488813697020576 -0.010692101735025697
0.03553720259892465 -0.006641501319645946 -0.010015549798014094
-0.01427502095676605 -0.0073100323207346525 -0.012427374070465876
-0.01965576181934614 -0.0032164861546721143 -0.011593164766675034
-0.00908198568274586 -0.00464085876131036 -0.011492809685683272
-0.03934863957938479 -0.004719117374011117 -0.012872086863368522
0.02613741941281284 -0.006362047912068858 -0.010364080273971293
-0.0071087068173810025 -0.007184515041561936 -0.012072683321659209
-0.022910714236760363 -0.00610414315221481 -0.012498142041046833
-0.0243162163280001 -0.0033568738509629744 -0.011839271916096593
-0.03173239878399572 -0.003397969485985801 -0.012182994118794102
0.005286661131060171 -0.005295697505615799 -0.011019869051773457
0.021003311767121512 -0.024687679965567512 -0.005261169912421609
0.003050865658920831 -0.024654450896089163 -0.007147317271994791
0.028371848788024838 -0.02281783526683078 -0.0073129557966842475
0.0008180446560201895 -0.025640625437669737 -0.005896062978385337
0.020173772197670508 -0.02331831462920479 -0.007400595748650186
-0.01612317182182879 -0.02634586741027167 -0.006570784423558839
-0.00917880386046586 -0.025275943273249626 -0.007465768210026341
0.03888072825850106 -0.024071150630386 -0.004357584833040094
-0.006336364170282034 -0.025513125387379584 -0.006819160817203607
0.033625009522107244 -0.023183567484402638 -0.00622688979483204
0.015573983981562973 -0.023756884178678994 -0.007213068316393834
-0.02357775537176776 -0.02619547049931472 -0.0075589401587418835
0.04266503775371222 -0.0240055454597575 -0.004068934478640039
0.013765314204567856 -0.025169478746941892 -0.005278634907166527
0.035578193386536144 -0.024245385976349888 -0.004433969112040329
0.01140157320521784 -0.024328374092632235 -0.006782394264725067
0.00809980455479069 -0.02419933764207777 -0.0073137246275269095
0.024836561542678832 -0.024248385605679382 -0.0055281912917033455
-0.024440882191574552 -0.024461246781262477 -0.009500400916077938
-0.005800048080672221 -0.023641542211455785 -0.009017894708924053
-0.04363926990457127 -0.026044481101112744 -0.009206680760616339
-0.0018615812818147323 -0.02337293256028007 -0.009018039619077104
-0.03977107508319981 -0.02471219633735047 -0.010349961179489605
-0.008644648697632179 -0.023526711403544148 -0.009348210313612278
0.02309520601137087 -0.022676766290036263 -0.00794273229468303
-0.01524390107771768 -0.02443342856325124 -0.00885941744997466
0.010673619401877506 -0.022471186579456445 -0.009068598765984918
-0.03250116773167604 -0.02546303556866174 -0.009016447031193765
0.03582090543432217 -0.0220109538127082 -0.0077269763465407995
-0.012420364575987889 -0.024229524298771905 -0.008871648081632705
0.031588765337119684 -0.02218306212726944 -0.007851494720732075
-0.03518415345183623 -0.026242922787433537 -0.008377730112611266
-0.020826563289238577 -0.025221394854958928 -0.00842353338929631
-0.028215381188769373 -0.024606687723198697 -0.009620074063495092
-0.03359469892320538 -0.023796983736538727 -0.01087868401146866
0.04437800124287605 -0.019379436425669316 0.006840077496671335
-0.02072259049492233 -0.011145796431119476 -0.012804626618859614
0.032970714283014804 -0.015112427816820399 -0.010154934590454684
0.037670805179320754 -0.013344702683264887 -0.00992299145653461
0.004652562699671386 -0.008473450187140564 -0.011552397101281166
0.012918980460438476 -0.012790907647057244 -0.011144460556217359
0.029343583757062155 -0.013254705985603774 -0.01033392858012153
-0.014800107983128419 -0.012232620137167399 -0.012512360110683792
0.04336290103062595 -0.012529808915713966 -0.00964209421870399
-0.025030137725217817 -0.00989778618077085 -0.013017198253354751
0.04096140978324611 -0.007925801281645394 -0.009760604566330816
0.025036330394771718 -0.010506516614988049 -0.01054648571262776
0.0035666813777236288 -0.011663640886553561 -0.011605983877033904
-0.009767183451324012 -0.010824618675472589 -0.012263992086651018
0.03967120882183352 -0.011386202959452281 -0.009824274240168816
0.02233462025942551 -0.008097360886652522 -0.01067981145665291
-0.005750018645922984 -0.011021009236338475 -0.01206575043239483
0.008739268413987082 -0.011041801728495951 -0.011350723697149248
0.024275222409487297 -0.014888477816790228 -0.010584045363122435
0.017072088675209304 -0.008336264228398898 -0.010939510278425874
0.03502845904776763 -0.011480955366646742 -0.010053387667198472
-0.031666952686327 -0.011199646961346427 -0.013344716102538727
-0.041351587278519564 -0.010457423416614074 -0.013822639731622025
0.02163288244197525 -0.011161063888021789 -0.010714441269599202
0.01584038148832434 -0.014300539065395388 -0.011000293363540782
0.02930421335667453 -0.009339194309238028 -0.010335871456174582
-0.0024398605796227928 -0.010485059115584623 -0.011902398605247846
0.01879405958419306 -0.012789540657470254 -0.010854533341179234
0.012474518014880163 -0.008436231853447804 -0.011166394177248734
0.044230478226454525 -0.007295104538195499 -0.009599280456553937
0.001865348783640839 -0.008249485333020608 -0.011689454589561304
-0.034543841089425584 -0.007975290554749515 -0.013476206903183928
0.038374732548518885 -0.0066402464980725336 -0.009887407251294464
0.008552841511050836 -0.007943845657796513 -0.011359310292807444
-0.03708469099661727 -0.009887193793438326 -0.0136115332486758
-0.029471454319207023 -0.008403923351079014 -0.01322943401899159
-0.016956170197960474 -0.008423368455038344 -0.012614844275432012
