0.0113619534345 0.0221500005573 0.015299762284
-0.0463425934399 0.0221500005573 -0.00287867008515
-0.0262494329705 0.0221500005573 0.0008039632341
-0.0112004808171 0.0221500005573 0.005669720965
-0.0329099519725 0.0221500005573 0.00766202920178
0.0235706554823 0.0221500005573 0.0152192181378
-0.0415398147763 0.0221500005573 0.00458822162363
-0.00464825155957 0.0221500005573 0.00406957989026
-0.0123780630258 0.0221500005573 0.00778614634852
-0.0224583385476 0.0221500005573 0.000294258388385
-0.0480813752891 0.0221500005573 -0.0107482301086
0.00830569096423 0.0221500005573 0.0142877344376
-0.026392092414 0.0221500005573 0.00892473669248
0.0381612546927 0.0221500005573 0.0204301543203
-0.0286853226554 0.0221500005573 -0.00135118417937
-0.0155028151346 0.0221500005573 0.0013890860459
-0.0470705871421 0.0221500005573 0.0062126128759
-0.0448463346503 0.0221500005573 0.0174089199119
-0.047327148915 0.0221500005573 0.00371186768175
-0.0514262687303 0.0221500005573 0.0188337600972
-0.00341184922039 0.0221500005573 0.0194784015954
0.0285463930235 0.0221500005573 0.0143888851972
-0.0391221812469 0.0221500005573 0.0154306214894
-0.0198209974127 0.0221500005573 0.0194080844804
0.0263592961367 0.0221500005573 0.0161152717565
-0.023845699983 0.0221500005573 0.0150691014675
-0.0073246460828 0.0221500005573 0.00880263199566
-0.0444300384349 0.0221500005573 0.00913493680041
-0.0322167867047 0.0221500005573 0.0129269681264
-0.0196534568799 0.0221500005573 0.0112630869961
-0.0499345617226 0.0221500005573 -0.00947801045292
-0.0498185638001 0.0221500005573 0.0115593080748
-0.036382597674 0.0221500005573 -0.00684175333184
-0.0181102430704 0.0221500005573 0.0127988079911
-0.034950660034 0.0221500005573 0.00598357906269
-0.00532307504463 0.0221500005573 0.0117656773138
-0.0271916535928 0.0221500005573 0.0158057358628
-0.0513677763195 0.0221500005573 -0.00103963733411
0.017790557083 0.0221500005573 0.0160039416767
-0.0224948594856 0.0221500005573 0.0167198948338
-0.0432810302563 0.0221500005573 0.00378386059433
-0.0362698552937 0.0221500005573 0.00339113805923
0.0248641198597 0.0221500005573 0.0181697658248
-0.00293157083061 0.0221500005573 0.00257572439005
-0.0176587323276 0.0221500005573 0.0166071228378
-0.0134581432127 0.0221500005573 0.00058594152983
-0.0238474432539 0.0221500005573 0.00522576441529
-0.0208008243851 0.0221500005573 0.0177922323188
-0.0191080356816 0.0221500005573 0.0149840322133
-0.0362982116086 0.0221500005573 -0.00351780323189
-0.0374017954789 0.0221500005573 -0.00871602925298
-0.00649838387988 0.0221500005573 0.0172886944014
-0.0059575863664 0.0221500005573 0.00688603989286
-0.0229522583991 0.0221500005573 0.0204823051101
-0.0123707332704 0.0221500005573 0.0188760611845
0.0031071230463 0.0221500005573 0.0209686349555
-0.0015187182895 0.0221500005573 0.0111080281462
-0.0285228938313 0.0221500005573 0.00117122922398
-0.0290909435471 0.0221500005573 0.0121600184523
0.0327322187681 0.0221500005573 0.0159501789451
-0.0413143113566 0.0221500005573 -0.0110340508198
0.0293491914458 0.0221500005573 0.0171409555557
0.00464488443914 0.0221500005573 0.00505126804998
0.00165775025343 0.0221500005573 0.00565927533337
-0.0448369547974 0.0221500005573 -0.00779784203135
0.0151468474512 0.0221500005573 0.0188964898348
0.00401805383419 0.0221500005573 0.00683023383501
-0.044022947242 0.0221500005573 0.00590468671945
-0.0112498667793 0.0221500005573 0.0169918683993
-0.0277254805472 0.0221500005573 0.0188087089642
-0.0358026740469 0.0221500005573 0.0188659661248
0.0161685651974 0.0221500005573 0.0136638485311
-5.97359232429e-05 0.0221500005573 0.0174444512327
-0.0286406811829 0.0221500005573 -0.00350972487674
0.00591554969449 0.0221500005573 0.0101344830191
-0.0498132216194 0.0221500005573 0.0024500567279
0.0304094937343 0.0221500005573 0.0148460238887
-0.00688597119099 0.0221500005573 0.00249416234024
-0.00916130787974 0.0221500005573 0.0169584193896
-0.0423301968433 0.0221500005573 -0.00014554915734
0.0120736734166 0.0221500005573 0.0172571745421
-0.0431770104367 0.0221500005573 0.0161611568026
-0.0384396920064 0.0221500005573 0.0129978711914
-0.00559815298004 0.0221500005573 0.00983821452041
-0.036520494008 0.0221500005573 0.0206544460523
-0.0322481114346 0.0221500005573 0.0166302151692
-0.0306781519004 0.0221500005573 -0.000710255872361
-0.00189750582527 0.0221500005573 0.00739661125293
-0.00495776820665 0.0221500005573 0.0184671619663
-0.0394905876614 0.0221500005573 -0.00168215107262
-0.0515372155469 0.0221500005573 0.0062228768575
-0.0451868868663 0.0221500005573 -0.00063647267639
0.0169771370825 0.0221500005573 0.0182662186654
-0.038997371494 0.0221500005573 0.0176662390299
0.0220144976714 0.0221500005573 0.0129248631712
-0.0362546278533 0.0221500005573 0.00818196521222
-0.029091677202 0.0221500005573 0.00311367058069
-0.0443097946981 0.0221500005573 -0.0038052262292
0.020549344445 0.0221500005573 0.0157975086414
-0.0477555115682 0.0221500005573 0.00894249088956
-0.0385724741284 0.0221500005573 0.0209285167715
-0.0477877782773 0.0221500005573 0.018556574451
-0.0102725772556 0.0221500005573 0.0189746110987
-0.0292201735602 0.0221500005573 0.00533144210207
-0.0327615299068 0.0221500005573 -1.80007648892e-05
-0.0350721903495 0.0221500005573 0.0102369789325
0.0189906839368 0.0221500005573 0.0177908386351
0.0127674577245 0.0221500005573 0.0115734862906
-0.0337961674 0.0221500005573 -0.00681438784006
-0.0402202942959 0.0221500005573 0.013842093149
-0.0410631203774 0.0221500005573 0.0103278983907
-0.00920243335216 0.0221500005573 0.0145556705445
-0.0144470966289 0.0221500005573 0.0107082754958
0.000482426282055 0.0221500005573 0.00746326595165
-0.0160767427727 0.0221500005573 0.013560508509
-0.012899299808 0.0221500005573 0.00480969173746
-0.0314724566221 0.0221500005573 0.0101292539725
0.0054520254761 0.0221500005573 0.0122293897874
-0.0093942087654 0.0221500005573 0.00201877566235
-0.000484694409215 0.0221500005573 0.0193362357021
-0.0414790432864 0.0221500005573 0.0175081286987
-0.0388297681735 0.0221500005573 -0.00996263249136
0.0401867204199 0.0221500005573 0.0197804501485
-0.011476611488 0.0221500005573 0.00940312867138
0.0123094437983 0.0221500005573 0.0194065156945
-0.0453508229598 0.0221500005573 0.00449566331081
-0.0486319745189 0.0221500005573 0.0160136927655
-0.038769209404 0.0221500005573 0.00949639675446
-0.0286824669846 0.0221500005573 0.0100384820052
-0.0408488802541 0.0221500005573 0.00278839794642
-0.0426908152697 0.0221500005573 0.0122136579767
0.0330374510985 0.0221500005573 0.0190149725262
-0.0463540174961 0.0221500005573 -0.0120815576243
-0.0203493233381 0.0221500005573 -0.00141782149818
-0.0504705187378 0.0221500005573 -0.00600429797341
-0.0146295107309 0.0221500005573 0.00621265715409
-0.000588933775378 0.0221500005573 0.00317624161726
-0.0305646354279 0.0221500005573 0.0187488152077
-0.0380071870585 0.0221500005573 0.00769591542713
0.023017440411 0.0221500005573 0.0188913578601
-0.0145442575086 0.0221500005573 0.0163934552703
-0.0335160666729 0.0221500005573 0.0114808205745
-0.0202495863947 0.0221500005573 0.00686217885151
-0.0259361455221 0.0221500005573 -0.00417083905546
0.00513392247328 0.0221500005573 0.0144701210551
-0.0412085777623 0.0221500005573 -0.00240997935019
-0.0210619530952 0.0221500005573 0.00962670646875
-0.0476863286881 0.0221500005573 -0.00637071544057
-0.0432904882115 0.0221500005573 -0.011646244744
-0.0281250857502 0.0221500005573 0.0210577181723
0.000769471696111 0.0221500005573 0.00945272447312
-0.0338756875136 0.0221500005573 0.00237148355071
-0.0517949983478 -0.0140502027423 0.0215220848756
-0.0517949983478 -0.00592393774442 0.0220245884833
-0.0474411530198 -0.0223770716673 0.0126500479998
-0.0515089487097 -0.0219444686987 0.0150029227489
-0.0501251377725 -0.0221333898725 0.0172400379992
-0.0513334541089 -0.0215798197279 -0.0129830534397
-0.0517204905535 -0.021968630874 0.0185195596687
-0.0482703712236 -0.022376390142 0.0194952776926
-0.0496062547004 -0.0220594266661 0.00754508338558
-0.0516416395028 -0.021453596998 -0.0196027481623
-0.049450632022 -0.0221144471131 0.010253626978
-0.0495927595359 -0.0218926369176 -0.00470042026977
-0.0502210606369 -0.0220508789754 0.0120352792592
-0.0502699589868 -0.0219567682088 0.00559567513348
-0.0516116280927 -0.0218684134381 0.0103239652971
-0.0477688235059 -0.0224073219292 0.0175751589682
-0.0495868913759 -0.0221629109365 0.0149121514866
-0.0503263082107 -0.0218449276415 -0.00207174902685
-0.0505431899436 -0.0218651228786 0.00120070912029
-0.0504368207384 -0.0217356226603 -0.00910436070381
-0.0513431188018 -0.0218676441223 0.00803539165275
-0.0488503976 -0.0220716675095 0.00215073337043
-0.0426017654897 -0.0221862511397 -0.00912495684219
-0.0441761032807 -0.0223455155319 0.00246765535329
-0.0446926874031 -0.0220869975986 -0.00835879871207
-0.0473823313789 -0.022266518999 0.00708845415161
-0.0489633069773 -0.0220178311383 -0.000506657189403
-0.0465738651579 -0.0219316929164 -0.0107768987119
-0.043914016163 -0.0225702164188 0.0123640884728
-0.044354992078 -0.0220641775078 -0.0103114656182
-0.0459459630987 -0.0222225787932 0.00128377898045
-0.0474884534255 -0.022190656051 0.00379312032399
-0.0426269017542 -0.0224876261968 0.00512812602965
-0.0420432662484 -0.0223064842278 -0.00491750265157
-0.0405093598756 -0.0223632495119 -0.00623501493422
-0.0472618853156 -0.0219692316214 -0.00722010407762
-0.0486053682016 -0.0218267068072 -0.0104351639243
-0.0486061997108 -0.0219919997935 -0.00265157576527
-0.042158391787 -0.0224487546567 0.00207955159838
-0.0495622247831 -0.0217420231306 -0.0119329112746
-0.0407973841136 -0.0225796103632 0.00469968645959
-0.0456707527207 -0.0222906537765 0.00377266845431
-0.0453325782315 -0.0224636902103 0.0110390067943
-0.0435668175248 -0.0222470167473 -0.00375413501152
-0.039221087194 -0.0225048999978 -0.00291750881392
-0.0445478364826 -0.0224188095509 0.00688499675433
-0.0487019555044 -0.0216837806671 -0.0169124029115
-0.046384965578 -0.0224882970294 0.0149347641146
-0.0457430247119 -0.0221788312199 -0.00130356707579
-0.0458935769662 -0.0223184970991 0.00566302196658
-0.0489782952707 -0.0218912096644 -0.00642857483064
-0.0464680175657 -0.0223525985878 0.00876257376382
-0.0430955809617 -0.0223237928882 -0.00136550646877
-0.0438944401675 -0.0223135867328 0.000231926541689
-0.0454693752611 -0.0220842261473 -0.00646903504213
-0.0428035884631 -0.0222176020692 -0.00712410342974
-0.0403570209269 -0.0224869418491 -0.00080825222438
-0.0466363748309 -0.0218552270114 -0.0142140573323
-0.0445553555599 -0.0224673411759 0.00918925653901
-0.0509288740501 -0.021563843279 -0.0167662298507
-0.0471927400003 -0.0220276677012 -0.00464898751109
-0.0475918399416 -0.0218353153348 -0.0126661810199
-0.0493239589329 -0.0217011899477 -0.0144749477198
-0.0351996055977 -0.0114054522392 -0.0228199996054
-0.0289411044587 -0.0108444169353 -0.0228199996054
-0.0442574800675 -0.0184140890064 -0.0228199996054
-0.0504753138708 -0.0187608553288 -0.0228199996054
-0.0440918987315 0.00721215855407 -0.0228199996054
-0.0435341477617 -0.00250910063275 -0.0228199996054
-0.022216005473 -0.0131253508483 -0.0228199996054
-0.0486702185887 -0.0138869777221 -0.0228199996054
-0.03985118283 -0.0187522357233 -0.0228199996054
-0.0468506010028 -0.00386260461329 -0.0228199996054
-0.0515414523521 -0.0110111490051 -0.0228199996054
-0.0461518249154 -0.00201618837674 -0.0228199996054
-0.0280307486991 -0.00855827003709 -0.0228199996054
-0.0312325993811 -0.00958098392717 -0.0228199996054
-0.0499770602948 0.013987054924 -0.0228199996054
-0.0516137551322 -0.0146775528461 -0.0228199996054
-0.0480419497496 -0.011575688641 -0.0228199996054
-0.0516289793764 0.000570789635888 -0.0228199996054
-0.0446390045961 0.0114332466944 -0.0228199996054
-0.0439495913953 -0.0102002371626 -0.0228199996054
-0.0310097964088 -0.00468627650837 -0.0228199996054
-0.0393545902206 -0.00532374317943 -0.0228199996054
-0.0478004460043 -0.00936369202103 -0.0228199996054
-0.0410119058257 -0.0171470462246 -0.0228199996054
-0.0306568665584 -0.00775148408684 -0.0228199996054
-0.0330844805697 -0.00650018516303 -0.0228199996054
-0.0293626833733 -0.017690659019 -0.0228199996054
-0.0461856795013 0.0126152388427 -0.0228199996054
-0.0288434097629 -0.0128028846925 -0.0228199996054
-0.0418502350617 -0.000725166589654 -0.0228199996054
-0.0337956084822 -0.00901094300729 -0.0228199996054
-0.0500772809842 -0.0122772421237 -0.0228199996054
-0.0374083549757 -0.00650746232757 -0.0228199996054
-0.0454285046159 -0.00631214887038 -0.0228199996054
-0.0437846718179 -0.00480940954349 -0.0228199996054
-0.0475121099251 -0.00591028275897 -0.0228199996054
-0.0457184605429 0.00629260218784 -0.0228199996054
-0.0463084772548 -0.0171837373516 -0.0228199996054
-0.0343306521023 0.000859710052833 -0.0228199996054
-0.0492980351203 -0.00800533728131 -0.0228199996054
-0.0228021827168 -0.0170563945502 -0.0228199996054
-0.0434486219635 -0.00681343303926 -0.0228199996054
-0.0310276892117 -0.0131516094709 -0.0228199996054
-0.0191279884998 -0.018014110153 -0.0228199996054
-0.044808228694 0.00932989454964 -0.0228199996054
-0.0419838952057 0.00472010170975 -0.0228199996054
-0.0356659128085 -0.00525033323692 -0.0228199996054
-0.0385369853478 0.000596266148983 -0.0228199996054
-0.0381048741142 -0.00919345528715 -0.0228199996054
-0.0489223336999 -0.00284902242077 -0.0228199996054
-0.0444766090579 -0.00843332539086 -0.0228199996054
-0.0397261443091 -0.0116471692449 -0.0228199996054
-0.051430357185 -0.00789761133336 -0.0228199996054
-0.0205136950444 -0.0149078760621 -0.0228199996054
-0.0371209022367 -0.00356196365852 -0.0228199996054
-0.0332819378937 -0.00454402381023 -0.0228199996054
-0.027725144021 -0.018471525739 -0.0228199996054
-0.0469282229928 -0.0131960879484 -0.0228199996054
-0.0481873211487 0.00266687030974 -0.0228199996054
-0.0377389837006 -0.0110814989938 -0.0228199996054
-0.0377064336562 -0.00125022689516 -0.0228199996054
-0.0494646084207 -1.54170937751e-05 -0.0228199996054
-0.0262070681482 -0.0100522941738 -0.0228199996054
-0.0405813696827 -0.00756358137914 -0.0228199996054
-0.0319115898301 -0.0179731915928 -0.0228199996054
-0.0332608787413 -0.0128800192109 -0.0228199996054
-0.0464360666306 0.00849465985292 -0.0228199996054
-0.0445695278098 -0.015098729681 -0.0228199996054
-0.0324307528311 -0.0148586756854 -0.0228199996054
-0.0458206933009 -0.00980736752727 -0.0228199996054
-0.0386899409058 0.00283294196959 -0.0228199996054
-0.0337265867808 -0.0167728735329 -0.0228199996054
-0.0289295911425 -0.00677905333592 -0.0228199996054
-0.0375830488574 -0.0145395146187 -0.0228199996054
-0.0496750565461 0.0172993237433 -0.0228199996054
-0.0477045694578 -0.0157956973621 -0.0228199996054
-0.0489524187531 0.011534231477 -0.0228199996054
-0.0493135941527 -0.0166784310948 -0.0228199996054
-0.0354529860905 -0.0138969546122 -0.0228199996054
-0.037646690521 -0.0187334785056 -0.0228199996054
-0.0442758362886 0.00370304597893 -0.0228199996054
-0.0504131780949 0.00579240692223 -0.0228199996054
-0.044961405222 -0.000537183835281 -0.0228199996054
-0.0482196197676 0.00466224974405 -0.0228199996054
-0.0340882413729 -0.0186762801212 -0.0228199996054
-0.0377258747737 -0.0164360930409 -0.0228199996054
-0.0333847047799 -0.00118476224233 -0.0228199996054
-0.0428754399521 0.0093990578944 -0.0228199996054
-0.0403471742609 0.00120186499823 -0.0228199996054
-0.0467603916362 0.00141668852066 -0.0228199996054
-0.0412092936906 -0.014008181008 -0.0228199996054
-0.021212908316 -0.0185222747308 -0.0228199996054
-0.0504117200282 0.00865959907573 -0.0228199996054
-0.0249562500023 -0.0114943974238 -0.0228199996054
-0.0356113839479 -0.0078814108947 -0.0228199996054
-0.0423928308394 0.00120530360392 -0.0228199996054
-0.0433316651478 -0.0129950322599 -0.0228199996054
-0.045504097797 -0.0116420636315 -0.0228199996054
-0.0266010612535 -0.0130633154253 -0.0228199996054
-0.0399284483651 -0.00346290796723 -0.0228199996054
-0.0238548177647 -0.0138236853869 -0.0228199996054
-0.0398435959103 -0.000697894400078 -0.0228199996054
-0.0484154322925 0.0156134887743 -0.0228199996054
-0.0410021952959 -0.00940629504018 -0.0228199996054
-0.0415158623108 0.00647840330845 -0.0228199996054
-0.0424362278246 -0.0155315953729 -0.0228199996054
-0.0443182907894 0.00164136879469 -0.0228199996054
-0.0392695548648 -0.0153745836016 -0.0228199996054
-0.0271732060229 -0.0152319379157 -0.0228199996054
-0.0487734173485 0.00693513615492 -0.0228199996054
-0.0256211015288 -0.0163344785885 -0.0228199996054
-0.0506688725335 -0.00175968196263 -0.0228199996054
-0.0306645483649 -0.0156747299791 -0.0228199996054
-0.0460964618007 0.00437841241987 -0.0228199996054
-0.0483555731203 -0.0188960174533 -0.0228199996054
-0.0515901238635 0.00417183214737 -0.0228199996054
-0.0250562405031 -0.018999447183 -0.0228199996054
0.0508343783124 0.0107060210902 0.0229736469523
-0.0517949983478 0.0218600834414 -0.018070841854
-0.0461864824427 0.0213452981155 -0.0223005539465
-0.0294684898026 0.0206370872626 -0.0225625147524
0.0393317868791 0.0204936775802 -0.0222414578619
-0.0401751135216 0.0208337726814 -0.0225244402681
-0.0226320336768 0.0209847676822 -0.0223478767162
0.0438531455688 0.0204530920406 -0.0222360918716
-0.0197110733802 0.0208505745628 -0.0223989249485
0.00950900839775 0.0206609288986 -0.0223275681497
-0.0145585469829 0.022048226568 -0.0115045737334
0.0302412533928 0.0220482643349 -0.000741191594729
0.00862791522668 0.0218280245076 -0.0173636754795
0.0137878943392 0.0217834870768 -0.0184357364141
-0.0203635998237 0.0220603965863 -0.0122673747983
0.0370933101582 0.0219138717029 -0.00607039009355
0.0121655692225 0.0220023167984 -0.00746790953103
0.0249672950167 0.0220659281095 -0.00109128511201
-0.00530236419531 0.0220477367675 -0.00930655450671
-0.0323812897338 0.0221357324179 -0.0112441397156
0.0317892433637 0.0218441267334 -0.0109643357853
0.0115585156141 0.0218007674277 -0.0180743874026
0.0192617285862 0.0221050746161 -0.000430075966835
0.00402473315487 0.0221339232396 -0.00259289717278
0.0195027827456 0.022028991981 -0.00432095301187
0.0468165975154 0.0217565281918 -0.0119010647753
0.0244506215789 0.021983535071 -0.00549169453991
0.0024794757946 0.0220537904974 -0.00712307204417
0.0134855174113 0.0221097150226 -0.00157674491503
0.0114267477518 0.0221126962311 -0.0019165564832
0.0176339489704 0.0218168221277 -0.0157817407583
0.0138728064548 0.0218246613069 -0.0162783470988
-0.0352276171224 0.0221214190652 -0.0126707403143
0.0420659027633 0.0219545387174 -0.00276524939586
0.0388069439367 0.0218156800389 -0.010755022158
-0.0082938978108 0.0221441427755 -0.00502156624513
0.0324769249332 0.021749254529 -0.0157231292669
0.0172773537931 0.0221121065573 -0.000541779106236
0.0449111966895 0.0217932592832 -0.0104523755672
0.0398829644884 0.021864672924 -0.00795375964259
0.0147478485508 0.0220571318856 -0.00400264716417
0.023917144845 0.0218048973747 -0.0148913547299
0.00461580105711 0.0220670146761 -0.0059235514918
0.025569073499 0.0217521140321 -0.0172340621352
0.00398867280652 0.0219222016399 -0.0135901669746
0.0241643796576 0.0219468094965 -0.00746655494794
0.0396230556856 0.0217009400833 -0.016514125623
-0.0142684358436 0.0221190327063 -0.00775996131786
-0.000731602206955 0.0220991373768 -0.00554085151544
-0.0177577281022 0.0220926502525 -0.00996741037048
0.00652423750058 0.0219833760989 -0.00980606688868
0.0428033057408 0.0218766372908 -0.00663129528915
0.0262762485739 0.0217084287094 -0.0193315118426
0.0218409041535 0.0217395333923 -0.0187825613059
0.0108862349045 0.0220413136163 -0.00575123807222
0.0407343952858 0.0220236934661 0.000504122644885
-0.0210325664432 0.0221230247351 -0.00917759134762
-0.0394613446981 0.0221435930715 -0.0125368720584
0.0404787566358 0.0218993803006 -0.00600928866273
-0.0124602327674 0.0219851452124 -0.014274533604
0.0117883015468 0.0219640316396 -0.00954557967714
0.0365090741791 0.022139514152 0.00550038643072
-0.013923569183 0.0219501542525 -0.0164421169102
0.00330138583658 0.0220059386876 -0.00940920683905
0.0111637606984 0.0221491651379 -8.69484938526e-05
-0.0245647878313 0.02210614584 -0.0109021062469
0.0160460086228 0.0219830410783 -0.00753621706137
0.0468226127238 0.0216237948921 -0.0187886390238
0.0254727082959 0.0221213755666 0.00190791115357
0.0131930427084 0.0221458168677 0.000226728858997
0.00469051550877 0.0218555238237 -0.0168822358657
0.0177841685485 0.0220128296862 -0.00557262639479
0.0260409024283 0.0217859161848 -0.0153663507502
0.0437542167422 0.0218369567346 -0.00846234461628
0.0466709419043 0.0217192828868 -0.013869129394
-0.0262417525801 0.0221314203907 -0.00999315244586
0.0352288027327 0.0217624046622 -0.0143795890427
0.0201984288385 0.0220619238821 -0.00244464530804
-0.0442332276856 0.0221492441098 -0.0133898369277
0.0232617550735 0.0220257160067 -0.0035880321055
0.0228266680923 0.0218854721997 -0.0109713685597
-0.00593946524185 0.0219539967838 -0.0143248122268
0.0322195507539 0.0221442374361 0.00471513825127
0.0306133292303 0.0217809559207 -0.0145254455069
0.0262218675972 0.0219860809624 -0.00493408623729
0.0407505174291 0.0217914883752 -0.0115437303578
0.0126679561243 0.0220532935513 -0.00470147520076
0.0362115896773 0.0219802461816 -0.00283727347712
-0.00285537769178 0.0219995842846 -0.0112179327383
0.0374144814667 0.0216949331251 -0.0173564187017
0.0419274010534 0.0217297866437 -0.014463424181
-0.0208433813315 0.0220269359251 -0.0141192726588
0.000896361112036 0.0218726218732 -0.0169062254402
0.00644983451928 0.021864450421 -0.0159963261913
0.0122242691641 0.0218519406265 -0.0152585147631
-0.0152329893738 0.0220905572603 -0.00946956822575
0.039563557876 0.021769828927 -0.0129530031744
-0.0118497583949 0.0220496041596 -0.0107823932075
-0.0168021735269 0.022125702161 -0.00802244116398
0.03502747628 0.0216582273063 -0.0198348810144
0.0333572521299 0.0217047099793 -0.0178235807861
-0.0086232779415 0.0220224005596 -0.0114192556968
0.0201023910827 0.0219193058111 -0.00986976545704
0.0325000379339 0.0219757005983 -0.00396475173949
0.0312883840589 0.0220128159379 -0.00232947366871
-0.0195255828813 0.0219784411698 -0.0163196590618
0.0157647976455 0.0217997180008 -0.0171184571039
0.00219435371407 0.0220991741795 -0.00483609349317
0.0315370718918 0.021939751388 -0.00606187474174
0.00450326763102 0.021963752753 -0.0113100022992
0.0145466409494 0.0218838853411 -0.0130426852104
0.0437707796375 0.0217608209132 -0.0124099074522
0.0280180128082 0.0217278932612 -0.0179028864115
0.0242827368741 0.0217220227395 -0.0191048293986
0.0254411774419 0.0218465530718 -0.0123632835719
0.0415687500812 0.0216373044773 -0.019349512781
0.0463465230033 0.0216832334566 -0.0158180676373
0.0349597295648 0.021854830621 -0.00964720416878
0.0374649181618 0.0218723668722 -0.00813527665279
-0.0290384012742 0.0220342018168 -0.0157107011437
0.0270352773915 0.0218624593839 -0.0111548057387
0.0145946554424 0.0219654852928 -0.00879601516331
0.00769785106697 0.0220558808747 -0.00576106578901
0.00535788073124 0.02209667519 -0.00420587887882
0.00274486756191 0.0218933907997 -0.0153842606867
0.049337445921 0.0216438933941 -0.0171414108455
0.0251587702151 0.022023367592 -0.00325423304567
0.0215958213005 0.021987709874 -0.00596077272783
-0.0111241002614 0.0221104277414 -0.0074512642336
0.0290742022477 0.0219794361506 -0.00459379677566
0.0369760833832 0.0218211790665 -0.0109094095023
0.033101077257 0.0220490999303 -1.08609372482e-05
-0.00237348958937 0.0218995206348 -0.016295602462
0.0377504618052 0.0217303863731 -0.0154356458522
0.0280478894495 0.0220788007389 0.000316813805136
0.0288665784863 0.0217636939763 -0.01584095076
-0.00725226427278 0.0219838269135 -0.0130919416034
0.028264082252 0.021897265105 -0.00905317370023
0.00847280196546 0.0219561572161 -0.0107506925437
0.0343869840162 0.021730344238 -0.0162457783656
-0.0196470880292 0.0220914976552 -0.010481077332
0.034229427184 0.0219130587011 -0.00680052316608
0.0341750772385 0.0219904700741 -0.00279583453219
-0.0419976260784 0.0221425540461 -0.0132000423924
0.00806844861084 0.0219196706864 -0.0127415179459
-0.0173330580194 0.0219850232875 -0.0154513697466
0.00902096954585 0.0219966702218 -0.00851634233736
-0.00429099674091 0.0219683355938 -0.0131846297092
0.0287752324103 0.0221171824244 0.00248358587266
-0.0253423254269 0.0220064919328 -0.0162610382242
-0.0176473387067 0.0220348895066 -0.0129387463186
-0.00850654134014 0.0220832417323 -0.0082334836146
0.02777666332 0.0220448384192 -0.00151102336465
0.0266185302779 0.0219427382529 -0.00708834251209
0.0392004671896 0.0220915131414 0.00365557902531
-0.00672824922323 0.0220164020288 -0.0112753792514
-0.0232222092758 0.0221401001204 -0.00881733528092
0.0171789549504 0.0218892390299 -0.0121325104838
0.037986592524 0.0216576117321 -0.0191560166572
0.0149951409023 0.0220185520249 -0.00594558626535
0.0214371134818 0.0218675541848 -0.0122351220893
0.0131250318198 0.0219345152614 -0.0107564176628
0.0446019888919 0.0216792666933 -0.0164430044107
0.0313570420615 0.0221105644733 0.00276028625211
0.0402215772979 0.0219847554933 -0.001639990064
0.030189043768 0.0218941600566 -0.00875193181269
0.00188099866203 0.0221408052429 -0.00275066228025
0.0074082123108 0.0220947379374 -0.00381391165349
0.019124377661 0.0217741459244 -0.0176386695122
0.00957791797196 0.0220999773956 -0.00302078942358
-0.00237032487696 0.0219376392345 -0.0143164407267
-0.0280054050827 0.0220918041774 -0.0124729313511
0.0157924629424 0.0220886218999 -0.00211734897754
0.0435660753665 0.0216259341049 -0.0194598686233
0.0388080736016 0.02204302505 0.00104473089356
0.00709442871189 0.0220168621973 -0.00793113136984
-0.00659098065635 0.0221141878775 -0.00616720168292
-0.00880859278953 0.0219286936649 -0.0163272718707
-0.00911125366947 0.0219699417076 -0.0142591510389
-0.0273597858622 0.0220436357106 -0.0148178480905
0.0179737229346 0.0220547748199 -0.00335008998326
0.000244561957809 0.0220182741736 -0.00950326404842
0.0231711152712 0.0217757544236 -0.0165831140196
0.0332280301645 0.0218009465333 -0.01285982755
0.00531715578562 0.0220175364543 -0.0083230577987
-1.17222407382e-05 0.0219640958284 -0.0123767482299
0.0204526123177 0.0218206570283 -0.0149056297522
0.00997418149612 0.0218832453641 -0.014174257602
0.0418086327151 0.0218442449154 -0.00855143062856
0.0193023996374 0.0218864588055 -0.011766731917
-0.00455831233534 0.0219217965429 -0.0156642751188
0.0336296756562 0.0221008953317 0.00280435854058
0.00108685301298 0.0219281110069 -0.0139805138076
-0.0388389494513 0.0220984817595 -0.0147286974169
0.0446306871037 0.0217159799637 -0.0145306475304
0.0152126280015 0.0219244553079 -0.0107770770779
0.0108856320672 0.0219151406226 -0.0122999142133
0.0211798635266 0.0217754823942 -0.017075554006
-0.0238646448799 0.0220507629475 -0.0136083632048
0.0419950867544 0.0216854209075 -0.0167498007997
-0.0100646875312 0.0221393605918 -0.00569513122116
0.0381050765165 0.0219597585608 -0.0034457687469
0.0197448853391 0.0219574377796 -0.00797654701064
-0.0483023247528 0.022134565647 -0.0151291103764
-0.00232541870495 0.0220332940045 -0.00934105522471
0.0289592344801 0.0218255497968 -0.0126083016607
-0.004425220105 0.022104104442 -0.00617030387289
0.0350232281857 0.0220185103244 -0.00113677603808
-0.0347068311436 0.0220737680569 -0.0150187866896
0.0223288777623 0.0220648168468 -0.00178273884998
0.0292264164104 0.0219368814867 -0.0067658718474
0.0243584837135 0.021902364476 -0.00972667939102
0.0367132207135 0.0220277291023 -0.000252354843368
-0.0308750676792 0.0220686028952 -0.0143664316463
-0.0303381465938 0.0221053361362 -0.0123309573499
0.0326397428357 0.0218988524128 -0.00791970702676
0.00671775361168 0.0218232143215 -0.0180721725345
-0.0258216791094 0.0220781813135 -0.0126554186686
-0.00234256510389 0.0220816737328 -0.00683420743429
0.023197632248 0.0221036515059 0.000441511749716
-0.012828493071 0.022086682205 -0.00909310090963
0.0308152846539 0.0217293827781 -0.0171536421403
-0.0159170029632 0.022015780236 -0.0135148942904
-0.0298523789103 0.0221500005573 -0.00967163688027
0.0246107629964 0.0221500005573 0.00800619727724
0.00659156828683 0.0221500005573 0.00502008881449
0.00363244459102 0.0221500005573 9.98208089387e-05
0.000830455256723 0.0221500005573 -0.00120394791698
-0.00121174246512 0.0221500005573 -0.00295163497751
-0.0354762817425 0.0221500005573 -0.0106407013074
-0.0279881028732 0.0221500005573 -0.00803774036897
-0.00517364620679 0.0221500005573 -0.00379980226084
-0.00344737741979 0.0221500005573 -0.000562514911285
-0.0339114121044 0.0221500005573 -0.0092537163804
-0.0321940250668 0.0221500005573 -0.00882720714508
0.023787908623 0.0221500005573 0.0115831892076
0.0248711303855 0.0221500005573 0.00362782524515
0.00914134578236 0.0221500005573 -0.000229468991729
0.0270804167357 0.0221500005573 0.0102142501018
0.0405993786462 0.0221500005573 0.011533002598
0.0439983488993 0.0221500005573 0.0177460040619
0.040375603999 0.0221500005573 0.0153577498701
0.0292230161966 0.0221500005573 0.00598490702284
-0.00796566718397 0.0221500005573 -0.00215152675084
0.00541381152172 0.0221500005573 0.00294799107177
0.0249820518791 0.0221500005573 0.0101062140657
0.0422743166481 0.0221500005573 0.0159254842447
0.0353566306871 0.0221500005573 0.0134380619157
0.016977717415 0.0221500005573 0.00675920203896
0.0450805004461 0.0221500005573 0.0154036173643
0.0232597510953 0.0221500005573 0.00935478914332
-0.00840806372452 0.0221500005573 0.000196908986498
0.0427334842482 0.0221500005573 0.0136517266394
0.0384166763624 0.0221500005573 0.00716607108484
0.0282821692723 0.0221500005573 0.00439213749006
-0.02031253825 0.0221500005573 -0.00646184331456
-0.0094972615285 0.0221500005573 -0.00335743228665
0.0361822141828 0.0221500005573 0.00745227237672
0.040678739022 0.0221500005573 0.0174847760307
0.0399114709132 0.0221500005573 0.00842917932479
0.0464404012121 0.0221500005573 0.0172681761767
0.0381282668779 0.0221500005573 0.0140088319688
-0.0239117964323 0.0221500005573 -0.00541865570629
0.00733881855369 0.0221500005573 0.00109163719791
0.0170809549547 0.0221500005573 0.00448308618793
0.00982897199344 0.0221500005573 0.00536360316079
0.0189548329365 0.0221500005573 0.00572935191263
-0.0259931802888 0.0221500005573 -0.00763646816484
0.0385405230889 0.0221500005573 0.0113588409671
0.0378711182575 0.0221500005573 0.0158734708079
0.0328076824918 0.0221500005573 0.00935392139554
0.0307123809051 0.0221500005573 0.00982169416808
0.0346023411695 0.0221500005573 0.00581847448716
0.026904513793 0.0221500005573 0.00576241377517
-0.0157949630319 0.0221500005573 -0.00314250808837
-0.00541641094871 0.0221500005573 0.00119853753616
0.0346745913552 0.0221500005573 0.00876052974065
0.0053343730042 0.0221500005573 -0.000528762424125
0.000331181468563 0.0221500005573 0.000864453884488
0.0228180076506 0.0221500005573 0.0032689130085
0.0120021211138 0.0221500005573 0.00594856881186
0.00888996293939 0.0221500005573 0.00250587235633
-0.0223648805391 0.0221500005573 -0.00656954546546
-0.0377060187327 0.0221500005573 -0.0117743451628
-0.0128668998779 0.0221500005573 -0.00391713894015
0.0352862059328 0.0221500005573 0.0104919890402
0.01582950656 0.0221500005573 0.00852566646719
-0.0113554272147 0.0221500005573 -0.00224038998569
0.0141210961569 0.0221500005573 0.00382792518799
0.0196587797303 0.0221500005573 0.00371542869931
0.0311383780886 0.0221500005573 0.00780628033611
0.0330200825105 0.0221500005573 0.0132646976702
0.0380544461099 0.0221500005573 0.00896923601943
-0.0157252038503 0.0221500005573 -0.00490588406038
0.040650757955 0.0221500005573 0.013437971776
0.00152497072831 0.0221500005573 0.00263648635618
-0.0184025030525 0.0221500005573 -0.00664457026839
-0.0133139209417 0.0221500005573 -0.00168519291688
0.0290397646433 0.0221500005573 0.0105831576391
0.0243584559203 0.0221500005573 0.00585860397763
0.012388279272 0.0221500005573 0.00228402772833
-0.0139499900832 0.0221500005573 -0.00595204862484
0.0320756161392 0.0221500005573 0.0112297955301
0.0149612133953 0.0221500005573 0.00156407034307
0.026757403207 0.0221500005573 0.012363227173
-0.0060118318532 0.0221500005573 -0.00188632882513
0.0142132902866 0.0221500005573 0.00762817524873
0.0295699711759 0.0221500005573 0.0128467276016
-0.0180762092461 0.0221500005573 -0.00479443834503
0.00366234884292 0.0221500005573 0.00207608028126
0.021712407845 0.0221500005573 0.00625449299988
0.0291401725517 0.0221500005573 0.00811737100299
0.0187106204496 0.0221500005573 0.00179918846398
0.048219461518 -0.00596994985201 0.0230889990926
0.0503758420168 -0.00136404616936 0.0230889990926
0.0497857272727 -0.00821847381806 0.0230889990926
0.0497575495701 -0.0031994387522 0.0230889990926
0.0492408916414 -0.0113071884499 0.0230889990926
0.0478070766677 -0.00989492457152 0.0230889990926
0.049534130795 0.00132509114845 0.0230889990926
0.0163982638536 -0.00116227691415 0.0229037175079
0.0307878455808 -0.00511991493988 0.0229891895721
0.0443728644258 -0.0119099225217 0.0230721184045
0.00878052699565 0.0106397343562 0.0228513622738
0.031054451112 0.0102833898863 0.0229794418281
0.0453251892677 0.0124664581439 0.0230597359411
0.0131899219114 0.00612819149332 0.0228799686984
0.0446028003216 0.0019728052962 0.0230632735352
-0.00987669370578 0.0114738588632 0.0227436873192
-0.00401661612769 0.00742214764789 0.0227802817998
0.0300993916433 0.00547795282581 0.0229774795709
0.00026704234879 0.00989602042809 0.0228030522577
0.0294662983103 -0.00657828499558 0.0229826736462
0.0456672457712 -0.00816334133546 0.0230768031064
0.0394605263136 -0.00474164983052 0.0230386806995
0.0226704956336 -0.000552388549857 0.022939264102
0.0187567561402 0.0056003051218 0.0229123004081
0.0169325752491 0.00632176096101 0.0229013041475
-0.0268247559494 0.00888323281176 0.0226483278099
-0.0180630755633 0.0112111090676 0.0226969022368
0.00758547889441 0.00226714671882 0.0228506345633
0.0324710365595 0.0128697728039 0.0229856772456
0.031757409441 0.00423650689616 0.0229879030216
0.0337401965595 0.00803646612647 0.0229964990508
0.0199517990435 -0.00433942300625 0.0229264356018
-0.00720474367268 0.00435082677071 0.02276423546
-0.011722415774 0.0142547088398 0.0227310596424
-0.0298151136506 0.0126903845281 0.0226283802395
0.0198290956694 0.00739937490154 0.0229171368122
0.000643267524675 0.0122182074295 0.0228035110131
0.036880869392 0.00622433774019 0.02301584853
0.0445569120395 2.50048638013e-05 0.0230644363039
0.0194459550912 0.00229569389773 0.0229186748666
0.0406997265679 0.0115697341592 0.0230338493213
-0.0150996557659 0.00609855842898 0.0227176509829
0.042318963841 -0.00239091931054 0.0230533627031
0.0251618559247 0.00233588698719 0.0229514460692
-0.034928742138 0.0105126001886 0.0226006302249
0.0129865022531 0.00417503044492 0.0228802314001
0.0436542029002 -0.00765500609825 0.0230648791015
0.00212710935508 0.00619629860104 0.0228164350124
-0.00366206134498 0.00330806021422 0.0227853285714
-0.00972100971516 0.0135542732703 0.0227430575174
0.0117677950382 -0.000751791838515 0.0228768450765
0.0481015133745 0.00496021223415 0.0230811636046
0.0415545470304 -0.0108033807324 0.0230551353592
0.0397863355433 -0.00936681857984 0.0230439367074
-0.0199228501178 0.0109870316559 0.0226863940023
0.00939871097048 0.00567211598622 0.0228585467981
0.0214117754904 0.0046043400964 0.0229282654097
0.0164029075024 0.0102499860419 0.0228953885729
0.0295034103522 0.0113725557068 0.022969743757
0.0160806028482 0.0130803534086 0.0228914667545
-0.0200734137275 0.0134510864701 0.0226837259167
-0.0218919943013 0.0138442771547 0.0226730021355
0.00147758539734 0.00150590191369 0.0228161418394
0.0289479358877 0.00396907946865 0.0229719766895
-0.0412166430625 0.0141992315618 0.0225618479812
-0.0201572162289 0.00878401193737 0.0226866620542
-0.0444497844024 0.0141540569211 0.0225433277123
0.0203713596515 -0.00124717417328 0.02292657923
0.028582711387 0.0072738890253 0.0229674612094
0.012296841281 0.00965329116074 0.0228722628348
0.0496417825341 0.0124551222 0.023084514961
0.0271420777996 0.0114637058601 0.0229561265414
0.0106348576923 -0.00216713205171 0.0228713799818
-0.0334123847057 0.0126156216467 0.0226077920798
0.0178600104956 0.014016524902 0.0229009924389
0.0231058648138 0.0118611499923 0.0229326737882
0.00495495472332 0.0117471372759 0.0228285984777
0.00549266216142 0.00482540372855 0.0228367519099
0.0457206883399 -0.0101181199622 0.0230785409932
-0.00588381166122 0.00647271047258 0.0227702620583
-0.000345223138885 0.007029551283 0.0228016374884
0.0275569247522 0.00939674456213 0.0229600204786
0.0339034994704 0.00411411483784 0.0230003079445
0.0393881180573 -0.00688736711475 0.0230398361902
0.00289447448385 -0.000296214919737 0.0228255920756
0.0109234437827 0.00191112308417 0.0228700501015
0.0442453756339 0.00548641933919 0.0230586499362
0.00335305466347 0.0138586927015 0.0228178600002
0.037714765945 0.000831670894597 0.0230245821212
0.017649723294 0.00222291155156 0.0229084204996
0.0214539609296 0.00990439945585 0.0229246270081
0.0348711782184 -0.000779763407034 0.0230094440511
0.0399055467129 0.00466909409718 0.02303434429
0.0460373103922 0.0040402110268 0.0230699917863
-0.0145428185646 0.00920666777195 0.0227185707588
-0.00942764043722 0.00401261516474 0.0227517270173
-0.0146875594219 0.0138267504619 0.0227143575334
0.0360687130424 0.00926683712619 0.0230089603892
-0.0128755727424 0.0101805753896 0.022727425175
-0.0236616219977 0.01000696862 0.0226656566647
0.0376382467727 0.00791523560979 0.0230189567264
0.0229543589027 0.0140336099291 0.0229302137889
0.0255341276668 0.00806437031992 0.0229493881899
0.0477949217669 -0.00368453186393 0.0230857335529
0.0368491899695 0.00321377616002 0.0230178709455
0.0390056106578 -0.00217200243354 0.0230341887827
-0.039786603638 0.0127844805237 0.0225710900674
-0.0217999565881 0.0107123073232 0.0226758233904
-0.0269719235305 0.0135946102991 0.0226440338165
0.0368964893264 0.0130842093377 0.0230109156532
0.0237677240592 0.00654129762623 0.0229403668336
0.0113568670023 0.0132559378929 0.0228642310958
-0.0365424384903 0.0145239197701 0.0225884331264
0.0305989756205 0.0024563598575 0.0229825587119
0.0425764541013 0.0110480251273 0.0230450008739
0.0217082716464 -0.0053882601497 0.0229372830142
0.0465063062494 0.00105410008613 0.0230748694193
0.0144892124305 0.00286648283559 0.0228898127488
-0.0187082683112 0.00693827274423 0.0226963281981
0.0153487965045 0.00549182671409 0.0228928232948
-0.000864777499832 0.00511423055589 0.0228000583496
0.0269784636442 -0.000569182078432 0.0229639976217
0.0380524894214 0.0100222867277 0.0230197911582
-0.0168101096807 0.00950253189602 0.0227053433158
0.0233981402701 0.00154366800011 0.0229419050371
-0.000379951264548 0.000668704341114 0.022806095348
0.00609515482917 2.49017189074e-05 0.0228437240342
0.0215122795268 0.00223007336736 0.0229305804899
-0.00172518906058 0.00951348550743 0.0227918999371
0.0375347865943 -0.00824662138517 0.0230301960584
0.0327517164554 -0.00812265643691 0.0230026577042
-0.0333735209115 0.0144046916465 0.0226067052169
0.023913246018 0.00991621183239 0.0229387309384
-0.00638504989844 0.00849726317043 0.0227659034156
0.0031418585999 0.00306563054533 0.0228245502836
0.0405904008177 0.00862380267571 0.0230353788448
0.0189410431918 0.01111832034 0.0229093178768
0.035462577506 0.00203219256297 0.0230107789922
0.0443387436546 -0.00244492455498 0.0230649927264
0.0140325229848 0.013598823962 0.0228793342696
0.0390203493923 0.0121894842632 0.0230237584798
0.0362798131714 -0.00206475321827 0.0230184683022
-0.02814868128 0.0115242964844 0.0226387968033
0.0252729034308 0.0114689047839 0.0229453964996
-0.00379397347982 0.00548335372699 0.0227829789361
0.0461719061472 0.0104427244042 0.0230660765094
0.0179717075693 0.0080905015773 0.0229059721981
0.049266019197 0.00351842170315 0.0230889017265
-0.00016868928286 0.00319724137771 0.0228054563832
0.0493640357775 0.00935232192111 0.0230851928553
0.0471983584259 0.0131046061542 0.0230700178752
0.0359967177429 -0.00941505552102 0.0230222253469
-0.0107918956086 0.00725114304083 0.02274152714
0.0249709852013 0.0139671446855 0.0229418348384
0.0436811684066 -0.00540785328438 0.0230633885713
0.0103347839429 0.00787167429532 0.0228623080172
0.0185126064182 0.000426849385162 0.0229146871461
0.0244674770209 0.00404888581789 0.0229462071977
0.0475392837136 0.00847874559309 0.023075361133
0.0431305496634 0.00933102772937 0.0230494376586
0.00155269783971 0.00828398589715 0.0228116102411
0.0321632315355 0.00699151039893 0.0229882147284
0.0415183301469 -0.00647554663682 0.0230517588696
0.0415884202794 0.00307394195163 0.0230451693441
0.0328920495803 -0.00299123843902 0.0229997059942
0.0414795685717 0.00121882653723 0.0230459029379
0.0424926227922 0.013332321889 0.0230428473422
-0.00644903807869 0.0127584194788 0.0227624163794
0.0130443547989 0.00122856330112 0.0228827206665
-0.0488183927697 0.0147566600766 0.0225178173032
0.0273170896856 0.00541751822781 0.0229615576112
0.0218426704679 0.007091047601 0.0229289174321
0.0173746836539 -0.00328312394634 0.0229108734772
-0.00350087769409 0.0102909069419 0.022781140973
-0.0290836633797 0.00918159200502 0.0226351466498
-0.00802771654566 0.0109073058957 0.0227547124595
0.0450564267322 0.0089218771062 0.0230607888447
0.0408741217444 0.0065232142072 0.0230385449372
0.0326052005289 -0.00575642299542 0.0230000844669
0.0196928112941 0.0128578988599 0.0229123582425
0.013612067174 -0.00268937298348 0.0228888470267
0.0315117258411 -0.000802082470261 0.0229901822139
-0.0130775439751 0.00653409159537 0.0227289359686
-0.00340854928999 0.00121807236506 0.0227883135492
0.0265786932592 -0.00242698943105 0.022963063753
-0.0368612805672 0.0124121731212 0.0225881495876
0.034827782745 -0.00484702423978 0.0230121729053
-0.0159178509169 0.0113882955612 0.0227090828549
0.0127912657109 0.0118405766974 0.0228734986445
-0.0316158470301 0.0118259701967 0.0226186796401
0.0235330332132 -0.00334679516921 0.0229462597117
0.0148688148996 0.000213872192611 0.0228939332239
0.00285412002113 0.0119311299163 0.0228164081505
0.0107338335143 0.00409975614468 0.0228673595995
0.0252519432368 -0.00417570414595 0.0229567305494
0.0455375261702 -0.00443370089086 0.0230733280249
0.0245398476602 -0.00063170639503 0.02295004943
0.00352852401682 0.00787993046525 0.0228232443291
0.0083673462393 0.000626021520452 0.0228563228633
-0.0308838343736 0.00904974469324 0.0226249129226
-0.0238414926494 0.0145467908274 0.0226613006108
0.0294520039437 0.00903983419767 0.0229711566833
-0.0112442586483 0.00529125826396 0.0227403662058
0.0349909338541 0.0138556240598 0.0229994158477
0.0343082275481 0.0119798394964 0.0229968715167
0.00552667269595 0.00709137290563 0.0228352880309
0.0280038030469 -0.00439616388815 0.0229726834762
-0.0432100057866 0.0126417168888 0.0225515494396
0.0335200145245 0.00220852275494 0.0229995025156
0.0357587454913 -0.00739053760711 0.0230193774784
-0.0262863855126 0.010745873887 0.0226500534943
0.0463235047378 -0.00615387047892 0.0230790977901
0.0470675060528 0.00665638017168 0.0230739881022
0.0362770399352 0.0110294774019 0.023008865339
0.0330897422891 0.0105167529403 0.0229909504641
-0.00343502684845 0.0127291095742 0.0227797337072
0.00679447890117 0.0130781964914 0.0228381800198
0.00767868505173 0.00684383213846 0.0228478185678
-0.021385083469 0.00714373690328 0.0226808168933
0.0073815757413 0.00453037107313 0.0228478074291
0.0279298535097 0.00166949900456 0.0229678180925
-0.00540218206688 0.00400473830934 0.0227748328303
0.0147661599303 0.00779475109154 0.0228877937365
0.0470429883673 -0.0117843890025 0.0230873489692
0.027458516278 -0.00611222003492 0.0229708107791
0.0286135151695 -0.00236897379678 0.0229746980782
-0.00773425221483 0.00707305409474 0.0227592037802
0.04771134594 -0.00122111752508 0.0230834503449
0.00848308421374 -0.00238610991736 0.0228591923812
0.00408045327031 0.0100142324385 0.0228248489219
0.0484171826615 -0.0137017447503 0.0230275901768
0.05026246204 -0.0166973112608 0.022771313638
0.0501658788722 -0.0128298887867 0.0229924397681
0.0510387122955 -0.0197758250467 0.0225617179588
0.00991094226081 -0.00575698474673 0.0228673159819
-0.046356568445 -0.00549829496787 0.0225298193532
-0.0111931800941 -0.000366345088514 0.0227415821064
-0.0504994591391 -0.00103743209819 0.0225056833768
-0.0474640860797 -0.00735808095348 0.0225228768705
-0.0400176200652 -0.00652561271043 0.0225676805142
0.0180289524955 -0.00826211368952 0.0229156120533
-0.0430172015527 0.00717928804686 0.0225518876852
0.0013308654233 -0.00331856230204 0.0228162373466
-0.00938731628625 -0.00747471541171 0.022751273493
0.0242077913733 -0.00756180376229 0.0229527902157
-0.0371619498798 -0.00134000842381 0.0225856439816
-0.000807441049111 -0.00410325639962 0.0228032840228
-0.0218607012986 0.00166702736751 0.0226779162327
-0.0304006780425 0.00143433237097 0.0226266491519
-0.017775996461 -0.00278910972749 0.0227017039221
-0.0501790343478 0.00542682546037 0.0225086437454
-0.0104350410075 -0.00511633235591 0.0227453671615
0.00717267927422 -0.00657123942884 0.0228507588846
0.00652857383632 -0.00365424110654 0.0228473635061
0.00510043716688 -0.00219633953773 0.0228390305321
-0.026173481806 -0.000337638766247 0.0226517227144
-0.0392982033921 0.00308917803109 0.0225735403555
-0.0418381873022 0.00551329483213 0.0225586928
-0.00839317559931 -0.00447906666774 0.0227577182756
-0.0399390332071 -0.00204770185391 0.0225688711229
-0.0207127447147 0.00504790571201 0.0226853455981
-0.0252851386504 -0.00247807555215 0.0226567079496
-0.0329849982977 0.00856300619145 0.0226122912128
-0.0277820541179 -0.00178510773837 0.02264184072
-0.0452522954448 0.00362727795677 0.0225379093034
0.0154332835489 -0.00758411801655 0.0229001500157
-0.00416875969091 -0.000945562994443 0.0227836272524
-0.0121463654834 -0.00656666258082 0.0227348683167
-0.0326372259539 -0.00191996982529 0.0226126938009
-0.0101482708967 -0.00960029220054 0.0227463672888
-0.0197061907252 0.00234055305327 0.0226909489075
-0.00292013707669 -0.00365986326877 0.0227906815699
0.00364311946391 -0.00505713213439 0.0228298288968
-0.0363958721914 0.00537348874099 0.0225913177674
-0.0437196021859 -0.00294106487137 0.0225460487234
-0.0207557508799 -0.00235189340461 0.0226838991575
-0.0195014406089 -0.00395073873317 0.0226911667434
-0.0258447022378 0.00666076094591 0.0226548189884
-0.0489547357112 0.0090663116764 0.0225165726065
0.012446919747 -0.00941561082352 0.0228819412336
-0.0025303548151 -0.010146271483 0.0227919780418
-0.0175455923626 0.00246558648231 0.0227039300104
0.0287078288933 -0.00867814509609 0.0229796057999
-0.0515694878825 0.00978349190135 0.0225010023854
-0.0307058349083 -0.000564738789294 0.0226244975099
-0.0157409774505 -1.88809537675e-05 0.0227143565334
-0.0381811074675 -0.00313097007218 0.0225792426078
-0.0177731647618 0.000289647100671 0.0227022153768
-0.0272111122644 0.00209491062224 0.022645888848
-0.0468497683697 0.012988024148 0.0225298297602
-0.0498838020385 0.0123448163988 0.0225115258616
-0.0116011374412 0.00141115886449 0.0227394203257
-0.0096759016608 -0.00314004504177 0.0227502384994
-0.0197662998019 -0.000598274291304 0.0226901163301
0.00129409038203 -0.00891788146563 0.0228151174538
-0.0454225803961 0.00736436354067 0.0225374879958
0.0379699630146 -0.011554211266 0.0230347056797
-0.0305385001335 -0.00268628475922 0.0226251605859
-0.0142859922353 -0.00886335417352 0.0227216642365
-0.0124516164789 0.00318110678241 0.0227346027273
-0.0423211150821 0.00247708180175 0.0225553081723
-0.0420351941431 -0.00425747915801 0.0225559417448
0.00949335667849 -0.00988345889961 0.0228641482268
-0.0235242373933 -0.00866272783533 0.0226662779694
-0.0145121250448 -0.00697153522812 0.0227206115466
-0.00664978910876 0.00168100602263 0.0227691658689
0.000533452339354 -0.00546803173144 0.0228111085976
-0.00648318669315 -0.00464483062228 0.0227691493158
0.0193627691081 -0.00623577357259 0.0229239388105
-0.0262737554495 -0.00699185971457 0.0226500524816
-0.0487310979827 0.00412063863195 0.0225171198605
0.0132489682071 -0.00736717890218 0.0228870815621
-0.0432891655183 -0.000518188027584 0.0225490199611
0.0350642276687 -0.0119993170469 0.023017203235
-0.0369147431712 0.00320103549987 0.0225878562485
-0.00201322151382 -0.00840618535524 0.0227953596957
0.0222276975451 -0.0102165705661 0.0229404856342
-0.0175046764683 -0.00851976873934 0.0227024111393
0.0263785103584 -0.0119505579087 0.0229651070874
