-0.07936673712379808 0.06723000109195709 -0.008231695200411565
-0.08524048936397152 0.06723000109195709 -0.009680411308670618
-0.05619856698303257 0.0397954759818633 -0.012161999940872192
-0.0601761416352707 0.04270002100940677 -0.012161999940872192
-0.08886875969363317 0.06446662662927612 -0.012161999940872192
-0.07325185011234868 0.05542933520445775 -0.007981863559629964
-0.08339886833145592 0.06085474885819053 -0.00831500989749168
-0.057477171219670435 0.04385155175337391 -0.0079000617827392
-0.07504200148754453 0.06376313969583963 -0.00783965630252118
-0.08357634235183838 0.0644240587922914 -0.00818007614863812
-0.07930878099477151 0.06268407987242983 -0.008040401259947125
-0.07530504265097437 0.06022573514820555 -0.007927263203920993
-0.06939408953597817 0.054359752923713124 -0.00780870875736814
-0.07165178385363898 0.06240069920078214 -0.007786999922245741
-0.04988350486953381 0.039331041779073095 -0.007786999922245741
-0.06003499166929438 0.04822111047679867 -0.007786999922245741
-0.06342938566517267 0.049727399535421386 -0.007786999922245741
-0.030243530815959915 0.019555094167905653 -0.011879312803489769
-0.04156692496340125 0.02769013728373621 -0.011260521250425995
-0.07404986904963229 0.05186845392144358 -0.01039368334944384
-0.05330489057773696 0.036334485523053586 -0.010618378190799055
-0.04679020598374433 0.031525126837130595 -0.011237954471242328
-0.07623326458441447 0.05438777971441501 -0.012048727927001566
-0.04920140310796164 0.03410197383746917 -0.012142105445137082
-0.0858536341234356 0.060944417035975536 -0.01080532202164207
-0.07938569523400317 0.05650292033082233 -0.011647902357082983
-0.08197480405729536 0.05815562749834998 -0.011097310802920106
-0.06636287197774204 0.04657195767967005 -0.011660905924877615
-0.037994379341646733 0.02783591606908694 -0.008346257219813065
-0.04434984404679538 0.03341535915664645 -0.008059860993262034
-0.019816771431698837 0.013301211141947395 -0.008875564481202174
-0.0476539320153883 0.03458160360227449 -0.008264134611726908
-0.042621099420440046 0.03054918434185093 -0.008412352940318196
-0.05536401345217802 0.04103722730043119 -0.008100964736450566
-0.07694544242999173 0.056008875470755885 -0.008312823991221572
-0.07995179938864591 0.05819877503568635 -0.008324204873732546
-0.06275859003261877 0.04596558221920774 -0.008208578165107085
-0.08403029951550846 0.07998303644729585 -0.003410999896004796
-0.09696435935344602 0.0736371771658689 -0.003410999896004796
-0.09382839461817051 0.074460249583578 -0.003410999896004796
-0.08690230986419642 0.07610229160646065 -0.003410999896004796
-0.08886167614338308 0.07262772169293888 -0.004611253483076847
-0.08835519380373466 0.0688221911880423 -0.006913158025306701
-0.09261855189923832 0.0712306401406846 -0.004976387100840017
-0.08463918365143479 0.07066569726080577 -0.006280247294901216
-0.08607464070858017 0.07636816341598222 -0.010602861955521386
-0.08938853868825504 0.07814416763155678 -0.009287682090600243
-0.09034187767719686 0.07789176970561315 -0.0034109998960047956
-0.08184999972581863 0.07850269238572669 -0.006180797356292275
-0.09669694160260595 0.07055080425139718 -0.005209617630899216
-0.09462015951640651 0.06887554275601901 -0.007106856552950724
-0.09763158329564173 0.07005132126821462 -0.010247404642134977
-0.09291869201120509 0.0695307934750477 -0.011828493782166853
-0.09945126027073864 0.07163841207656962 -0.0067461354815544616
-0.09811732209173106 0.07325658463563448 -0.00967977715454567
-0.0878748738402759 0.06786628552377644 -0.01216300018131733
-0.08792745836209159 0.0732855165727965 -0.011621443265588362
-0.09222148052225976 0.07277041917257376 -0.011665987158765873
-0.08312118204027645 0.0765573889021765 -0.009550074996477568
-0.09611557602844352 0.07725903031007711 -0.003410999896004796
-0.09680841733330817 0.07693696127798755 -0.007558097981296845
-0.09338010194033847 0.07754439336316868 -0.008514495498021047
-0.09523980379773038 0.07517619088305776 -0.009788026910818485
-0.09955425082598675 0.07548099511042056 -0.005780747189600073
-0.0908565846350175 0.0799692532343195 -0.006427419311326281
-0.08732434750261855 0.08052676206465306 -0.005406944892162387
-0.08539037800962401 0.07882243032648441 -0.007831355028931966
-0.06484200321444256 0.06958280567087344 -0.005004334923659846
-0.08184800297021866 0.07422666785221278 -0.006457105499456063
-0.08184800297021866 0.07140330847076012 -0.008364963327737883
-0.07293181783444122 0.07168823778590716 -0.0034109998960047956
-0.0765357763435021 0.07279813252883982 -0.003410999896004796
-0.0793477432003981 0.07165965681360137 -0.005068481103425558
-0.07052942487424188 0.06779438440813776 -0.003585373953065101
-0.07685165330790139 0.0689900770345826 -0.0056614892296056344
-0.08184800297021866 0.06848263028874266 -0.011644164761403715
-0.07763091404675565 0.07731409125329831 -0.0056527665586330695
-0.07322771671986561 0.07366994233240985 -0.0071732914226442825
-0.07634962794286426 0.07281674470655396 -0.00964757216081985
-0.06975553971415883 0.06970487823321792 -0.008820594942718196
-0.07835622804392227 0.07598941945555673 -0.008402867255701423
-0.07325201633079298 0.06994294730801337 -0.010208369903029719
-0.07828491137761502 0.07035341226479894 -0.011387398919900506
-0.07964745661321625 0.07367407855548909 -0.01038191003707774
-0.07464207889584885 0.07622247940906722 -0.0037267485118052373
-0.0879357828143213 0.06911099702119827 0.012488098104369608
-0.013698000460863113 0.023546479321271258 0.010320541217967487
-0.03907846699487822 0.035040388214187534 0.008469000458717346
-0.04886745179476913 0.04373305685211285 0.008469000458717346
-0.061064961556257964 0.051617034254585144 0.008469000458717346
-0.04842369926108305 0.040677989700445095 0.008469000458717346
-0.06547108884697628 0.057112091250648034 0.008469000458717346
-0.045098037688387285 0.054162180101284915 0.009019895954242647
-0.05696236302763086 0.061101851863243545 0.008950682387010554
-0.032179756708412735 0.04586824509675413 0.009020646741653756
-0.08618387864506047 0.06544324945105089 0.009373895454557583
-0.07920478011139526 0.06563466638742703 0.008807245888784392
-0.08181849179807754 0.0629736318586748 0.009130338409894431
-0.07656260725835623 0.06336086520398442 0.008693191720643307
-0.0704658612299631 0.05410663343374375 0.008601620491175216
-0.07496151627604311 0.05845655630820339 0.008775084331546843
-0.06271829785706012 0.05929907390592265 0.008520445989545844
-0.01667778435932687 0.030557628913503873 0.008823863935196454
-0.025241473085981125 0.037044958356942936 0.008815033072355033
-0.03147135380031015 0.03432650156256056 0.008498368781297193
-0.06708367975785119 0.06333560557970688 0.00854637614139206
-0.018709980567189487 0.02485113238259217 0.008519531417471884
-0.051923034100017786 0.05064055863800225 0.008511528357520582
-0.019807827014320222 0.03206792769990376 0.008784730058159666
-0.04135069553327908 0.042735024792868184 0.008526744565983329
-0.019684915280756006 0.028178279338106637 0.008626499157040288
-0.052806922044071475 0.054605416976809 0.008648066481193576
-0.016257452165868755 0.025397189296100603 0.012957202772099606
-0.018390704159153087 0.01675992975095393 0.013049888432368224
-0.015056463147645307 0.01777490927982704 0.01290502212936268
-0.01813720500455471 0.02214021705904457 0.013038874385928583
-0.021653812771565965 0.030397469887867068 0.013191664170640976
-0.02085391115554649 0.02684328208365972 0.013156909997358072
-0.021473653305262075 0.015698181957825193 0.013054828088759022
-0.03379016611827607 0.02592256928753047 0.013357227743966643
-0.022151985445682622 0.01921185502205009 0.013139320094223748
-0.016809454786059098 0.012738826633594248 0.012961292023980855
-0.025880984788357916 0.02089131703432364 0.013198317517581742
-0.028658883701805013 0.02869759389862473 0.013392979275329137
-0.037172004666479214 0.028961657091998456 0.013445587003020348
-0.02558400920125104 0.02765697950848496 0.013352245535863
-0.023652843600985168 0.024272939917366836 0.013263885418972249
-0.029581537046892536 0.024181520256250283 0.013294192481522672
-0.07716196409307975 0.058615075411339874 0.013470999896526337
-0.04164407668195941 0.03496635444017914 0.013470999896526337
-0.053098349007427645 0.03956412869044862 0.013470999896526335
-0.040697930031861104 0.03166039211467229 0.013470999896526337
-0.04608919815914954 0.0417947949923651 0.013470999896526337
-0.04791242280489028 0.0389637099566706 0.013470999896526337
-0.0737112946706382 0.05458221213982646 0.013470999896526337
-0.08691495231164495 0.06496096643008079 0.013470999896526335
-0.035508087451696806 0.03606296392058167 0.013470999896526337
-0.04878280055316301 0.03525113860245489 0.013470999896526337
-0.06942744146164465 0.05283636803667202 0.013470999896526337
-0.058599226016496954 0.04337139625719385 0.013470999896526337
-0.06417472837552582 0.04859359819935691 0.013470999896526338
-0.050645533036669896 0.042216138396160285 0.013470999896526337
-0.06746017043764349 0.049677898960385325 0.013470999896526335
-0.036183776351804094 0.03250094878755601 0.013470999896526337
-0.03878795974188916 0.03636427491511962 0.013470999896526337
-0.054579511154849075 0.04456712693949552 0.013470999896526337
-0.03197856176708996 0.03160866906193205 0.013470999896526337
-0.07667944287333738 0.06747649014934654 0.013302972539618839
-0.04427049796656197 0.04788199365562054 0.013100562240852903
-0.06902468364668302 0.06478612207673533 0.01287488352192082
-0.06529027982104171 0.06151466802894964 0.01305048759082276
-0.018689700573748313 0.03227488636815459 0.01292441488600438
-0.03198895702974036 0.03839344942247281 0.013189519451508175
-0.02887743229043979 0.03684854730855218 0.013136822166752715
-0.05673068962280425 0.05315856152403223 0.013404499117730324
-0.05165261418454952 0.050048952128302904 0.013366888264591585
-0.04087439373133833 0.043793948608908166 0.01325866807100029
-0.07219341214964717 0.06368302368778031 0.013432182894777503
-0.04842547825688828 0.049525264622202206 0.013223507731392248
-0.0254200448320684 0.03294550272003089 0.013258118477097229
-0.05870393197190248 0.055755716150979046 0.01330487189290366
-0.03569099130007421 0.0414424847743403 0.01315260780026713
-0.07575621154919912 0.06403493361662514 0.013470999896526338
-0.056469514388556866 0.04959861043999135 0.013470999896526337
-0.06839817191767254 0.060437067705754396 0.013470999896526337
-0.08059037457621579 0.0631340571774659 0.013470999896526337
-0.04702424973481016 0.04548351266840851 0.013470999896526337
-0.07366329296925617 0.05797408450327327 0.013470999896526338
-0.03176644234455053 0.03470425132644855 0.013470999896526335
-0.07012680578266826 0.05716715541719994 0.013470999896526337
-0.0597261903720888 0.05046856410010077 0.013470999896526335
-0.08244922582004663 0.0661901347336631 0.013470999896526337
-0.06438763758746793 0.053003411385714155 0.013470999896526337
-0.05144390503863925 0.046007785481458625 0.013470999896526337
-0.06696430988442414 0.05712167184518991 0.013470999896526337
-0.04047579226284488 0.04064441362901112 0.013470999896526337
-0.017239209661206085 0.010808151063262918 0.009425158598200159
-0.032436289147046396 0.04209853964991252 0.012620309370325114
-0.049676189620289385 0.052906984648261636 0.012702106517845545
-0.019492465418437716 0.035287365008969465 0.011906437590314869
-0.02855592043144018 0.04070532396324289 0.012081704196665096
-0.03925084253656489 0.046944038108473744 0.012365833699869334
-0.02438249995217515 0.037406072731856 0.012403551997470529
-0.03927890917023617 0.02835954634601974 0.009003590022820376
-0.034062293584064325 0.024124038864419474 0.009080162037809635
-0.029948737956877178 0.02122124994022638 0.00899073791603459
-0.05101949971158962 0.03793401475648259 0.008816870927617888
-0.021628085369818445 0.014115421499226241 0.009232846465473241
-0.04199450714068617 0.05260667273242842 0.009411460004368672
-0.07380040565836826 0.06896113687238216 0.012247740902546345
-0.06242687141125569 0.06482218730529167 0.010357742057907186
-0.05051595042442189 0.05708238533350092 0.010431880344457495
-0.0705676328151896 0.06809397137365869 0.011535230021629383
-0.060729113592100106 0.06170227658072008 0.011659282241893613
-0.03578225977220832 0.04648491483772691 0.011368166521387495
-0.054239063882227705 0.05667209570944739 0.012239209464888438
-0.06588857011184308 0.06496854158516949 0.011646634115866542
-0.057963632783621655 0.059310579574755655 0.012058349398045834
-0.045849041257706 0.05185109926658138 0.01195962814242853
-0.036105815179801076 0.02362134962665463 0.012221848859562245
-0.04109691035656937 0.02736804248906622 0.012307680366681867
-0.02979482815866693 0.018709384867231928 0.011633471762191868
-0.020079862798276577 0.012221988080531616 0.012060238490194322
-0.07161598665757071 0.0504915576941025 0.012530995225707968
-0.06098675112739667 0.046604420788611704 0.008509527073392208
-0.04254852319593962 0.031747441218041086 0.00873805338650056
-0.021974907112236926 0.01878197282558792 0.008768026768171969
-0.025530885816704582 0.020034331945653336 0.008799002043216783
-0.018389287196644694 0.014129122208697349 0.008936506116636603
-0.024118830968173677 0.02372864900004062 0.008539767639072339
-0.03404945760893669 0.02787787403959914 0.00858787150771205
-0.017856842821791275 0.021098729817291613 0.008510231612418139
-0.029940806230814992 0.025547570299863362 0.008604118621104337
-0.03582056113543937 0.032553998144517864 0.008469000458717346
-0.031465700127134844 0.030219605398629446 0.008469000458717346
-0.05735795793641202 0.04510291903957089 0.008469000458717346
-0.08088444739473828 0.058990073308301194 0.009557299387658487
-0.04598589070127919 0.03284786797188156 0.009234200144491961
-0.06964370352452562 0.050642417548188524 0.009390804022490354
-0.07818584719466565 0.05647816658154142 0.009653536282631603
-0.07416595241671017 0.0525507767386462 0.01020420705767359
-0.05516249987421892 0.038173480566423994 0.009994676860680677
-0.05646531900297621 0.04032963127704096 0.013470999896526337
-0.07711342917130659 0.05557002193701949 0.013444068616697308
-0.08415005049585676 0.06120427921665407 0.013418916707785451
-0.04671192749878915 0.03241171373789389 0.01321334161126225
-0.06244009355049042 0.04422215605748048 0.013379416745133352
-0.03284593458217796 0.020890627595259448 0.011320031096635992
-0.09012837672083153 0.06461241868641986 0.012319293467271147
-0.06476115256350785 0.04522317728524993 0.01046521628019995
-0.05960274594232348 0.04106651625545645 0.010893615147081651
-0.04396936755281601 0.02935713311774999 0.0106020631648133
-0.038460691886265344 0.025163169465171824 0.010711183750428246
-0.026867017516139464 0.01647914505390155 0.010538027382902646
-0.051604745477915534 0.03509271538065814 0.010669671406450806
-0.08674106178129698 0.06205541828015018 0.010843698431439282
-0.09278332612279565 0.06671450986907586 0.01168874590716018
-0.08248727853519341 0.06911399960517883 0.011710587453451052
-0.07996040354228068 0.07534477552911212 -0.0034099998883903027
-0.08560000360012054 0.07442764172195337 0.0028494263201230864
-0.07804626815157575 0.07103350137296684 -0.0007151924879537407
-0.08286051514902046 0.06932682200729648 0.006660145058929759
-0.08336708525758038 0.07387284129098509 0.000344828814629296
-0.0835285402254232 0.0758702076836584 -0.0024910212478324754
-0.08523200693592786 0.07197867287539583 0.005052193191708411
-0.08116210725876474 0.07010056967657977 0.0038006297641539157
-0.07793226737914398 0.06911399960517883 0.005443639616014102
-0.07801182496071676 0.06911399960517883 0.0021670412946688516
-0.0737336788870919 0.06911399960517883 0.005295046739829961
-0.06746427855110307 0.06911399960517883 0.005161399443496629
-0.07648649805086813 0.06911399960517883 0.009838708444464491
-0.08530063504536174 0.07147688191713646 0.013313924864225508
-0.0842054661566086 0.08011526502557967 0.007197095312063925
-0.08012967559703696 0.07966317242747815 -0.003136062856311776
-0.0840856751405048 0.08157780000105018 -7.68890257186166e-05
-0.0824917634434149 0.08075208850197102 0.003113050760520551
-0.0702065805939312 0.07396691042570501 -0.002153628586353932
-0.07279143447069007 0.07581933651679193 -0.0009530757033723708
-0.06748736794646196 0.07234763526437259 0.0003196523995002388
-0.07496891537471398 0.07714393050929419 0.0010843483835955136
-0.07111581933559237 0.07463195968523759 0.0025537718324839483
-0.07731526014815454 0.07869472720894334 -0.001599043711104725
-0.07822552858279389 0.07342424378896198 0.011308454058125292
-0.08546859094525704 0.07628147508948367 0.011919657917776721
-0.07447723502491349 0.07278007798163666 0.01024157535782794
-0.08096483738048875 0.07640717314110758 0.010643235555832587
-0.07977023329167852 0.07858930065258612 0.0069511352079973275
-0.07443797117880938 0.07528686168404261 0.006877308259110437
-0.07715330935917512 0.0760928270420801 0.008620430988896833
-0.06963783810369525 0.07201849581526137 0.007216225587619099
-0.06805884312098917 0.07229872374664613 0.004177315903939409
-0.07709665521558338 0.07819799360316547 0.0037854885432462336
-0.07962276494019649 0.06918398034526632 0.013072092949684784
0.08264943397011512 0.018914006130615797 -0.007939241427253755
0.08750441358143075 0.015571275758221583 -0.005732792097006895
0.07859978515986543 0.003462000051513314 -0.00803300336698506
0.08523571548943742 0.0034620000515133142 -0.005219984777077236
0.08266059408595755 0.0062047802605072625 -0.004036999773234129
0.0849066989275735 0.014317411797498252 -0.004036999773234129
0.07629334213325022 0.013570937616423792 -0.004036999773234129
0.08770267388425064 0.011891923167942214 -0.004036999773234128
0.07210508867941644 0.02333584958637003 -0.004036999773234129
0.09083681068366513 0.008563285845534611 -0.004036999773234129
0.08113427131344418 0.016162416754632508 -0.004036999773234129
0.08724728759331582 0.00595549705991619 -0.004036999773234129
0.07961739456011938 0.009075928538615958 -0.004036999773234129
0.08145940868813546 0.0034620000515133147 -0.01040293318605088
0.06257999688386917 0.02090467583505549 -0.007971864046646553
0.06257999688386917 0.01555754549119952 -0.0077364288968183245
0.0626661521970046 0.018401866010678454 -0.005467879925953979
0.09708017834453919 0.007322871411918693 -0.006676788264194036
0.06458411957472189 0.025216452374625234 -0.004036999773234129
0.06818744976586612 0.01997283891591512 -0.004036999773234129
0.06732752592539776 0.023143046695771597 -0.00403699977323413
0.07484565102802962 0.0055758169999609005 -0.0052700684799472175
0.07317455175195589 0.011470054431915684 -0.004072310923206139
0.06477823102083798 0.01514384769995204 -0.005202666569228984
0.07871226496254984 0.004519691089562376 -0.0045743508603384294
0.0754033938369138 0.00906511738104937 -0.004166223892893049
0.06701582003864497 0.011249691664382592 -0.00570471627474178
0.07150770781167849 0.007237667531363496 -0.005663958205474351
0.0683878207902521 0.008231083051530644 -0.006186394746046556
0.07528018557402796 0.0034620000515133142 -0.01027340926849625
0.06257999688386917 0.03010379099699827 -0.008220436335097666
0.09465237235307426 0.010153624288442424 -0.010044652613433354
0.07392606125179871 0.006163644224290452 -0.01136563901041169
0.06616336554573425 0.010920846459788448 -0.011055270593774608
0.07096016397051072 0.008452120580312318 -0.011247056384226507
0.06505765603433399 0.021329231578683352 -0.01101106207094848
0.07108201998532848 0.012986772273966534 -0.0112519284363858
0.06719239393123624 0.014453938311210082 -0.011096413248694516
0.06663862309074817 0.01846562375249541 -0.011074272360342061
0.06343385049743537 0.027308986568459873 -0.010946139011679259
0.08872464221936296 0.0060761187313866215 -0.011866106975839175
0.08812308514447345 0.009725731361633972 -0.0118281281141016
0.08524395585658352 0.005205383731599015 -0.01175929881830646
0.07520492622943459 0.011523084100038512 -0.011405890398204062
0.0790814615131765 0.012370975178247933 -0.011525471550923056
0.08226390867423794 0.009620108026916404 -0.011641347374228762
0.07911543230365745 0.01698441536673238 -0.011502860324765496
0.07132907598202107 0.020309789244234648 -0.011236842274350674
0.07985486888568585 0.006869451273804911 -0.011578457115425475
0.07671228543169327 0.008029583706067243 -0.011472026707479871
0.06859439071001272 0.022389255709125745 -0.011138730515341793
0.07516783275949238 0.015843607593797847 -0.011382511771993117
0.06610645288293968 0.024841609254025048 -0.011046592135768328
0.06516985930048037 0.007898233605006005 -0.010991970182388955
0.09801385456305996 0.006394029133374308 -0.011545506934740222
0.09390808871685578 0.00709922082291507 -0.011864878139137985
0.09165009799486405 0.010218687853796461 -0.011509036469004657
0.08508565401949504 0.013054306228448774 -0.011683845484715825
0.08358057401331484 0.01622089902366009 -0.011229815677098423
0.06697108698896727 0.027891113486587252 -0.010380677709829346
0.07241883325635738 0.02478511294462701 -0.010199140439753219
0.06369940891507533 0.03198797674433171 -0.005586261601818436
0.06871636323535898 0.02873841691128466 -0.005568081448325576
0.07557414578128838 0.023292329174541025 -0.009453583515678998
0.07833570486117841 0.02186082267260133 -0.008122346848120535
0.09000413332908835 0.013382451054818535 -0.010442643930519463
0.08660267275258775 0.015812076961016653 -0.010018981493850799
0.06477195044033701 0.00666649155529035 -0.007693038596330555
0.07131462542997773 0.00391759744149988 -0.008218729140721064
0.09319728540480507 0.011326520428932504 -0.0041784507072404435
0.09259438999135335 0.011795106186145005 -0.007234338841546799
0.07238576576912699 0.026258071701343973 -0.005889409247873435
0.07827581267836273 0.02213320207377975 -0.0045305943418097495
0.08049753667451173 0.010381476442174672 0.009720000438392162
0.0801470452541652 0.015430107531890839 0.009720000438392162
0.08355375245002288 0.00792803733297811 0.009720000438392162
0.07778284848990552 0.012307536132032297 0.009720000438392164
0.06001475215108426 0.016237694559848227 0.009720000438392162
0.05003361889132581 0.01858967626705415 0.009720000438392162
0.03730752602001795 0.020086394515457965 0.009720000438392162
0.05435100619356317 0.0206903197991685 0.009720000438392162
0.06392700398666118 0.009957237176379015 0.009720000438392162
0.0599337517814997 0.012240305322122195 0.009720000438392162
0.06469341770938383 0.01502072431771132 0.009720000438392162
0.07417014599860519 0.014546464546811211 0.009720000438392162
0.05641524305639384 0.012225942553006075 0.009720000438392162
0.06357684291818771 0.018518580634428423 0.009720000438392162
0.05022301087614506 0.01504781375098623 0.009720000438392162
0.06965286823609922 0.020032026089521517 0.009720000438392162
0.07435296648454806 0.0071515749444815355 0.009720000438392162
0.07343731700521072 0.01898046489138779 0.00972000043839216
0.07118806229993985 0.012734327592769814 0.009720000438392162
0.06753802377862939 0.011640995807385219 0.009720000438392162
0.0461386144204048 0.021174048035921284 0.009720000438392162
0.04551407705040669 0.01655692834715494 0.009720000438392162
0.05389966982301269 0.0160580042975561 0.009720000438392162
0.06774345960745971 0.007718466545762083 0.009720000438392164
0.05872150443802229 0.023676003581480472 0.00979450062868091
0.04352362983386003 0.03458678153421443 0.010078074753855512
0.03449706698090495 0.026632392428345128 0.009857464599975035
0.03935093129036148 0.024998331698459164 0.009816773549561833
0.04824133752643633 0.03247641486153553 0.010024452648455208
0.07278449032976947 0.02307459271605436 0.00978799520430393
0.061677933388481605 0.025152579151428524 0.009836336323098847
0.03732030706638151 0.031141877096323455 0.00998094950993184
0.05565049724736393 0.026243129507517414 0.009861569251116517
0.044777638968295425 0.028481180998012515 0.009914385597266349
0.044153508343582774 0.02494852327848106 0.009818744912729138
0.040751678905323586 0.029858995832964697 0.009948741717060772
0.051246596723760536 0.029453180343898162 0.00994504589953975
0.03921760414620283 0.03887951721739616 0.010190798797172206
0.03874099992650647 0.042452916907224456 0.010286778029422242
0.059419565644262526 0.029131042845981146 0.00994200317972414
0.0425489382671514 0.021341395641217877 0.00972042065898943
0.06877454060987016 0.023850437558598916 0.009806138443236464
0.04806050259837088 0.025791926162504496 0.009844171611527095
0.06112585456383246 0.020886033797552293 0.00972096606240019
0.03489538879087981 0.023125198348652648 0.009763215686218447
0.051941357670226805 0.024063336474730312 0.009800261499733308
0.0627277983767311 0.028612200100684496 0.009930302321089938
0.05657968225056571 0.030681835800728308 0.009981839690983556
0.03923756966862904 0.03466348884292307 0.010077184748826675
0.04611328094917888 0.03742909006034724 0.01015646577363476
0.04072650694911266 0.01743281509557322 0.009836871481613529
0.06011854590716541 0.009125461961965784 0.00993458333300966
0.03881370433432134 0.04085456059884514 0.013237073429929753
0.03195599839091301 0.021469139600362192 0.010223122239021226
0.03879637273119334 0.035166522081054065 0.01379683144843739
0.03383998891499703 0.038152027447459214 0.013560741119113118
0.043256391028325666 0.03362259183844592 0.014009278108666038
0.034248007418824486 0.029759418890388314 0.013580176503157477
0.037148266325729005 0.02847448072955814 0.013718326232042319
0.03384047833350435 0.023741755175277737 0.013560764431871142
0.037089243929273014 0.03241469959529181 0.013715514783709512
0.040948571583154764 0.03777840077342948 0.0137775057406728
0.09936624582580508 0.0038537161209145627 0.01048648677983899
0.04455674603238367 0.030047752074850137 0.013988865300069117
0.04813313985716723 0.02061993697693725 0.013891274811882086
0.03619844891150221 0.01946874957426263 0.013562115667337702
0.07809244729613998 0.011434695717771486 0.014475099076948654
0.054861611077230685 0.027523535712198968 0.01420243202323396
0.0522090754305304 0.02266311544718717 0.014036820059178048
0.04203717043564735 0.023566184258746875 0.013794111876603872
0.05247181601601689 0.02999132516298449 0.014190700564108361
0.039783972679748064 0.019900241211164606 0.013662724125398132
0.07484978982501242 0.015878241634156232 0.014481168613630468
0.048048962808891836 0.029276092487751634 0.014062923012359022
0.07280285750249131 0.011300191161839751 0.014336755995244567
0.06888759206448901 0.0126228307766608 0.014262913049919192
0.06453006796681869 0.02228027505862327 0.014345083525206203
0.06359217580618637 0.013670545000847 0.014148158306093814
0.05593866004742796 0.024106225482154037 0.014161434973932808
0.04112409890458161 0.027869041511003168 0.01385709472440289
0.05173056117986426 0.026566714955177206 0.014102929687333236
0.06501998995998323 0.018791951846849 0.014287604753373456
0.08541367961392005 0.007682488962517392 0.014587498912440098
0.037663651920370744 0.023714027409124344 0.013684929109976214
0.0704334319787301 0.017564984241421566 0.014401786838284029
0.04412333012620708 0.01881021962678476 0.013752112908475039
0.06626477986892503 0.01521313560422313 0.014247666253849947
0.045030433499296064 0.026407598083046685 0.013927921614707656
0.06044756004902932 0.0231052914290239 0.014256960168922559
0.05607573581058162 0.018293400927985155 0.014048234455331068
0.08202109700784009 0.010203418542949694 0.014551119703411452
0.0482420780114112 0.024880918666814227 0.013979624509101422
0.05901901368627804 0.015840871245073135 0.014074465423042807
0.052115520281114096 0.01827343842780392 0.013946280761498057
0.08222639660484901 0.004557634603051065 0.014372023081249172
0.08981689961651992 0.0059212300435579485 0.014654526222294836
0.07004119302968154 0.007615861295317635 0.014124241404018327
0.07326140284742955 0.003941703672274833 0.014078527457179904
0.0471189367606781 0.01580372353263128 0.013751447961510722
0.05103950505817313 0.014981568348988488 0.013837683111491103
0.07391229198589633 0.008182110405690498 0.01426294249202942
0.0534243808353979 0.012234549524072515 0.013802819002562819
0.06696519520235444 0.00932445315513905 0.014097915371058714
0.06019743829577141 0.011528180987916595 0.013979542826067155
0.07630705718471237 0.0049195356557917985 0.01420834058346069
0.032724748186431535 0.03267033164522894 0.01001926644278376
0.03205833078755681 0.043390218960018545 0.01169820224836732
0.04666752340328707 0.03660805580772942 0.013769246079973197
0.04979853656195927 0.03368964210939812 0.013971304698327152
0.055706868729596515 0.0311169688718883 0.013978867140349679
0.05875468521109513 0.030102621080244325 0.013942934803581407
0.07921413359514512 0.0034662018500057627 0.011680806321463377
0.051274880409883 0.011739942666127696 0.010159293091328805
0.06773019833075673 0.027136442459761365 0.013361173429200532
0.082833602901178 0.01760379189144895 0.013693109617859009
0.06420110457366425 0.028576005530472237 0.013735431668514663
0.056262628607177886 0.03469782537575028 0.012670201762340561
0.0709035436562308 0.024790563616938016 0.013730601623345223
0.05279754341270525 0.03603849385114889 0.013075616971230282
0.08684210151842736 0.015352941693701027 0.009720000438392162
0.09607308884380157 0.008592869977436014 0.009883083662471079
0.0922459533569834 0.011817740053807828 0.010153026074411792
0.035656984872840504 0.04404650471362459 0.011045852085296596
0.04490565091559508 0.0402398240969376 0.01266335493885939
0.06927819978420484 0.027313333057957558 0.00992465943591713
0.05926113591169425 0.03329221769717923 0.0100877331351071
0.04881059795120937 0.038644128819686804 0.012506520097972599
0.03686494695104886 0.016440352869317217 0.011268480276493015
0.03351893533395287 0.01805327354546436 0.012614642673170098
0.05675007932479179 0.009475301717452098 0.01314634761913041
0.040444857936380585 0.015568907646384793 0.012976614160969617
0.06110723375194296 0.007852896843003755 0.01319920621187646
0.04432770055202009 0.014093992058110615 0.012987037284831127
0.06400694158725846 0.006775990772051237 0.011335770127642
0.047526719994122744 0.01264246040867795 0.010600918906562841
0.06986411712169327 0.004537139052859547 0.012382410026675804
0.09321351451707535 0.007155850513154752 0.014687746334964067
0.07891324831116242 0.015454901858742227 0.01450912708228086
0.05829439448512748 0.02695244088643294 0.014263542925584159
0.08899805222135498 0.009534754470328442 0.014636815834224107
0.09114577327150197 0.011909389028670453 0.01415448450703127
0.08519820214022206 0.015190556736605057 0.01425066604752719
0.07259688405237763 0.020233271385581748 0.014362901192817197
0.08658380734784345 0.01209303144381443 0.014573256294193197
0.06318150580357206 0.02544411817944618 0.01424711315687446
0.06769119463499246 0.022476431233451163 0.014347884503762077
0.07654697055405518 0.019096389212571827 0.014310716281056925
0.08891312629294919 0.014216767374835 0.012666272608298688
0.06569052367879837 0.029988171957590126 0.011118509720795944
0.0776772689806262 0.02210518914023423 0.011615828709289528
0.09419458688254038 0.010337070410459876 0.013997824118324079
0.07424860214759575 0.023518312751320804 0.01305050756647422
0.07988832422386519 0.019959746629521664 0.01300281621252982
0.06192886351606691 0.03200250526174255 0.011823291038369748
-0.09574130877987122 -0.07500416774491867 -0.011783836083224628
-0.09156674868103655 -0.07491330622739792 -0.007203777063635495
-0.08592128962055634 -0.07589306984355466 -0.007327556775395123
-0.09717130483278641 -0.07797066114763246 -0.009350687216722647
-0.0910141112049388 -0.08041659001430763 -0.009823376368439819
-0.09291987069343302 -0.0779893536424741 -0.011427156895797921
-0.08734554989398888 -0.08198040205926713 -0.008300575691394571
-0.09246026528565879 -0.07193568220573518 -0.009292319112811236
-0.09429611535931233 -0.0801572341297525 -0.008340272885048218
-0.08913660438290297 -0.07790400807043502 -0.011616892176381104
-0.0851253928504316 -0.07731186424484972 -0.011794205053223443
-0.09011703909065488 -0.07278721222514117 -0.012788999825716019
-0.09809875531169829 -0.07438803654652561 -0.007382949896721485
-0.09332984690234854 -0.07234868181439183 -0.012713010627838606
-0.09750482194338242 -0.08136611245592379 0.002213152127217931
-0.08941487430472034 -0.07985706463326896 0.003467000089585781
-0.09281192825294324 -0.07930331641177968 0.003467000089585781
-0.09725289437803916 -0.07477669159319622 -0.003292812153420804
-0.08997214923051769 -0.07728954455421919 -0.001857889724199946
-0.09255888262317419 -0.07619495455340823 -0.004125106764400073
-0.08738391914734717 -0.07840962665641255 0.0008091006272707597
-0.09300338168048647 -0.07629590435051341 -0.00021706103662978444
-0.0961200943150764 -0.08191940903487836 -0.002106507148141571
-0.09868695842154712 -0.07953885203515984 -0.003977262047747295
-0.09081561917162981 -0.0810690015721932 -0.006535000167787075
-0.08743176734714253 -0.07944660112799581 -0.006535000167787075
-0.09376510056141936 -0.08226207693435561 -0.00533132336193246
-0.09098736196976617 -0.08372366131771555 -0.003112029210952171
-0.08998352908057286 -0.08406999707221985 -3.640001723347508e-05
-0.08636603376085905 -0.08391033686835736 -0.0015798546488459753
-0.08535284650591667 -0.08405276673623141 0.0025349670775377253
-0.08735034955244858 -0.08361042919489545 -0.0052356965954777355
-0.10006462224487007 -0.07586496482817956 -0.004400555818848468
-0.09922644506868329 -0.07533074444009294 -0.0005317032977474761
-0.09944549809282979 -0.07981723375381762 0.0001044096963417176
-0.09301648742665161 -0.08344061672624112 0.0019823357499634945
-0.02542710085363855 -0.0240245803957445 -0.004913117025440212
-0.03070964047601754 -0.028169878529126058 -0.004290118827723186
-0.0337761851414409 -0.030799499212934477 -0.004188803984908085
-0.013698000460863113 -0.021272197285752588 -0.005287932774988015
-0.013698000460863112 -0.020829979341973816 -0.0016020524994960542
-0.013698000460863113 -0.02353733098433174 0.0004766710113025946
-0.02147453130048267 -0.03593104151386362 0.0036708993756275716
-0.021287798437708554 -0.03883876712155349 -0.0001768851124568779
-0.013698000460863113 -0.01744275684384469 -0.006000551780263338
-0.013698000460863113 -0.025189801891764875 -0.007922860692368697
-0.016113547386512446 -0.02294843486448017 -0.007816564525768604
-0.02159465906582647 -0.027627716311644495 -0.007736081573406179
-0.03956956576279878 -0.03458286806457157 -0.0015069167655625247
-0.030036600921996386 -0.0389690673120468 -0.0020479590457826596
-0.016061252845535078 -0.038436043400333395 -0.006204777937022734
-0.024934437720218423 -0.03905293918692193 -0.00022522022759995563
-0.023279181710449168 -0.03870596982971985 -0.00412226644461576
-0.01970180019739331 -0.03863423493463282 -0.00441013635547208
-0.035983890187551826 -0.038586858592078846 -0.004347482676775882
-0.015776358767812672 -0.02916671688087419 -0.008322022177093472
-0.024608546311725932 -0.03567000179897968 -0.008369533144541008
-0.02142865607508001 -0.036612085565465455 -0.008273576735484248
-0.0174491488259715 -0.020150283823352974 -0.002043196803781906
-0.017555191263616328 -0.023615009850557072 0.0004214715252805678
-0.021664908023918714 -0.024317398672871984 -6.859744431580902e-05
-0.0153882861514996 -0.025944347437540576 0.002620316790561516
-0.022176525117735525 -0.02148091551097995 -0.004915116395642447
-0.02803053956981609 -0.025606826941972465 -0.0035203472298185766
-0.01748870855458596 -0.01807856377136441 -0.005638993329159502
-0.020000944869045308 -0.0269354222257209 0.0020675251180439424
-0.03145008387995526 -0.039367407412989684 0.003995072926577716
-0.03778921787518358 -0.036852495547763015 0.0011871540823632349
-0.03134304247171585 -0.03590408169304242 0.0026508178093298325
-0.03230610590726598 -0.029877749785418004 -0.0003448478794323506
-0.022743052027655822 -0.02895039323441692 0.0022420603451382276
-0.033006709536437855 -0.03349705312035693 0.0011722210389156888
-0.029029216446360674 -0.03255407374252818 0.001980381897038538
-0.025455753645532056 -0.0307186809932773 0.002231575839979816
-0.03609988394451622 -0.03338448465976239 0.00013724880176445496
-0.02636217249690927 -0.027668985140810808 0.0004786251992451893
-0.026019717808654048 -0.03230616632214804 -0.007850739716490009
-0.03534746735058397 -0.03346203493091623 -0.004947265835858078
-0.03050682513520187 -0.030972180835508352 -0.005863530559250882
-0.041941655800463364 -0.036860801620603914 -0.0017725009513721306
0.015049905497938026 -0.0431352096303892 -0.007388000677135672
0.028552702256469657 -0.03130471347564125 -0.008093444822165227
0.027458558682336414 -0.03389996238395521 -0.006059427353371181
0.030598831147848914 -0.034502219092075084 -0.006265630595276747
0.02417489265482945 -0.033739390605991015 -0.00551561098731743
0.02640243080767018 -0.03977698546988252 -0.004662000108510256
0.02179106308875319 -0.037492543809123424 -0.004662000108510256
0.029110112872465947 -0.04168741577772802 -0.004662000108510256
0.014437000267207623 -0.034933874250799433 -0.007026074529175138
0.020858693618959603 -0.04115439570362274 -0.004662000108510256
0.0268023554719763 -0.045376643710711574 -0.004662000108510256
0.024303093174554976 -0.04230741952674839 -0.004662000108510256
0.031943999230861664 -0.03735950941885634 -0.010660112535631773
0.01443700026720762 -0.03548382865023728 -0.010557996037979201
0.016336818218811937 -0.03296650031963899 -0.012788999825716019
0.0219557131761088 -0.03172742378476566 -0.012788999825716019
0.03194399923086166 -0.041172893244241095 -0.008603583793049081
0.031082749936246164 -0.047374392416615396 -0.004662000108510256
0.024475927027990188 -0.04572952961008221 -0.008791790724607186
0.0185462235768273 -0.03151347903825796 -0.006614108560423151
0.018489457399572053 -0.030926000326871872 -0.010962568371676933
0.014910503880434793 -0.030926000326871872 -0.009415089092138427
0.029093287850634673 -0.04124241584443486 -0.012582432687116452
0.018366212285223244 -0.0387650596042809 -0.012724334446824852
0.029911708575082078 -0.033926110969292426 -0.012788999825716019
0.02246938738846052 -0.036740757213438835 -0.012788999825716019
0.02516924380374718 -0.0341999200099674 -0.01278899982571602
0.026631950692651573 -0.03786159894742855 -0.012788999825716019
0.02430254727514734 -0.04123835723273509 -0.012324509050632447
0.027499746817026993 -0.04412376805788753 -0.011404241733370105
0.021208245718254217 -0.043820921404536584 -0.010485834180369066
0.01641717347498307 -0.04194979716675333 -0.010867424901236265
0.031124067956067654 -0.04424877044868292 -0.011341855250588046
0.028304695888790407 -0.0467971921238843 -0.007767082125232223
0.020329797219317502 -0.04575996913611435 -0.007154458841448892
0.01716953588346095 -0.04544961208032727 -0.006259278186512193
0.02396499310745446 -0.022605720195420925 -0.012788999825716019
0.016167061282977284 -0.020761226676094775 -0.012788999825716019
0.018419135422924063 -0.02683735684557661 -0.012788999825716019
0.018412867937055752 -0.017969427725797637 -0.01278899982571602
0.029971077642368612 -0.02965959841820896 -0.012788999825716017
0.02529685061951077 -0.029613022216587237 -0.012788999825716019
0.019403435716934377 -0.0222014398065139 -0.012788999825716019
0.02423901245767983 -0.025816844651158598 -0.01278899982571602
0.02399875782045749 -0.030926000326871872 -0.008847167233503657
0.023218894144380078 -0.019479250616812088 -0.012788999825716019
0.03141331160669993 -0.025985737220639633 -0.012788999825716019
0.028172823916186182 -0.023499643855360044 -0.012788999825716019
0.031063208580570958 -0.02331847480555117 -0.009264107741177235
0.0294660668930887 -0.01954021915353779 -0.00935268075395702
0.020472402226028426 -0.021418393463479724 -0.009018097222685047
0.020001064474545943 -0.016416682463299272 -0.009341224439026033
0.016145336596549632 -0.016517087215724157 -0.009339269154172849
0.017302394509974513 -0.028420738910602508 -0.008570212145489094
0.02378054640568808 -0.01900434419742532 -0.009169908003791707
0.016896838908298076 -0.025179304036870426 -0.008779736997579857
0.016901926224631145 -0.021436255790993827 -0.009021130931754169
0.024030247889636508 -0.02270705388971047 -0.008930816927187921
0.020604788295867836 -0.025134752953360446 -0.008778263361487888
0.02751279677417456 -0.02225467260650981 -0.008955909667404631
0.03043308104415305 -0.026767132782111347 -0.00900257402138261
0.026631618305008563 -0.027976385486776955 -0.00886123633876541
0.023501383024693703 -0.015899220276668232 -0.01000442821028297
0.017112143047161073 -0.013319276958917632 -0.012489764039805134
0.026791901866444066 -0.01765691151955647 -0.01230155534100523
0.030208984709085937 -0.020468246713322716 -0.01272844614390428
0.0215751788497694 -0.032586600579190675 -0.0002022670608834364
0.01926537612000672 -0.031297656236036885 0.0024522304336767834
0.014437000267207623 -0.04273417632201574 -0.001015421210309601
0.017986618958636503 -0.03452676489173516 -0.00466099986806512
0.0289680993751575 -0.03767728464985361 -0.004660999868065119
0.014437000267207623 -0.0401188630961967 0.0018319998979924525
0.014437000267207623 -0.03698119211689324 0.00045215131806673487
0.020412321853369608 -0.04035775876319375 0.00784400012344122
0.023361756580077487 -0.037185957958608726 0.00784400012344122
0.031943999230861664 -0.04342163984106637 0.0003911626249757194
0.031943999230861664 -0.03748854554830397 0.006714372907905716
0.031943999230861664 -0.036869791697028906 0.001678678878994288
0.022580849719107038 -0.04546698980090798 -0.004660999868065119
0.01719794853055369 -0.0384356540142072 -0.004660999868065119
0.017194744566365557 -0.04677716365382545 0.0010383453920716434
0.02035007325096211 -0.04774874974546304 0.0005579494256821166
0.028217453938228266 -0.04834008492431918 0.0026830696968215134
0.018223705699529524 -0.04686176068455675 -0.003194805479964876
0.014437000267207623 -0.0339268636677004 0.004856605071086756
0.014437000267207619 -0.03749059470891258 0.004245770361544165
0.024013005113822254 -0.04085161305973324 0.00784400012344122
0.026177730603765534 -0.04713072722027859 0.006311653205417571
0.02418927948558392 -0.04800049902064645 0.0032705242656961564
0.031943999230861664 -0.04696560720922251 0.004266532974720912
0.029892870641450825 -0.04070340175191217 0.007844000123441221
0.02950275194405121 -0.03505760129738284 0.005124712640615478
0.02501567432123945 -0.03333462458394382 0.0021303925391240805
0.022405323749258174 -0.03213583871827822 0.0037343376752695685
0.02864361349521552 -0.04838284040653723 -0.001267065090550923
0.02424487228599754 -0.048208691025281164 -0.00324670417979162
0.031943999230861664 -0.04708087697341221 -0.0005797965039733739
0.019101322071862638 -0.04630702038801325 0.005335732387773004
0.022314097209176043 -0.04655633055628919 0.0063900255016277035
0.014880510780671943 -0.030337864432929743 0.0005355366647070939
0.020955238048911095 -0.03321474856269878 -0.0032669929240743134
0.01764459918683507 -0.03168924847823665 -0.0016190387557636432
0.02530272026354461 -0.03423857576070562 -0.0020475798945667183
0.023739564431895992 -0.0451046069330949 0.008963672362225712
0.014437000267207623 -0.038037294549971255 0.008539436659562763
0.02254804811784225 -0.02661293528705581 0.01222100015729666
0.017999375694875273 -0.026471512533903063 0.012221000157296658
0.01652186036709602 -0.03340049569662401 0.012221000157296658
0.024550707689252892 -0.031247675054490474 0.012221000157296658
0.026381685120297843 -0.04046554382638717 0.012221000157296658
0.026660380590644683 -0.03622211939753864 0.012221000157296658
0.01949864437857688 -0.022453461328759264 0.012221000157296658
0.01872461241070844 -0.03069564817596223 0.012221000157296658
0.01997205486455471 -0.03816080982465256 0.012221000157296658
0.01571692233618691 -0.02420877498793097 0.012221000157296656
0.015625497840312436 -0.01718126007718198 0.012221000157296658
0.023373767798162755 -0.03753160825234264 0.012221000157296658
0.019833366082842342 -0.04387300776594543 0.00784400012344122
0.014437000267207623 -0.030824834489008475 0.008765249305324027
0.027492055581478478 -0.021839187716877456 0.012221000157296658
0.03080929534140691 -0.038570311295192984 0.01222100015729666
0.030568859148314177 -0.03531585077168117 0.012221000157296658
0.02950467183000128 -0.029025068022812343 0.012221000157296658
0.031855994905450366 -0.025365557566365767 0.012221000157296658
0.03171330373242088 -0.031911805508063974 0.012221000157296658
0.027527193880084535 -0.025333362045081277 0.012221000157296658
0.021064813944117765 -0.01791734154296899 0.012221000157296658
0.02380076540165029 -0.022481528278738318 0.012221000157296658
0.027493753489526304 -0.04336508705479293 0.00784400012344122
0.0191506181529442 -0.03693832728429848 0.00784400012344122
0.018040876286061297 -0.03329617858017701 0.00784400012344122
0.014437000267207623 -0.024617936151396097 0.008493062415693059
0.02179209618613806 -0.024591083428733437 0.00814266225916268
0.01541510198399363 -0.015348975394977663 0.008820500086092956
0.018374393064067053 -0.018154176886551854 0.008612011486612593
0.02613039782033017 -0.017592468991006575 0.00863134398428828
0.017520074221034923 -0.02345838020079883 0.008235108815614033
0.015257378655987183 -0.019063602800715777 0.008555365600919785
0.02455623800697381 -0.021063988993857294 0.008387392149058905
0.029190716060499812 -0.04299844536834256 0.011887392611097771
0.014892015935905124 -0.03925383632710552 0.012177080679763282
0.02178199198628513 -0.04265864271996578 0.011163742645179761
0.017586229614317522 -0.04180495750163084 0.010483759923614262
0.0227345033395749 -0.015569742971012011 0.009039723743023153
0.01795041085165247 -0.013163181003796504 0.009294407137813744
0.02790034779687388 -0.03460662241224121 0.00784400012344122
0.02216900811580845 -0.032617912433936164 0.00784400012344122
0.027035865236509138 -0.03816795497773094 0.00784400012344122
0.029054593661768324 -0.025184005797655173 0.008218706821050591
0.02974335480316251 -0.02832662314387202 0.008099210283225432
0.02358376843248837 -0.028905478665179424 0.007984554421137501
0.019539367686413393 -0.028277524963349225 0.007950856889301196
0.03062024243609341 -0.03207145147626223 0.007957642324360166
0.025480151191198206 -0.024348950057285372 0.008200479074964219
0.02826601353845585 -0.021416128703109976 0.008362527055874246
0.02519022317876754 -0.016663153088228067 0.011989244053998725
0.02034691190282425 -0.014042022448373721 0.0120836267495462
0.02880014661617121 -0.018309427304720356 0.011828300789424526
0.030709226778178667 -0.04610748758442019 0.008033860765727697
0.0780434069655552 -0.022118340697039808 -0.012533159210292027
0.06546453798678759 -0.03143654274582748 -0.010105977092182566
0.07486028494400489 -0.010225640854811523 -0.009037000127136707
0.07072870994530032 -0.011823852884248314 -0.009037000127136707
0.05688901944936467 -0.015110857645952762 -0.009037000127136707
0.08081530022674757 -0.008275826810494543 -0.009037000127136707
0.04970064280828837 -0.024745596991787053 -0.009037000127136707
0.04001601805428144 -0.02275786118323388 -0.009037000127136707
0.07837880900290606 -0.014540090666951175 -0.009037000127136707
0.03800765103877646 -0.02757551316290463 -0.009037000127136707
0.0810764122494713 -0.012458302585771366 -0.009037000127136707
0.03420897099623419 -0.025260342997420637 -0.009037000127136707
0.05614001636525172 -0.019263500283447352 -0.009037000127136707
0.04190792139576278 -0.03395170297761036 -0.009037000127136707
0.07608510722361825 -0.017917760803387014 -0.009037000127136707
0.06587867676291373 -0.020559410750966924 -0.009037000127136707
0.06891273989341366 -0.02266312071414624 -0.009037000127136707
0.038548207031452425 -0.03129799491957901 -0.009037000127136707
0.05371235990532602 -0.02417030024246395 -0.009037000127136707
0.05212111818041588 -0.02725611853505559 -0.009037000127136707
0.08387190010221612 -0.010279571630349803 -0.009037000127136707
0.05169039309285132 -0.03091926606915523 -0.009037000127136707
0.03505817341856053 -0.029503851186314614 -0.009037000127136707
0.0590578117962096 -0.026614546347160387 -0.009037000127136707
0.045173837180268996 -0.025828672494119388 -0.009037000127136707
0.04516803309495704 -0.01944603976864656 -0.009037000127136707
