0.00766155462526 -0.0185407684849 -0.0981290034979
-0.00311414139175 -0.0209228898022 -0.0981829372724
-0.00039793112592 -0.0197979903906 -0.0981963047529
-0.00323769501145 -0.0142537646791 -0.0984528710256
0.00420839985511 -0.00744761401436 -0.0985344784291
0.00453003815833 -0.0111131188294 -0.0984163558513
0.00834062244619 -0.00516603163281 -0.098533820308
0.0245094689217 0.00561506531368 -0.0985881921642
0.0140396411197 -0.0139984384288 -0.098164879401
-0.00175445690738 -0.0173747234753 -0.0983315887083
-0.00310927493961 -0.0080445732279 -0.0986414369906
-0.00746407440099 -0.0159001042167 -0.0984746579269
0.0157437726898 -0.00305636075358 -0.0984718731817
0.00173566167784 -0.00577785891754 -0.0986281184333
0.0244250870996 0.00246961886559 -0.0984929995228
0.00653494736621 -0.0129405952329 -0.0983258807104
0.0183767881853 -0.00369129449406 -0.0984072815818
0.0147108168904 -0.00799990327016 -0.0983376798908
0.000705452823564 -0.0112879873764 -0.0984764708976
-0.0144249543801 -0.0168891073885 -0.0985634624103
0.0183683928861 -0.0172327740147 -0.0979913907091
0.0234366106566 -0.0110978779858 -0.0980930910329
0.00570630679524 -0.00477061775806 -0.0985910754059
-0.00289330223688 -0.0108874234676 -0.0985503981027
0.00649658426065 -0.00904815372766 -0.0984461250014
-0.0176396062941 -0.0166156218929 -0.0986269084744
0.0179868965367 -0.01248514884 -0.0981437841867
0.0209288889664 -0.0128589931442 -0.098081923489
0.00954071960635 -0.0163153776966 -0.0981707301578
0.022120291466 -0.000364637993904 -0.0984453872082
0.0132363054798 -0.00418740378389 -0.0984800589746
0.0111062725527 -0.00821700114722 -0.0983927298128
0.0186357326062 0.00396544795507 -0.0986380856896
0.001431804904 -0.00864067147554 -0.0985453671687
0.0164504116481 0.00212323455251 -0.0986189061693
0.0140036365415 -0.0112226235445 -0.0982507772085
0.0212040174496 -0.00495571195296 -0.0983200248858
0.0169971574263 -0.0100482887152 -0.0982355988791
0.0137636388974 -0.0178399201987 -0.0980515835531
0.00137139113945 -0.0159689856551 -0.0983212539599
0.0104531097836 -0.0117609521162 -0.0982950330348
0.0200526992378 -0.00863494551907 -0.0982267016287
0.0161911911233 -0.0157605944427 -0.0980739001993
0.00425850410569 -0.0158927341988 -0.0982741612347
0.0219840615314 0.0048107966763 -0.0986067246264
0.0235035635264 -0.00315022224461 -0.0983361202933
-0.0112020140354 -0.0164994445362 -0.0985202483196
0.0128797731461 -0.000899228943831 -0.0985871863334
0.0266604536952 0.00732117178753 -0.0986037780048
0.0178604518406 -0.00683103435368 -0.0983196605256
-0.00704380268079 -0.0127930577943 -0.0985629194365
0.0269547734536 0.00439088506044 -0.098508711288
-0.0120374647506 -0.0130903373153 -0.0986392914954
0.00926665238307 -0.00215345432652 -0.0986105194586
0.0180364683041 -0.000468976404932 -0.0985121080226
0.0244534581359 -0.00547649157222 -0.0982483855285
-0.0118337461469 -0.0195626161339 -0.098359315671
-0.00868997585342 -0.0264114619574 -0.0957069778465
-0.00546144856959 -0.0226496560047 -0.0975902125253
-0.0134697378846 -0.0217154198332 -0.0972997902673
-0.0102175816763 -0.0234370184129 -0.096844920579
-0.00770960814662 -0.024164064794 -0.0967504553469
-0.00918194195441 -0.0210350653252 -0.0979591137204
-0.00339412448954 -0.0246524603773 -0.0969133770612
-0.0178190679524 -0.0219707500414 -0.0966345422796
-0.0141945536621 -0.0239111805964 -0.0962097124361
-0.0176208982977 -0.0196979922224 -0.0977811019829
-0.0212887263004 -0.0203255135623 -0.0969368289736
0.0379056148677 -0.00527254778139 -0.0781833982636
0.0377066679711 0.00178667695342 -0.077779283997
0.0367276380705 0.00476203114972 -0.076720501807
0.0359278075209 0.007541425259 -0.0782508172098
0.0374898114268 0.00592912314281 -0.0824121894426
0.0369706769941 0.00775743565443 -0.0880018302457
0.0349441893819 0.0112336007762 -0.0835868514725
0.0360159194437 0.00933434476197 -0.0854857024172
0.0381392842838 0.00507147110606 -0.0856648232357
0.0346129144391 0.0113856466881 -0.0798824128807
0.0384975380897 0.00371274596142 -0.0811122170346
0.0359047378865 0.00905971315635 -0.0819086340775
0.038540504787 -0.00541288410354 -0.0827016389897
0.0387293658406 -0.00303235861853 -0.0835338979892
0.0389570304945 -0.000606206675482 -0.0853693308579
0.0388519486088 -0.00407115893946 -0.088922732185
0.0387497629618 -0.00426681152147 -0.0864226408035
0.038721310075 -0.00168579570493 -0.0807810698381
0.0386393019948 0.000536299632135 -0.0886894137223
0.038709309277 0.00216422334622 -0.084752947537
0.0388492839095 -0.00256907567997 -0.0918719496971
0.037899259039 0.00487796881891 -0.0898628703318
0.0382873445751 0.00332143151077 -0.087895920456
-0.0273947780237 -8.63032490719e-05 -0.0985977005483
-0.0288662641561 0.00219683291212 -0.0983901507651
-0.0283218446728 0.0123224126141 -0.098277127954
-0.0305830513182 0.00696905377867 -0.0981115201631
-0.0277761211645 0.00560341284151 -0.0984557050234
-0.0298037865509 -0.00223433741558 -0.0983597538613
-0.0355010838189 0.0062644291355 -0.0955605980767
-0.0359850270461 0.0102924275788 -0.0924500369503
-0.0350393142509 0.00891197146088 -0.094572660797
-0.037126993952 0.00563607733768 -0.0937406942904
0.0181894098467 0.0221885373807 -0.0946055344878
0.022423155384 0.0200311030541 -0.0946846854764
0.0216163424968 0.0151476819407 -0.0982815215244
0.0252991207305 0.0145784424159 -0.0975997985511
0.027309790244 0.0123563861583 -0.0979688000859
0.0177690826718 0.0180058729775 -0.0981158865678
0.0220128701216 0.0180925749369 -0.0969343963504
0.0151568409956 0.0235343010393 -0.0948377039176
0.0188977309499 0.0198947934621 -0.0965057581511
0.0146085392288 0.0205666560203 -0.097330243062
0.0353876107528 -0.0134346985225 -0.0800460159793
0.0372155583139 -0.0110447812633 -0.080578422165
0.0355111119713 -0.0117368491631 -0.077486100105
0.0344055318874 -0.0154539066109 -0.0812151214129
0.032273573573 -0.0175087055398 -0.0801214091656
0.030389589203 -0.0191141295732 -0.0787211300632
0.0322247285957 -0.0163713708834 -0.0776541778884
0.0382820271031 -0.00792428818756 -0.0806338186168
0.0369269979475 -0.0115438703067 -0.0832667447469
0.0369708985153 -0.0109403048353 -0.0859639717673
0.0382545739551 -0.00724601542074 -0.0849877534528
0.0349995616502 -0.0151379585206 -0.0870490969855
0.0370517225779 -0.00922645799141 -0.0898673970815
0.03750746865 -0.00695601301473 -0.0926437194424
0.0353200146017 -0.0129824790949 -0.0902566289286
0.0333939774471 -0.00246761041064 -0.0974225032615
0.0320608636945 0.00145573902949 -0.0977462313786
0.0353819376542 0.00110119953237 -0.0965646555229
0.034227713613 -0.00541813516126 -0.0972398273374
0.0340010054472 0.00515328223332 -0.0969004734038
0.036867364766 0.00565320151419 -0.0934550733692
0.0379756193557 0.00243699596667 -0.0921452251327
0.036751343511 0.00338505765222 -0.0946662115809
0.0361082327269 -0.00361348120779 -0.095773720814
0.0377536499592 -0.00458019603599 -0.0937668688805
0.0298465678029 0.0111517913446 -0.0972000487385
0.0318427138598 0.00855585450996 -0.0971390054175
0.0283407205054 0.0144641447142 -0.0965987273617
-0.0254244435808 -0.0164446460544 -0.07557400316
-0.0303996998845 -0.00949354226789 -0.07557400316
-0.0370920654664 -0.00184613869245 -0.0766801351975
-0.0337606416635 -0.0119469800021 -0.0778181542964
-0.0331755809139 -0.00854604757774 -0.0761559609865
-0.0352890812694 -0.00474873567804 -0.0763734257149
-0.0352211294501 -0.00759295875824 -0.077345935222
-0.0262804107126 -0.0190582622534 -0.0755802490892
-0.0332853277709 -0.0142257214669 -0.0789302276355
-0.0299916837552 -0.0165281544016 -0.076881821118
-0.0290786118893 -0.0189577467619 -0.078821565191
-0.0261206628176 -0.0179294931532 -0.0970821603114
-0.0288096978208 -0.0154531013808 -0.0964464343209
-0.0307163840651 -0.013425033136 -0.0961799720417
-0.0336852124585 -0.00984946624704 -0.0960784606477
-0.0310812272078 -0.0159129016436 -0.0939714635755
-0.035289538735 -0.00651147246467 -0.0967369545571
-0.0375149880017 -0.00602682714045 -0.093943622667
-0.0358053901645 -0.00970943058135 -0.0932909809314
-0.0334878449213 -0.0122049372795 -0.0944281213422
-0.0333552662211 -0.0144556575564 -0.0925618300326
-0.0373128154952 0.00128823588535 -0.0952224735282
-0.0368055919266 -0.00184417486825 -0.0956799299059
-0.035170490145 0.00232895743808 -0.096522896721
-0.0349603090831 -0.00352024599818 -0.0969139159619
-0.0324432888561 -0.00134207334621 -0.0977686716926
-0.0304076866745 -0.00894248259995 -0.098206630122
-0.0302298417174 -0.00578324018609 -0.098288523627
-0.032241489826 0.00204885313729 -0.0978593834758
-0.0205096754529 0.0196796486469 -0.0969300122114
-0.0227075171316 0.0163842702449 -0.0984361679881
-0.0161510034192 0.0192694782607 -0.0981293229793
-0.01786949919 0.0214830965946 -0.0964197171414
-0.0152252298653 0.0219103165356 -0.0967398175247
-0.0246959144704 0.0210730282268 -0.093302315571
-0.0221205538869 0.0216140753667 -0.095166787494
-0.0189172779608 0.0232424185217 -0.0931784865204
-0.0128113949556 0.023660752683 -0.0956884710485
-0.0166281616147 0.0235908641626 -0.0947083690183
-0.0103133602108 0.0230859497148 -0.0969639819052
-0.0250707635253 0.018308510428 -0.0964104221013
-0.0271028716495 0.0150121461265 -0.0973108085235
-0.0320504708396 0.0131565091905 -0.0940486466356
-0.0303798481699 0.0153089403157 -0.0937281543131
-0.0295477679754 0.0138660600346 -0.0962358662721
-0.0279519289848 0.0172157960441 -0.0945576684206
-0.0334170060051 0.0111139701964 -0.0946097800213
-0.0324688612547 0.00949803568144 -0.0974373671493
-0.0115639844259 -0.0270012565566 -0.0929162575769
-0.00114161496704 -0.0276180002838 -0.0913420255247
0.00953584065949 -0.0276180002838 -0.0913515328867
-0.00391199016391 -0.0276180002838 -0.0925428746504
0.00924775029828 -0.0276180002838 -0.0822905269727
0.0109027755363 -0.0276180002838 -0.0874426422396
0.00727856406344 -0.0276180002838 -0.08433284522
0.0124326801979 -0.0276180002838 -0.0819536999972
0.00178396628174 -0.0276180002838 -0.0911352002107
0.00648268576619 -0.0276180002838 -0.0896505970083
0.00515250668984 -0.0276180002838 -0.0870946491051
0.0118785339671 -0.0276180002838 -0.0901228103215
0.0140130721918 -0.0276180002838 -0.0873256886848
0.0109836562463 -0.0276180002838 -0.0842350705042
0.0333917765309 0.0133981003092 -0.0862983372254
0.0308565887984 0.0153413504559 -0.0916164373879
0.0292398144844 0.0170234513174 -0.0870158962482
0.0322508499768 0.0145471905202 -0.0837364903915
0.028778414558 0.0171889665663 -0.0913795530721
0.0313426552829 0.0151962112906 -0.086492055518
0.0350746778326 0.0109304616995 -0.0875600077266
0.0334637472438 0.0130294052599 -0.0913900584356
0.0355467332117 0.010105416575 -0.0902274884012
0.0258541692247 0.0194510470893 -0.0923534298181
0.026556623975 0.0179394394674 -0.0947271607116
0.035920700896 0.00823601484586 -0.0933717182576
0.0338591531062 0.0107231390338 -0.0946966321346
0.0315712837582 0.012634985399 -0.0953107494775
0.0345054416682 0.00772226054821 -0.0957723008403
-0.0155715290895 -0.025930226338 -0.077768183124
-0.0199516578721 -0.0243725906316 -0.0782760699022
-0.0266184247837 -0.0214461040269 -0.0787564057375
-0.0227342482168 -0.0227320994831 -0.0774904467368
-0.0182857686754 -0.0259316472084 -0.087381107364
-0.0174730525696 -0.0260552349233 -0.0800389315255
-0.0245009671212 -0.0225634225743 -0.0801154362856
-0.0198359488829 -0.0249215218477 -0.0811190681052
-0.0184040684122 -0.0257208371647 -0.0834035592696
-0.0224792607122 -0.0236228240301 -0.0815306974693
3.17270087671e-05 -0.0272018100732 -0.0783591716296
-0.00966548312245 -0.0269333669917 -0.0783655197537
-0.0125224052889 -0.0268598352838 -0.0784787825986
0.00476579622072 -0.0273007394955 -0.0777119577433
-0.0139882420243 -0.0270398511211 -0.0898100233062
-0.0164607235715 -0.0268339275518 -0.0891032133169
-0.0142837744546 -0.0269968468985 -0.0867888207239
-0.0136228229649 -0.0270311000788 -0.0836570812998
-0.00908264390649 -0.0274521210468 -0.0918034473289
-0.0102662912847 -0.0273382733944 -0.089027266169
-0.00738383270582 -0.0270627589647 -0.0797676824645
-0.00910831851566 -0.0272518436953 -0.0855037279452
-0.00464505187583 -0.0274262910316 -0.0867592830452
-0.00501114651317 -0.0271742992598 -0.0808912254536
-0.00594003828242 -0.0275278098969 -0.0900850387144
-0.00925368292011 -0.0271113208944 -0.0821922206776
0.00390205741669 -0.0274811823578 -0.082392218883
0.0013647868869 -0.0274766624021 -0.0839742175852
-0.0116585146815 -0.027197496624 -0.0858857723691
-0.00468016295384 -0.0273125962814 -0.0840249910324
-0.00763458959593 -0.0273903702638 -0.0878811779023
-0.000459240819242 -0.0273277989193 -0.0815795914076
-0.0144367683497 -0.0268935042171 -0.080364641559
0.00629111932518 -0.0275015410793 -0.0812932069378
-0.0016499462888 -0.0275349954331 -0.0873990653757
-0.027520887827 -0.0187036174637 -0.0949745512647
-0.0209843993573 -0.0246622734761 -0.0907641977062
-0.0213995383772 -0.0243507431474 -0.0871614714775
-0.0225248964968 -0.0237021729879 -0.0844197957071
-0.0233366565707 -0.0234732423185 -0.0910076901784
-0.0251984673926 -0.0224047047972 -0.0866319927265
-0.0284701814839 -0.0199592158266 -0.0875516610836
-0.0308496849163 -0.018044489918 -0.0907026809274
-0.0275146855304 -0.0206407146667 -0.090694548622
-0.0255512763025 -0.0221504480199 -0.0916352417908
-0.0270451001635 -0.0211462454857 -0.0836309351832
-0.0115298089377 -0.025957895036 -0.0954808136595
-0.0232763309418 -0.0220620227041 -0.0940600067176
-0.0243874082422 -0.020127664875 -0.095976848033
-0.0201735859542 -0.0232550455882 -0.09422051613
-0.0181011907678 -0.0248657980383 -0.0930073207455
-0.0140438516911 -0.0261107712455 -0.0934797841687
-0.0230501723938 0.0224368806596 -0.0857102409195
-0.0215229857436 0.0225234665701 -0.091665460001
-0.0260499355656 0.0210280931189 -0.0907069085086
-0.0164660636203 0.0244008163436 -0.089947668119
-0.013882962706 0.0250650135347 -0.0930427324767
-0.0248360486175 0.021613346126 -0.0884804824832
-0.0205674994257 0.0231706051166 -0.0873999317427
-0.0186801853138 0.023975243754 -0.0848699315555
-0.0135343701676 0.0256758461747 -0.0842961983424
-0.0205207964389 0.0236048645753 -0.0806676914611
-0.0167491426044 0.0248632799424 -0.0800258004251
-0.0161290845776 0.0248799881698 -0.0834433883795
-0.0134777752978 0.0254468665085 -0.0888783896646
-0.0157750058003 0.024856391412 -0.0860088735961
-0.0220225919226 0.0229889691831 -0.0830503999736
-0.0144284914078 0.0255572702451 -0.0811184068028
-0.0218748292902 0.0221924605511 -0.0786922433218
-0.0273024747448 0.0200905573797 -0.0822644150058
-0.024529341627 0.0220264737674 -0.0815524678723
-0.0264459337181 0.0207220487196 -0.0866287841212
-0.0276403546238 0.0193725485557 -0.0795351219522
-0.0253729125694 0.020471490024 -0.0784800358329
-0.0258395949911 0.0191857966587 -0.075926746249
0.0166409017686 -0.0232351988874 -0.0966591086938
0.00976555338305 -0.0248687234525 -0.0969782544721
0.0120062239738 -0.0235515027978 -0.0973249889203
0.00261649881388 -0.0258044827004 -0.0964763677996
0.0053521078015 -0.0255244679051 -0.0967566176834
0.016594369465 -0.0267462439701 -0.092319442555
0.0121660336883 -0.0268443179889 -0.0952472623266
0.0210499631029 -0.0247758408813 -0.0934134930038
0.0227823223885 -0.0209286116331 -0.0965143268058
0.0154201862263 -0.0258807554387 -0.0950051333125
0.0189254773256 -0.02351690316 -0.0957287117019
-0.00539626695461 -0.0269768693061 -0.0949913564027
0.000305052796582 -0.027046391437 -0.0947836612619
0.00651789182841 -0.0274199095535 -0.0930284889096
0.00287994647314 -0.0272742393475 -0.0939737896516
0.00956569675398 -0.0270795521529 -0.0944100362721
-2.62264503887e-05 0.0252121655475 -0.0844044103517
0.00179435994882 0.025117678249 -0.0807540209007
-0.00678627725617 0.0254404314658 -0.082826677947
0.008457369326 0.0249418026048 -0.0883721596027
0.00824184855674 0.0249103181245 -0.0835367006706
0.00562212634332 0.0250226075615 -0.0858670382193
-0.00494363581193 0.0253569663975 -0.080634066008
0.00617008631248 0.0249373833707 -0.0777581911929
0.00291982627657 0.0251198496756 -0.0859762849882
0.00295237589504 0.0250537462329 -0.0779591022839
-0.0115605865219 0.0255803516386 -0.0790837282705
-0.00416155835971 0.0253538009992 -0.0836859326167
0.00800275035879 0.0249779219515 -0.0908298973736
-0.00193653701287 0.0252300352358 -0.0782014059924
0.00290685894385 0.025001193301 -0.0937757519068
-0.00406568397345 0.0253685965254 -0.0863250943263
-0.00704050079233 0.0254670821821 -0.0856557337875
-0.0114675169464 0.0255966296175 -0.0816858876142
-0.00446179618655 0.0253971406915 -0.0889326687693
-0.0116771104226 0.0256601995205 -0.0915359481217
-0.00660736574053 0.0254900241356 -0.0922687663557
0.010274736113 0.0249133849211 -0.0929683261238
-0.00898488822297 0.0255521356979 -0.0888327093327
-0.0105920678567 0.0255899096825 -0.0857737203952
-0.00212102537153 0.0253290968985 -0.0911110573211
0.000817267744609 0.025232650274 -0.0919172319853
0.00402072382197 0.0251106686976 -0.0898546175154
0.00044813694508 0.0252270364394 -0.0887173041996
0.00820685435805 0.0248703563431 -0.0794191270214
0.0161054868912 0.0242386090199 -0.0811001573213
0.0136260735125 0.0244152458029 -0.0794374306137
0.0107621053416 0.0247074924846 -0.0821370469641
0.0110620593821 0.0248362755772 -0.0902024881881
0.01003545389 0.0246689796599 -0.076921266591
0.014598979047 0.0244165677752 -0.0837893122775
0.0100063527947 0.0248386165789 -0.0856779735823
0.0144137175669 0.0244583354696 -0.0865277580136
0.0134846530866 0.0243993431407 -0.0921805113645
0.014935640586 0.0242071410719 -0.0893379202247
-0.00894513138306 0.0253237312553 -0.0777682489708
-0.00616070142174 0.0250984922284 -0.0766443118888
-0.0193205671714 0.0227797384429 -0.077706305671
-0.0133262388032 0.024501545056 -0.0770988670553
0.0151592152411 -0.0275718440417 -0.0900160802735
0.0153038744246 -0.0273644974687 -0.083146398946
0.0200447712434 -0.0257461760308 -0.087400552098
0.0184182253725 -0.0262842427059 -0.0851806285551
0.0174723724704 -0.026721933062 -0.0894195587854
0.019568524175 -0.025631501454 -0.0826221023595
0.0217311887244 -0.0244166529424 -0.0797930026316
0.0237932030187 -0.0242435847935 -0.0881321026328
0.0267094354625 -0.0221836084546 -0.0795920417283
0.0230694369751 -0.0243076159165 -0.0852418725566
0.0158939991544 -0.0270844053401 -0.0805822345958
0.0243294779899 -0.0232264040383 -0.0794107668247
0.0243032041873 -0.0235073270821 -0.0824266690723
0.0235844039294 -0.0237982163408 -0.0936745743829
0.0204051691537 -0.0256741248333 -0.0910948071625
0.0228740415351 -0.0247654768047 -0.0909146422865
0.0263720725916 -0.0216503747164 -0.0934947450038
0.0296683986298 -0.0201398562626 -0.0822781882013
0.0280288521492 -0.0214009043078 -0.0840097055412
0.0323422914642 -0.0176841540632 -0.0851733474991
0.0258035302841 -0.0231046405985 -0.0864724583385
0.0328716633973 -0.0168074776602 -0.0886855107823
0.0283038546613 -0.0204596497758 -0.0914790509499
0.0301679020487 -0.0193809660978 -0.0870289580849
0.0304841186967 -0.0184004605581 -0.0926860243691
0.0265145796525 -0.022297721196 -0.0892973408784
0.0302633529997 -0.0189771843338 -0.089603370108
0.0350786727525 -0.0154451715066 -0.084101317354
0.0333863867004 -0.0159578780062 -0.0918926462888
0.0240962886795 0.020280802212 -0.0787638628934
0.0227119550512 0.0217265153576 -0.0814176427768
0.0241777306553 0.0208127835666 -0.0880809115538
0.0284413022196 0.017807171605 -0.0810492165151
0.0308537528623 0.0158247247512 -0.0814514948048
0.029098543495 0.0172233035407 -0.0844670056807
0.0259507595274 0.0198512350244 -0.0808270824272
0.0268125468813 0.0190638247443 -0.0869583710206
0.0258122961303 0.0199170464086 -0.084429283483
0.0272085726321 0.0171877680362 -0.0764246036836
0.0294409892696 0.0166012464737 -0.0790136533381
-0.0372904802071 -0.00563444372152 -0.0783465778482
-0.0382690297425 -0.000516816488346 -0.0923998805911
-0.0381683474948 -0.00352102746627 -0.0935573961872
-0.0387659746318 -0.00331167251522 -0.0831691365063
-0.0383916428731 -0.00222638444772 -0.0899187570714
-0.0384118763289 -0.00541372204234 -0.0810614176498
-0.0379319082689 -0.0068451502108 -0.0875119513291
-0.0367448143212 -0.0104093293873 -0.0803850721928
-0.0384750670937 -0.00522011990884 -0.0851897063344
-0.0374800674905 -0.00820430496057 -0.0823523487515
-0.0388907150861 -0.002962550107 -0.0793630562265
-0.037967311306 0.0050777997518 0.0289549890921
-0.0374125785454 0.00321201480527 -0.0318526027728
-0.0371394008744 0.00418705335597 -0.0450266538987
-0.0378120331695 0.00252759609837 -0.00602406916443
-0.0378525303546 0.00461653724169 0.0157071596121
-0.0368906313297 0.00393258590333 -0.0671398307765
-0.0375681715803 0.0048862020193 -0.00460581683253
-0.0373655632007 0.00308155766482 -0.0367611749993
-0.0372129032528 0.00262142536008 -0.0530229543654
-0.0375778614532 0.00238061694154 -0.0260200274412
-0.037133701868 0.00216680009497 -0.0633716188756
-0.0379158218797 0.00494966001084 0.0237097630563
-0.0371798493238 0.00110805900632 -0.0690630701997
-0.0374491049297 0.000717901993351 -0.0510228088122
-0.0375913093997 0.00346890474916 -0.0153093067018
-0.0372017921486 0.000363282462571 -0.0739065685669
-0.0376580684924 0.00202515088533 -0.0227647023492
-0.0368381404266 0.00515524165845 -0.0605032720685
-0.0370665879808 0.0042530149401 -0.0502553456643
-0.0370035980528 0.00414998247813 -0.0561963472717
-0.0369052004299 0.00543614509583 -0.0526622424675
-0.0374038150481 0.00364491544335 -0.0287187344456
-0.0375127728498 0.000988394199742 -0.0435447710394
-0.037581085173 0.000882965670472 -0.0390248617478
-0.0378867667244 0.00332931894356 0.00704158157546
-0.0371039742477 0.00295794253837 -0.0587390115827
-0.03770752902 0.00457648881296 0.0037767628388
-0.0375557017277 0.00343187901046 -0.0184798154124
-0.0372533626962 0.00371174283739 -0.0401378768725
-0.0370345997257 0.00207985241931 -0.0720530968147
-0.0377309646332 0.00397636425869 0.000333377390277
-0.0376440980218 0.00373062396202 -0.00877747339806
-0.0379044572289 0.00474253713251 0.0209683589567
0.0378005422498 0.00190705184521 0.024594178746
0.0376647947367 0.00107391818418 -0.00471857408387
0.0377957956534 0.00297375433214 0.0417232412407
0.0376273074373 0.000710296960178 -0.0150258268751
0.0374034921412 -0.000992015407823 -0.0688005060032
0.037484243973 0.000920391460253 -0.0278919808376
0.037402412296 0.000326372076322 -0.0470829611593
0.0374521157141 0.000589537580097 -0.0370440641869
0.0376928609304 0.00304104333048 0.0310764895788
0.037438527897 0.00233669677569 -0.0096524982707
0.0377766983596 0.000114147581162 -0.00783222549439
0.0378008755189 0.00102667736638 0.0100476259899
0.0377886364961 -0.000135902938133 -0.0106105907516
0.0374479425912 0.000170733934552 -0.0444589591736
0.038020103023 0.000704310708693 0.0297564612162
0.0377664429488 0.00291211787999 0.0373482598497
0.037494149253 0.000575464851165 -0.032474378473
0.037500058027 0.00419561717581 0.0281736461416
0.0376722829863 -0.000171530820266 -0.0244955565155
0.0374494499748 0.00437381580973 0.0253431974936
0.0377992069018 0.00172173307786 0.0213715355592
0.0379340655162 -0.000176275233466 0.00533754077395
0.0374967963591 4.55542602045e-05 -0.0409506247723
0.0379895205449 -0.000115460580536 0.0126814016638
0.0374414790071 0.00371754993226 0.0135604611451
0.0378313032014 0.00229179875055 0.0344828445649
0.038136381068 0.000333197018891 0.0368945621267
0.0378193501938 0.00130991447168 0.0168507903826
0.0274890624944 -0.00280769578153 -0.07557400316
0.0149254131208 0.0025763089348 -0.07557400316
0.0208088038713 0.0110274043934 -0.07557400316
0.0214021638797 -0.0105917078039 -0.07557400316
0.0226220546835 -0.00574663269161 -0.07557400316
0.0225303105354 0.00782925265349 -0.07557400316
0.0150609850709 0.00537033680142 -0.07557400316
0.0260025986853 -0.00765416023106 -0.07557400316
0.0142315649003 -0.00525351318568 -0.07557400316
0.0149355595992 0.0140459850353 -0.07557400316
0.0223683420455 -0.0130158655953 -0.07557400316
0.0169841345812 -0.00547568177572 -0.07557400316
0.0166514779355 0.0181214502933 -0.07557400316
0.0253996806621 -0.000315978839253 -0.07557400316
0.0209288038281 0.0136222364013 -0.07557400316
0.0271744410727 -0.0105811800075 -0.07557400316
0.025267849097 0.0082984588312 -0.07557400316
0.0132629281413 -0.0193339288752 -0.07557400316
0.0287718252164 -0.00821999184997 -0.07557400316
0.0297572653829 0.00259176208312 -0.07557400316
0.0220133534346 0.00138483976508 -0.07557400316
0.0239973668888 0.0128566872357 -0.07557400316
0.0182760434517 -0.0127898021896 -0.07557400316
0.0317535865079 -0.00446499646417 -0.07557400316
0.0136933222036 -0.0150649648008 -0.07557400316
0.0127430391558 0.000567546375494 -0.07557400316
0.0123945785018 -0.0222979951889 -0.07557400316
0.0152116498106 -0.00283761988322 -0.07557400316
0.0188928701267 0.00127768883905 -0.07557400316
0.0184753550408 0.00702281212446 -0.07557400316
0.0288107985641 -0.00495060178763 -0.07557400316
0.0178459040717 0.0118875488227 -0.07557400316
0.00885733154707 0.00604485494947 -0.07557400316
0.0106040471716 0.0194351366283 -0.07557400316
-0.00893862542567 0.0100472026093 -0.07557400316
0.0082936306459 0.0211030484659 -0.07557400316
-0.00962063763621 0.0214157649184 -0.07557400316
0.011637245676 -0.00461171957156 -0.07557400316
0.00671201272294 -0.0123595848627 -0.07557400316
-0.00626961751176 0.0145743394516 -0.07557400316
0.00502703881053 -0.00994749487989 -0.07557400316
-0.013338906684 0.0212986077601 -0.07557400316
0.00361456052399 -0.00090405462616 -0.07557400316
0.00161327946202 0.0216848642857 -0.07557400316
-0.00577080661548 0.00952771129416 -0.07557400316
-0.00936710191138 0.0133666632465 -0.07557400316
0.000747174876678 -0.00699584403298 -0.07557400316
0.00440831854263 -0.00545356158239 -0.07557400316
0.00647541446526 0.00985661012126 -0.07557400316
-0.00494354107976 0.00702643122993 -0.07557400316
0.00175422199388 0.0142767610893 -0.07557400316
0.00935112829333 -0.00322078407395 -0.07557400316
-0.00370898672366 0.00162678697469 -0.07557400316
0.0052748425108 0.00573550183077 -0.07557400316
0.00902618242149 0.0133088275486 -0.07557400316
-0.00167969056695 0.00872446948831 -0.07557400316
-0.000773233524918 0.0130932084562 -0.07557400316
0.012279447122 0.0133559148428 -0.07557400316
0.00775643579366 0.0013359479509 -0.07557400316
0.000353907972691 0.0163728380718 -0.07557400316
0.00499330815214 0.0172970416363 -0.07557400316
0.00879435735122 0.0175760956292 -0.07557400316
0.0342793479514 -0.00665147552136 -0.07557400316
0.0301757589709 -0.010517450803 -0.07557400316
0.0253922931993 -0.012376927694 -0.07557400316
0.0322347738934 -0.0144102687131 -0.07557400316
0.0311905018375 -0.00723372780179 -0.07557400316
-0.0110283968317 0.00854604181769 -0.07557400316
-0.00755829076393 -0.00234145119248 -0.07557400316
0.00375316202413 -0.0183993613116 -0.07557400316
-0.00369564346518 -0.0132906280481 -0.07557400316
0.0014048042469 -0.0218693117141 -0.07557400316
-0.0135552524125 -0.00847349910883 -0.07557400316
-0.00240163868734 -0.0180932502339 -0.07557400316
-0.00796134495804 0.000727132994976 -0.07557400316
-0.013523361669 0.0095923354022 -0.07557400316
-0.00239700793048 -0.0233140119635 -0.07557400316
-0.0120001751701 -0.0156931621487 -0.07557400316
0.00447149053609 -0.0213101120097 -0.07557400316
-0.0135933432053 -0.00170711831253 -0.07557400316
-0.00371467411051 -0.00240149302865 -0.07557400316
-0.00902678336073 -0.020535574755 -0.07557400316
-0.00661362299592 -0.00608508351731 -0.07557400316
-0.0118874535588 -0.0208163412303 -0.07557400316
-0.00434155697647 -0.00731523284561 -0.07557400316
-0.013284491631 0.00449423413842 -0.07557400316
-0.012954132267 -0.00592478233178 -0.07557400316
-0.00605284820006 -0.0156669279411 -0.07557400316
0.00178367797905 -0.0251027469839 -0.07557400316
0.000966406718891 -0.0109968770698 -0.07557400316
-0.0156204068171 0.0191916468107 -0.07557400316
0.0240311990162 0.0196542706704 0.0484812738366
0.0197538446065 0.0226945505051 0.0466437675394
0.0169389962544 0.0216862209555 0.0552845433669
0.022297439034 0.0199910353852 0.0506680375691
0.0248957956324 0.0200190973621 0.0456468037456
0.0175815382694 0.0235937429292 0.0478214379373
0.0225382781852 0.021004288785 0.0468943291666
-0.0206725819186 -0.0226483825454 -0.0628256898593
-0.0191465173087 -0.0232290926264 -0.050815437812
-0.0205363177212 -0.0227027426684 -0.0664868963697
-0.0136120131184 -0.0253705201798 -0.0740677286301
-0.015380175209 -0.024686132606 -0.0661770085557
-0.0177444283039 -0.0237653648231 -0.0449495533371
-0.0193527764388 -0.0231404988096 -0.0333621723955
-0.0144604514109 -0.0250179502655 -0.0246552866676
-0.0186889802053 -0.0234083370794 -0.0569144425085
-0.0145112290421 -0.0250139284304 -0.0539354090473
-0.0162235370631 -0.0243572376967 -0.0577662836205
-0.0140830460625 -0.0251834122931 -0.0629258897249
-0.015558929386 -0.0245938773531 -0.0218401858882
-0.0165751727002 -0.0241957449818 -0.00827561826415
-0.0196588611049 -0.0230246830337 -0.0370130261685
-0.0150910784469 -0.0247641659676 -0.00354527132318
-0.0174653230641 -0.0238849507794 -0.0680059129494
-0.0166732330637 -0.0241922847441 -0.0729495725655
-0.0200547384852 -0.0228916045022 -0.0732813471895
-0.0176798983106 -0.0237724076937 -0.0113856949312
-0.0180070045613 -0.0236407734655 -0.000442894926568
-0.0149362837198 -0.0248407016354 -0.0356083530489
-0.0147825509943 -0.0249045117593 -0.0444224103299
-0.0191150263441 -0.0232305287087 -0.0306593408011
-0.0157894901067 -0.0244933132123 0.000561436831592
-0.0159748678056 -0.024437463017 -0.0286279366529
-0.0152354650032 -0.024738925904 -0.0607477772714
-0.0135453799752 -0.0253785488205 -0.0408373899415
-0.0186912028156 -0.0233857914091 -0.0159721358772
-0.0174229491326 -0.0238907272346 -0.0481399803907
-0.0184168023198 -0.0234846259249 -0.003275270382
-0.0142244472571 -0.0251320287272 -0.0686132716183
-0.0193865288907 -0.023124566087 -0.0277971923373
-0.0149866405146 -0.024794556592 0.0149270488216
-0.015833198979 -0.0244645946179 0.0230307390699
-0.0152693344257 -0.0247023388111 -0.0162814415154
-0.0130527483636 -0.0255811736707 -0.0655847639493
-0.0181046665337 -0.0236061965559 -0.0060930834408
-0.0134916162504 -0.0254082250841 -0.0578131371925
-0.0150045155779 -0.0248226408279 -0.0510632968213
-0.0203218790266 -0.0227868227876 -0.0694808102607
-0.019845252886 -0.0229583158997 -0.0470874466095
-0.0163949065144 -0.0242544270824 0.0118567104643
-0.0169799665352 -0.0240642814045 -0.0540668325171
-0.0142148403762 -0.0251066557222 -0.013744368482
-0.0144852499814 -0.0250011549791 -0.010960415638
-0.0176623874974 -0.0237936563575 -0.0387784845259
-0.0147619770513 -0.0248843586814 0.00855718472449
-0.0158146448863 -0.0245062679077 -0.0421571229784
-0.0163673295017 -0.0242535239559 0.0335861275915
-0.0167760319913 -0.0241315309849 -0.0329196143277
-0.0185137734278 -0.0234590535951 -0.0254204499434
-0.0149242440114 -0.00402846257733 -0.07557400316
-0.0132071345437 -0.018219118651 -0.07557400316
-0.01762470473 -0.0215917591629 -0.07557400316
-0.0158626567001 -0.0168060286955 -0.07557400316
-0.020530482393 -0.0167053730608 -0.07557400316
-0.0170756963609 -0.00596604101664 -0.07557400316
-0.0179459875397 -0.00879824519913 -0.07557400316
-0.0156790905864 -0.0195218943135 -0.07557400316
-0.0199378738412 -0.00692805804869 -0.07557400316
-0.0160810371247 0.00580194208624 -0.07557400316
-0.0162204389125 0.00931384403214 -0.07557400316
-0.0182012574903 -0.0150192480525 -0.07557400316
-0.0155566650697 -0.0142733204663 -0.07557400316
-0.0261221913855 -0.0190846574183 -0.0320209917457
-0.0252376344348 -0.0197816410961 -0.039249480889
-0.0242254833824 -0.0207047536545 -0.0298528153448
-0.0305418371651 -0.0152083022711 -0.051318279825
-0.0279819292578 -0.0178310090786 0.0129615097183
-0.0285952049572 -0.0172015258594 -0.00260154571027
-0.0316145284031 -0.0142389315027 -0.0600170491899
-0.0281090398946 -0.0177727936906 0.0199003767027
-0.0244148241318 -0.0204055306607 -0.0494116771185
-0.022842670755 -0.0216231417601 -0.0652361068442
-0.0283580370597 -0.0169591275034 -0.0649286216344
-0.0284495288404 -0.0168521512055 -0.0690885709411
-0.0259659640277 -0.0194398307254 -0.000650125081126
-0.0246452091067 -0.0201830756405 -0.0532860578555
-0.0244429548971 -0.0202063335571 -0.0740860610233
-0.0295398354295 -0.0160184076968 -0.0566111665164
-0.0277586732987 -0.0181121531848 0.0259405736636
-0.0263958451745 -0.0186526585178 -0.0602236119718
-0.0291353272723 -0.0163790697338 -0.0540180032113
-0.0252672443249 -0.0199486842427 -0.0122262511377
-0.0238482589622 -0.0207395249577 -0.069857724378
-0.0288986438055 -0.016538527204 -0.0597555602293
-0.0255971452797 -0.0194345445161 -0.0452897790523
-0.0276218322633 -0.0176348970754 -0.0574848960092
-0.0271848007959 -0.0181513643495 -0.0368443765878
-0.0312964282598 -0.0144232829024 -0.0719426393823
-0.0251078098995 -0.0197592436897 -0.0578517144326
-0.0283529084252 -0.0171987596557 -0.0318282936678
-0.0294452558023 -0.0163368094 -0.0230760390093
-0.025951585746 -0.0190027933634 -0.0638424920598
-0.0299795128327 -0.0157828939327 -0.0374130818188
-0.0282111909982 -0.0173493890681 -0.0275051034462
-0.0258459096804 -0.0195976559496 0.00726364286096
-0.0259165357728 -0.0195692613879 0.0116749458098
-0.0308382092643 -0.0148441752672 -0.0672690028766
-0.0302227065144 -0.0156085537629 -0.0329943463758
-0.0258386543059 -0.0193684054337 -0.0258501457091
-0.0296640324598 -0.0162258863563 -0.0126420351217
-0.0246188730377 -0.0203229697746 -0.0367406356036
-0.0273224852268 -0.0183636168122 0.00940156014174
-0.0258291897068 -0.0195301074214 -0.004228854836
-0.0275890368825 -0.0175481937329 -0.0735852951283
-0.0266857359847 -0.0183362480854 -0.0702331008876
-0.026782099337 -0.0188630142759 0.0153397314489
-0.0301996921519 -0.0156483772721 -0.0301312148822
-0.0260721701883 -0.0188809642926 -0.0666293392127
-0.0300661946985 -0.015446896521 -0.0743634948001
-0.0266251665256 -0.0185945836296 -0.0411000827752
-0.0229408068717 -0.0215829137151 -0.0592153192383
-0.0292053544907 -0.0164031374609 -0.0422977407382
-0.0263476910259 -0.0189625505602 -0.022360138229
-0.0266079203861 -0.0185557374414 -0.0486174451607
-0.0263792914349 -0.0192498224141 0.0218134099129
-0.0284567102869 -0.0171976902674 -0.0196244599351
-0.0238365252497 -0.0208069281682 -0.0617721654071
-0.027394445721 -0.0181227728499 -0.0159150588553
-0.0269262554888 -0.0186616138409 0.00416447896625
-0.0310353688966 -0.0147003591396 -0.0640351099731
-0.030444530214 -0.0153176057083 -0.0475230645432
-0.0311263508072 -0.0147598216885 -0.0448416290036
-0.0272037115751 -0.018315917213 -0.0114448572493
-0.0270035816085 -0.0185079165712 -0.00825400163208
-0.0242373015136 -0.0206056299627 -0.0423906684109
-0.0281754100643 -0.0172124986221 -0.0510210066446
-0.023340220779 -0.0209421241113 0.00990269414919
-0.0181598147372 -0.0234157229121 0.0273497735088
-0.0213185083736 -0.0220357559821 -0.00279388203068
-0.024597503007 -0.0202824166027 0.014695040624
-0.0212952963527 -0.0220234162071 0.00084585425208
-0.0236906599625 -0.0210569548285 -0.0341808908338
-0.0212008344883 -0.0224368713736 -0.0548444141465
-0.0237872815199 -0.0206508583389 0.0202264014865
-0.0231523689803 -0.0211511609081 -0.00761039863869
-0.0200363379619 -0.0223819077871 0.0419813194466
-0.0228379557426 -0.0213459278515 -0.0133386846353
-0.0221526666634 -0.0213844600935 0.0328647723464
-0.0222047615405 -0.0218154632388 -0.036627819048
-0.0248743193595 -0.0200761717292 0.0250248557383
-0.0181068557556 -0.0234598585377 0.0246622324104
-0.019543229217 -0.023046418114 -0.0215966220424
-0.0213451220904 -0.0218622790278 0.0215617473748
-0.0203713949165 -0.0223637507387 0.0192873936323
-0.0253552722918 -0.0197322044661 0.0407870911521
-0.024235358229 -0.0206953515554 -0.0205798868384
-0.0234996910574 -0.0207761463952 0.0230247528481
-0.0238573264268 -0.0207421190508 0.00102862317949
-0.0268037112475 -0.0189933314327 0.0430942694053
-0.0209260704755 -0.022155891332 0.0087533532179
-0.0208957659253 -0.0222638118821 -0.00535389894596
-0.0213716112905 -0.0217326102005 0.039265725066
-0.0207485953953 -0.0225643473366 -0.0398701539454
-0.0233132863602 -0.0208385221396 0.0277018217095
-0.0203902836054 -0.0225343718049 -0.00809087312498
-0.0222056580317 -0.0218600878378 -0.0434811843141
-0.0212547062095 -0.0220088511046 0.00614419593637
-0.0217463220537 -0.02213688593 -0.0506724858182
-0.0236870324143 -0.0205858779566 0.037722859044
-0.0162548511631 -0.0242899790236 0.0391401404563
-0.0235458645574 -0.0210796578858 -0.0266326277844
-0.0213865227285 -0.0221809992623 -0.0300455516108
-0.0191621136939 -0.0228806857699 0.0325571788652
-0.0199879704291 -0.0226616412637 0.00312184545823
-0.0208140623863 -0.0221693463141 0.0152169064311
-0.0209205268172 -0.0220392295414 0.0269131661232
-0.0255367427963 -0.0197186152419 0.029066793917
-0.0245654856779 -0.0203646322119 0.0046263971913
-0.0233914835685 -0.0210141325959 -0.00494084188755
-0.0240463573085 -0.0208100721717 -0.0236647194919
-0.0197583472602 -0.0228840381199 -0.0132492417049
-0.0246333801875 -0.0202447814166 0.0176919052537
-0.0228343481504 -0.0213285248588 -0.0104184517825
-0.0183112058916 -0.0234255015942 0.0143615102443
-0.0241367559422 -0.0207129877774 -0.0157705567141
-0.0215525971924 -0.0218215346087 0.0119948453743
-0.0179082772517 -0.0234769172661 0.0371547031611
-0.0188711247969 -0.0231919282215 0.00733898439451
-0.0213503475159 -0.0221322320533 -0.0198821211154
-0.0224687737698 -0.021164914908 0.042231952975
-0.0236204473054 -0.0208785361467 -0.00171782846493
-0.0178250337388 -0.0236252017035 0.020931889216
-0.0214865909118 -0.0220426298008 -0.0166085226605
-0.019399943626 -0.0227784782241 0.0300297670891
-0.0177759067017 -0.0235091438457 0.042310962564
-0.02517310754 -0.0198672086566 0.0340987481623
0.0373603177719 0.00335656633171 0.000129103989717
0.0356134383996 0.0060308219446 -0.0706821914473
0.0364968739917 0.0025658384433 -0.0698687447062
0.0361339674953 0.00618330798337 -0.0338547521649
0.0373680269508 -0.000374732823682 -0.061177065409
0.0361122216029 0.00511075723174 -0.0530560417283
0.0368234765092 0.00441846390782 -0.0176552974429
0.0370774224817 -5.5429544406e-05 -0.0750373174294
0.0369696574666 0.00454471427868 -0.00593090020681
0.0358467710593 0.00704466240942 -0.0385105909116
0.0361587022565 0.00548582583113 -0.0437795719511
0.0361491842694 0.00412783239876 -0.0669038360972
0.0372377003967 0.00498193484615 0.0189754884978
0.0367395064018 0.00575262913077 -0.00108636389497
0.0372456509085 0.00255221557163 -0.0207522895091
0.0364813684841 0.00241517587373 -0.0733864466752
0.0363675070443 0.00439547100134 -0.0480832174993
0.0366333572054 0.00392208877578 -0.0384067325094
0.0372480320324 0.00295783917395 -0.01387565924
0.0370082453122 0.00542596669138 0.0112110990828
0.0365604986725 0.004784792402 -0.0289159994852
0.0360557685129 0.00666045846387 -0.0311031648834
0.0362583166001 0.00429271106221 -0.0569808998434
0.0367434668961 0.00323775462679 -0.042487787289
0.037072802509 0.00474578522601 0.00419706755312
0.0365326800962 0.00358463985845 -0.0506313624445
0.035864216159 0.00553678645222 -0.0623410824106
0.0353959542562 0.00769852527274 -0.0573859051107
0.0369896721985 0.00164038747671 -0.052726218993
0.0372557114874 0.00560177560078 0.0304308926357
0.0364456606974 0.00569320204019 -0.0214344009818
0.0370121358767 0.000715587019353 -0.0665665414463
0.037393150324 0.00363097008278 0.00683855132607
0.036561843092 0.00269257933399 -0.0634878373976
0.0367204605408 0.00537612527331 -0.00857874076639
0.0357958850734 0.00513706730925 -0.0734658003347
0.0366087542353 0.00418425119056 -0.0356849074372
0.0367896795245 0.00199678080957 -0.0600009788812
0.0371785371074 -0.000278460067156 -0.0720689810744
0.0373012987428 0.0034198887226 -0.00271104792183
0.0365397718161 0.00586859353771 -0.012327157448
0.0354792983502 0.00688710265753 -0.0653361297767
0.0366407252576 0.00467675954915 -0.0254190249239
0.0334706570537 0.00469238148098 -0.075357788782
0.021151140853 0.0175580412984 -0.0753927298329
0.0348078190485 0.00729527903704 -0.0748886466204
0.0103817736873 0.0261971003708 0.0213108762178
0.0126279118239 0.0260620023597 0.0424207683828
0.011537987442 0.0262579290149 0.0387226431236
0.0117955404209 0.0257228564031 0.0150574855052
0.014134955991 0.0248540143629 0.000487902254713
0.0150663908436 0.0248449200973 0.0115978707789
0.0151792150503 0.0239210143766 -0.0333859860009
0.0138788432094 0.0253546671026 0.0224428863557
0.0140924854379 0.0254289680061 0.0288261878706
0.0136808007722 0.0256349677261 0.0340561569507
0.0166646797312 0.024761398863 0.0272522020757
0.0143562829779 0.0241797208656 -0.030616727045
0.0167012194574 0.0246581389301 0.0225217625071
0.0136606542663 0.0238219598687 -0.0572165131336
0.0153488382362 0.025289583195 0.0374297162053
0.013596394276 0.0250719951174 0.00474382415203
0.0131191170874 0.0252824167012 0.00938126669395
0.0150049274109 0.0249762484108 0.017427987745
0.0152615681401 0.0240292543869 -0.0269291107118
0.0162283684416 0.024429100822 0.00515099079359
0.0163416560409 0.0249671257598 0.0335694650765
0.0106051897443 0.0259525437087 0.0118072290574
0.0121079382558 0.0257005803314 0.0178184630823
0.0096300327605 0.026592197528 0.031811712036
0.0143492239688 0.0250794556434 0.0144670129132
0.0141619903955 0.0245556872656 -0.0141539677176
0.0128476605342 0.0257934211927 0.0316654241645
0.0119967459346 0.0248042383057 -0.0285633867356
0.014162907016 0.0243883496499 -0.0225438099575
0.0163462115508 0.0251132168257 0.040960572087
0.0102119805763 0.0263968764947 0.0292321949811
0.012828543905 0.0242796277889 -0.0445723240699
0.0105771061283 0.025755816288 0.00158174002768
0.0141122375987 0.0247583289425 -0.00459812381121
0.0162856485581 0.0244698010222 0.00790565792061
0.0112593676309 0.0253651891515 -0.00955747210436
0.0148559419645 0.0237265079279 -0.0471656303621
0.00953674603509 0.0267001281417 0.0360719606013
0.0133075787921 0.0249011830827 -0.0074183423713
0.0116002255607 0.0256043582039 0.00668283731558
0.0154689677443 0.0242978506387 -0.0108686858383
0.0134361855057 0.0255277475611 0.0256355132217
0.0120796023924 0.0249533050322 -0.0200505456246
0.01101299305 0.0254923142974 -0.00623460087718
0.0102625770511 0.026687525434 0.0444526006499
0.0117197044851 0.0253786411702 -0.00316565204503
0.0129002917044 0.0246470852386 -0.0252330719257
0.0139442461229 0.0236956270917 -0.0600374395529
0.0156999912418 0.0249457948379 0.0454005788509
0.0155377439973 0.0226918207863 0.0534322922521
0.0129388266149 0.0258292608764 0.0451957840012
0.0107135795554 0.0259493184928 0.0470956179214
0.0138286736837 0.0247312077792 0.048098988112
0.0164824113349 0.0232001199899 0.0506748516862
-0.0266020877548 0.0145622868439 -0.07557400316
-0.022487855763 0.00416344889768 -0.07557400316
-0.023342993239 0.00175891501035 -0.07557400316
-0.0216367815543 -0.00155129574461 -0.07557400316
-0.018252515606 0.0147063281226 -0.07557400316
-0.0210687297041 0.0182963648656 -0.07557400316
-0.0240744121617 0.0125884455318 -0.07557400316
-0.0211755839914 0.0120795768082 -0.07557400316
-0.0238374653061 0.0175589587267 -0.07557400316
-0.0348590379055 -0.00129191991876 -0.0755636857379
-0.0315218387863 0.00569070794451 -0.0755682774833
-0.0302194317164 0.011040050777 -0.075570460621
-0.0243172758998 -0.00891442132472 -0.0755737669452
-0.0267105416517 -0.00733800190626 -0.0755714552714
-0.0289014992047 0.00566049464305 -0.0755710612303
-0.0286260499737 -0.0124403627969 -0.0755686565556
-0.0299404408911 -0.00401464349487 -0.0755685137188
-0.0269878461874 -0.00325449066218 -0.0755717688089
0.0362293432181 0.00329056067692 0.0463529297141
0.0329777531146 0.00499532026724 0.0540152034003
0.0352053002699 0.00483396633311 0.0485536313846
0.0342005092462 0.00375166205817 0.0512609909594
0.027110931295 0.0109783069852 0.0549367666754
0.0291798454418 0.0121547086261 0.051088837408
0.0301122736573 0.0133062622475 0.048659790348
0.0240993858212 0.0177210917721 0.0510828798994
0.0195307126584 0.020204286616 0.0538982533365
0.022233641597 0.0164995937495 0.0547325515562
0.0267793113212 0.0185132351771 0.0469167494138
0.0311662067331 0.0072922452236 0.054094914361
0.0266090032225 0.0152464616881 0.0507782804602
0.0260782372067 0.0131958923297 0.0537210039113
0.0283049815432 0.0152322702512 0.0487182171441
0.0244174513397 0.0154488782541 0.0532344593224
-0.0347494400899 -0.0086871156973 0.0460938167223
-0.0369441423469 -0.00209049673583 0.0458578159935
-0.0345888393073 0.000983841622194 0.0523204834144
-0.0359475062364 -0.00440216438416 0.0463832335321
-0.0352903115986 -0.00122261784501 0.0496063259158
-0.0360647928113 -0.00674166147749 0.044724335333
-0.0305011012822 -0.0153964616282 0.0205220302495
-0.0307367357834 -0.0151601100263 -0.00225163116843
-0.029044654756 -0.0168521387927 0.0160714180578
-0.0321453166758 -0.0137533748842 0.032807482766
-0.0333703203169 -0.0125290790692 0.0382460248047
-0.0319544923631 -0.0139430282167 0.0023488316931
-0.0301952505163 -0.0157017172038 0.00748213414037
-0.0319193180572 -0.0139776922149 -0.0114859047032
-0.0320191227185 -0.0138788374763 0.0138657148045
-0.0279260736404 -0.0179707192808 0.0291311433101
-0.0323218341158 -0.0135752233445 -0.0148743662746
-0.0287555286832 -0.0171417182965 0.0321097317021
-0.0333942327164 -0.0125050687331 0.0352324284206
-0.0282771297454 -0.0176195884981 0.0229422400806
-0.0334197430918 -0.0124791149509 0.0225558630479
-0.0330923942353 -0.012805872252 0.00986877010889
-0.029818810205 -0.0160774426848 -0.00807242931328
-0.0317274249003 -0.0141697099133 -0.00576574710917
-0.0315225191788 -0.014373910223 -0.0230627731287
-0.0324034088785 -0.0134935359595 -0.0189720591833
-0.0332669759544 -0.0126325359716 0.0425959251038
-0.0302400763027 -0.0156574709817 0.0231374308114
-0.0310870852518 -0.0148114916676 0.0419788271237
-0.0334646103781 -0.0124341744052 0.0199861827279
-0.0313094091873 -0.0145888460903 0.0304005741184
-0.0323944062715 -0.0135019340317 -0.0357432519301
-0.030461776832 -0.015434475486 -0.0156052629637
-0.0283154308704 -0.0175819513996 0.0410317009115
-0.0320365121573 -0.0138616136017 0.0182843742845
-0.0309566593505 -0.0149416999799 0.0374293253237
-0.0306020026174 -0.015296100617 0.0344263052497
-0.0318790444802 -0.0140199594161 0.0446397557026
-0.0300731231994 -0.0158240097746 0.0135232083705
-0.0318413730657 -0.0140546244422 -0.0388473964163
-0.0312445649729 -0.014652765472 0.00534065257938
-0.0305290293566 -0.0153670833493 -0.0202889765321
-0.0290954413793 -0.0168008750582 0.00215844382132
-0.032536981606 -0.0133616142378 0.0255565057689
-0.0323989633802 -0.0134977313073 -0.0259033920172
-0.0296670739206 -0.0162303886987 0.0274728112661
-0.0326226530279 -0.0132731281013 -0.0540217975863
-0.0283609439506 -0.017536363255 0.0384040812799
-0.0327895465409 -0.0131082144511 -0.000702273681137
-0.0328725881546 -0.013025097877 -0.00376573456184
-0.0276644698169 -0.0182324006716 0.0343549312346
-0.0335783218854 -0.01231998846 0.00541218889073
-0.030897541033 -0.014998463841 -0.0276074959534
-0.0277435324138 -0.00872304934383 0.0554728936073
-0.0313688400238 -0.00405264506445 0.0536524422568
-0.0290942516722 -0.00600897446251 0.0553902539074
-0.0309729102136 -0.00890506546626 0.051195728509
-0.0335723209503 -0.0050728339319 0.0501860928708
-0.0296750621694 -0.00324414171848 0.0563318268771
-0.0306636336552 -0.00647028255788 0.0530836627278
-0.025843783462 -0.00819556092272 0.0582461258414
-0.0272209165744 -0.00606425852736 0.0577730228776
-0.0304547681987 -0.0135063139942 0.0476552693668
-0.030345983312 -0.0114041288078 0.050304763762
-0.0324226777483 -0.0114373378747 0.0477737899803
-0.026035853485 -0.0122900470468 0.054413574636
-0.0283254107549 -0.0140064506169 0.0496103219943
-0.0293429459976 -0.0163603229925 0.0455691098901
-0.0271528132902 -0.0176255348571 0.0466802968688
-0.0282183322725 -0.0121712348162 0.0519378665036
-0.0246228471745 -0.0116195907492 0.0569119931358
-0.0222857505612 0.0225252188258 0.0446544931648
-0.0194503663179 0.0242104997852 0.0428618520654
-0.0171673015126 0.0248322282635 0.0441013596968
-0.0248915888707 0.0216680770491 0.0437780213306
-0.0140435432516 0.0260946406967 0.0442948580067
-0.0110177855228 0.0269268616754 0.0459075131009
0.0339304107404 -0.0124934755515 -0.0423348519002
