0.002453921882962521 -0.0005056915252768852 -0.004022512758557849
0.0013492681299283836 -0.0008085275794692582 -0.0018101300082556898
0.003665622787043972 0.0024502661654515518 -0.007754548160506446
0.003215556924185809 0.0003416939978720188 -0.005865583475731841
0.01063071809507925 -0.0011230000527575612 -9.332133928909112e-06
0.008089250593086997 -0.0011230000527575612 -0.0038402712413564055
0.011601817651070842 -0.0011230000527575612 0.005400360829271469
0.009051896213992857 -0.0011230000527575612 -0.0020604940682619364
0.00983545375667536 -0.0010493458346769566 -0.004222865438137632
0.011008323680821977 -0.0008914916561073603 -0.006043758487137823
0.008582850521098964 -0.0010909583094099598 -0.005577896752407878
0.003921253524208029 -0.00046144985722791756 0.007555999793112278
0.005559661783712269 0.00042870312677164055 0.007555999793112278
0.004010051182455718 0.0012945818418137038 0.007555999793112279
0.002250524791827458 0.0022951208996298436 0.007555999793112279
0.0022024006830865563 0.00048205054324932994 0.007487764395940313
0.014758475385511267 -0.0011230000527575612 0.0035917816252559296
0.013804223634356122 -0.001123000052757561 -0.005103979557279162
0.014011988179696323 -0.0011230000527575612 -0.00783072000461239
0.014577977146825035 -0.0011230000527575612 0.001417934640813765
0.014767088798213415 -0.0011230000527575612 0.005314940779101492
0.0132115465877112 -0.0011230000527575612 0.0069402076894602635
0.013181268042295687 -0.0011230000527575612 0.003815216833823938
0.015109262802372661 0.016846999526023865 0.002933091152948984
0.014076153538400221 0.016846999526023865 0.0012850023023589583
0.014650854020108453 0.016846999526023865 -0.004489331194516017
0.013505938524469418 0.016846999526023865 0.0032368506419822593
0.01594249824239135 -0.0011230000527575612 -0.007513624625121859
0.01626499928534031 2.3952249308262935e-05 0.004518326090628512
0.01626499928534031 0.003945694637743191 0.002142918333456562
0.01626499928534031 0.002154280840290968 0.005235629095065392
0.01626499928534031 -0.0010649340535048661 -0.009072038787186598
0.01626499928534031 0.003205226685651392 0.004081429510730534
0.01626499928534031 -0.0003403388844618541 0.0006318236924361871
0.01626499928534031 0.0007071471667267967 -0.0015109800966214048
0.01626499928534031 0.0011534549332706714 0.00266340647230163
0.01626499928534031 -0.0003049879331091793 0.0065053749917055185
0.01626499928534031 -0.0009796066506432698 0.0024327192531300723
0.01626499928534031 0.0011815554452444803 -0.003921884726507183
0.01626499928534031 0.0031676162063999074 -0.0012989697046556564
0.01626499928534031 0.001287809570254206 0.000805749316368494
0.01626499928534031 -0.0006618094587483253 -0.0034186168989525805
0.01626499928534031 -0.00018818162900501414 -0.005560314150046394
0.01177200023084879 0.003047084696355676 -0.003410752376905738
0.01177200023084879 -0.0001216230446632011 -0.0008671760184121658
0.01177200023084879 -0.0005271557095057552 0.0014001873045874792
0.01177200023084879 0.004979552417393012 0.0035953583022787362
0.01177200023084879 0.0013668893283531594 -0.003636959283800455
0.01177200023084879 0.006294625964954273 0.005999924819359852
0.011772000230848791 0.00030473809099316665 0.006922343262128566
0.01177200023084879 -0.0002928973061112431 -0.0027347853222669024
0.01177200023084879 0.009250193446649499 0.0024434710092683166
0.01177200023084879 0.007699702110517894 0.0011677902834767297
0.01177200023084879 0.009976049113287385 0.005646311662749167
0.01177200023084879 0.012168013192435562 0.0036033424337987923
0.012410212069132582 0.016846999526023865 -0.0013417377724958181
0.01383424911231541 0.01684699952602386 -0.002753852013432289
0.01177200023084879 0.007086130982838174 -0.0009110001108582787
0.01177200023084879 0.015290565914086457 0.00490184028501712
0.01177200023084879 0.004126754523251432 -0.005322160612464294
0.011772000230848791 0.016304179949992947 0.0010569888116224433
0.01177200023084879 0.011358808725820319 -3.90786285316987e-06
0.01177200023084879 0.008643503945152106 -0.0014676235986129172
0.011772000230848787 0.004844432181653166 -0.0028187838059802375
0.013785815329609308 0.016846999526023865 -0.01108485807202496
0.013869292984414087 0.016846999526023865 -0.008968639134214152
0.012884308702360167 0.016846999526023865 -0.004831578249453
0.015912790199464504 0.01617473700626954 -0.0074605655609939195
0.015793831330744385 0.016438647353076423 -0.009288872173519806
0.013811792670084573 0.01230124599041563 0.007555999793112278
0.012878017588206173 0.015131078197700933 0.007555999793112279
0.015070094873702219 0.01430853021608237 0.007555999793112278
0.013051820852311186 0.006138308278609955 0.007555999793112278
0.012197455281330722 0.0033884602555389032 0.007555999793112277
0.013839488798868345 0.010235579576421246 0.007555999793112279
0.01228967443178913 0.013684706508834922 0.007555999793112278
0.01610884069456879 0.011302539749401756 -0.0008099304105642852
0.01619376954192131 0.008446010092457748 -0.004620432772302843
0.016237496431887377 0.007001734896422922 -0.005894947896702288
0.016030212851755824 0.014044921936591376 0.005258851675801099
0.016219351123787307 0.007857600739105094 0.0013002856152865066
0.016264006520039793 0.0064765590023394 0.002438831023118078
0.01616756024654909 0.009488686998254172 0.0007429690314836564
0.016252874948514538 0.006717590805331789 -0.0005275264902177956
0.01617242045240923 0.009214287819673693 -0.002357697375091461
0.016231563890391716 0.007318136671641546 -0.002591935769690046
0.01620832427230728 0.008298840805004863 0.003623367456965768
0.01617546932662316 0.009397077856301332 0.004920274793852689
0.016117116274487094 0.011157347647473252 0.0022788545306907703
0.01607320408353277 0.012611382856798149 0.003653349872004487
0.01611942541191347 0.011178200705531799 0.004735376740735803
0.016260112581840385 0.0061881792859400705 -0.008283683369450873
0.01626499928534031 0.003549068769918394 -0.006922014851229931
0.01626499928534031 0.0018450426840153646 -0.010428551117796378
0.01626499928534031 0.004162202615520163 -0.009827967171734302
0.01626499928534031 0.003543543508528579 -0.0036643862791259363
0.01626499928534031 0.005793818386871428 -0.004372815647690303
0.01626499928534031 0.005364488951246597 -0.006198593030723846
0.01626499928534031 0.002606366883924463 -0.005369878063323479
0.01626499928534031 0.004591091636025256 -0.000148512491972487
0.01626499928534031 0.0011399311219004733 -0.00902874663683785
0.01626499928534031 0.00487207115474892 -0.0027038926072243154
0.016140299628913383 0.010148298426632011 -0.0045078919934439885
0.016054311631224553 0.01286861554523745 -0.003563442968408301
0.0160518903939742 0.012847337603657537 -0.005328168901296511
0.016088555919263628 0.011606716106636944 -0.007207308576652013
0.01598351887399127 0.015202066408538887 -0.0010682493241216367
0.015994561206171754 0.014978215220054101 0.001107063694667714
0.016040004269380917 0.01345495536427271 -0.0009591165518951141
0.015971611340870558 0.015469912679885761 -0.0029298165787198715
0.016117109850142707 0.010601053729502714 -0.009393761691414844
0.015989667272024506 0.014479798980614 -0.010794722535416164
0.016053136019399353 0.013132615492089312 0.0006004887600759676
0.015961355810228776 0.015662421976235918 -0.005231830149518566
0.016023497884225753 0.013642760822439964 -0.0068977993535009234
0.016199816581635565 0.008052700257287923 -0.009054760515311153
0.01599951432506793 0.0149532602594503 0.0034637874535442406
0.015988381386332587 0.014635586015512162 -0.008673928468316933
0.01605343537781137 0.012585260103073141 -0.009247107334385708
0.01618548255377666 0.008604015267859613 -0.007106600869224616
0.016226366242395523 0.005937354838205755 -0.010880396462259332
0.01371888019190634 0.0006193192140978936 0.007555999793112278
0.012541928431482215 0.00171465507389614 0.007555999793112277
0.014940574022091011 0.008141503726559583 0.007555999793112277
0.014998868230401169 0.005558795572922184 0.007555999793112278
0.014119521588801292 0.002987570418968404 0.007555999793112278
0.012373412150729126 0.013589396731651908 -0.00694672102718352
0.012007894302955723 0.01403604127420516 -0.004248049757736286
0.012803728215009094 0.014703198815021168 -0.008799598127329894
0.01196834886354762 0.015735646157340563 -0.0026224579173271113
0.012611977014827448 0.012513410087865304 -0.009341641939845841
0.012433975281771394 0.015526980445762761 -0.005769251598185788
0.013212565048556201 0.015163820306441433 -0.010877328128625059
0.014629489898021653 0.002299345432637605 -0.011988481546189629
0.014722473984348814 0.015592109148646824 -0.011711333227240415
0.013798886791617272 0.007109039977409404 -0.011780246619822419
0.013878635734673295 0.01029708103424604 -0.011754470162689441
0.013348472563249137 0.011821159992311894 -0.011499566769955945
0.013507882026566224 0.013722192441404258 -0.01151694115722673
0.016238835178667387 0.006018692139622372 0.0063306305400633745
0.01618639794037336 0.008154258077599553 0.0063274911515637956
0.01596146650191564 0.010450818401080652 0.007120719035985241
0.0157768228057668 0.012754216818625434 0.007354657354526392
0.01590804060597012 0.0017258003084821378 0.00741214763606611
0.015639083770060624 0.009991875174148944 -0.01172340837000372
0.015931274660153653 0.0004333733016149088 -0.01158999869565837
0.015440697256250125 0.004594517408510292 -0.011893516063232652
0.015591767124235482 0.01188122447124925 -0.011742727897190868
0.015717883233920083 0.007967591147277832 -0.011683726789670008
0.012362218996990911 0.001431022687955604 -0.00889763360740848
0.012715145474474436 0.005781410345451201 -0.010938949454451535
0.012090910194656246 0.0035244289922019226 -0.009072411161862689
0.01345523723333409 0.0012753397987793785 -0.010848477484635698
0.01367021823627297 -0.0004923437473991074 -0.010675059343766514
0.012818851592373455 -0.0006597650577722061 -0.009062932034321713
0.013723262779309311 0.0042690790278608155 -0.011685162448092807
0.012039617896921826 0.012315535113527223 -0.005380089778053273
0.011993132742863743 0.00791679151119349 -0.006703969844437215
0.012394577354409148 0.008652057440403777 -0.010908807657945399
0.012211297361970366 0.011045514089150636 -0.007843436009405102
0.01182536786810291 0.013766343995500464 -0.0023622258926379648
0.011813630733540359 0.011176934011854937 -0.0033172544374025434
0.011835694464814181 0.006271405651674058 -0.005624577540729149
0.012158642026122282 0.0067989538889918905 -0.009034059959281738
0.011881761685026599 0.004096516159385156 -0.00705549869678372
0.011930117265507627 0.010085623309029434 -0.005085040313658559
0.012202206069221915 0.008837886965735614 -0.008667946077756727
0.011974009380055866 0.006005309059892269 -0.007291371613506701
0.01177200023084879 0.007259103171763247 -0.004432648861800018
0.012717959316078553 -0.0011230000527575612 0.00015178162155102232
0.01225290058215123 -0.0008664608106252815 -0.007401182747514722
0.012316926657070654 0.010517694545618595 0.009676778747755388
0.012746714591881828 0.009456012649318349 0.010922218961327732
0.013121104330051257 0.007757131443352076 0.007555999793112277
0.012718305191385641 0.007115846743035521 0.010055537932493771
0.01177200023084879 0.00811154569734526 0.008812359344470668
0.011799728042490971 0.010763320919154976 0.0075934751002169135
0.012023414262753798 0.005657814961631884 0.010069785910934999
0.014157010613812856 0.016847999766469002 0.005422513168788988
0.014161996395690485 0.016847999766469005 -0.006543925407726538
0.013040813079360704 0.016847999766469002 0.0068618877690131185
0.014252044403832074 0.016847999766469002 -0.0008441756034483273
0.013129812539324291 0.02839699946343899 0.002615356420059568
0.01219797419620947 0.028396999463438988 -0.00015093730770636058
0.013431378436220012 0.028396999463438988 -0.0021064034761706183
0.013872466321536717 0.028396999463438988 -0.003782508303284197
0.011451000347733498 0.02654155265542251 0.002484703493409974
0.011451000347733498 0.02434512328753516 0.003994309703989101
0.011451000347733498 0.02368357034203003 0.005849106983957208
0.011451000347733498 0.02612401212681395 0.0047947209707134494
0.011451000347733498 0.02210939392787361 0.009109745445338723
0.011602226489137562 0.016847999766469002 0.005644722660790556
0.011451000347733498 0.020824768072376158 0.004175311894561219
0.011451000347733498 0.02303837484389061 0.0005409951163496738
0.011451000347733498 0.017976540846490266 0.0008294627858093784
0.011451000347733498 0.019238823577078096 0.0027077552330430584
0.011451000347733498 0.020385912935812503 0.00021847897949992358
0.011451000347733496 0.022312730675196863 0.0030675105648032114
0.015638437987594515 0.02069656101949595 -0.010665257552427886
0.015847517543036288 0.017073542830284685 -0.0010528054127782642
0.01562615343984596 0.017425712752335402 -0.011230040785493011
0.01568813948716643 0.02457076794648282 -0.00838022645555959
0.015656509809451314 0.026549647649118217 -0.009834403850315764
0.015632924524972343 0.024618599856759522 -0.01091873951276295
0.01578895810016458 0.02240240029611917 -0.003745081282312584
0.015749891553651533 0.021096307258020613 -0.005541169416442116
0.01580873229570441 0.017766686469991022 -0.0028359607907125772
0.015802131786767683 0.020374974915257964 -0.003139419807150624
0.01569836262348355 0.02113808790301972 -0.007910216806085186
0.01584125540002948 0.019401522247935333 -0.0013407080239034581
0.015768131289000373 0.019038505944358904 -0.0047025958758099735
0.01575997796156745 0.023256546164950223 -0.005077445868016334
0.015717059286889518 0.018932015831912646 -0.0070506359552398815
0.01568999999716305 0.017865017937409456 -0.008294689334246865
0.015718104797046592 0.023095542560509337 -0.0070025685278668
0.015656301705868965 0.019221664118626035 -0.009843971432001084
0.015662961676610385 0.022070073551582574 -0.009537778653524518
0.015889320304897075 0.016942171407358597 0.0008690804781829676
0.013909076461100189 0.028396999463438988 -0.009858445657416032
0.012860270301443336 0.027955460213838036 0.008398327361139258
0.013901534059438322 0.028396999463438988 0.006307895154500414
0.0114510003477335 0.022866195631742758 0.011254326404128866
0.013707704693092777 0.018443737544561634 -0.01171790662448023
0.013690833082136485 0.02411543893757854 -0.011720743117768436
0.01351454812898889 0.022342336655393633 -0.011683609908326214
0.014288839973510152 0.020616400213541334 -0.01190604446209929
0.015726554667288964 0.025292630491403026 0.0029777677524491105
0.015785981372041617 0.023511124880676904 0.00433399388600265
0.015641720099479835 0.027835818089714665 -0.0054752163491503195
0.015872836929892376 0.020907351639709 0.004509652056625818
0.015734617595453977 0.025050918422314883 -0.004915853864152815
0.015648552360978805 0.02763099919145958 0.005711736377725456
0.015672941963567076 0.026899842819333143 0.0021527043784125774
0.01585245891148305 0.02151824794100645 0.002268519298372858
0.015722294635435285 0.025420338576190502 0.004963155914015858
0.015799133374130178 0.023116851538236463 0.005881942296149056
0.01571434661422893 0.02565860594154815 -0.0012960458661503019
0.015674536111160608 0.026852053144741206 0.00016949649150276025
0.01578371725558255 0.02357899901557896 -0.0025050420266081053
0.015768804707256594 0.02402605036435377 -0.0003956670708198896
0.01574328762420444 0.024791006570759368 0.0011052987991972902
0.015682005277409455 0.0266281409888317 -0.0037301906004225576
0.015634944002236254 0.02803895328471685 -0.008024403201761184
0.01578743216056742 0.017563838725431356 0.006335088777279031
0.01587944873039531 0.019582199735738378 0.001032857225510808
0.015938160011338215 0.017834126429982052 0.004278493332732052
0.015815685400232225 0.022063416529396196 -0.0016179781151394403
0.015912101066234287 0.0183773535378513 0.0024889408191844137
0.015717711802909196 0.025144391936254624 -0.006788231184838784
0.01584346802247199 0.02154733898733391 0.00038456709341684386
0.011451000347733498 0.019214645084440686 -0.0011159879081037605
0.011451000347733498 0.021234755379266314 -0.001312374366592698
0.011472259532224725 0.025512388184972635 -0.003059136436492406
0.011736562236795232 0.02519719977301534 -0.009244590310530224
0.011556527886567268 0.02519989487457406 -0.005281769991497798
0.01197200568397945 0.026619227124860142 -0.007114672908964049
0.012563435372673501 0.02740953135444648 -0.008798700356420858
0.011767540368835785 0.027352271596315838 -0.003909751795275297
0.01159330000880172 0.027736273424555036 -0.0018059077281813588
0.01216198418983376 0.024708361163010072 -0.010864620466450741
0.012996239630148725 0.025898542051725388 -0.011494242202245044
0.012588090926922 0.020598222114469038 0.010054498604337605
0.014455031357585309 0.017228243683915782 0.00780843009414878
0.012458662499260701 0.01813584390438185 0.008413339685423106
0.01304331295232462 0.026688466610007823 0.010066451376217138
0.011674231072855387 0.02276198986021113 -0.007585168434771979
0.011500672250872953 0.020578000182744315 -0.0029195892773943946
0.011469582566298656 0.023411452957626075 -0.0032442409074811204
0.011634472830323846 0.02460838215683065 -0.007360852277365629
0.011560131089253474 0.02185896858617404 -0.0047096670795962955
0.012672642215272478 0.017214110604925316 -0.007370845743381139
0.011787958267102517 0.01778124234374531 -0.003261429110023333
0.011827263432051649 0.019209636557017205 -0.004998762097845697
0.012776600542927277 0.01866713382608323 -0.009479171023561573
0.01248151732826807 0.0209038700482187 -0.010298567605624481
0.011773896037795537 0.020968032749447488 -0.006595051240034075
0.012184169680869175 0.018978280919803022 -0.006653878785267197
0.011938998057393433 0.02319656800870172 -0.009858803623478008
0.015643096852308507 0.024634115775103816 0.0070393719859669765
0.015819750822892668 0.021133629363099204 0.00659203257920909
0.0157262617675671 0.019405274725481717 0.006924537648026165
0.015064010019234622 0.02323592009961939 0.007937770846813977
0.013703492114983127 0.024046594248709526 0.00972745388354736
0.012959230697543336 0.02508856356044564 0.01067495612022996
0.014914315506616939 0.02760587708069264 0.007909160043392824
0.0146736545540843 0.025218831303886812 0.008359048325737467
0.014783714170279794 0.02151815946946279 0.008324627547867869
0.01471481330506424 0.0194253552534231 0.00841416216095133
0.013569182807028263 0.022268761871546777 0.009902874720037
0.015453073416909982 0.027584535565685617 -0.011544926309543475
0.013846805943852798 0.028396999463438988 -0.011676974750801131
0.0021923247415430364 0.03147445075310719 0.008081133036911513
0.003777253066027913 0.03077210344865769 0.009157097009851631
0.0005419999943114817 0.03015749709661782 0.006232907753359376
0.0005419999943114817 0.030571676425693268 0.002559387206080442
0.0005419999943114817 0.029552120409400397 -0.0017378999464217186
0.009571798675472592 0.03147526049886232 0.008299439042199066
0.009846000000834465 0.03087013853447082 0.004582700641055501
0.009846000000834465 0.030556176404623256 0.0022904413924507983
0.009846000000834465 0.029267781865942866 0.010203120382003786
0.009846000000834465 0.030101370267137908 0.0068975938520439905
0.0054021647524140955 0.032249998301267624 0.0032804891688819663
0.008592767050691227 0.032249998301267624 0.0055315846685670515
0.0034545175424622277 0.032249998301267624 0.004790805117167568
0.009038132970739134 0.032249998301267624 -0.004743208180464777
0.008447410428996781 0.032249998301267624 -0.0019370708473293208
0.007125503053991058 0.032249998301267624 0.006333052814591585
0.003643557141139105 0.032249998301267624 0.0015297957514318295
0.0030194621982547734 0.032249998301267624 0.003252453037841696
0.005143238042409387 0.032249998301267624 -0.0014437729454872352
0.00972221315195013 0.032249998301267624 -0.0031134148843758595
0.00493111608058128 0.032249998301267624 0.0004300750245584846
0.008119238926494828 0.032249998301267624 0.003695805198937971
0.007082860300221629 0.032249998301267624 -0.0003971925523761333
0.003944979974925239 0.032249998301267624 0.006451202409626204
0.0020947706726733508 0.032249998301267624 0.00615045095924056
0.008328076486905093 0.032249998301267624 0.001533035688069013
0.006339796654686831 0.032249998301267624 0.001597756169174928
0.007097062491889652 0.032249998301267624 -0.0038070132163839426
0.008139376626452696 0.032249998301267624 -0.0070885013857644175
0.006642690748587909 0.032249998301267624 -0.008421597302625298
0.0012168903123593612 0.032249998301267624 0.0028611434618345116
0.0034279742591169196 0.032249998301267624 -0.002387760453124459
0.0022309632265501127 0.032249998301267624 -0.007764790108664059
0.003671895315316248 0.032249998301267624 -0.00531668311960273
0.0063056221631564826 0.032249998301267624 -0.0063283612561923774
0.005160314567069853 0.032249998301267624 -0.003951456493391392
0.00267861049013888 0.032249998301267624 0.00026332484369167436
0.002477611581376232 0.032249998301267624 -0.009781211111189597
0.0020723784939701063 0.032249998301267624 -0.004223579301683295
0.006240665440791733 0.032249998301267624 -0.010174996686692757
0.0009762062768153804 0.032249998301267624 -0.000888781746483519
0.005064910786930687 0.032249998301267624 -0.008655627086797572
0.001428684703767147 0.032249998301267624 -0.011357522426565451
0.0005419999943114817 0.0319377603557093 0.0012469030282264257
0.0005419999943114817 0.031316223914117106 -0.00913212409119406
0.0005419999943114817 0.032150093950466 -0.007089373329481647
0.007082530286358574 0.028398999944329262 0.0011458951139692792
0.004950517875430342 0.028398999944329265 -0.0029023249667156944
0.005207361391334372 0.028398999944329262 0.003289994759523466
0.004590027693427656 0.02839899994432926 0.0002725574316025666
0.006492420655233084 0.028398999944329262 -0.0008518684915294363
0.008341654092787183 0.02839899994432926 -0.0021466518326707486
0.005631859371856797 0.02839899994432926 -0.004421859357465306
0.00803794298867402 0.028398999944329262 -0.0040520981919313775
0.0038792390109097658 0.028398999944329262 0.004510362841228713
0.006811656945366626 0.028398999944329262 -0.006735276996193225
0.009846000000834465 0.02951499057760324 0.0005949792418095424
0.009846000000834465 0.03111875967484488 -0.008872497762873053
0.009846000000834465 0.030669876499903707 -0.006261979964292337
0.009846000000834465 0.031182392856523203 -0.011542534701681305
0.0051102473795365845 0.028398999944329262 0.006995123775537153
0.006553929710137381 0.028398999944329262 0.006006243333112153
0.00758237113404675 0.02839899994432926 0.0033926045337828977
0.00616724460235628 0.028398999944329262 0.009286612082276876
0.0038539926338956136 0.028398999944329262 0.008732258864169902
0.007979599047672967 0.028398999944329262 0.005061191208985522
0.0005419999943114817 0.029135951436546244 -0.003517387754407048
0.0005419999943114817 0.028548089287458514 0.004924427747878089
0.0031584927304496163 0.028398999944329262 -0.001359852430133081
0.002229340356789546 0.02839899994432926 0.00329960997042533
0.0029451562253919963 0.03023979659894079 -0.011854537955846074
0.0050307323247706925 0.02980775845971411 -0.011664491010393813
0.000830536914804224 0.03047979202619283 0.007785793599612583
0.003874067837925662 0.028891302495307282 -0.00904990886246319
0.0030471308691003727 0.02881533269629985 -0.007141546663156573
0.002953686229561922 0.028400078047478815 -0.003572454818642891
0.0018174901530547839 0.02921667497207572 -0.008544885838860771
0.005314390967821622 0.02851297991800427 -0.008162989773669931
0.0019721160874280677 0.028819924759804088 -0.005512939378159277
0.004647773098522406 0.028398999944329262 -0.005916519586766365
0.0011458635267734703 0.029681224274611173 -0.010828494907114542
0.006238214641983251 0.028697971216150284 -0.01028359225138227
0.008852370540854707 0.02854928439908875 -0.005441286988634979
0.007914470248675733 0.028402078364651768 -0.008279633357384105
0.009679114337941863 0.029526584367314833 -0.007357782209740492
0.009349547027066075 0.02963997860319079 -0.010044596819485854
0.008183812565398407 0.02941759456854516 -0.0113021797326344
0.00539400413288592 0.03158510566132105 0.008165223280009487
0.007454559287326541 0.031153040405464492 0.008770357315405508
0.007854769113883997 0.029824484625309372 0.010631081614794403
0.007869873069474996 0.032247453802926575 -0.011377544289520437
0.004251116415947984 0.031672807759355395 -0.011677538339234857
0.00680310041786244 0.030539895240006044 -0.011813820040298672
0.006237150839827143 0.028635075595941178 0.011522588559773549
0.004828576773495785 0.030032489430429465 0.010152366063456889
0.011405336358915332 0.02972285676154118 0.007743624906708889
0.014240126035225316 0.031028791224791276 0.007592446935836303
0.012329603661321301 0.0312267641918067 0.007604868766530072
0.009847999550402164 0.030554671159539953 -0.004559129026972067
0.009847999550402164 0.030087842169705108 -0.0010086626373324173
0.009847999550402164 0.030504458891588048 -0.0026715977341922647
0.013912001960994104 0.028398999944329262 0.0012321928630478931
0.012558717223521747 0.028398999944329262 0.0044526630773288525
0.01403436475186586 0.028398999944329262 -0.005843408421848525
0.013844745991738606 0.028398999944329262 -0.0005312078988895937
0.014646185134958859 0.028398999944329262 0.0045529106878332976
0.015622000209987164 0.02885326062800117 -0.0016091235230492377
0.015622000209987164 0.02866393736990435 -0.0035897467446344717
0.015622000209987164 0.03102973137531323 0.006093912431340235
0.015622000209987164 0.03017953940575637 0.0038278385499095026
0.015622000209987164 0.02901718698028447 0.0024014164424077697
0.015622000209987164 0.030096428558343033 0.0008022091770186217
0.013826092645842997 0.028398999944329262 -0.007671213721485106
0.009847999550402164 0.03215707592265434 0.003215281193404337
0.015185392943666911 0.032365606019886306 0.0012765476664545836
0.010622208800128985 0.028640802613335917 -0.0032324900383486196
0.011969286962999448 0.028639635001796476 -0.007716213065194052
0.011904299172766943 0.028921009904517084 -0.009580783150859473
0.010625908253367417 0.028925057103878715 -0.005347424613647339
0.012353522426573482 0.028398999944329262 -0.005177482371202635
0.009938191539416653 0.028398999944329262 0.0063796285910711166
0.010449055941049223 0.028398999944329265 0.0037004933985400274
0.014556752865024947 0.03257099911570549 -0.0008797524686751336
0.014328994213214642 0.0325709991157055 0.003353693789583611
0.013611301343976423 0.03257099911570549 -0.008035681032320692
0.01355675300412346 0.03257099911570549 -0.003854871547082936
0.013200727153029335 0.03257099911570549 -0.005691251951703323
0.01294658648934691 0.03257099911570549 -0.0021864766209371608
0.012065493036584494 0.03257099911570548 -0.009427614695605512
0.015098640226655927 0.03245235898859447 -0.004217003697860131
0.015622000209987164 0.02937604451760543 -0.006345417912094859
0.015622000209987164 0.029673834668603107 -0.009070207497356595
0.015622000209987164 0.030334333362232797 -0.0049233171456744326
0.015622000209987164 0.03144867293656758 -0.00153758351661202
0.015622000209987164 0.030524710676161797 -0.007545316479332236
0.015622000209987164 0.030953385841945905 -0.0033446716385974345
0.015403218423473548 0.0321477810943674 -0.009333040712305573
0.015344681329613762 0.032206317678723104 -0.006015814793808449
0.010220755555651401 0.03230470217621379 0.0069404384120904435
0.011280907064060819 0.03253763339534001 -0.0012994900254188215
0.01110685936110704 0.03247888083961656 0.0020162236459466873
0.010733609042812696 0.03239364575944957 0.005226037587538805
0.010678198172542869 0.032502870680604666 -0.005961092731800621
0.013340173985860645 0.03249292417858414 0.0067054722875811695
0.012429319254506714 0.03257099911570549 0.005113621401936389
0.012939457364022598 0.03257099911570549 0.002446579961537778
0.01176764497086727 0.03257099911570549 -0.0040426679573836565
0.012724969890939353 0.03257099911570549 0.0007777278617526777
0.014609586108002188 0.03257099911570549 0.005352757513561158
0.015210163563568824 0.029470398878859376 0.007443922335868698
0.013237059546792614 0.03066632542344088 -0.011698000133037567
0.015612817521234439 0.030058835381194724 -0.010672709672198199
0.010430466629882293 0.03244435624385729 -0.009939063210078508
0.010537280881734898 0.032479998083474834 -0.007797770317548917
0.009847999550402164 0.032153629206072204 0.00010656863520665022
0.012004681797312382 0.03237231182934836 -0.01125414653914986
0.010617269163589993 0.02978099176117931 -0.011220283805547035
0.012333445640607175 0.0291840027719485 -0.011698000133037569
-0.013881078154550964 -0.018461866873450843 -0.011698000133037567
-0.015032729820216684 -0.02114157685429095 -0.011698000133037567
-0.012626944368546559 -0.022013478246838226 -0.002070999937132001
-0.013457607758406445 -0.026054209444264995 -0.002070999937132001
-0.015302079381160953 -0.022091905333836714 -0.002070999937132001
-0.01322882036064623 -0.02413058282590033 -0.002070999937132001
-0.015503999777138233 -0.02757219677425297 -0.010758779143196357
-0.015503999777138233 -0.025690698845926657 -0.010745696554268321
-0.015503999777138233 -0.024894272038219985 -0.00864051678184329
-0.015503999777138231 -0.021009920753642976 -0.005458400896603416
-0.015503999777138233 -0.019518239570683975 -0.009723850039595597
-0.015503999777138233 -0.02338596509429551 -0.006738322870871609
-0.015503999777138233 -0.023373811800876505 -0.00952268607567493
-0.015503999777138233 -0.021723687431453753 -0.007379049501354232
-0.015503999777138233 -0.019868035785786952 -0.007390070017099307
-0.01441941559138921 -0.01813100092113018 -0.008640108280445974
-0.015352095264100826 -0.01813100092113018 -0.007124700857969724
-0.015121010941065636 -0.01813100092113018 -0.005370043049884652
-0.013586436588473843 -0.028354914610496787 -0.002070999937132001
-0.01333886922534379 -0.029040999710559845 -0.0035805310304971344
-0.01312940349869888 -0.018542349046764262 -0.0030879098347040557
-0.012972185097162962 -0.01904525186436138 -0.006656844933118405
-0.01297146570564216 -0.019047553020073642 -0.008658133563179163
-0.012271292104683069 -0.02128723535553484 -0.004361355296059412
-0.013231167353818843 -0.01821683162024546 -0.00480558947062484
-0.011810290949224565 -0.022927445364681324 -0.005106580201281652
-0.012267771144881298 -0.021686136307395996 -0.010557536512724229
-0.012098102947461397 -0.022002823863343943 -0.006665781138591322
-0.012840921044722219 -0.01962611660493057 -0.010815696482384292
-0.011767962349482824 -0.023369044951451763 -0.008855036449245512
-0.012500513394892233 -0.020666946162224892 -0.008284857134057404
-0.011652999557554722 -0.024199298672929 -0.003612092744261604
-0.01444616611873694 -0.029040999710559845 -0.008648736796852567
-0.015393849978484442 -0.023278939929003345 -0.0112334497310803
-0.012684199341030829 -0.027810771171354144 -0.004588783203526306
-0.015503999777138233 -0.01892067768085899 -0.002588354419877617
-0.015503999777138233 -0.02495059383025368 -0.005963154419104683
-0.015503999777138235 -0.02032534046158579 -0.0038328681645256315
-0.015503999777138233 -0.02268508746830971 -0.005004714047779185
-0.015503999777138233 -0.027534578291879427 -0.007554029490552399
-0.015445770631328248 -0.02388240286373775 -0.0038461765073133213
-0.015380550166618143 -0.02658602149592109 -0.004075317167490794
-0.01544431339082511 -0.027750087909791665 -0.005642915379276303
-0.011671181893081091 -0.02416178869308904 -0.0102270869756258
-0.011670032659511234 -0.02492237088069476 -0.007775437753112151
-0.012638517593289982 -0.028070699787761798 -0.008729033531454048
-0.012338207474486851 -0.027094458449217 -0.0064666989707034515
-0.011714063861657444 -0.025065506516257982 -0.0055945516286911075
-0.012142245262774933 -0.026457428925775423 -0.009653421120165958
-0.01438974396435347 -0.025287931445142738 -0.011698000133037565
-0.013592719328730792 -0.028245643021371454 -0.011698000133037567
-0.012649092794544058 -0.025386586063247642 -0.011465342312221011
-0.013282963696833135 -0.023046486699493853 -0.011623933465865169
-0.01540097519454943 -0.01911128860775258 -0.011451182278181008
-0.013501322800066669 -0.021318333925657934 0.00973967730994231
-0.011906490235541327 -0.021036227254731886 0.011039849907832666
-0.009727999567985533 -0.020699114639008885 0.007875532733671722
-0.009727999567985535 -0.021482165575847558 0.00287804558506315
-0.009727999567985535 -0.022795850782154507 0.004175800412916288
-0.009727999567985535 -0.02465064614509933 0.0008378384997723193
-0.009727999567985535 -0.022692688101555253 0.0013554979025413641
-0.014360982432157271 -0.029040999710559845 0.00016017783622534814
-0.014076722595754888 -0.029040999710559845 0.0035367739303552343
-0.014060434377252167 -0.029040999710559845 0.005310060811095714
-0.009727999567985535 -0.01911269756758766 0.00657694010798376
-0.009727999567985535 -0.02038775846680304 0.0012582587892974154
-0.015503999777138233 -0.01834831314345789 0.001602436757631352
-0.01367859290880261 -0.01813100092113018 0.004112836940851656
-0.01150990945310774 -0.01813100092113018 0.0005062478103510331
-0.01415245019910299 -0.01813100092113018 -0.0014936181612227005
-0.009727999567985536 -0.018384897833696595 0.0011539457991599311
-0.011175078362716709 -0.01813100092113018 0.007235624041766113
-0.009745589569807133 -0.01813100092113018 -0.0006263207007711849
-0.010040672155348783 -0.01813100092113018 0.0030728350038042493
-0.010922174909482114 -0.02378196526973458 -0.0016667439118881122
-0.01501008102813971 -0.0253174007351179 -0.002070999937132001
-0.009727999567985535 -0.02384859765966581 0.008813220096862485
-0.009727999567985535 -0.025893873585043255 0.008808967789388607
-0.009727999567985533 -0.027860183407842007 0.0025915360284008877
-0.009727999567985535 -0.028957953743292544 0.0009126575069491538
-0.010573689080806106 -0.02901691888751271 0.007659217127828049
-0.012282289666262852 -0.02890963384415042 0.008123525888781616
-0.01137222172098202 -0.028562447788485924 0.009626079481285533
-0.011523448313099656 -0.029040999710559845 0.004066057483444168
-0.015489800250970973 -0.02454519341190089 0.003138973102488858
-0.015391059694849427 -0.023997247950050826 -0.0010662502109775613
-0.015354812455872915 -0.025644962159383382 -0.0002559906580547036
-0.015359380583032881 -0.027323355914750276 0.002043221173619248
-0.015210496114734249 -0.028681530031429172 -0.0015163936657870013
-0.015267365161949768 -0.026945178146339805 -0.0017069551705081796
-0.015451438389283744 -0.0237536848094547 0.0007684865326066138
-0.015460841081891134 -0.02591966853808027 0.0038602388900859214
-0.015499253707541964 -0.026278236188865427 0.005681306642127861
-0.015499696333681513 -0.02050051604747866 -0.0016591857784816412
-0.015503999777138233 -0.019506238748142675 0.003721453862842375
-0.015503999777138233 -0.020345942977198505 0.0070074828289058404
-0.015503999777138235 -0.024329320553227243 0.005628294629938621
-0.015503999777138233 -0.021317137853530475 0.0006989525929525148
-0.015503999777138233 -0.021824524986665025 0.003026514346343353
-0.015503999777138233 -0.019870606051477713 0.00020926053465208688
-0.015503999777138233 -0.023213637273821634 0.004564149303408726
-0.015503999777138233 -0.02103613310507131 0.005480434497107301
-0.011018402511327869 -0.023077165607314456 0.011726999655365944
-0.010793056337283289 -0.019320994952154676 -0.0013233201265612868
-0.012285784934762086 -0.019780254580704006 -0.0018800137615943915
-0.013860560917002003 -0.019987139404885786 -0.002070999937132001
-0.012388748056369352 -0.02694303078650339 0.010902469043852059
-0.013461610255314017 -0.02798649472167449 0.009454091091710748
-0.015181176271612333 -0.022392477073471414 0.007612987326148082
-0.01346928056882528 -0.025869869994440346 0.009797023891389187
-0.015209663090060072 -0.027034585561342625 0.007536404172854672
-0.013654158859709336 -0.024341221336828707 0.009571028665438176
-0.01499011745958716 -0.025168024302909008 0.007836299603759405
-0.011553408264451635 -0.02566921216552571 0.011726999655365944
-0.013040439904595743 -0.022738084962151156 0.010369914594665788
-0.012449152119055304 -0.02405327235220804 0.011123056631776072
-0.01462199949250909 -0.020124203684898034 0.008355431902851602
-0.011450375569768256 -0.027059950722992138 -0.0016324170335757738
-0.009727999567985535 -0.027944853048971083 0.010293488365995798
-0.009727999567985535 -0.02010723579362488 0.011315206018452813
-0.009727999567985535 -0.02381515197181269 0.010796295784237527
-0.009750035766223259 -0.021833639368371942 0.011490867393086012
-0.010104025849822607 -0.018763910827238953 0.009073196729379925
-0.012935742944451746 -0.01848424273746954 0.008402341098940471
-0.011272706835310934 -0.019258729259455404 0.01026014562859587
-0.012983680486831989 -0.01942161571998538 0.009696942774950888
-0.016028279183010155 -0.003303909629202088 -0.011205122367648687
-0.014273408266052001 -0.0014440000522881746 -0.003452825728106133
-0.013257999904453754 -0.0037855547811828233 -0.002716141430356476
-0.013257999904453754 -0.008099863451877081 -0.0032297363486196084
-0.013257999904453753 -0.0038997169372577026 -0.0045402177616765405
-0.013257999904453754 -0.01025831150984981 -0.0026774481850532677
-0.013257999904453753 -0.001597368009425969 -0.005059222837204473
-0.013257999904453754 -0.006216127914059887 -0.004018413276256022
-0.014263893722840638 -0.009767471196408079 -0.001429000054486096
-0.013257999904453756 -0.016110153954664072 -0.0023747941602741966
-0.013257999904453754 -0.01118505418257458 -0.007059124506729984
-0.013257999904453753 -0.003497634998892894 -0.006691151824983007
-0.013257999904453754 -0.011882873243092302 -0.004258329828956079
-0.013257999904453754 -0.0069707721194791445 -0.009897693440151496
-0.013257999904453754 -0.013217777291959162 -0.002807647056710981
-0.013257999904453754 -0.0044097413715950265 -0.008433974622891926
-0.013257999904453754 -0.006280591749540598 -0.006166535785223668
-0.013257999904453754 -0.00900675010946759 -0.007794365991209076
-0.013257999904453754 -0.014745327652863117 -0.004362001663170484
-0.013257999904453754 -0.01329643040176623 -0.00565833006429961
-0.013257999904453754 -0.016834816100649495 -0.0078007082689254825
-0.013257999904453754 -0.010813071242890326 -0.009072826115313778
-0.013257999904453754 -0.017486725377978983 -0.01028008559528806
-0.013257999904453754 -0.015628602182347476 -0.009878018244817498
-0.013257999904453754 -0.012776473941562977 -0.007407779506723215
-0.013257999904453754 -0.011062314049445557 -0.010980684271350773
-0.013257999904453753 -0.016402928816614863 -0.004374012489977866
-0.013257999904453754 -0.015112776972667552 -0.007363583676933983
-0.013257999904453754 -0.017374665777641667 -0.006122117852644583
-0.013257999904453754 -0.01368510545523408 -0.010817045733149002
-0.013257999904453753 -0.01253537306803177 -0.009307265741054843
-0.014587863666560669 -0.0014440000522881746 -0.0017254376627953458
-0.01557224262143855 -0.017582924864077656 -0.0039174502572697605
-0.015617897014410732 -0.01721626254301135 -0.00951554098354311
-0.015944364543165435 -0.006770032129014563 -0.011136090037711533
-0.01571336515775605 -0.015469105797850727 -0.010727750929337079
-0.015830834048908615 -0.013414492867605127 -0.010473447558623854
-0.01594584146519113 -0.0043750465604535434 -0.0024037338988503313
-0.015877561633352757 -0.006987991824780355 -0.0018574966556122205
-0.015942754115480615 -0.002472585125950306 -0.0023790351649873535
-0.01568022102514749 -0.015510480722362528 -0.00294514222887888
-0.01559835678805708 -0.016428716278206097 -0.001432919491698082
-0.01582371097008242 -0.01522308849095444 -0.009166318422302354
-0.01572911593843801 -0.016306497973308767 -0.007479366030215609
-0.015785384531917225 -0.013571013107225322 -0.0028354737735036464
-0.01567616672963461 -0.01633102032645968 -0.004963503313946528
-0.015780148195455566 -0.014413857638712042 -0.004856432097916072
-0.014558525550945138 -0.012895745106616464 -0.011952624280377893
-0.014664943298334272 -0.004736061616702033 -0.011771197568437503
-0.014637734935176668 -0.0019491104966797587 -0.011709231025412986
-0.016145000234246254 -0.0023494946252016974 -0.006287295860680433
-0.016145000234246254 -0.0024751456374542315 -0.008874405276896534
-0.016145000234246254 -0.004019883213957577 -0.009414057325805069
-0.016010807456685795 -0.00905153922615452 -0.009970491736729818
-0.01593512539554772 -0.010812277594555332 -0.010370980123136836
-0.01600709022823815 -0.007511631170549463 -0.0053775334842486
-0.016114615495838522 -0.004753104676547963 -0.007848784636105475
-0.015958491704354337 -0.008368482836973955 -0.003559210096753894
-0.016065261336303975 -0.0056772111992004215 -0.006099199510615507
-0.015857117478383493 -0.011309884291598422 -0.0018421240214662263
-0.016028741956656555 -0.005907423476526361 -0.0039887305721380455
-0.016098257639862168 -0.0033750750923450526 -0.004239239296331974
-0.01590397892777001 -0.011602777981254572 -0.00666203419561038
-0.01582847558448932 -0.014496117084628342 -0.007623289310627937
-0.01586265512831873 -0.012452793289295962 -0.005207031361965793
-0.015870382299822683 -0.011623999895588686 -0.003670012107740887
-0.01598084271915294 -0.009018835729088858 -0.006659860576152205
-0.016077649968992188 -0.006557265472598305 -0.00879831477327878
-0.015906052083422436 -0.012177742638447174 -0.008403034987503114
-0.015958173996513732 -0.010283058605498458 -0.008016722231449436
-0.01603637473917819 -0.007339598637703792 -0.007164927871700946
-0.01593314520728304 -0.010108136871371918 -0.005272609977252742
-0.01441644372102437 -0.016843074198317088 -0.011833773097217955
-0.014202080592231166 -0.00909105151593952 -0.011798940589516147
-0.01427357808352651 -0.01496505228773972 -0.011908021872450485
-0.013510524462837042 -0.007622694376502147 -0.011489017120940914
-0.013457364647101979 -0.004176502349944135 -0.010060479903020178
-0.013720861576042256 -0.00214362486723081 -0.010480332503255647
-0.01527494710610254 -0.010378004567800737 -0.011814389874936312
-0.012151901723900047 -0.008215191241486505 -0.008732403149482908
-0.012501907258253377 -0.009175134022493857 -0.010651272066303726
-0.012484363087300908 -0.00824051015648761 -0.0014694315244866397
-0.012649291073640294 -0.009887038713748212 -0.004338709493415386
-0.012904808509566332 -0.006770453936167605 -0.007971895177350618
-0.012568583420611302 -0.006436037817747285 -0.0017237880343379413
-0.011974000371992588 -0.008068718256838912 -0.004469033708193073
-0.012147195993462237 -0.008996837510657205 -0.006454890496263283
-0.015481392221448925 -0.017475335332742547 0.007293033073648867
-0.009727999567985535 -0.012537320469788324 0.005584599539817826
-0.009727999567985535 -0.01096599363822919 0.006650077424033868
-0.009727999567985535 -0.01044212697463581 0.004939490235598587
-0.009727999567985535 -0.004645230719795726 0.002243884802969246
-0.013485738548074541 -0.0014440000522881746 0.0005946537830380548
-0.012433749172569435 -0.0014440000522881746 0.001817355037692817
-0.010995264474617057 -0.0014440000522881748 0.0034322527823157983
-0.011776991352484733 -0.005701115861776771 0.007555999793112278
-0.014768171510664452 -0.002878593940151791 0.007555999793112278
-0.013736026181045712 -0.005734226111444328 0.007555999793112278
-0.011405406578083178 -0.009190680061371257 0.007555999793112278
-0.011411874237263621 -0.0023530503640761214 0.007555999793112278
-0.014992567213111369 -0.0014440000522881746 0.0038042348196669013
-0.011827254011378689 -0.0014440000522881744 0.005320995580057255
-0.015132907269774955 -0.0014440000522881746 0.00020908369692575256
-0.01317960810099205 -0.0014440000522881746 0.007008858862459642
-0.009727999567985535 -0.011284797733276971 0.0022495150605431834
-0.009727999567985535 -0.016583532107963407 0.0006652305713127016
-0.009727999567985535 -0.014705367710227145 0.0014902479051598278
-0.009727999567985535 -0.014420052831038442 0.005475024898260082
-0.009727999567985535 -0.01378286094480096 0.003175389162175516
-0.009727999567985535 -0.015504260365169078 0.003796334855296744
-0.012166677163726904 -0.01813100092113018 0.0028397025103918806
-0.013816761300483307 -0.01813100092113018 0.0008097210649426783
-0.014392738848195242 -0.011937373976957436 -0.001429000054486096
-0.011204541996237268 -0.014015924622746315 0.007555999793112278
-0.013790266034028328 -0.016196296598578117 0.007555999793112278
-0.014766649246689412 -0.007108848513659742 0.007555999793112278
-0.014830928199110215 -0.012606378393857021 0.007555999793112278
-0.010771593897834901 -0.015765208382281924 0.007555999793112278
-0.013364712512824353 -0.013882841183936135 0.007555999793112278
-0.012623504802361496 -0.010884977578010914 0.007555999793112278
-0.012234424475663816 -0.01813100092113018 0.0055895283398766805
-0.013887252410844474 -0.01813100092113018 0.006551248288923431
-0.010950826225097772 -0.01518427215253359 -0.0011111022392732474
-0.01120746301578342 -0.01691810959259215 -0.0010979831422503548
-0.010820837798018514 -0.012299317709577186 -0.0011869678537969777
-0.01442090190745666 -0.007331038096033697 -0.001429000054486096
-0.014447673178344512 -0.00536089043642367 -0.001429000054486096
-0.01460259520937264 -0.0033741564781999147 -0.001429000054486096
-0.010164204492505897 -0.005657909204816004 -0.0007554396789111311
-0.015823999419808388 -0.0035167494776531154 0.002727473948318099
-0.015823999419808388 -0.0028665060877725848 0.000934980275145203
-0.015823999419808388 -0.005291400647965558 0.006367571004924702
-0.015823999419808388 -0.004149928553420794 0.004869831918296872
-0.015823999419808388 -0.0072594138263301165 0.005440455630506196
-0.015823999419808388 -0.0022983641545558592 0.00505048989315789
-0.015823999419808388 -0.0052964785559524155 0.0033622495164144775
-0.015823999419808388 -0.006933655447449146 0.0018730280762819854
-0.015823999419808388 -0.011087846642596428 0.005304458381025725
-0.015823999419808388 -0.008683629507919543 0.0030807793557222395
-0.015823999419808388 -0.012022238521021876 0.0036022581863249625
-0.015823999419808388 -0.012901924956581844 0.0018052420248861893
-0.015823999419808388 -0.005827152338154037 0.00017557677003656553
-0.015823999419808388 -0.003922703153684683 -0.0004943944716381993
-0.015823999419808388 -0.010242955802007854 0.0003157346909585697
-0.015823999419808388 -0.01406666787944665 0.00501387975763646
-0.015823999419808388 -0.012587439455154874 -0.0003261134975678003
-0.015823999419808388 -0.00865278118583289 0.0011624391423852918
-0.015823999419808388 -0.014113949076610545 0.0033338292046170516
-0.015572222502302504 -0.01741475226692396 -7.52366884669444e-05
-0.015680206358717166 -0.01627289845408786 0.001973829099852762
-0.01577359876260173 -0.014317441869184211 0.0012726459594641277
-0.015723945110754752 -0.014287442430514885 -0.0010879464849759511
-0.015815661671154918 -0.008840422046765732 -0.001429000054486096
-0.015548414121433785 -0.01772212788241326 0.003343058008463508
-0.015751769887333452 -0.015891291149703647 0.004640236674418381
-0.015559296767662791 -0.017624150092715483 0.005565632792666059
-0.012554515712985307 -0.014515156614479933 -0.0014035760424297866
-0.011123064987693018 -0.009487994514264284 -0.001300696139495997
-0.013080016261169532 -0.0023755488246019253 -0.0014290000544860961
-0.012585333805288888 -0.012057074135032153 -0.001429000054486096
-0.011933813657101668 -0.004635149626091866 -0.0013341241188243502
-0.015503429692147947 -0.010322370269917868 0.007452465451247679
-0.015823999419808388 -0.009036516251862503 0.006609471129965923
-0.015823999419808388 -0.012668671914271665 0.006292550154274076
-0.015686294856354113 -0.014897271424314708 0.0072058396561929215
-0.011123800080583881 -0.011884252079358336 0.007555999793112279
-0.010383046447336713 -0.006979207289661267 0.007555999793112278
-0.009727999567985535 -0.006057144371375105 0.010257819548870346
-0.009727999567985535 -0.008445686520290086 0.00852475099384804
-0.009727999567985535 -0.008296214717558792 0.011353063048912149
-0.0116309818211496 -0.007971723366817257 0.011726999655365944
