0.00769399991259 -0.035614454146 0.000654155555901
0.00769399991259 -0.0317074474898 0.000243847377366
0.00769399991259 -0.0317936797966 0.0188263246411
0.00769399991259 -0.0218665194338 0.0162184687135
0.00769399991259 -0.0409497675287 0.0239931471894
0.00769399991259 -0.0206888831217 -0.0124845235571
0.00769399991259 -0.0488569855164 0.0248368209858
0.00769399991259 -0.0194877820486 0.0186659482636
0.00769399991259 -0.0183600880247 -0.00168628226182
0.00769399991259 -0.0288359973227 0.00708900211314
0.00769399991259 -0.0408553620745 0.0202723979808
0.00769399991259 -0.0177374974178 -0.0138656522643
0.00769399991259 -0.0161294741621 0.0172588739661
0.00769399991259 -0.0356552929708 0.0218865248807
0.00769399991259 -0.0195731909774 0.00431207285124
0.00769399991259 -0.0306994031273 0.00967396812217
-0.0134579995647 -0.0491519469945 0.00342813879526
-0.0134579995647 -0.0452912027128 -0.0261229140152
-0.0134579995647 -0.0453042803348 -0.0183399859151
-0.0134579995647 -0.0489543259185 -0.0133847036112
-0.0134579995647 -0.0552407015884 -0.0236012374988
-0.0134579995647 -0.0300784377902 -0.0117925706794
-0.0134579995647 -0.0361118740976 -0.00557080279588
-0.0134579995647 -0.0366959299652 -0.019969885219
-0.0134579995647 -0.041138125288 -0.0272565600853
-0.0134579995647 -0.0385152548591 0.000843867550181
-0.0134579995647 -0.0426147179163 0.00122246262392
-0.0134579995647 -0.0547908598225 -0.0111257528048
-0.0134579995647 -0.034368126176 -0.00327108306013
-0.0134579995647 -0.053584984173 -0.0138543588663
-0.0134579995647 -0.0560194351217 -0.00834014656159
-0.0134579995647 -0.0391064591185 -0.0172108323075
-0.0134579995647 -0.021698799353 -0.0266487732272
-0.0134579995647 -0.0505189836041 -0.0163915572792
-0.0134579995647 -0.0186298345605 -0.0250126476397
-0.0134579995647 -0.0262065899247 -0.0146428978134
-0.0134579995647 -0.0276774436411 -0.0238197820875
-0.0134579995647 -0.0246286265841 -0.0258223933782
-0.0134579995647 -0.0556188239781 -0.0158190264122
-0.0134579995647 -0.0349368631425 -0.0233355590156
-0.0134579995647 -0.0302244395254 -0.0285017703051
-0.0134579995647 -0.050352609559 0.00939604606836
-0.0134579995647 -0.0521317432685 -0.0246195883391
-0.0134579995647 -0.0486351998107 -0.00857838719376
-0.0134579995647 -0.0512663133076 -0.0110031611601
-0.0134579995647 -0.0469602133023 -0.0229848608903
-0.0134579995647 -0.0456197187043 0.0023426743267
-0.0134579995647 -0.0544429259385 -0.0207153377808
-0.0134579995647 -0.0516132839468 0.00151045532655
-0.0134579995647 -0.0316309856895 -0.0241590397074
-0.0134579995647 -0.0575189033617 -0.013083622358
-0.0134579995647 -0.0335273612299 -0.0201047718835
-0.0134579995647 -0.0374965253388 -0.00232856850571
-0.0134579995647 -0.0382640398737 -0.0115246053834
-0.0134579995647 -0.0440758806447 0.00885153860746
-0.0134579995647 -0.04364065328 -0.0140768876843
-0.0134579995647 -0.0361009600344 -0.0140654246203
-0.0134579995647 -0.0453157876291 0.0122366663846
-0.0134579995647 -0.0467145153244 -0.015723742825
-0.0134579995647 -0.0480661720657 -0.00283515561863
-0.0134579995647 -0.0534927329435 -0.0181508629391
-0.0134579995647 -0.0544014679482 0.00224815995592
-0.0134579995647 -0.0258502268289 -0.0183156942236
-0.0134579995647 -0.0333122709772 -0.0139441110632
-0.0134579995647 -0.0457017392733 -0.00693198177684
-0.0134579995647 -0.0343609757791 -0.00838199515073
-0.0134579995647 -0.0517529332121 -0.00476769383984
-0.0134579995647 -0.0417333284541 -0.00631159607281
-0.0134579995647 -0.0524067993224 -0.0015593406483
0.00769399991259 -0.0254093891595 -0.0281396733252
0.00769399991259 -0.0416398081129 -0.0156675504107
0.00769399991259 -0.0505839900902 -0.0184758986145
0.00769399991259 -0.0521203014796 0.00793490920142
0.00769399991259 -0.0297773257762 -0.012561858425
0.00769399991259 -0.0452441629184 -0.0224789921736
0.00769399991259 -0.0267627239084 -0.0185302341052
0.00769399991259 -0.0351591739937 -0.0178765190463
0.00769399991259 -0.0448745960939 -0.025357295724
0.00769399991259 -0.0500894825261 -0.0125331224622
0.00769399991259 -0.0457673792818 -0.0281170888226
0.00769399991259 -0.0303976792675 -0.0241758763912
0.00769399991259 -0.0461092656669 0.00840378256886
0.00769399991259 -0.0526699412908 0.016040079717
0.00769399991259 -0.0390765507238 -0.01362681214
0.00769399991259 -0.042161003731 -0.00702564377533
0.00769399991259 -0.0422562879627 -0.0278618800099
0.00769399991259 -0.0217216783627 -0.0239673399782
0.00769399991259 -0.0481077286256 0.0110614736444
0.00769399991259 -0.0379759122964 -0.010882720721
0.00769399991259 -0.0234491237741 -0.0184702683644
0.00769399991259 -0.0447873109213 -0.0186872865482
0.00769399991259 -0.0391578733147 -0.0277746092242
0.00769399991259 -0.0422129803794 -0.00360812140707
0.00769399991259 -0.0483276453727 -0.0152166156241
0.00769399991259 -0.036984397089 -0.0245679183969
0.00769399991259 -0.022599829769 -0.0282654293634
0.00769399991259 -0.0515972567485 0.00111874615412
0.00769399991259 -0.0473216087677 -0.000765444030675
0.00769399991259 -0.0272736749109 -0.0154942104979
0.00769399991259 -0.0420997554063 -0.0124337686244
0.00769399991259 -0.0449196061801 -0.00526605813974
0.00769399991259 -0.0417510879516 0.000756269937883
0.00769399991259 -0.0392226100604 -0.00576519521006
0.00769399991259 -0.0241527217208 -0.0310803023899
0.00769399991259 -0.0267148340013 -0.0254232800722
0.00769399991259 -0.0195023444714 -0.0267295487218
0.00769399991259 -0.0477549596161 -0.0101224512425
0.00769399991259 -0.0359932373012 -0.0279328583292
0.00769399991259 -0.0390355336313 0.00132074281103
0.00769399991259 -0.0536815480765 0.0199203190435
-0.0118022074783 -0.0141009995714 0.00428529893123
-0.0131631675066 -0.0141009995714 -0.00672078039633
-0.0119613907312 -0.0141009995714 0.0200202838924
-0.0109304199092 -0.0141009995714 0.0121375569881
-0.00974735225318 -0.0141009995714 0.0161678930246
-0.0126943991868 -0.0141009995714 0.0151666454477
-0.0134579995647 -0.0272148913619 0.0102677603581
-0.0134579995647 -0.038066145246 0.00980712417775
-0.0134579995647 -0.0255809149859 0.0225404722696
-0.0134579995647 -0.0451824892565 0.0199129582956
-0.0134579995647 -0.0197425366759 -0.00770299110614
-0.0134579995647 -0.0256002130513 0.0163578687814
-0.0134579995647 -0.0469661919928 0.0169840970651
-0.0134579995647 -0.0160314653676 -0.0010953091137
-0.0134579995647 -0.017332249466 0.0024591855352
-0.0134579995647 -0.0245736087373 0.000441979362907
-0.0134579995647 -0.0194521622271 0.00478354888226
-0.0134579995647 -0.0411631839321 0.0198147827913
-0.0134579995647 -0.021672758711 0.00225203245503
-0.0134579995647 -0.0231695121566 0.0135048918825
-0.0134579995647 -0.0211042151536 0.0266635108999
-0.0134579995647 -0.0308055086042 0.0224346404354
-0.0134579995647 -0.0353837346002 0.00845316454002
-0.0134579995647 -0.0236262738011 -0.0164674271388
-0.0134579995647 -0.0187781780859 -0.0209143489771
-0.0134579995647 -0.0166780200025 0.009788879716
-0.0134579995647 -0.0307586272068 -0.000274801028439
-0.0134579995647 -0.0383995245254 0.0153668741595
-0.0134579995647 -0.0237563625103 0.010630595637
-0.0134579995647 -0.0170449909625 0.00639439353231
-0.0134579995647 -0.0287368567674 -0.00918524083818
-0.0134579995647 -0.0291671280306 0.0173117633796
-0.0134579995647 -0.0365852392235 0.00522741269451
-0.0134579995647 -0.0172811663376 -0.0123278262455
-0.0134579995647 -0.0415516381709 0.0168333340711
-0.0134579995647 -0.031665241845 -0.00495242846695
-0.0134579995647 -0.0197116007063 -0.00172191613794
-0.0134579995647 -0.0301346041957 0.0126965975845
-0.0134579995647 -0.0215797439577 -0.0190214056573
-0.0134579995647 -0.0460302339833 0.0228511127342
-0.0134579995647 -0.0197871077363 0.0166219481999
-0.0134579995647 -0.0298158047372 0.00331423978802
-0.0134579995647 -0.0205655541269 -0.0127380024783
-0.0134579995647 -0.0162192408627 0.0245295134074
-0.0134579995647 -0.022089875333 0.023741989072
-0.0134579995647 -0.0171913756633 0.018498218928
-0.0134579995647 -0.0315163512835 0.0151496459877
0.0020188197086 -0.0612664634637 -0.0240190863566
0.00769399991259 -0.0572586152112 -0.0122451797511
0.00769399991259 -0.0578038989799 -0.0159279778265
0.00769399991259 -0.0541112949418 -0.0153964651885
0.00769399991259 -0.0544189345354 -0.0220264053445
0.00769399991259 -0.0534976128693 -0.0187547739925
0.00769399991259 -0.0528206522198 -0.0266825044835
0.00769399991259 -0.0576131976325 -0.0214983860495
0.00769399991259 -0.0554757055973 0.00163218179953
0.00769399991259 -0.0567228383931 -0.0186628014651
0.00522852612326 -0.0575386142384 -0.0285487199458
0.000392703361793 -0.0514127887307 -0.0306170614892
0.00423140275136 -0.0510135124635 -0.0308339924916
-0.00233570000057 -0.0530974024022 -0.0299680359433
-0.00544057113615 -0.052308456538 -0.0301853500596
0.00280737033139 -0.054017902189 -0.0297445436498
-0.0134579995647 -0.051089666793 -0.0275990544547
-0.00778969528561 -0.0580095127718 -0.0279069458247
-0.002831316127 -0.0591612168998 -0.0276570983578
-0.00947790455365 -0.0558858702975 -0.0286852676928
-0.00963542553756 -0.0525564432816 -0.0300115745362
0.00435179136891 -0.0604995388085 -0.0274273246906
-0.0124079507695 -0.0513726131427 -0.030367418937
0.000250515107115 -0.058577181585 -0.0280222414828
-0.0108551725032 -0.0583074747232 -0.0276570360569
-0.00381133940498 -0.0563007816493 -0.0287605877085
-0.00740857454357 -0.0544494010537 0.0256396326302
-0.0108669154169 -0.0533580506959 0.0259746648105
0.00555064752515 -0.0527131785436 0.0257445436661
-0.00186369174046 -0.0520883347108 0.0260623782187
-0.00546922331321 -0.0524582465321 0.0260596091987
0.00145195018994 -0.0513846508377 0.0261498074011
-0.00345546875308 -0.0287544750592 0.0270629990846
0.00212513802403 -0.0346718422679 0.0270629990846
0.0043379940024 -0.0265807951843 0.0270629990846
-0.000750690962635 -0.0327205207806 0.0270629990846
-0.00390386853852 -0.0226046756157 0.0270629990846
0.00156773866055 -0.0263115785784 0.0270629990846
-0.000627416302872 -0.0236982690763 0.0270629990846
0.000328014637792 -0.0376053452098 0.0270629990846
0.0015864937331 -0.044692068977 0.0270629990846
-0.00140684676092 -0.0199320341455 0.0270629990846
-0.00279323008244 -0.0615319982171 -0.0209870265393
-0.0132119498875 -0.027084224773 0.0270582394811
-0.0128484631922 -0.0305120157529 0.0270585936408
-0.00918825317189 -0.0501720195256 0.0266020008853
-0.0129752824641 -0.0505052886958 0.0265656022603
-0.00394616446028 -0.0498832702548 0.0266177954604
-0.00588049693607 -0.0405146953749 0.0270611769276
-0.0100309122627 -0.0296657836881 0.0270609159356
-0.00174003374169 -0.0444317754589 0.0270621189517
-0.0072045961372 -0.0358988894703 0.0270612076415
-0.0100664739895 -0.0419913294997 0.0270596878966
-0.003975314617 -0.0470821976928 0.0270611400351
-0.0106171247333 -0.0359846957543 0.0270601040948
-0.00313341686724 -0.0377007244156 0.0270623362236
-0.00715251533765 -0.0473365245148 0.0270600953706
-0.000523468295678 -0.0473197167838 0.0270622242841
-0.000609035509853 -0.0407547889439 0.0270628448351
-0.00760932563481 -0.0435258889696 0.02706032492
-0.00421033667807 -0.0345741939667 0.027062299254
-0.0116327394743 -0.0475912420316 0.0270586325286
0.00537877536574 -0.0612747782567 -0.0236121867133
0.00305531736735 -0.0615319982171 -0.0192507553673
-0.00122081432808 -0.0615319982171 -0.0178441374865
0.00296611496392 -0.0597390827295 -0.00487895067889
-0.00375530896483 -0.0614029899618 -0.0156786624981
0.00647888381264 -0.0562328479217 0.0178785232709
-0.000787839775231 -0.0591524575445 -0.00107141692868
0.00608359310999 -0.0577232817536 0.00820475326913
-0.00301244121917 -0.0605661137897 -0.0102468563782
0.0031846971501 -0.0603567600977 -0.00888803089921
0.00184724207823 -0.0586176370847 0.00239987445615
-3.72046627288e-05 -0.0598545420997 -0.00562834818147
0.00341751436363 -0.0580136217914 0.00632027997812
0.00150585454999 -0.0614519742658 -0.0159965987124
0.00463882496342 -0.0590222972859 -0.000226602232671
0.0064684637345 -0.056711983966 0.0147686556656
0.00477039629043 -0.0572844866911 0.0110527847764
0.00212321118185 -0.0609225422739 -0.0125602815731
-0.000795589205077 -0.0610088855839 -0.0131206991536
0.00571981306482 -0.0486247011782 -0.0312639996409
0.00733671950514 -0.0435578451665 -0.0312639996409
0.00539545730118 -0.0410618157831 -0.0312639996409
0.00491022155597 -0.034320302525 -0.0312639996409
-0.0028392431426 -0.0501020297359 -0.0309650211973
0.00167205277043 -0.0486501472044 -0.0312279987112
-0.0125748901824 -0.0266134659227 -0.0306536050741
-0.00774702011629 -0.0431062042354 -0.0308482501889
-0.00796007022916 -0.0352089958361 -0.0308396606529
-0.00391165978012 -0.0358836153766 -0.0310028803142
-0.00354421232368 -0.0401054778249 -0.0310176946839
-0.00170257615028 -0.0473103895646 -0.0310919438828
-0.0110734254057 -0.0432936800791 -0.0307141395914
-0.0110471115718 -0.0231791588274 -0.0307152004855
-0.0114908751165 -0.0467237458507 -0.030697309282
-0.0113447308344 -0.0353727082677 -0.0307032013773
-0.00835146325078 -0.0470183748015 -0.0308238808704
-0.00498637596353 -0.0475699128249 -0.0309595510091
-0.0111644969962 -0.0313170710199 -0.0307104678604
-0.00840753847242 -0.0285979200321 -0.0308216200871
-0.00941436161899 -0.0406543781431 -0.0307810280239
-0.00819838091855 -0.0498276452161 -0.0308300526869
-0.00705173956868 -0.0383067652516 -0.0308762817971
-0.00354038677382 -0.0443443567729 -0.0310178489185
0.00438604161443 -0.0498191450585 0.0264179218559
0.00274596219667 -0.0475583887098 0.0269720684381
0.00712727518342 -0.0346042909626 0.0267418689271
0.00603987225303 -0.0313375540748 0.0269198094809
0.00666617866471 -0.0395192464598 0.0266999006176
0.00445496914303 -0.0374228199627 0.0269770036364
0.00560694376821 -0.0444530818978 0.0267219682707
0.00769399991259 -0.0606231238449 -0.0200059831797
0.00540815240257 -0.0612698451835 -0.0177738308645
0.00674448634582 -0.0581057476102 0.00438687514027
0.00740335172671 -0.058466816468 0.000657395216442
0.00609365636201 -0.0604335843868 -0.0119012483851
0.00765621175616 -0.0595077904583 -0.00748759014552
0.00757855037702 -0.0588531008908 -0.00249387626007
0.00751503481978 -0.0570010544549 0.0113855181154
0.00262103015502 -0.0567794725364 0.0143306161538
0.00515273417317 -0.0557406959574 0.0210728716594
0.00165210320156 -0.0571732937905 0.0117744904458
-0.00241798813999 -0.0581426934677 0.00548253080529
0.000938863028785 -0.0558659376765 0.0202599811036
-0.000204007362447 -0.0563739861999 0.0169624549341
0.00262585314788 -0.0563096783478 0.0173798497603
0.00181736897888 -0.055261266997 0.0241846404583
-0.00229927402191 -0.059608083055 -0.00402868769236
-0.00358903903679 -0.0601367134211 -0.00745980182018
0.000338697358826 -0.0577245317507 0.00819664007144
-0.0111510310026 -0.0557746991522 0.0182545339011
-0.0045153073173 -0.0585394221707 0.00263600871343
-0.0049360193741 -0.059311460776 -0.00228831349802
-0.00259210874366 -0.0560346980761 0.0187501975479
-0.0127438735554 -0.0551389068667 0.0218297130139
-0.0100641954111 -0.0576448878365 0.00684721937006
-0.00936438031257 -0.0583593734448 0.00255963593292
-0.000991598858466 -0.055069927594 0.0251699115921
-0.00305053011488 -0.0555423183243 0.021710841817
-0.00670023982284 -0.0568126138313 0.0128762808838
-0.0071543414803 -0.057990370982 0.00541061869858
-0.0072758523151 -0.0574034752542 0.00904477599675
-0.0093311234164 -0.0568983462018 0.0116896846437
-0.00811433430492 -0.059132451513 -0.00195754353508
-0.00650671792382 -0.0558254044299 0.0190877601315
-0.00396378517213 -0.0549420433383 0.0252325179928
-0.00239926855423 -0.0571798752162 0.01164811079
-0.00718050171443 -0.0596705105606 -0.00508568469656
-0.00889375265161 -0.0562613989207 0.0157746984173
-0.00816475567334 -0.0552714102364 0.0221360984314
-0.00464145501624 -0.0575859204744 0.00855789523176
-0.00184954397097 -0.0610764742678 -0.0253191354172
-0.0049521777186 -0.0613085754301 -0.0232828332933
-0.01263680566 -0.0606959562441 -0.0263705952216
-0.00573907751373 -0.0606689002359 -0.0268163248235
-0.0134579995647 -0.0606661058475 -0.0234986500844
0.00419363625243 -0.0376164563702 -0.0312639996409
0.00472719376953 -0.0267076760259 -0.0312639996409
0.00598452483467 -0.0190719360185 -0.0312639996409
-0.00298792359361 -0.0198053144844 -0.0309965828842
-0.0100888392302 -0.0169671352254 -0.0307424784782
0.00129593730822 -0.0263582252982 -0.0311623459126
-0.000686222334342 -0.0368658643891 -0.0311205153918
-0.000459973321489 -0.0216938701083 -0.0310893064273
-0.00812957002567 -0.0213745383469 -0.0308219240478
0.00438866684046 -0.023346103504 -0.0312620779084
0.00354739466321 -0.0153971012763 -0.0312123681298
0.000855402574099 -0.0436913465243 -0.031191672825
-0.00526521236759 -0.0245066642973 -0.0309295421277
-0.00471568837753 -0.0303843241375 -0.0309637777622
-0.00276865162721 -0.0329312543043 -0.0310380069234
0.00218216020853 -0.0349873635048 -0.0312153695221
0.00137773708158 -0.031410102443 -0.0311781989654
-1.30280150088e-05 -0.0188403782178 -0.0310974916164
-0.00640154154595 -0.0180073996207 -0.0308733110211
-0.00193181581236 -0.0243469664228 -0.0310449844351
0.000435067744151 -0.0149761016826 -0.0311031137225
-2.19560980256e-05 -0.04064051308 -0.031153323069
0.00255076360216 -0.0209063806738 -0.031191917818
-0.00782344564128 -0.0602958054361 -0.00928528254728
-0.00801896133908 -0.0606979295412 -0.0122937238951
-0.00862107738937 -0.0612059690665 -0.0164495232731
-0.0116565207251 -0.0591628979413 -0.00540463641263
-0.0120045928912 -0.0584076500804 -0.000445425314806
-0.0128850745303 -0.0568760635599 0.00940539255108
-0.0121200977123 -0.0598322738366 -0.0107112302505
-0.0125854552589 -0.0563813975542 0.0132762368027
-0.012790048211 -0.0574966127981 0.00510526707535
-0.00714732959236 -0.0614600194373 -0.0207971918552
-0.0100737556264 -0.0612452507592 -0.0225661963428
-0.00188135354662 -0.0349798931948 0.029714625819
-0.00915190929881 -0.0220077101601 0.0270649995655
0.00203657055067 -0.0199089209828 0.0270649995655
-0.00735585552376 -0.0240738650717 0.0270649995655
-0.00435728755953 -0.019000976476 0.0270649995655
-0.0100096703906 -0.0171313522614 0.0270649995655
-0.00729581284078 -0.0192549782551 0.0270649995655
-0.00972216250662 -0.0141040002927 0.0282088636119
-0.00342952730279 -0.0141040002927 0.0311909921037
-0.00639657522971 -0.0141040002927 0.0273869416682
-0.00283659615623 -0.0162207934722 0.0270649995655
0.00140495543923 -0.0164084863335 0.0270649995655
0.00531915744567 -0.0181644228738 0.0270649995655
-0.0134579995647 -0.0185545908658 0.0290618665409
0.0064800177183 -0.0232314220875 0.0304709760868
0.00217137150084 -0.0351546277477 0.0340332507737
0.00768474675726 -0.0198976064593 0.028201004578
0.00764147530747 -0.0164591581525 0.0288456333591
0.00341544571873 -0.0265811231716 0.0358884028016
0.00716670244497 -0.0165346846928 0.032020231041
0.00496746048349 -0.0244065712677 0.0337845409989
0.00638407439641 -0.0210872597591 0.0322032154454
0.00163807056754 -0.0329117654723 0.0372290631689
0.00359243954599 -0.0301484200472 0.0342684901029
0.00496304735498 -0.0272866174151 0.0326492453303
0.000483826623986 -0.0265279763109 0.0391642034398
-0.0103621451055 -0.0141040002927 0.0312663073294
0.00402743557661 -0.0222467765236 0.0270649995655
0.00112525033252 -0.0308690980675 0.0288949094881
-0.000451488284933 -0.0283276910233 0.0277394402991
-0.00801296884788 -0.034729083656 0.0387636107363
-0.00588204249413 -0.0407224955961 0.0395225578221
-0.000685204323887 -0.0427172753362 0.0364764617858
0.000734236727573 -0.0386116848313 0.0342670447588
0.000576741411819 -0.0368425075477 0.0314777225351
0.000878541154739 -0.0335462705456 0.0299841938682
0.00416136225892 -0.0286269049652 0.0294233888189
-0.0016622880334 -0.0421406025989 0.0329654708274
0.00541058784402 -0.0168854331308 0.0347710891646
0.0050663230947 -0.0198745375721 0.0347276877635
0.000685115534501 -0.018550260797 0.0385552038359
0.00324859429345 -0.0172211027195 0.0367927268996
0.00296419004414 -0.0200573759291 0.0371336534429
0.00236915787959 -0.0232614025217 0.037536280182
0.00157624140603 -0.0300685487081 0.0379391708516
0.000468651080608 -0.0217413961272 0.0392049313732
-0.00466534616378 -0.0292714372849 0.0403423789426
-0.00439028674652 -0.0327198534882 0.0401939742014
-0.0012878904252 -0.0149137212371 0.038818601404
-0.0023770428118 -0.0208869113003 0.0398005637389
-0.00182294778366 -0.0247092037323 0.0402117654462
-0.0038496526516 -0.0173203687303 0.0395399983744
-0.00793561083367 -0.0349197351954 0.0304386967556
-0.00370472097992 -0.044919554444 0.0338518412243
-0.00517111278872 -0.0421130205351 0.0324582619003
-0.00892001796462 -0.0375189810403 0.0333737819639
-0.00703859997029 -0.0439646158878 0.0351937825052
-0.00802023292044 -0.0391996220703 0.0378428860505
-0.0129317826282 -0.0217017373489 0.0296439743405
-0.011238590178 -0.0284640902469 0.0326862577412
-0.0116123765795 -0.0251331866714 0.0337129970411
-0.0104913851665 -0.0304416976383 0.0346420383236
-0.0095497157058 -0.0332859306436 0.0361469330471
-0.00903420149437 -0.0368627759815 0.0360647853923
-0.01029762073 -0.0322550950447 0.0317232929834
-0.0117243180667 -0.0266980154179 0.0297469482282
-0.00808530803494 -0.0408895899211 0.034854517381
-0.00973863954393 -0.0347266704638 0.0336246207151
-0.00997764571249 -0.0141264862724 0.0347131742032
-0.0100353667141 -0.0187108168947 0.0359117605211
-0.0114055741519 -0.0167302627995 0.0335592331228
-0.00923151982 -0.0217798788239 0.0376391380219
-0.00988241912886 -0.0247823261899 0.0370324356103
-0.0128525736157 -0.0157388869487 0.0313250869827
-0.0124261994875 -0.019389937096 0.0324894528383
0.000202454803057 -0.0353325905586 0.0388234204937
-0.00078819888377 -0.031833180646 0.039933647228
-0.0036241263891 -0.0361352731377 0.0400235218998
-0.00749834613377 -0.0317674657142 0.0393388703524
-0.00641792148939 -0.0371283071494 0.0398971715518
-0.00664084412432 -0.0266284449836 0.0399901038885
-0.00692354057545 -0.0165515974276 0.0384397302769
-0.00633873142687 -0.0203496447408 0.0393196702078
-0.00543641110958 -0.0233043994431 0.0401356155896
-0.00926637038876 -0.0279088587518 0.0381864419349
-0.00486811476714 -0.0450342538623 0.0373580851813
-0.002251312773 -0.0451397282449 0.0382533517117
-0.00244927824025 -0.0419746376737 0.0393150717195
-0.000547536202628 -0.0394009412246 0.0383788449002
-0.00797027725945 -0.0270131865456 0.0279853509247
-0.00620935997226 -0.0298351087445 0.0284356228623
-0.0116489218381 -0.0242582915054 0.0279721210318
-0.00839770664621 -0.0318260871438 0.0294954063677
-0.00346982889419 -0.0394407896008 0.0313381766737
-0.00484079171526 -0.0365525126977 0.0301845470465
-0.00376046341505 -0.0323310774825 0.028942224894
-0.00262433129466 -0.0259678360803 0.02710010394
0.0119405338052 -0.0596865347091 -0.0124277901487
0.0117625099433 -0.0141009995714 -0.020859448548
0.0076992633491 -0.0141009995714 -0.0111855050583
0.0108598189036 -0.0141009995714 -0.0161203614408
0.00770862794115 -0.0141009995714 -0.0140498899382
0.0113854111019 -0.0141009995714 -0.0115797812877
0.00820940934036 -0.0141009995714 -0.0289165902139
0.0157763018116 -0.0141009995714 -0.0100739380992
0.0137746299672 -0.0307626867671 -0.00947299972177
0.0101482781831 -0.0192453849078 -0.00947299972177
0.0115606325161 -0.0164232847855 -0.00947299972177
0.00786876186198 -0.0262357470072 -0.00947299972177
0.0108860135773 -0.023816359533 -0.00947299972177
0.0106352136682 -0.0303494151476 -0.00947299972177
0.0108636747697 -0.0267902959458 -0.00947299972177
0.0170421013769 -0.0187250218649 -0.00947299972177
0.00769399991259 -0.0183928689071 -0.0237666059473
0.00769399991259 -0.0450391982495 -0.0109969167877
0.00769399991259 -0.0356045666979 -0.0139291163812
0.00769399991259 -0.0383199522203 -0.0188089622834
0.00769399991259 -0.0230090873079 -0.0103127319295
0.00769399991259 -0.0325998096585 -0.0159154239308
0.00769399991259 -0.0328982732626 -0.0113759426769
0.00769399991259 -0.0301648341723 -0.0187047810214
0.00769399991259 -0.0448859362182 -0.0148047731669
0.00769399991259 -0.0164318251268 -0.0258690229905
0.00769399991259 -0.0252688520467 -0.0223229074421
0.00769399991259 -0.0353403874552 -0.00949700735532
0.00769399991259 -0.0534994981055 -0.0117476434573
0.00769399991259 -0.0303254240163 -0.0271998195983
0.00769399991259 -0.0480921528286 -0.0220701821191
0.00769399991259 -0.0355777937499 -0.0212298047119
0.00769399991259 -0.049006370249 -0.0273915626904
0.00769399991259 -0.0370232457791 -0.0312091001318
0.00769399991259 -0.0420934715391 -0.0235205789834
0.00769399991259 -0.032605778056 -0.0304411497472
0.00769399991259 -0.041022008353 -0.0197314166564
0.00769399991259 -0.0337847368448 -0.0252698884946
0.00769399991259 -0.0389303063044 -0.0224136884157
0.00769399991259 -0.0513749574689 -0.0238137245379
0.00769399991259 -0.0503057501927 -0.0299844224503
0.0131521315694 -0.0402361779194 -0.00947299972177
0.0165046182982 -0.0254909299419 -0.00947299972177
0.0158481855172 -0.0545887585477 -0.00947299972177
0.0186599528444 -0.0344161002725 -0.00947299972177
0.0165996011191 -0.0283153943144 -0.00947299972177
0.0192804737119 -0.0269034087961 -0.00947299972177
0.00769399991259 -0.0572500700907 -0.027211080572
0.00769399991259 -0.0604919598894 -0.0267386569182
0.0117996674107 -0.0141009995714 -0.0277269753871
0.014194042468 -0.0141009995714 -0.0226074835358
0.00926688360385 -0.0212378878648 -0.0312639996409
0.00841002181673 -0.0172542512114 -0.0312639996409
0.00908614118925 -0.0269820022335 -0.0312639996409
0.00803271744067 -0.0296845599557 -0.0312639996409
0.0109839849985 -0.0297555128983 -0.0312639996409
0.0198715760692 -0.0407285388106 -0.0180712587467
0.0198717215205 -0.0469731223963 -0.0171239304036
0.0198717223049 -0.0466305096294 -0.0136166735306
0.0198715207912 -0.038030382661 -0.0154071000535
0.0198717783432 -0.0496982973763 -0.0194122632341
0.0198714209454 -0.0336003064083 -0.014722307384
0.0198714762057 -0.035812997365 -0.012875421529
0.0198718502402 -0.0527523183941 -0.018639689404
0.0198716481257 -0.043523870312 -0.0148263031746
0.0198714603035 -0.0355651817964 -0.0170266678045
0.0198712323405 -0.0251085248334 -0.0122790321749
0.0198718949938 -0.0543583976972 -0.0154136647585
0.0124147551707 -0.0212593748737 -0.0312639996409
0.0108595323686 -0.0490577717136 -0.0312639996409
0.0128591852772 -0.0439060533435 -0.0312639996409
0.0121773978243 -0.0334893295495 -0.0312639996409
0.0106748963643 -0.036451459775 -0.0312639996409
0.0131092073324 -0.0173629754861 -0.0312639996409
0.0120927635165 -0.0260225789468 -0.0312639996409
0.0097393980005 -0.0453109387653 -0.0312639996409
0.010744460337 -0.0416985117661 -0.0312639996409
0.0143728424287 -0.0607772349761 -0.0235891818788
0.0117800956691 -0.0605580398457 -0.0200803483736
0.00915729371374 -0.0607491876769 -0.024361511282
0.0198712624879 -0.0326584257438 -0.0259878890916
0.019871123826 -0.0307125966942 -0.0292512199465
0.0198716183011 -0.0470338384659 -0.0278463741609
0.0198710585251 -0.0251867916759 -0.0257609819312
0.0198710160255 -0.0278272775384 -0.0302913264626
0.0198711786496 -0.0243834381339 -0.0165755091581
0.01987155907 -0.0412565200429 -0.0221950866011
0.0198712487559 -0.0287235678253 -0.0203464673642
0.0198711821848 -0.0258616925574 -0.0195649056895
0.0198718311027 -0.0530207690136 -0.0255435755619
0.0198710228967 -0.0194273896538 -0.0186138077196
0.0198715063963 -0.0386772448253 -0.0208768834211
0.0198711174133 -0.0206837572149 -0.0134846475828
0.0198710951601 -0.0240410120282 -0.0228118657913
0.0198710046081 -0.016753895852 -0.0142042811484
0.0150859608704 -0.0141009995714 -0.0259723242685
0.017735872619 -0.0204243466847 -0.0282672575068
0.0159108515195 -0.01733683815 -0.0295455924152
0.0194812665343 -0.0224594597391 -0.026043870603
0.0166060348011 -0.0165475047374 -0.0265340774988
0.0189798441314 -0.0167523238667 -0.0179599402029
0.0177059434049 -0.0167487087534 -0.0227975093531
0.0195723774322 -0.0497235128079 -0.0287129682791
0.0197435125504 -0.0593749656851 -0.0275683888709
0.0176880465521 -0.038635266069 -0.0307409586109
0.0137985268351 -0.0504095908575 -0.0310760535359
0.0168377836573 -0.0485613106407 -0.0299973873254
0.0181639059314 -0.0538431380212 -0.0288503210735
0.0171701131133 -0.0457717239311 -0.0301669102194
0.0160279890567 -0.0412027133339 -0.0310397864221
0.0172049642439 -0.0283293009877 -0.0311530888929
0.0141642861673 -0.0468871783708 -0.0312199528237
0.016058744714 -0.0349907086338 -0.0311864689094
0.0168822244393 -0.0228611427164 -0.0309962486973
0.0136848504595 -0.0289227939352 -0.0312639996409
0.0151205986874 -0.0260285297601 -0.0312639996409
0.0146285499784 -0.038101477818 -0.0312639996409
0.0102625327535 -0.0602882636199 -0.016044601693
0.0173104010357 -0.0606436596365 -0.0215180696244
0.0157003471154 -0.0604285181019 -0.0184998758001
0.0188915686608 -0.0593629079802 -0.0116932387126
0.0159551531054 -0.0598807401146 -0.0136215889416
0.0121697011575 -0.0608909986913 -0.0263338546653
0.0178749018825 -0.0608909986913 -0.025508573388
0.0134402612981 -0.0583723413201 -0.0283613742405
0.0115139700371 -0.0560531996719 -0.029230939418
0.0160483410763 -0.0604179364404 -0.0275943756894
0.0173827221913 -0.057814857296 -0.0284682795897
0.00999239165381 -0.0526375845936 -0.0305053834311
0.0150320418458 -0.055523518209 -0.0293497087268
0.0144289840264 -0.0580530914266 -0.00949956233645
0.00769599992782 -0.0365120538287 -0.00427736101273
0.00769599992782 -0.0341477314863 0.00995401665924
0.00769599992782 -0.048173551839 -0.0045934336385
0.00769599992782 -0.0328536300753 -0.0035710403573
0.00769599992782 -0.0451720631205 0.0185198596004
0.00769599992782 -0.0394697588725 0.00923941178721
0.00769599992782 -0.0286476160914 -0.00197935882678
0.00769599992782 -0.03626578495 0.00682399253716
0.00769599992782 -0.0391967721539 0.0122254757956
0.00769599992782 -0.0232009104382 -0.000488424354983
0.00769599992782 -0.0429983606433 0.0077229727211
0.00769599992782 -0.0338448878903 0.00358096628088
0.00769599992782 -0.0330754817368 0.00690942539802
0.00769599992782 -0.0374057690395 0.00417467606255
0.00769599992782 -0.0409929735667 0.00509239233247
0.00769599992782 -0.0382177276825 -0.00161408131387
0.00769599992782 -0.0214864183868 -0.00575577325425
0.00769599992782 -0.0473771061944 0.00492613459944
0.00769599992782 -0.0471239218181 0.0210388764188
0.00769599992782 -0.0445015671673 0.00403895248217
0.00769599992782 -0.0419632911305 0.0138160712825
0.00769599992782 -0.0395737960881 0.0160436587677
0.00769599992782 -0.0472336823391 0.0141024673055
0.00769599992782 -0.0242614539659 -0.0042127603432
0.00769599992782 -0.0298029184048 -0.004849971737
0.00769599992782 -0.0449619099826 0.000993325206575
0.00769599992782 -0.032300764481 -0.00809363306194
0.00769599992782 -0.0307432528377 0.00414046375527
0.00769599992782 -0.023954290447 -0.00743291347488
0.00769599992782 -0.0286519008592 0.015188551537
0.00769599992782 -0.0377042821411 0.0197871616217
0.00769599992782 -0.0324879896631 0.0127672705554
0.00769599992782 -0.0453893972296 0.0242777856875
0.00769599992782 -0.0273218091107 0.00475169594986
0.00769599992782 -0.0205681342064 0.00111064496866
0.00769599992782 -0.0331451133099 0.023773682011
0.00769599992782 -0.0188640730838 0.0150794173638
0.00769599992782 -0.0234554905167 0.00615901896004
0.00769599992782 -0.0276874121286 0.0110173464956
0.00769599992782 -0.0246970118205 0.0175823120618
0.00769599992782 -0.0372992596461 0.0246503332226
0.00769599992782 -0.0335399943779 0.0154514674997
0.00769599992782 -0.0253213713633 0.0141596312665
0.00769599992782 -0.0284748650487 0.0184457185168
0.00769599992782 -0.0201686148165 0.0235759926716
0.00769599992782 -0.0226435863171 0.00327676859148
0.00769599992782 -0.0212879804996 0.00931085655158
0.00769599992782 -0.0259245720487 0.02377991602
0.00769599992782 -0.025600168749 0.008611673305
0.00769599992782 -0.0231126258419 0.0222564176339
0.00769599992782 -0.017572614688 0.0074342877299
0.0117611777836 -0.0487120002508 0.0158000518088
0.0141171276473 -0.0487120002508 0.00488299589808
0.0105344203595 -0.0487120002508 0.0131346436221
0.0147362792948 -0.0487120002508 0.00820750860418
0.0150327554378 -0.0487120002508 0.0214579766435
0.0118492413773 -0.0487120002508 0.0200587899312
0.011187410302 -0.0487120002508 0.00602797260257
0.0139118825425 -0.0487120002508 0.0111913891934
0.0144430658981 -0.0487120002508 0.0175336212615
0.014568489553 -0.0487120002508 0.0141287295427
0.0218138073829 -0.0487106242317 0.00524142394736
0.0215559233712 -0.0487119795879 0.0204238539177
0.0167298980376 -0.0487108770657 -0.00287435624825
0.0159108185918 -0.0487114217537 0.00167173961401
0.0188156854327 -0.0487107051948 -0.000336154109644
0.0214940729623 -0.0487109953467 0.00885698104293
0.0169715338024 -0.0487105103418 -0.0066086977297
0.0210863420525 -0.0487097093361 -0.00696703319696
0.0203548787599 -0.048710154342 -0.00338830924461
0.00769599992782 -0.0141822707768 -0.00634264577253
0.0105970648014 -0.0141040002927 -0.000712608782201
0.00805240992479 -0.0141040002927 -0.00208749437899
0.0133873031467 -0.0141040002927 -0.00846758208546
0.00769599992782 -0.0289144081618 0.0252056167838
0.0162634527514 -0.0487120002508 0.0246043834985
0.020772652133 -0.0486361070394 0.0234239324971
0.0202975220738 -0.0455353716712 0.0243651142852
0.0220056939483 -0.043040714138 0.0240065911487
0.0250000003725 -0.0213296376901 0.00550026897381
0.0250000003725 -0.0208582335245 0.00956037510633
0.0250000003725 -0.020626595352 -0.000770564719467
0.0183853126823 -0.0141040002927 -0.00810858203605
0.0086235241897 -0.0141040002927 0.007116720768
0.0228410152147 -0.0487110504984 0.0157889635486
0.0212428721341 -0.036274402329 0.0247149651518
0.0156168886973 -0.046160330034 0.0262032674929
0.0211406540539 -0.0394468653176 0.0247078579034
0.019209073603 -0.0420106218183 0.025228314585
0.00821868835853 -0.0231485792501 0.0258553346626
0.00888072324717 -0.0315045755608 0.0260664699576
0.0101616091397 -0.0401423488587 0.0263032805596
0.013511430741 -0.0389061764481 0.026379291394
0.0119385302239 -0.0349999483683 0.0262412910007
0.00886062746664 -0.0426274641864 0.026319480488
0.0127063742269 -0.0438885138999 0.0264219995588
0.0106647091744 -0.047687937326 0.0264219995588
0.0212703713292 -0.0265542519168 0.024754522684
0.0193983673732 -0.0298405545582 0.0252235318534
0.0196728683387 -0.0337549566379 0.0251885209964
0.0157567769922 -0.0422076980034 0.0261689439446
0.0174247381111 -0.0377111379702 0.0257513573224
0.0250000003725 -0.0269336874895 0.00444171091258
0.0250000003725 -0.0230823749435 0.0134522938363
0.0250000003725 -0.0250120467221 0.0080519392244
0.0250000003725 -0.0244449725546 0.00155786628519
0.0084520226215 -0.0149791253563 0.013705170916
0.0120105515897 -0.0161193028194 0.0227089007941
0.0114581226638 -0.0151522191686 0.0157751404796
0.0124848549856 -0.0145963059786 0.0112911941256
0.0246687140755 -0.0293805714097 -0.00797471779314
0.0246012500097 -0.033602225118 -0.00685579771648
0.0243123665373 -0.0416078924198 -0.00639120680454
0.0244905895529 -0.0370761173951 -0.00650289227169
0.0241303669182 -0.0445759778302 -0.00697928932198
0.0238002078437 -0.0478770466681 -0.00596327667776
0.0238528284343 -0.0473509239434 -0.00196919191448
0.0242239518868 -0.042853447747 -0.000403364712892
0.0242760783904 -0.0413286572297 0.00313107461101
0.024225381003 -0.043614983212 -0.00371995169913
0.0239237194092 -0.0464547834713 0.00125399848123
0.0248003122831 -0.0306268779565 -0.00332783992456
0.0249966452232 -0.024003296568 -0.00490485347434
0.0248834118066 -0.0267869723757 -0.00586117231779
0.0246360049954 -0.0353687599081 -0.00345057302118
0.024994150977 -0.0272458133876 0.000801135016934
0.0248447314215 -0.0312425907687 0.000121629320137
0.0249692129704 -0.0263605512626 -0.00210688859256
0.0243968243691 -0.0409500221699 -0.00276312065881
0.0245714146335 -0.0371476614386 0.000463163317771
0.0245556596173 -0.0365789783008 0.00404640729711
0.00857979858061 -0.0167422379179 0.023846528061
0.024558784871 -0.0216168380953 0.0203386954076
0.0243894337453 -0.0264112045533 0.0219456557293
0.0237892203214 -0.0327433574274 0.022913185277
0.0230908523917 -0.0297484480021 0.0237283250925
0.0226067316305 -0.0161482249592 0.0199611800264
0.0248197770254 -0.0196206997705 0.0173647449312
0.0247445189349 -0.0180426797217 0.0136086168399
0.0234893594285 -0.0412021504713 0.0216764774637
0.0128726715587 -0.0339806203269 -0.00946900999976
0.0126667762355 -0.0207433174505 -0.00946896984354
0.0102720979431 -0.0412604376316 -0.00946850280421
0.014469686421 -0.0169647347903 -0.00946932146905
0.0152553164587 -0.0225520159046 -0.00946947469219
0.0109852042321 -0.0368598480744 -0.00946864188288
0.015104449841 -0.0428210069139 -0.00946940914258
0.0166508867832 -0.0320254170322 -0.00946973827944
0.0203628911546 -0.0366045948284 -0.00947041652753
0.0157680995269 -0.0360330737749 -0.00946955829215
0.0208782874947 -0.0234323300701 -0.00947056132581
0.0101701500139 -0.0447867974722 -0.00946847803464
0.0206922357186 -0.0317513859091 -0.00947049598812
0.0177061728674 -0.038423419745 -0.00946991241381
0.0154426966858 -0.0466934697562 -0.00946945827793
0.0185201109472 -0.0481142706904 -0.00947002928507
0.0238629132012 -0.0368996274324 -0.0094710001722
0.0240173022676 -0.0173281942216 -0.0094710001722
0.0242629017881 -0.0172128106794 -0.00518197086883
0.0240555044464 -0.0170042782817 -0.00197560282688
0.0219092054485 -0.0154418611606 -0.00522539983522
0.0215726066936 -0.0152737805768 0.00176334457558
0.0228078832892 -0.0158906159283 0.0104233832299
0.0213377802968 -0.0151565200187 -0.00872227741721
0.0216485345783 -0.015311695165 0.00517784713697
0.0248922000948 -0.0178411436513 0.00695738788484
0.0243356731044 -0.0346849560732 0.0154835171954
0.0239925210015 -0.0419675333737 0.0097055645865
0.0243206902827 -0.036263025063 0.012816739977
0.0245873860336 -0.0295885826509 0.0168033451125
0.0249152300752 -0.0286920732475 0.00721265144377
0.0247024374956 -0.0293036762066 0.0133807419341
0.0248082786373 -0.0258206908367 0.0164017642022
0.0249201032816 -0.0263996457205 0.0114357272905
0.0248034912248 -0.0292897482529 0.00992188584447
0.0243621605895 -0.0323693817959 0.0192449443204
0.0245165531421 -0.0347710972065 0.00931719128983
0.024525452423 -0.0331959960783 0.0120283007537
0.0246889507015 -0.0332149276667 0.00635215650643
0.0243968998495 -0.0378946188627 0.0074595720622
0.0249035407534 -0.0304042717895 0.00433544483257
0.0244663717557 -0.0293695683871 0.0204649252429
0.0232417762218 -0.0451736769049 0.0203471181889
0.0237686480891 -0.0377775966262 0.0217916808763
0.0239269015547 -0.0407137023076 0.0135161809838
0.0234135726525 -0.0450861819482 0.0168198763628
0.023546562772 -0.0451573857272 0.0137306736284
0.0240785365186 -0.0353969286646 0.0200065724173
0.0238126855454 -0.0391034061782 0.0190427953894
0.0237996316441 -0.0452162886858 0.00799425419662
0.0240890419789 -0.0377898419584 0.0153343544221
0.0235400525251 -0.0425704914601 0.0186738711864
0.016772232136 -0.0150861759452 0.0146846185561
0.0184590752324 -0.0155672998195 0.0180046944128
0.0150553523759 -0.0143036733925 0.00873572437361
0.0162681767897 -0.0157245248031 0.0197946419185
0.013495645401 -0.0155314925106 0.0185811607762
0.0160053934764 -0.0177831001221 0.0241849888082
0.0197405832617 -0.0185320794555 0.0239104705092
0.0186971523202 -0.0162916203931 0.0221466202469
0.0228687768884 -0.0213135179513 0.0236528748447
0.0227663045614 -0.0183797384983 0.0227517718677
0.0118593991396 -0.0221981936147 0.0257981103482
0.0132622740634 -0.0309596402466 0.026122657314
0.0119745290332 -0.0255448621795 0.0259267559225
0.014897628976 -0.0220229995947 0.0255198332228
0.0158588583765 -0.0254960446434 0.0256044522237
0.0147384798735 -0.0281312850358 0.0258530828988
0.0160073895169 -0.0315861967004 0.0259060829369
0.0177734599787 -0.0228239398521 0.0252747193601
0.0109743662295 -0.0194679118379 0.0252447668023
0.0250000003725 -0.0211069757632 -0.00481786965106
0.0250000003725 -0.0195402965108 -0.00777437370888
0.0184688818712 -0.0148669833476 0.0104414363416
0.0210053786576 -0.0155635368192 0.015745160026
0.020794618754 -0.0153639500185 0.0128239713352
0.0202527719149 -0.0150137425426 0.00816549539553
0.0185262753068 -0.0145501338743 0.00473939848345
0.0175643931532 -0.0142026153281 0.00126875463766
-0.0182786218823 0.00134496870706 -0.030517597273
-0.0181072985033 0.0049553711664 -0.0314084767453
-0.0183099338226 -0.00309891647762 -0.0307995268739
-0.00280191119462 -0.00907239303603 -0.0261359997094
0.00394457074883 -0.00528021159736 -0.0261359997094
-0.00633580721188 -0.0087470315527 -0.0261359997094
0.00253844234264 -0.00224463007457 -0.0261359997094
-0.0146954033816 -0.013150626059 -0.0261359997094
0.00990522257499 -0.00431784747315 -0.0261359997094
0.00597830785245 -0.00923571238588 -0.0261359997094
0.00307650556444 0.00070650090394 -0.0261359997094
-0.00756517977919 -0.0113626022326 -0.0261359997094
0.0122135071286 0.00823506464074 -0.0261359997094
0.00929418333608 -0.00948403721606 -0.0261359997094
0.0128911758287 -0.00909014286354 -0.0261359997094
0.010834823847 0.00280466428698 -0.0261359997094
-0.00206177154717 -0.0057106172381 -0.0261359997094
0.00786195029356 -0.0126097006543 -0.0261359997094
-0.0107538977955 -0.0117429800927 -0.0261359997094
-0.00494059280628 -0.0054475817508 -0.0261359997094
0.00126315602198 -0.00744879903343 -0.0261359997094
-0.00102293861107 -0.0141009995714 -0.0286307483432
0.00195626690722 -0.0141009995714 -0.0283640532589
-0.00863074347664 -0.0141009995714 -0.0266787842948
0.0147439995781 0.00357230640192 -0.0298136816649
0.0147439995781 0.00636646114585 -0.0293907118903
0.0147439995781 0.00944848435364 -0.0290250666065
0.0147439995781 -5.18420660773e-05 -0.0266745348203
-0.0156287436891 0.00700724699508 -0.0261359997094
0.00383721551082 0.00986521473967 -0.0261359997094
-0.0099956118353 0.00262987729407 -0.0261359997094
-0.00978873604438 -0.00464281247899 -0.0261359997094
-0.0163277983067 0.0103607636608 -0.0261359997094
-0.0145677981764 0.00409972193812 -0.0261359997094
-0.011166042889 0.0092849004884 -0.0261359997094
-0.00827362869431 -0.00147237235359 -0.0261359997094
-0.0120699473968 0.00607220597248 -0.0261359997094
0.00349256814556 0.0041558408042 -0.0261359997094
-0.016299429291 -0.00425522637428 -0.0261359997094
-0.0139877252685 -0.0101290387571 -0.0261359997094
-0.00427816563112 0.00994615234785 -0.0261359997094
-0.00104878323304 0.00944831174159 -0.0261359997094
-0.00473727779809 -0.000410009957185 -0.0261359997094
0.0018203030217 0.0128189995885 -0.026501717422
-0.00695914940179 0.0128189995885 -0.0264661325696
-0.0143160418458 0.0128189995885 -0.0286070861278
-0.00690899458043 -0.0141009995714 -0.0292549230951
0.0102559236226 -0.0141009995714 -0.0310821139576
0.0105100506753 -0.0109645113937 -0.0316319318993
0.00485460534727 -0.0110950200912 -0.0315761022796
-0.00910645552365 -0.012764232996 -0.0310002557828
-6.24068243537e-05 -0.00731615633915 -0.0318650349593
-0.00397391726565 -0.00837947745261 -0.0316366215255
0.000904849591744 -0.0100158708993 -0.031587891279
0.00421593747254 -0.00383494654126 -0.0323759200456
-0.00675102306305 -0.0108520885947 -0.0312810237877
-0.0125233726145 -0.012536907121 -0.0309309240711
0.00941248406909 -0.00335496893254 -0.0324904634141
0.0107049347016 -0.00688275800783 -0.0321073913164
0.00545049293117 -0.00724358729156 -0.0320251599954
0.00861216693156 -0.00885626688074 -0.0318705901213
0.0140364162601 0.0021285813021 -0.0325450003147
0.0103853821084 0.0017934767867 -0.0325450003147
0.0120157555097 0.00482425441868 -0.0325450003147
0.0119228082326 -0.00128069371701 -0.0325450003147
0.0143934694383 0.00733621984171 -0.0325450003147
0.0146033502411 0.0106354888267 -0.0325450003147
-0.00787465213386 -0.00755532276319 -0.0316210576262
-0.00827996400948 -0.00467545528085 -0.031934101248
-0.017101231057 -0.00638995490564 -0.0314959525505
-0.00184656631357 -0.00389809444275 -0.0322003768272
-0.0101493619623 -0.00965859756899 -0.0313210088414
-0.0132159940092 -0.00640298595804 -0.0316024269946
-0.015517090831 -0.00923565264485 -0.031219507696
0.00117396527967 -0.00458003602212 -0.0322075009684
-0.0140720214114 -0.00337436620511 -0.031919699694
-0.0156383020767 -0.0127801777724 -0.0308169882671
-0.0115983678424 -0.000434234366366 -0.032082711498
-0.00876922729816 0.00294452171446 -0.0321652373085
-0.00776745103735 -0.00061961838185 -0.032188928868
0.00176609620255 0.00347005623128 -0.0324585462006
0.00382144405544 0.00772961036715 -0.0325205972578
0.00337178614234 -0.00107002778029 -0.032497882309
-0.00372752472853 -0.00121756814071 -0.0323004737936
0.000966450788706 0.00638462070474 -0.0324397157621
-0.000257825568059 -7.4762262118e-05 -0.0323981985293
-0.00268891839054 0.00207038205689 -0.0323331484703
-0.00295039553296 0.00532057995739 -0.0323296596271
0.00708572376133 0.0113060323475 -0.0325450003147
0.00572835908702 0.00427620646874 -0.0325450003147
0.00630872794518 0.000915880043245 -0.0325450003147
0.00900102011673 0.00774956212045 -0.0325450003147
0.00964062054979 0.0127006163259 -0.0325450003147
-0.0144586592819 0.00149561464065 -0.0320035513642
-0.0124222108072 0.0105125351217 -0.0320617511278
-0.0153592671974 0.00932993430756 -0.0319778128451
-0.00219452882089 0.00988051677157 -0.0323540485672
-0.012241602781 0.0072366094232 -0.0320669127337
0.00086441795058 0.0107594084381 -0.0324414703613
-0.00634186142453 0.00618289943194 -0.0322355217396
-0.00538358965481 0.0113891339272 -0.0322629082368
-0.00816936517728 0.0102539729813 -0.0321832934176
-0.0122667985579 0.00418283902018 -0.0320661926624
-0.0185661507397 -0.0139228594466 -0.0300151427491
-0.018384329872 -0.00989570158938 -0.0305811389187
0.0147439995781 -0.0103475888899 -0.0281048566708
0.0147439995781 0.000320219473977 -0.0303208151323
0.0147439995781 -0.00413247829926 -0.0293050910058
0.0147439995781 -0.00716481966477 -0.0282750173139
0.0139932580921 -0.0138697243263 -0.0302911602164
0.0139471466715 -0.00686183640716 -0.0320180903092
0.0141558488765 -0.0096723924705 -0.0310874553598
-0.0183262481636 0.00069594825959 -0.0270685276033
-0.0182883110783 0.00399167750306 -0.0284099351061
-0.0181725402683 0.00686097137672 -0.0280168684502
-0.0179906464571 0.0109804022274 -0.0291466622796
-0.0180689749163 0.0087234909541 -0.0308314449093
-0.0185850001872 -0.0102882421971 -0.027291110314
-0.0185850001872 -0.00583610726833 -0.0287733585609
-0.0275036797802 -0.00261730632236 -0.0224399548198
-0.0272565596905 0.00616552903144 -0.01936570854
-0.0274698259844 0.00181759990955 -0.0222772039833
-0.0272771766002 0.0101217937545 -0.0199971105304
-0.0124967719217 -0.0141009995714 -0.0148323798704
0.00719892060023 -0.0141009995714 0.000852991755941
-0.00961340442195 -0.0141009995714 -0.0135202743545
-0.0109119750093 -0.0141009995714 -0.0181668592934
0.00410910165545 -0.0141009995714 -0.00172377954319
-0.0177478803368 -0.0141009995714 -0.0247180620034
0.011014479454 -0.0141009995714 0.00450887589218
-0.00252867327693 -0.0141009995714 -0.00942948889963
0.00461684457972 -0.0141009995714 -0.0211039551857
0.0046096345672 -0.0141009995714 -0.00607819183974
-0.0133098881123 -0.0141009995714 -0.0235294396387
0.0109935576187 -0.0141009995714 -0.0241015400448
0.000546488992483 -0.0141009995714 -0.0113205775731
0.00807670043117 -0.0141009995714 -0.0221541259398
0.0139411470458 -0.0141009995714 0.00334343068864
-0.0105626347407 -0.0141009995714 -0.0219681712783
0.000682453539031 -0.0141009995714 -0.0228766853354
0.0106867699256 -0.0141009995714 -0.00587327273056
0.0145278224163 -0.0141009995714 -0.000294076129153
-0.00281111851519 -0.0141009995714 -0.0197481766337
0.0130493123033 -0.0141009995714 -0.00381874545613
0.0137463964346 -0.0141009995714 -0.0188901692815
0.0144556404981 -0.0141009995714 -0.0132959782271
0.00323559948487 -0.0141009995714 -0.0128931064722
-0.00665084846731 -0.0141009995714 -0.0146074326994
-0.00322975777945 -0.0141009995714 -0.0127585614066
-0.00798291921566 -0.0141009995714 -0.023705001915
-0.00286197948136 -0.0141009995714 -0.0236031365513
-0.000115095390526 -0.0141009995714 0.000831616894176
-0.0180981363882 -0.0141009995714 -0.0141796211759
-0.0180784168477 -0.0141009995714 -0.0080329314259
