-0.025417120914334936 0.0033602790413880964 0.022656853889714862
-0.02915326639200626 -0.0021936109217691986 0.022633549468207798
-0.00750999733938815 -0.0039048759627168445 0.022763108513944225
-0.006718996143617383 -0.0063815895550634015 0.02276745580487881
-0.01243235700857763 -0.005573044105510917 0.02273331228901004
0.03004702830554301 -0.011975990440696893 0.0229871097494632
-0.005477877211278046 -0.001828755263935884 0.02277563225719025
-0.013932392739210243 0.001602978555226551 0.022725466372617967
-0.030505559377790866 0.003402760067470886 0.02262633613056353
-0.04142090401728983 0.00223374735487633 0.022560669287530897
-0.050911049488377 -0.0045065903051964085 0.02250265715512409
-0.042920863028959144 -0.003268465741597788 0.022550787626174955
-0.02022237331171655 -0.007167158309650945 0.02268632542674629
0.007167420045359793 -0.0029403824310302194 0.022851310474186037
-0.013989008189548114 0.0037827941115380036 0.022725476839440945
-0.021692365407611235 -0.005522438952190619 0.0226777713740064
0.030925642369782923 -0.010205472471136992 0.022992664745822834
-0.04244027075805364 0.0002985126672878074 0.022554243487881483
-0.032199980194193886 -0.004085023172474254 0.022614969034370547
-0.032518945251816714 0.006653476925381426 0.022614780294515757
-0.009164885858086048 -0.001591957490376562 0.022753552619485883
-0.035851250886344686 -0.00038239764734698074 0.02259366041586002
-0.02587672526392794 -0.007800261042438163 0.02265230435635239
-0.026343117072669793 0.020184914307322516 -0.022701152405085988
-0.019102741253426134 0.020325138507103584 -0.02264054652606684
-0.03138839844209623 0.0037655426121064196 -0.02281999960541725
-0.02299620763187393 -0.008044635712997942 -0.02281999960541725
-0.033133471978973886 0.0009570500726724721 -0.02281999960541725
-0.04407427597920854 0.013232491979259218 -0.022819999605417248
-0.04267008448293638 0.015316524952832165 -0.02281999960541725
-0.049355242146969326 0.01916144108019203 -0.02281999960541725
-0.036082636548608354 0.015414091160768603 -0.02281999960541725
-0.03412866699746781 0.0029948321888304966 -0.022819999605417255
-0.025731844761858382 -0.0046952206894110265 -0.02281999960541725
-0.0345879571533492 0.011880729533609309 -0.02281999960541725
-0.03839787277686104 0.00953008606108978 -0.02281999960541725
-0.034455373474245786 0.0074997513830305845 -0.02281999960541725
-0.040668040319008704 0.00893593976649446 -0.022819999605417255
-0.037390017747162274 0.011662016126317606 -0.02281999960541725
-0.029024944446675076 0.003081672128508753 -0.02281999960541725
-0.02981287802446927 -0.0022142198134152595 -0.02281999960541725
-0.01825777287376407 -0.015396943809914968 -0.02281999960541725
-0.02585114829039228 -0.0028460827395244345 -0.02281999960541725
-0.0367871691696498 0.013596257059008346 -0.02281999960541725
-0.03899571660193811 0.01264803518465145 -0.02281999960541725
-0.041850377417149726 0.01339173070504435 -0.02281999960541725
-0.035939471258802064 0.004622411111256979 -0.022819999605417255
-0.041569623743247706 0.017693239553242687 -0.02281999960541725
-0.03787659613051108 0.005593070120330912 -0.02281999960541725
-0.0411624450611376 0.011291305419419044 -0.02281999960541725
-0.03939067216429669 0.0071727327762557 -0.022819999605417255
-0.046944367204228385 0.019825517173359432 -0.02281999960541725
-0.029799226593584235 0.00510569703921535 -0.02281999960541725
-0.03590645016198335 0.010318914510219337 -0.02281999960541725
-0.04429851735210624 0.01669766465148238 -0.02281999960541725
-0.03907689187533705 0.019700853067350577 -0.02281999960541725
-0.028158220985646375 -0.003739176047872989 -0.02281999960541725
-0.020646783570010076 -0.011631313869430475 -0.022819999605417255
-0.027678072660203005 -0.0013702799745225402 -0.02281999960541725
-0.046002690425980326 0.015637949325825795 -0.02281999960541725
-0.03818388748333615 0.016536674197645745 -0.02281999960541725
-0.04416823604927893 0.01882664859320824 -0.02281999960541725
-0.03637054125098479 0.017344144351525155 -0.02281999960541725
-0.029990766118163294 0.0010692924213387169 -0.02281999960541725
-0.04785508919557777 0.017093304241716307 -0.022819999605417255
-0.02749083708329847 0.0007305508426659474 -0.02281999960541725
-0.03279311909949882 0.006489243593911357 -0.02281999960541725
-0.04609169442558168 0.017691887853544343 -0.02281999960541725
-0.040159868510155204 0.014318310227581468 -0.02281999960541725
-0.024646150755683043 -0.0068571782760062285 -0.02281999960541725
-0.03246977192854586 0.008704516143282232 -0.02281999960541725
-0.03670048370910887 0.007024339807108989 -0.02281999960541725
0.05178520616686402 -0.0178963910275502 -0.02171503635510552
0.05179421726467405 0.007011734438223439 -0.021646810929870513
-0.03310832541220897 -0.021864384714435265 -0.01807453238003683
-0.01355637128391737 -0.022184916679057323 -0.016859096011225625
-0.049604150862136716 -0.021494876698954987 -0.02097469948088889
0.0269459886305705 -0.02292349343936853 -0.012929985252945522
-0.005915491420003905 -0.022583798856121814 -0.011206793708106677
-0.038859467736582616 -0.02208588279393406 -0.012456948508672867
-0.016093376839017404 -0.022388382322970992 -0.012379930633028027
0.002098746730115366 -0.022820110775927417 -0.008723191183227992
-0.011720973129970037 -0.022196444878239845 -0.017096204970088902
-0.02675642643402719 -0.02212430851321221 -0.014731837874654758
-0.030892972020502247 -0.02260578933909783 -0.004595431756711685
-0.026402505703009487 -0.022592092535277636 -0.005968386243987422
-0.034782027797548076 -0.022139417990338313 -0.012455319372123567
-0.04430593624340989 -0.02191947493892433 -0.014254746563122636
-0.019407455283428136 -0.022260684040812388 -0.013974185871787153
4.4838094357683295e-05 -0.022402548556725712 -0.01611470953957382
-0.006615653672329667 -0.022313508219306024 -0.016147468947414326
-0.008634666344342859 -0.02273174567965827 -0.007732950678572612
-0.03229043739281097 -0.022310639637089083 -0.009833526090489863
-0.001389637511072482 -0.022497173767731863 -0.013968447516668474
-0.02288436983966037 -0.02207525297414123 -0.016620450575203997
0.027534244382963244 -0.02281254078266543 -0.015175297802331823
-0.03907420685074205 -0.02195977073259377 -0.014789931613502269
-0.010906914017998813 -0.02275680343907079 -0.006695222195695577
-0.02300080217380465 -0.02219003607252006 -0.014419688109801456
-0.01124192673989691 -0.02257461519514213 -0.010059426108191077
-0.04180438759836484 -0.021732059508296528 -0.01842142122771634
0.03990899253375115 -0.023064630929746786 -0.013474700547672185
-0.03143380355173618 -0.022090622168058887 -0.014209089538218006
-0.037548541219843606 -0.02176133607270543 -0.018923055817367116
-0.03790456866130854 -0.021652636680698823 -0.020891518522643125
0.03807188486178135 -0.023067248516367097 -0.012969506249772467
-0.04035582396185194 -0.02184199130462094 -0.016700625623619632
-0.013243361837306927 -0.02255843458689339 -0.009869165491854542
0.002843776480686167 -0.02251167545678022 -0.014744082830088922
-0.028367550501746715 -0.022509081072196624 -0.007051700347074475
-0.03986949203200401 -0.021690405876046016 -0.019689495854192367
-0.03297671887117851 -0.022484993392933614 -0.006364247702812222
-0.03140560197499785 -0.021932251014722216 -0.017212724803604078
-0.023285754498452625 -0.022350571424166875 -0.011311419752435785
-0.004109760610872551 -0.022581760973179765 -0.011693236536689702
0.02981549893982472 -0.02289454220723095 -0.014189526067325056
-0.03944718031063083 -0.02220474642730317 -0.010062082115236059
-0.016418097332889955 -0.022257495194148342 -0.014775986667143422
-0.04410051138911742 -0.021706116870439142 -0.018342781284394913
-0.03659699022665062 -0.02189658773276686 -0.016599891059539875
0.015529244789857096 -0.022831332713002764 -0.011842074944098124
-0.037636462189231404 -0.02217577209498923 -0.01105944348676446
-0.01207908800141546 -0.022394062751051592 -0.013268128075819334
-0.006680233417205035 -0.02278732818658423 -0.007166005020324703
-0.0317212381196015 -0.02220168312352786 -0.012036341702486275
-0.026421176874578442 -0.0220259802856203 -0.016675521495812255
-0.003000302479289011 -0.022681254709622158 -0.01008583631752279
-0.016997842327183932 -0.02269702347384383 -0.006315598819551833
-0.02690003987692502 -0.02233172890584721 -0.010771484992860058
-0.035550886467658784 -0.021759212122726454 -0.01945873085131089
-0.04178745860005668 -0.022161982973439864 -0.010290767603068357
-0.020580673949017296 -0.02199655655596068 -0.018680910124434378
0.00941603733645546 -0.022816394908891542 -0.010608438814991702
-0.02487271969517057 -0.022152370103669175 -0.014668090301607616
-0.02517358736185128 -0.02251023678113674 -0.007822044128114118
0.002073351165634448 -0.022632363388458924 -0.012269378754808383
-0.034961204672763715 -0.021870292232623698 -0.01750317532406228
-0.009066905731236693 -0.02217956875172548 -0.01807382792567567
-0.01770186849070666 -0.022435781621633174 -0.011084097925995125
-0.040958814233215485 -0.0216026368871734 -0.021080039138660852
0.012029268080719566 -0.02263434231638834 -0.014701340808258679
-0.0020822027103798643 -0.022300468500090993 -0.017518651979450753
-0.019457854561309183 -0.022360234455072486 -0.012078029061839742
0.01415973904638727 -0.022636680030763367 -0.01518553682761014
-0.009044303365111223 -0.02261249333704321 -0.009887795405010258
0.0004674759717004581 -0.022670069474482225 -0.011157606398287546
0.041986322945809555 -0.02308455488406801 -0.013612955579706404
-0.04540277501752649 -0.021597309916819563 -0.020078580417874043
-0.004844200572882408 -0.02278215503306322 -0.007719288214834948
-0.023949239220678094 -0.02197544776362166 -0.01824480392079776
-0.008290409255976045 -0.022531628289063556 -0.011604885320339098
-0.04347721376768613 -0.02207254571573613 -0.011563949420012154
-0.029039463881881177 -0.022107895613250363 -0.014476125618934391
-0.04622424083492055 -0.021818530597708028 -0.015688973109005626
-0.017460628814615547 -0.022161460597627886 -0.016334534411105876
-0.005024699291649979 -0.02241714338960817 -0.01458113352490088
-0.023103978406749284 -0.02258834473203993 -0.006857447939826736
-0.029924506037883766 -0.02200584838342982 -0.016187504902000046
-0.04234109357739908 -0.02191817235933821 -0.014766741415387509
-0.03691822401132048 -0.02208326291902459 -0.012988015393883673
0.016060339491747573 -0.022729633977663012 -0.013898110332458791
-0.010085210672537231 -0.02226136118235722 -0.0162736075243406
-0.03540088034325989 -0.022454470235883504 -0.006340520940105373
0.022748320634099234 -0.022826229602213706 -0.013729210881223338
-0.030723302449069397 -0.022512606606361084 -0.006400684751392624
0.018182882220013623 -0.02291438670720603 -0.010928750515936496
0.04443881316597507 -0.023118382205659132 -0.013581188659296686
-0.024980828266157284 -0.022405838773243578 -0.009845235394610035
0.02262058396822267 -0.022928537491994364 -0.011761695833535375
-0.02805636388922733 -0.02241133942929383 -0.008978316399307996
0.017869382317359035 -0.022742659336957346 -0.014100353562774514
-0.001214578328363431 -0.022747675280464844 -0.00927197130308522
-0.04093110176812704 -0.022002226771450906 -0.01352602096481506
-0.0017636442432716337 -0.022621794212497874 -0.011517659199687297
-0.017466251764001527 -0.02203254299667364 -0.018772470831019593
-0.04605797537313376 -0.02168900048752932 -0.018181133383873595
0.005400859806270596 -0.022863515969247242 -0.008720930736053819
0.006779155552804977 -0.022611420237890943 -0.013832857109579173
-0.026156696504219444 -0.02190888373184606 -0.01895677926446519
-0.014565693781408772 -0.022297793609032508 -0.014472934176998539
-0.014172474356634726 -0.022666194535752106 -0.007599720086684492
-0.037016876410588345 -0.022574808140422058 -0.003662709593428091
-0.013637224237880247 -0.02243453525970236 -0.01211585138276397
-0.03073088136475731 -0.02181179949156546 -0.019659217616911726
0.009722274104695838 -0.022660571928933837 -0.013632820687574142
-0.03591415268320913 -0.022235704659526116 -0.010352613132443865
-0.01228671134008115 -0.022666410987859004 -0.008063357936476712
-0.016684808935869995 -0.022576808514515222 -0.008667904706666322
0.02096094795951898 -0.02271077675058141 -0.015470437664504642
-0.0216561915976787 -0.02233140434012243 -0.012078279337440316
0.03511135704488662 -0.02302670646988369 -0.013002316074992474
-0.019172943318387557 -0.022546288709642693 -0.008628247053939723
-0.03426187044729186 -0.022043830330400867 -0.014393010419006017
0.019949109079818162 -0.02280042214735085 -0.013523230149693796
0.011994517366211224 -0.022840020056502725 -0.010800963417712875
-0.0299309123392489 -0.022246161663103024 -0.011638797038731597
-0.018959757288694354 -0.02207322729527643 -0.01763221734542448
0.019918075338954455 -0.022955789007501576 -0.010575738534190615
-0.03726043632208787 -0.022459762136745838 -0.005779156313583706
0.008110338070642861 -0.022565512988767134 -0.015031675694632249
0.00440596111065986 -0.022470939025432297 -0.01590235751020052
-0.02126357800587869 -0.02250785725910076 -0.00883688409788817
0.006963828862990202 -0.022825370333058592 -0.009830377914174716
0.0036424665138257567 -0.022760076420553242 -0.010242034124150454
-0.015526980708287109 -0.02208685284251903 -0.018225845333750268
-0.026074475431382055 -0.02225622904711964 -0.012404833469313292
-0.012415662613071601 -0.022294728994420927 -0.015064202661460788
-0.03812868513738407 -0.02230196775988042 -0.00854952778872439
-0.00793503714966623 -0.022392900054399652 -0.014317993991095679
-0.0329825847363904 -0.02259361737435198 -0.004307450018932319
-0.03399902614551208 -0.022373032214329666 -0.00822916862731044
0.02456738752120454 -0.02286752896829234 -0.013398950134709514
-0.028753671713822176 -0.021916582857203538 -0.018166960934277082
-0.030314855748626135 -0.022404276224975952 -0.008551780807313948
0.004482564027172429 -0.022630252485923943 -0.012906887342829295
-0.020388667901671376 -0.022119167141701687 -0.016408542069096376
-0.016823168758912405 -0.022763609893362857 0.008168172793301225
-0.03830943675874498 -0.022606974637364458 0.0077815213460590985
-0.02896504973044053 -0.022672554316019233 0.007036749584631765
-0.019221139247123847 -0.02272460964691972 0.0003938900108789076
0.027925865515885225 -0.023041454979687324 -0.00840664519081129
0.03123726078733766 -0.02305848419643748 -0.010901792252682282
-0.007304076730527052 -0.022815581755337593 0.0020800980995480034
-0.02932665432563952 -0.02264058030701105 -0.003509985620436011
-0.0029752304095684162 -0.022844640067382117 0.0012601630976618655
-0.028432656656766694 -0.02265186387155578 -0.0017815071597059068
0.01027570398071953 -0.022936117030950946 -0.0003417686703690633
-0.02806141357992697 -0.022661205828110858 0.0006091409776971526
0.003928770382082697 -0.022870652314035733 -0.007352337050718635
-0.037133737881331993 -0.022600269026903468 0.0023142998195422233
-0.03271910995940799 -0.02263882412757194 0.00468315010373257
0.0003341589588814649 -0.022864881247308032 -7.580455902697712e-05
-0.03110303972650703 -0.02267344962700594 0.012919509684258111
0.02297552501581905 -0.02300421751533529 -0.008908672363140678
-0.02147375425285298 -0.02273585480554733 0.010293189256728211
0.009842018060288775 -0.022927540250133296 -0.002295092774208623
-0.03370070930149636 -0.022653065061585306 0.012352716881400909
0.023549525574500775 -0.023014279049382233 -0.006786891859011358
-0.009451216470476372 -0.022785211273333873 -0.0032462026214542896
0.043126668361952364 -0.023141276023220296 -0.012082580639896074
-0.019463423692492002 -0.02274463991433285 0.008220366680588318
-0.00958748765012097 -0.02279305401796172 -7.408665844573295e-05
-0.037547850221205915 -0.022607821219976 0.006104718858108738
0.010050358540022807 -0.022917502378508266 -0.006443310566846794
-0.014737309654429185 -0.02275919128032876 0.0011551931935325256
-0.034120781712191246 -0.022617749756979395 0.0007576345272099436
-0.01513016236438907 -0.022762347238498556 0.003310878921220811
-0.011379304871769878 -0.022777176175409877 -0.0011178428310259754
0.024682779842776878 -0.023012413005617578 -0.010405000268581445
0.017986308821370676 -0.022980540781479816 -0.004437617335358045
-0.0039626346608891 -0.022832267517340236 -0.0006165963240407557
0.012326266882338982 -0.022946353024863232 -0.0019979796996400226
-0.03961243748728921 -0.022593338792716137 0.0062717925762218185
0.001084731428942904 -0.022857981247716964 -0.004507072737948417
0.014326525642174764 -0.022960697659832024 -0.002047233893395759
-0.03013763574871313 -0.022641664421930868 -0.0010110610307495047
-0.025131171296318755 -0.02267779327766684 -0.0010533070105961883
-0.02606270257102135 -0.02269686828945931 0.008222767197391699
-0.02258141983353898 -0.022715756553096187 0.005953627452079718
-0.0172024811774536 -0.02273963804078298 0.000542431607925619
-0.014230513271689074 -0.022779594820642297 0.007167349875828113
-0.02323453215269286 -0.022687159265325423 -0.0026217157919341794
-0.041615562645938464 -0.022591022657348834 0.010649981067489664
0.013456414692606694 -0.022949323710169584 -0.0038703164887485316
-0.008799240658262247 -0.02278433013206025 -0.005258617169853322
-0.03455922401432545 -0.02265505337563746 0.015300131360839605
-0.04201449571687811 -0.022594553711924453 0.012956243223565242
-0.03251382658504457 -0.022653732601573228 0.009505356644700973
-0.005730313460206509 -0.022821108512747858 -2.7801962954326562e-05
-0.03559741449534752 -0.022635941841842557 0.011134357024594858
-0.01802125942852288 -0.022743658011977457 0.004116401398132418
-0.029715498921626234 -0.02265214333886533 0.0016556836517500814
-0.016952683847493537 -0.022727395014119512 -0.004505865088873034
-0.0025633287670536187 -0.022836618698155627 -0.0026930666177010583
0.03309945584694909 -0.02307287999851272 -0.010573547702706
-0.00981176212173241 -0.02280515847795271 0.004858039975718407
-0.019658533113022906 -0.022707403071114532 -0.0046502154754526365
-0.007922034755848142 -0.022801252432263094 -0.0014606335141901516
0.0031525521311072807 -0.022873932979408117 -0.004154679969847071
-0.02098461331705033 -0.022724098220178148 0.00479710233876536
-0.03423518596580836 -0.022608864764942505 -0.0021369005648295882
-0.023274509580650866 -0.022693380431955994 -0.000282652682674744
-0.023051586066828493 -0.022682687863833633 -0.0047040150241718336
0.0018290698415834063 -0.022857437007094368 -0.006638692326118793
-0.026665799184416358 -0.022702332424834323 0.011754574706577913
-0.009141229263312949 -0.022801785953071058 0.001902277620116171
-0.03991901694328314 -0.022599856643782477 0.009410901030076947
-0.005316006359488583 -0.022830005734453162 0.0020910529551961144
0.009689437577226647 -0.02290932679485349 -0.008441764696887684
-0.040051678282829656 -0.02261448501580773 0.01501149954475381
-0.0003076837457117662 -0.02285197153783185 -0.0030443854848092753
-0.006095785364387766 -0.02280641361134229 -0.0043566137012759085
-0.02453647528213331 -0.022711308044220255 0.009440684620894443
-0.03567834535967327 -0.022629466355613994 0.009018417724910296
-0.011824636401441786 -0.022764157091516083 -0.0046368617085515195
-0.00423124087642408 -0.02282005848194496 -0.004304267341172431
-0.0276097830083532 -0.022670494623651536 0.002771594950280989
-0.013392978126314261 -0.022750476744799894 -0.00547240324983801
-0.024472370959998883 -0.02271700331922765 0.011320084798221927
-0.045592900680257065 -0.02258282653005563 0.018050768041492134
0.013882201481974943 -0.022946771250372568 -0.005894847845690911
-0.04308720644626619 -0.02259380752996821 0.015478378290766124
-0.0018499874562404872 -0.022829216985331108 -0.00720774373859853
-0.02530167825331775 -0.022694320380924164 0.005327888403377038
0.020168082104105617 -0.022995310969339364 -0.004806118546459105
0.0017425517999991764 -0.022867642793430645 -0.0027470187975782005
0.0053036267359311065 -0.022888223318304327 -0.004615726511348091
-0.038120927952143085 -0.022627486313423536 0.01466042219154671
-0.013850575215700253 -0.022753993931918792 -0.003018532935029685
-0.012565102723466497 -0.022775605743280747 0.001402313555015593
-0.013677789231844442 -0.022760816811102317 -0.0010167091026683202
-0.0006949706008709602 -0.022862821671950077 0.001861109225926771
0.035537343746773885 -0.02309023431616917 -0.01067982556488132
0.012893910614665528 -0.02293464037063462 -0.007682476220697912
-0.007381791552589865 -0.022820958278272893 0.004213864416211407
0.02543783165141199 -0.02302774137987166 -0.006861932679684926
-0.02682709012264634 -0.022660677900735303 -0.0027911123457836466
-0.03183996454974513 -0.02265017463102377 0.006474309747341514
-0.03583802760444383 -0.022622297053642982 0.006858050603913555
-0.004851030540326935 -0.022838403082365535 0.0038985244027331025
-0.04466055833415945 -0.022585134263139635 0.016454762006291687
-0.016309658575067068 -0.022759876499440564 0.005491190947597389
0.006657178666678351 -0.022907848180256977 -0.0010858119136780732
-0.03306408982321546 -0.022662623101555403 0.014130729721697577
-0.034042149868895054 -0.02263811659317721 0.007870298496747748
0.010915081813218618 -0.022928104983814805 -0.004883335000918719
0.00821398271185136 -0.022913319479327458 -0.003169524041549095
-0.030386986556983565 -0.022671139000031055 0.010226852974601125
-0.029470580413318112 -0.022660139016725107 0.003891235715620952
-0.018265131752324668 -0.022749117853630478 0.006712292038042687
-0.031006594919522172 -0.02266160421777743 0.008412948511065506
0.018426466899928662 -0.02297377074888228 -0.008014776891652161
3.933695617588939e-06 -0.02284596697320377 -0.0060121897888978214
0.004212166549558208 -0.022887518985740086 -0.002029787212939507
-0.02373844418544857 -0.02269808903190184 0.0026157409078905952
-0.04095601945378564 -0.022612434343301 0.016627026180525726
-0.011265620399903524 -0.022799586358294717 0.006637759217400028
-0.00203551645014444 -0.022846985218680484 -0.00034157391786285903
-0.035487248216785845 -0.022617557128991304 0.004242729751679365
-0.03285832313184056 -0.022632157263639978 0.0026500520015381003
-0.024396241299414707 -0.022706297108076534 0.007275644768868474
0.022021179520902465 -0.023006795059739453 -0.005500300749541337
0.015563473758444782 -0.0229502412017875 -0.009021336978660721
0.002351574691280972 -0.02288045852046839 0.00027316430923818736
-0.020547679348030028 -0.02272109818069163 0.002582774242069318
0.02092099464052602 -0.02299055896363912 -0.00847176377198374
-0.011809374830553037 -0.02278690619149633 0.003496509772311339
-0.038710386581504164 -0.022617118137836893 0.012468682408484384
-0.018059278783903454 -0.022724302050836382 -0.002738722218861488
-0.00521274635201761 -0.02281900186715221 -0.002130894426928504
-0.00291840271650224 -0.02285098374952183 0.0033914436359332766
0.007378222085291153 -0.022901162080802756 -0.005363424515560144
-0.021272077121029735 -0.022731095838527532 0.008058855256273235
-0.03153678155940057 -0.02263791587626792 0.0012815015779965157
-0.016337429855983 -0.02273820030502311 -0.002224178931185163
-0.03668807511773339 -0.022596212646583645 -0.0003022441728796801
0.01634310952802103 -0.02296227501921516 -0.0067258497451542784
0.003946817689586352 -0.022895114018728478 0.0013890759040836396
0.015547169374869342 -0.02296406194774087 -0.004013549019412509
-0.0354565052010887 -0.022643728703365004 0.013565424850015098
-0.03198541810547065 -0.022623633890903883 -0.002682643215958686
-0.037671231608830916 -0.022620665867089135 0.011040340620858477
0.007939115535440851 -0.02289809014915152 -0.007926010920958758
0.03846119384589257 -0.02311007231782535 -0.011157821199251955
-0.028849930283569913 -0.02268666471950511 0.011806757744359731
0.05028375369605503 -0.023170499131083492 -0.003453637645487499
0.05085170618613443 -0.02317049913108349 -0.008826046825869007
0.04794055473435385 -0.02317049913108349 -0.010110203044532749
0.0497214657454821 -0.02317049913108349 -0.005313919942218141
0.049168884067149185 -0.02317049913108349 -0.007156812641950661
0.04907510812327891 -0.023170499131083485 0.00858345855056726
0.04965207684063268 -0.02317049913108349 -0.000655850264534537
0.04924844533974243 -0.02317049913108349 0.0028236646308951673
0.050800147428137224 -0.023117895011720988 -0.014025868674922623
0.04831173773567015 -0.022791086903462203 -0.017938990631121105
0.049498743863511184 -0.022922852588998954 -0.016361259895202214
-0.019025779712984064 -0.021885469940584393 -0.020476809861162366
0.009620332633038652 -0.02249278342811868 -0.016779218176794387
0.023841021280982966 -0.02270325270078112 -0.016022370419777762
0.002854650215964514 -0.02212160529451399 -0.020351714455928895
0.008537591211970022 -0.022307410339917184 -0.018843956499189747
0.011352144112071959 -0.02236197739327313 -0.018541139816015267
0.01313381508916028 -0.022466959842539436 -0.017514592486699766
0.006733182664648028 -0.022257926322878263 -0.019209958992079917
0.031985313732906626 -0.022886874704128816 -0.01484123919503618
0.03548854623283009 -0.022711183317123913 -0.01735159182880854
0.03516454340545505 -0.02249150818188116 -0.019915587981443085
0.005257538849794047 -0.022352552946529755 -0.017908136363845785
0.0011689205864793967 -0.022327584445618817 -0.01770447300970873
0.0381618618242357 -0.022854527742585687 -0.015979329327165896
0.036338083901461045 -0.022883798188429505 -0.015409568443597001
0.03070206689002252 -0.022764969087294237 -0.016129262244550736
0.018306854195652034 -0.02246735965575941 -0.01814194927511808
0.00975628648229614 -0.022135588920840586 -0.02102929397177998
0.03943441183898409 -0.022578429683640485 -0.019407132385609472
0.003266326940058472 -0.022321293761257556 -0.018035312879122738
0.02492024666760797 -0.022563485071192123 -0.017810765024012368
-0.02400874222574599 -0.021749597785588805 -0.021478294608361804
0.015267050730212237 -0.022565255948099022 -0.01661024939850889
0.04618604453332445 -0.022737751956273443 -0.018343831619254194
0.020413139965487305 -0.02250224646157128 -0.017985839172837872
0.0328332569786043 -0.022574876024230504 -0.018642652992691338
-0.0035616585036818 -0.02219181559087563 -0.018735572258295675
-0.021883435145007585 -0.021781272321875562 -0.021362580493074518
0.046277275225727936 -0.023071854012204428 -0.014395206940490788
0.013598312913961309 -0.02231039974173637 -0.01942689742422888
0.024390181686792297 -0.022352669166627016 -0.020244582914264134
-0.0017538548441007277 -0.022131988920231212 -0.01966553312567412
-0.005887864995885842 -0.02200491833210305 -0.020666435615310622
-0.007713571289570422 -0.021991337865977678 -0.0206043074221604
-0.028061187580308903 -0.021692767594911785 -0.021656675468062603
0.044418659028901394 -0.02270297215258986 -0.01854008387013518
0.029607892794720855 -0.02253294239728554 -0.01874554134211346
0.04024290062341978 -0.02289504391654723 -0.01575341510847858
0.0379985574460855 -0.022702614288491962 -0.017759850922813885
0.015537484392563179 -0.02231274811822378 -0.019636012511584353
0.027599361158858665 -0.022595383612944005 -0.017760065911169843
0.04229734133708446 -0.02291032330642002 -0.015823356819552416
0.02237225945154816 -0.022550388183851734 -0.017654649716852402
0.041373836941399456 -0.022642193161681135 -0.018888387668600296
-0.011013573700472715 -0.02206125453148162 -0.019372427836645216
0.01786753134857877 -0.02262639483248715 -0.01620338591648015
-0.035233984107493385 -0.021632094598667648 -0.02149932445028794
-0.016879330588220345 -0.02189427985670815 -0.02063467020928396
0.03388151218772956 -0.02281494886894503 -0.01592540015514097
-0.02610640476943969 -0.021781823151308874 -0.020840046009111404
0.019988857193695732 -0.022266099010802155 -0.020732811704116803
0.044962121305170605 -0.022900116652468366 -0.016269936268086444
-0.01323897471414886 -0.02197349310176582 -0.020140652398835602
0.0003881543948114916 -0.022060484537234436 -0.020774734742675136
0.03731255566718213 -0.022518418393339467 -0.019859114920924067
0.05159027520184552 -0.013254764774513221 0.004306247101636308
0.051697273473467156 -0.012204224144038527 -0.0012445437037746387
0.051781453042256835 -0.005497369597501868 -0.002048135312524314
0.051599938218662114 -0.018415610778917 0.0006200514449963652
0.05150310800271453 -0.018533199172574275 0.006148210380649206
0.05143074159828619 -0.015692557761119063 0.012054348479187234
0.05149765541841521 -0.014083303016910288 0.009160101602121036
0.05152973783693643 -0.020923674299482282 0.0031596834819465373
0.05139169183600957 -0.017561011739645666 0.013180224478381188
0.051606810784654664 -0.009360182714796914 0.005710111441878852
0.05129316366213899 -0.019546268125469897 0.01767478705931132
0.051654116601963354 -0.02148181097076184 -0.004371011020828626
0.051427823321347724 -0.017484303322509845 0.011137327787406087
0.051614735550030696 -0.01117827484939908 0.004150102732691521
0.05146841867233826 -0.017385023889922455 0.008849976201833032
0.05162939341162504 -0.012400359597357219 0.0025619115496832608
0.05173738907793401 -0.006376971580719809 -3.3069799112773286e-05
0.05171090401581805 -0.02055586643461973 -0.0070937544150765875
0.05163146360971507 -0.016184676905572848 0.00014894691620709246
0.051731846427115126 -0.01604585722872929 -0.005571782957850359
0.051538405519421786 -0.016544923542161687 0.005311926560788191
0.05158010264950573 -0.02066653659910812 0.00040305192806347565
0.05176218676507463 -0.021256153252000254 -0.010483655428423513
0.051690282203695564 -0.007477611912777231 0.0020240119515352235
0.05164584613255904 -0.00910028589795114 0.0036103026107219115
0.051394122642136636 -0.019788383640124335 0.011689897176752735
0.05123190836454469 -0.020200900649524154 0.0208203072975399
0.05157064067263545 -0.010663319818990605 0.00701204070870328
0.05152812453953246 -0.011385171458452952 0.009033194362177342
0.05152828478279136 -0.019092153855944483 0.00435358892451217
0.051760379148086705 -0.012448245231812712 -0.005041639310138413
0.05163123901138278 -0.01920688362222891 -0.001669486273806791
0.051703409271064316 -0.00882725719741747 0.0004470420890243412
0.05168382127844483 -0.016965767028955338 -0.0033520794698578917
0.05159801902583119 -0.014713188937739222 0.002974656201500646
0.051609136161059777 -0.02134772954567017 -0.0016886682679051685
0.05146172408213444 -0.019922582905393692 0.00769937494939952
0.05156751022749485 -0.018193941581179415 0.0026295988582508536
0.05164296484691949 -0.013901178527272493 0.0008676357349802384
0.05169582234926226 -0.014219591739230063 -0.0023819179410705543
0.051681156613153506 -0.01069023097500204 0.0006049102341033796
0.05142572897492852 -0.019760404790105213 0.009879147658200488
0.05175198226765504 -0.010852035175981267 -0.0035887874117686842
0.05145400258342259 -0.013734965298581725 0.011895509427214434
0.05153922645216895 -0.0130841364594773 0.007361649875898802
0.05134468221171691 -0.019036852112195028 0.015004315810422672
0.05177360000339459 -0.004021771686420823 -0.000699821741073617
0.05168273558261978 -0.019220261199348346 -0.004655493231954192
0.05175771004905627 -0.00739343989066672 -0.0018241414067977088
0.05135171864292583 -0.020479808224926902 0.013723004876741888
0.0515281903109166 -0.015357395027252807 0.006622271083048975
0.05173274684927525 -0.017980836158567777 -0.006796425867460643
0.051769078916183 -0.01625046970745773 -0.007848824657778248
-0.03363986134870435 -0.021496401394069817 0.02158483419245488
-0.040469990338013725 -0.021211882287092663 0.021576884834086422
-0.036239404651962265 -0.021474839690069386 0.021523983031746838
-0.045370476660828093 -0.021007063992437576 0.021571635588096588
-0.03156342373207161 -0.021198545704504423 0.02184352254952689
-0.049898682197257946 -0.02023335854668907 0.021932017084735137
-0.0220338898600594 -0.02098776696312191 0.022083889009167225
-0.040085441109055 -0.022574732947547013 0.01989525483374197
-0.04513002754109884 -0.022362156761805797 0.020158767946368943
-0.048477226330862974 -0.0221917579270605 0.02040572201451275
-0.03466350604581376 -0.0224588903784605 0.020457965396218032
0.01270848062451851 -0.022934513561227988 0.018226751986299194
0.023642666928321447 -0.02300893833513165 0.017870506814843066
0.014800045512189712 -0.02291274087792341 0.01860232450021567
0.01715381283765116 -0.022914026574920927 0.018707212587276728
-0.01814608538953017 -0.022694233406784267 0.019604957020313635
-0.0260754530035927 -0.022683373391124882 0.019332059898813446
-0.015115132852296896 -0.022744225346087634 0.019144404252825813
0.006038150565074728 -0.022863585799664927 0.018758610108008066
0.0340561191862545 -0.023071715480258184 0.017631078009893247
-0.003400291384029204 -0.02279644743814937 0.019101790191546127
-0.013105557314865424 -0.02271274460388392 0.019635397436462036
-0.02150548621202048 -0.022705450797660058 0.019294419905106417
-0.0007784762588343855 -0.02285856005355227 0.018470896456655436
0.03191278777648762 -0.023060379999202203 0.017660820708895658
-0.026541855680528345 -0.021838052892602863 0.021422344718085906
-0.02995934778019726 -0.022207312060015985 0.02097352125838397
-0.03795498542433055 -0.021897301571034276 0.021119270011415812
-0.0428432200642332 -0.022112330550989753 0.020796274370307174
0.05121541475372974 0.01169817713134603 0.022035276774005623
0.051208489923184254 0.0001489453838455917 0.022488066957386883
0.051325428759216696 0.005572154846325115 0.018446640198538804
0.05172648978881719 0.012566637095162533 0.004806539018042021
0.05148903194912901 0.01131936119476168 0.012827469477053224
0.05143551047970318 0.006084372161872842 0.01472951775246861
0.05138456465828069 0.007070280599427943 0.016426551256970207
0.05123743817792172 0.01770999103111775 0.021179265669276852
0.051485653104181676 0.004413129200058032 0.013072564183747339
0.05129302188833385 0.01612767114367128 0.01933737404176697
0.05150752608542536 0.009151221975545097 0.012245835585233277
0.051458846958515415 0.017566425394234315 0.013725285507020115
0.05129573675847513 -0.003833162527295898 0.01962543408961173
0.05142891356892612 0.008411978333195232 0.014907439492670977
0.05159091925338999 0.0123858265148699 0.009375785165902893
0.051238238809516605 0.0032755951682657677 0.021426726443818912
0.05164381642312086 0.012780209470862832 0.007586791312997413
0.0516354837522775 0.008132855778116127 0.007955777815441937
0.05123817351441531 -0.008408470628741137 0.021651061395863657
0.05142487917942663 0.00018363333214690102 0.01519974777630563
0.051354048452868166 0.012267036833137093 0.01735549041161546
0.051619683055247736 0.010361933223441724 0.008445542236471412
0.05154003919224387 0.006375813005748518 0.011203609506979371
0.05126642578837784 -0.0010627847877839307 0.020559912746218403
0.0512624182252495 0.009123835082542922 0.02050121468341114
0.051341205169812394 0.016886604858686746 0.01770020595574949
0.05131173990189541 0.0074608582011684585 0.0188717522303802
0.05142396125013887 0.012035844736588579 0.015005329558147608
0.051674433408162176 0.009955267587687928 0.006609365433793038
0.05152423735025332 0.013085255624912438 0.01160823237875475
0.051244789304777584 -0.0028933124912128736 0.02132339822287856
0.05125776034368017 0.001088797958070785 0.020810846084043808
0.051405327832839534 0.016373696756213422 0.015550403928813055
0.051266305053598756 0.014382586360222157 0.020270333556866655
0.0512281070147005 0.020435697133003312 0.0214417042330759
0.05140671687777977 0.0026374875352272948 0.015764774008417796
0.05147441785766707 0.015663856306358498 0.013237052793912988
0.05137655322145976 0.014246236337669835 0.016559935893812328
0.051330950103635545 0.0034140181919156917 0.018301719958735526
0.05156261262768651 0.014847434838211233 0.010282309320357959
0.05134715283386215 -0.0005223874213653441 0.017830875170781815
0.051477429759264885 0.0071658438686420835 0.013297179635525644
0.051357428670136214 0.010031851877292455 0.017284144896609115
0.051397819254213495 0.01830855091523609 0.015766496199228985
0.051580955841101894 0.008844867956412612 0.009778657911991393
0.05142993672094963 0.014067243807251084 0.014765464136177473
0.051249559830981575 0.00686397524160956 0.020977229922316605
0.05127596888958834 -0.006780686990925905 0.020347223670906252
0.0515594829393833 0.020095837657481755 0.008912805431006
0.05154780855867131 0.01803961616711119 0.01015017870586483
0.05166015614579411 0.01536892621423882 0.006867795270528667
0.05161861795383824 0.01721374438925881 0.00775210301154009
0.0517525380563566 0.020029918946194592 0.0015352280561556969
0.05171251172035661 0.014804014961092968 0.005077126162208276
0.05174078368681688 0.015973164567735967 0.0035439882819255026
0.05164724892386767 0.018767295905192143 0.006057566332161162
0.0516690519201461 0.020810726433167843 0.004436713502267235
0.05131052146978344 0.019722657501312815 0.018602807730916247
0.05174346465931666 0.017610558116584303 0.002812330372100131
0.05142159852176764 0.02008050302072245 0.014206012431386476
0.051790361655594384 0.014239260654651347 0.0023087897011632545
0.05154327485644406 0.0029442455385975848 0.011124396955356223
0.051324044252141404 -0.013384784801641708 0.01824026198407578
0.051254889984085186 -0.010621632377034075 0.020927902543868438
0.05144167443594333 -0.002396810700950553 0.014546812884181902
0.05129620007161826 -0.0094026489383402 0.019483042457474994
0.05159077780096781 0.002717173704908745 0.009371759641474185
0.05123908567257341 -0.01646189212194825 0.02117985509930033
0.05136888363734397 -0.006891119135369541 0.016961395888421413
0.05120002737544662 -0.01826375070876224 0.022509609176948657
0.051197400380209424 -0.01533753049878971 0.022769633019267547
0.0513562242065858 -0.011067935196908317 0.017191274160278
0.05145900315206464 -0.0050816986382960045 0.013761807173828227
0.0514949253521222 -0.001372871143449703 0.012653668916861125
0.051396965129563 -0.00339895580157127 0.016128316834813965
0.05142438849968596 -0.0066584698719213695 0.0149414003642103
0.051528440271203166 0.0002728419029264309 0.011518215691707663
0.05122332769101446 -0.013327983755226216 0.02193246342688139
0.051607614426672874 0.005022608295781559 0.008884124568229842
0.05127569870393675 -0.013892146669512677 0.019982650117969056
0.05130712486698928 -0.0113012985404258 0.018976609773282638
0.05136298097110336 -0.004889688570242906 0.017289632676391383
0.05171530373603144 0.00863620122042764 0.005120314312818523
0.05126038306760716 -0.018025092300525916 0.02017657737085316
0.05155519437007078 -0.004225011548525739 0.009671936453157738
0.05143733483642918 -0.0101561402736637 0.013782471891044893
0.05164824751700635 -0.001829169255202455 0.005935061316315307
0.05164467837017091 0.0031624771271443856 0.0071709313599577044
0.051678184374491745 0.0015417258332053275 0.0052916492195835725
0.0515174694041001 -0.008600135818991463 0.010455376869441731
0.051789629238917625 0.01238798104025079 0.002530555945525921
0.05139431111865745 -0.01273292363969416 0.015194516410758533
0.05136767940009544 -0.014855805362028776 0.015955129230781368
0.051604761115011964 -0.006292668494093888 0.006962759847741213
0.051748967154644054 0.006913628128939453 0.0032119563876340886
0.05155928413188557 -0.009384730051362146 0.00837615696099642
0.051528990470447684 -0.0027797906897756523 0.011179846580892435
0.05149513496893968 -0.010679436044987316 0.011029004726988024
0.05151055393606701 -0.004648647490699994 0.011620599488299016
0.051607925408213864 -0.004039419079380258 0.007302438207732745
0.05170004003675037 -0.00501931171643255 0.002882943669738559
0.05168791820472774 -0.0026294631767825936 0.003950432702164214
0.05132693945817892 -0.01664057714931232 0.017433040121538713
0.051770036362498675 -0.0002375218951477828 0.0007123604050226951
0.05178080127007209 0.00921367168799327 0.0022517108445968613
0.05173240204924971 0.001624561818261686 0.0028321395186427065
0.051567322437331316 -0.0009394069185948758 0.009823912770765423
0.051554478245426485 -0.0073426097715567455 0.009034633358366635
0.05140198687772536 -0.009462209766993107 0.015546727201374424
0.05147595528558979 -0.00876757873978026 0.012316252565697763
0.051682591829659674 0.004870444888291721 0.005805661552999555
0.05164228550704285 -0.006576436807398218 0.005187209751278559
0.05166106227939918 -0.004612511378517193 0.004751342544960825
0.051734563325925256 -0.0027314060707274365 0.0017972158301999487
0.05161219240957318 -0.0013594764326027861 0.007683435201330706
0.051729979572570244 0.00426492193157915 0.003510285012463001
0.05147189883285775 -0.006813873747747165 0.012921483926264077
0.05178902112134115 0.006686106677322997 0.0013329134288164884
0.05162883816564787 0.0005759083695772802 0.007338804473755887
0.0517221093006203 -0.0010715752827435239 0.0027229903479371255
0.05179499834775925 0.012047350927709722 -0.011022254753383937
0.05179499834775924 0.014196728376481173 -0.009166183341293523
0.05179499834775924 0.017362454828974784 0.00026112015779231317
0.05179499834775925 0.012187109997482685 -0.009104017166271598
0.05179499834775924 0.01899674703640691 -0.0005479772440145371
0.05179499834775925 0.01390640745955962 -0.0020814419379210844
0.05179499834775925 0.015389626351997926 -0.00045654492315210004
0.05179499834775925 0.011534876290273431 -0.012779552483551527
0.05179499834775925 0.013916140471307896 -0.007021728064482348
0.05179499834775925 0.010220622163604082 -0.01633676050598225
0.05179499834775925 0.016568115021194166 -0.0022940527351474633
0.051794998347759254 0.012074586191384493 -0.015100960388925078
0.05179499834775925 0.010583060151933398 -0.01815512010898743
0.05179499834775925 0.019379687885484494 -0.0027152129201496785
0.05179499834775925 0.014407242692216108 -0.011694066353363302
0.05179499834775925 0.012822990241277813 -0.004145558019283308
0.05179499834775924 0.016143206727528628 -0.004687807227069566
0.05179499834775925 0.013366091275342553 -0.00011641525751601191
0.05178770229369982 -0.005534756376554987 -0.004288121957144159
0.05178478608778515 -0.008242415606686109 -0.004069895622371528
0.051789063172663005 -0.001734608880471937 -0.0028528170215007254
0.051789160702099615 0.0004874635387272933 -0.0015684412311429035
0.05178829141967729 -0.007780784668533666 -0.006024746744795394
0.05178822899980724 -0.0037401721605904706 -0.0035363922745149474
0.05178980006072072 0.004558558150889283 0.000491012280165877
0.051786054552965116 -0.016609273912229907 -0.009948738143951561
0.05178615399203414 -0.011352237491913726 -0.00682642787959923
0.0517848530539188 -0.010199620714808235 -0.0052986283330669105
0.051785692804226964 -0.0016603508319739924 -0.0006592606718379514
0.05179016347303223 -0.004558393951575033 -0.013750016192208269
0.051791242810320284 -0.0019510960908399278 -0.018233561659904498
0.05179473001895512 0.008573937261634943 -0.0204040538989672
0.05178837799000437 -0.01016763776010268 -0.013930092685940035
0.05179231981149954 0.002045394007497745 -0.014532036803576244
0.05179323898361109 0.004418299872528297 -0.017456369365594592
0.051788464756646835 -0.00886721284789048 -0.00789699632923551
0.051793385069412674 0.007624846717079259 -0.0013374522139379115
0.051793219984223204 0.00502189413953716 -0.01357067522348082
0.05179398511787363 0.007416656675501218 -0.013546073607660532
0.05178837361099331 -0.009801148155942232 -0.011701844596904362
0.05178812986618622 -0.010233492703452734 -0.009772313471274491
0.05179234793234777 0.0017484514217803286 -0.016787430343316232
0.05178719406096843 -0.013797226322632012 -0.013523029837411497
0.051794148717559996 0.006875432038032119 -0.01971420104903245
0.05179387423315025 0.006411746279289818 -0.017405447238486114
0.05179426879476834 0.009153966405330383 -0.008558239539015173
0.05179478978676194 0.011842861646116152 -0.0023388336088269956
0.05179203357614746 0.0004751460479593109 -0.01849384188182985
0.05179020459950768 -0.0034865796617864694 -0.008221059979834614
0.05179071316378357 -0.0015666950950789151 -0.0062813729813506886
0.05179303599459345 0.004109377978487168 -0.015549777409116311
0.05179315778445101 0.006251341841128204 -0.005225641573945372
0.05178755785284159 -0.012356008124646592 -0.011737743383641247
0.051792321662922476 0.0035325731452246585 -0.00584933286099535
0.05178704258474523 -0.013792303612995657 -0.010720269435827103
0.05178631838130799 -0.016345563270275688 -0.012423383771459053
0.05178961075667167 -0.006674275162903287 -0.016029937802888302
0.05179117325943052 -0.0016218927478681682 -0.01503039494731815
0.05179299709042678 0.00333609350209117 -0.019369695980649
0.051789205660500146 -0.006476445114955798 -0.0074521008922882066
0.05179098433623947 -0.0010388532521501698 -0.008153447008368456
0.05179172983839797 0.0007657289627101887 -0.011228490341947452
0.05179276370041459 0.004356806335197281 -0.00911317225041385
0.051792956013677074 0.0059326673246758 -0.0033985204663911734
0.051793859370749845 0.008151232728572507 -0.006937855722397646
0.05179217643341208 0.0023459612849132724 -0.010144750724799239
0.05178580738089864 -0.01805146307174268 -0.013064258236567743
0.051793738308212545 0.007287045672941965 -0.00978604491938411
0.051791780387497204 0.0024236826157117575 -0.002436624071087923
0.05179105321452048 -6.885697182749256e-05 -0.0037294681453469186
0.0517943375731824 0.010973916353440007 0.0008492901438289374
0.05179439463343473 0.00841693964749883 -0.015182497792583472
0.05179467272412462 0.00955043062664281 -0.013631450061042084
0.051789930227462457 -0.0039766646143152605 -0.006069093977699381
0.05179140860532745 -0.0005480762141404291 -0.013046345415356453
0.051789039548493156 -0.008263935020127185 -0.014886955854295779
0.05179161507587811 0.0011695732188771605 -0.006759902883207375
0.051793197443074465 0.005475635202966456 -0.010498437540545264
0.051794098034296465 0.00943211696061578 -0.003800901879199921
0.051794888234894004 0.011605641404590196 -0.005532052430448228
0.05178555026944902 -0.01852222121678383 -0.011115099120771124
0.05179008213232472 -0.004363077289534941 -0.011115680952889825
0.05179431046818034 0.008814597133828199 -0.011310484305629153
0.05179489119883962 0.011301457447283385 -0.007369203220888841
0.051787366103131005 -0.012387602757963686 -0.00841150926386817
0.05178923561834059 -0.0067707146682065775 -0.009725467248353065
0.05179086832316542 -0.0018647680857004126 -0.010869784517713246
0.051793696859893885 0.006235211826543848 -0.015191998626122853
0.051789582829110434 -0.006186509314948533 -0.012659636459401925
0.05179162104902771 0.0008544344552758902 -0.008716367676488763
0.05179234362731506 0.00428600337321431 -0.001835573865800099
0.05178495780158032 -0.02055425853726717 -0.012175648234553232
0.0492748529035135 -0.021722348097192187 0.022080326002260887
0.03750829827438202 -0.019457778062627544 0.022631063688285793
0.02240806019866131 -0.017121937691331048 0.022789029655312727
0.03714386998839342 -0.017476020739408307 0.02278439342061593
0.019975456672576625 -0.0178131305288809 0.022731580656099228
0.03276306935732806 -0.01941886701336287 0.022626723850781544
0.04293757982038354 -0.018069180386417163 0.02274731916178676
0.04375535101016257 -0.01645605213975982 0.022873856687322572
0.02454325670114954 -0.020879373004080402 0.02250055518534254
0.02823935668961192 -0.017930087785870782 0.02273531843640198
0.03916988631483608 -0.017053190769102534 0.022820371709162717
0.04098390627695462 -0.017448739181666083 0.0227924692323692
0.039941124074219625 -0.014831372989960524 0.022994105359958446
0.013955170441454232 -0.019947120377271053 0.022556524250510163
0.0005892988079817009 -0.019487208288108526 0.022571503984384053
0.03491712840261141 -0.020430454385790997 0.022551509852424736
0.04647378102726308 -0.017285168783269973 0.022813688148738825
0.024527395378814383 -0.017891956192127988 0.02273252102886392
0.04689635521900024 -0.013827053596600634 0.023082886650551804
0.033265684103574694 -0.016884134916726534 0.022824340406771927
0.041069783894076416 -0.01938623776494373 0.022642144321508587
0.03918499688242849 -0.020622946999568584 0.022543182627091714
0.0474277827860263 -0.02004797857234355 0.022600619742634234
0.04448782530864366 -0.01970281190094429 0.022622863058826187
0.01732772943161724 -0.018490491497524977 0.02267487205060811
0.007043958842796953 -0.018734922280154234 0.022639936842521326
