0.0435106931135 -0.00953501875605 0.0127184755614
0.047108352832 -0.0104892391042 0.0129588246329
0.0334060232755 -0.0213003670631 0.0127592735878
0.0439169431704 -0.012823437014 0.012903237681
0.0313416862112 -0.0189529223935 0.0125321644598
0.0407978032082 -0.0119101693548 0.0126905969186
0.0342217631987 -0.018107002486 0.0126447977275
0.0527306769073 -0.00508654783027 0.0129927991239
0.0457248567668 -0.00682869626148 0.00951772231608
0.0574089159335 -0.00147456353504 0.00911865016528
0.0326372805359 -0.0248145868705 0.00894528255287
0.0308045329702 -0.0197316724964 0.00925542724518
0.0327963341229 -0.0171646920927 0.00912053161503
0.0321186747793 -0.0138249606838 0.00940982570423
0.0375251103007 -0.0126870263864 0.00907035074737
0.034885239147 -0.0139825565666 0.00910556483463
0.0531787601956 -0.00338284685604 0.00997833485523
0.0499518756913 -0.00486931566351 0.0111476259116
0.0417546599946 -0.00864537440533 0.00980254096915
0.0618988797721 0.000634088280794 0.0101166602439
0.0391320984679 -0.00985346099778 0.010320689352
0.0460412541508 -0.00686236617264 0.0121054566956
0.0367362504313 -0.0111443741057 0.0113491940649
0.0547921126982 -0.0026513199029 0.0120757750204
0.0584295449101 -0.000979320949533 0.0123790024848
0.0340303987204 -0.0126445347208 0.0121557051118
0.0620298399023 0.000563923965111 0.0128444566924
0.0363434614571 -0.0348126650179 0.0103800860359
0.0445072554726 -0.0299085142935 0.0121206257042
0.0372424345841 -0.0323459655632 0.0119930440365
0.0337387473991 -0.0334043397059 0.0119455665982
0.0519748948403 -0.0222935493458 0.0125306804373
0.0374231559183 -0.0295341090643 0.0127239282614
0.0462922266576 -0.0239147375721 0.0127270082603
0.059524983759 -0.0174236999886 0.0125419359408
0.0486276907937 -0.0221866766181 0.0127526988084
0.040912924259 -0.0298335770642 0.0124736141071
0.0546295484705 -0.0205170372797 0.0125410745427
0.0491612657616 -0.025366031943 0.0124004826936
0.0459119927559 -0.0271626807464 0.0124256098332
0.0308074763305 -0.0327395635271 0.012386101412
0.0577429458843 -0.0124160797179 0.0129710402457
0.0539574811202 -0.0131619118172 0.0130533769038
0.0618556429428 -0.00641265066837 0.0131423899562
0.060660280499 -0.0140288375938 0.0127977252761
0.0714882490976 -0.00431311140595 0.0129430018565
0.0665955810744 -0.00696199684418 0.0129648033106
0.0561717975137 -0.0158221159899 0.0128497055215
0.065634584134 -0.00238142474854 0.013225255526
0.0708955874557 -0.00114744817355 0.0131207397526
0.0601332559427 -0.0106750280716 0.012982834947
0.0432772073819 -0.0243239368562 0.0128307918544
0.0630440164242 -0.0121450935614 0.0128168941748
0.0401733473843 -0.0270944468056 0.0127898773975
0.0516723313487 -0.0164275371071 0.0129616887243
0.0669194788109 -0.0101745349977 0.0127932164891
0.0684164953465 -0.00258178846417 0.0131271579608
0.0682833245045 0.00111390409183 0.0133169736263
0.0509311856901 -0.0195086734786 0.0128304049117
0.0462095637385 -0.0170378642513 0.0130266763839
0.0627431793665 -0.0032450535831 0.0132530511905
0.0789044220252 0.00100414527034 0.012799312617
0.0762510345201 -0.00281763884593 0.01279975805
0.0744785613355 0.000309578876264 0.0129968446491
0.0587513571102 -0.00739791020109 0.0131815549758
0.0346590386238 -0.0305789268304 0.0127868451162
0.0412977595736 -0.0222561264532 0.0129384829737
0.0548838555427 -0.0101996368764 0.0131385640348
0.0442054746841 -0.0211755856463 0.0129480763798
0.0426490799441 -0.0317661085285 0.01086687262
0.0519979897849 -0.0260463173421 0.0107212606878
0.0664636713927 -0.0146862108459 0.0112107219166
0.0751140750185 -0.00835303957208 0.0110510288259
0.0471215194447 -0.0300834859254 0.00993336695912
0.0394610392307 -0.0342523647141 0.00908213035545
0.0809174019104 -0.00132899297408 0.00928550377782
0.079993829759 -0.00287085857655 0.0114255471394
-0.0150947746696 0.0173457835202 -0.00882364541698
-0.018824411747 0.020848870765 -0.00867176294394
-0.0146169727857 0.0100976823884 -0.00908618851191
-0.0190080657411 0.0176043980408 -0.00878644558394
-0.0217502171647 0.0171241273805 -0.00878402780998
-0.0127565423519 0.0129540344372 -0.00899735953659
-0.024215508742 0.0195269160848 -0.00868051424265
-0.0157170893575 0.0139042829942 -0.00894223857763
-0.0271256714473 0.0197679410998 -0.00865110895303
-0.0615595331554 0.0456990003586 -0.0109216783253
-0.0415385402421 0.0388672741003 -0.00864099990577
-0.0593100153044 0.0453987658409 -0.00864099990577
-0.0577587684209 0.0430947601561 -0.00864099990577
-0.0595846177711 0.0432991452148 -0.012485999614
-0.0542348485529 0.0386176054972 -0.012485999614
-0.0560528731861 0.0410254307688 -0.012485999614
-0.0689368425228 0.0449559464436 -0.012485999614
-0.0445666785449 0.0370039668886 -0.012485999614
-0.0328967198315 0.0297463891428 -0.012485999614
-0.0356188851586 0.0313430305029 -0.012485999614
-0.0481510354079 0.0373867407173 -0.012485999614
-0.0508090094766 0.0397358410429 -0.012485999614
-0.0363939544256 0.0341594863563 -0.012485999614
-0.0241334868476 0.0273363928641 -0.012485999614
-0.0636602541059 0.044163729362 -0.012485999614
-0.0641535686541 0.0412022737322 -0.012485999614
-0.0190505711821 0.0240649443175 -0.012485999614
-0.0600610670469 0.0363702004322 -0.012485999614
-0.0202926650062 0.0185633007842 -0.012485999614
-0.0343664616318 0.0234575641626 -0.012485999614
-0.013934027956 0.0170650674242 -0.012485999614
-0.0259713348649 0.021309913165 -0.012485999614
-0.0541754907201 0.0346645181422 -0.012485999614
-0.0245333336611 0.0183439902207 -0.012485999614
-0.029587828871 0.0201767707557 -0.012485999614
-0.0413655177047 0.0270163715245 -0.012485999614
-0.0263960903216 0.0246049759333 -0.012485999614
-0.0177078643477 0.0210086014028 -0.012485999614
-0.0688807066545 0.0419647913384 -0.012485999614
-0.0471091883333 0.0300728331279 -0.012485999614
-0.0157087160022 0.0231428562255 -0.012485999614
-0.0292494112267 0.0283912176488 -0.012485999614
-0.0440782179699 0.0290467699622 -0.012485999614
-0.0177228115593 0.0169482140926 -0.012485999614
-0.0505974214047 0.0348291205617 -0.012485999614
-0.0353715852205 0.0267247688259 -0.012485999614
-0.0126368711048 0.0118680615905 -0.012485999614
-0.0151195826549 0.0143934216323 -0.012485999614
-0.0424072202945 0.0330212528443 -0.012485999614
-0.0216335552212 0.0211443230231 -0.012485999614
-0.0141060254072 0.0197954242113 -0.012485999614
-0.0458119152733 0.0334209131219 -0.012485999614
-0.0573925113036 0.0379134971049 -0.012485999614
-0.0195557341904 0.0132324552805 -0.012485999614
-0.0232115513437 0.0232968669433 -0.012485999614
-0.0386105808356 0.0311254259116 -0.012485999614
-0.0209575295607 0.0159073263999 -0.012485999614
-0.0304171772197 0.0233031672659 -0.012485999614
-0.0168103421458 0.0116437709223 -0.012485999614
-0.0382752333557 0.0283866903512 -0.012485999614
-0.0342664302827 0.0308369174714 -0.00864099990577
-0.0466776216323 0.0348714986253 -0.00864099990577
-0.0362577244669 0.0284794247016 -0.00864099990577
-0.0209934977058 0.02674079824 -0.00864099990577
-0.042660102601 0.0360237071154 -0.00864099990577
-0.0529855618097 0.0403778153673 -0.00864099990577
-0.0342417131648 0.0260063672737 -0.00864099990577
-0.0503513364858 0.0385726885168 -0.00864099990577
-0.0315104979075 0.0252116516869 -0.00864099990577
-0.0220640626318 0.0228698052863 -0.00864099990577
-0.0240160320549 0.0278961115677 -0.00864099990577
-0.0317928375695 0.0287138983478 -0.00864099990577
-0.0393162394381 0.0354517891436 -0.00864099990577
-0.0276515764682 0.0270608429789 -0.00864099990577
-0.0370565123071 0.0318621079685 -0.00864099990577
-0.0633348419665 0.0440247713164 -0.00864099990577
-0.0297781608749 0.0230520328926 -0.00864099990577
-0.0226038652493 0.0305739346766 -0.00864099990577
-0.0407589739479 0.0317427335326 -0.00864099990577
-0.0577299884924 0.0343273157633 -0.00948949306646
-0.0704009170645 0.0420840631559 -0.00959136974327
-0.0480399525947 0.0453137829225 -0.00992850020398
-0.0257999502906 0.0328376041631 -0.0111321345036
-0.0331066916214 0.037195709807 -0.0106176200425
-0.0429445895707 0.0408411518683 -0.0112592809881
-0.0208546272159 0.0307080035051 -0.0109879798137
-0.039832747183 0.0396689271015 -0.0110678018489
-0.0311971545986 0.0352341248914 -0.0112460331848
-0.0364107039728 0.0384738175428 -0.0108008132248
-0.0747401540415 0.0454919113433 -0.012485999614
-0.0389246213272 0.0234226611803 -0.012485999614
-0.0541188364885 0.0373476392851 -0.00864099990577
-0.0602600466 0.0413526495857 -0.00864099990577
-0.0618712048367 0.0380103455353 -0.00904022231711
-0.0640934258248 0.0404069863095 -0.00887408422357
-0.0409901202216 0.024682162727 -0.00911077390134
-0.0348627992217 0.0217032674873 -0.00899531462459
-0.0318039622707 0.0206630643409 -0.00887228255863
-0.0576670486895 0.0377282700103 -0.00867401307395
-0.038014274626 0.0249381038883 -0.00879812141915
-0.0454482931594 0.0283367769825 -0.00896674628813
-0.0476339679632 0.0313570589178 -0.00871365201401
-0.042688031168 0.0270520429955 -0.00890755041672
-0.0511254381139 0.0322960074418 -0.00889128258773
-0.0528545087164 0.0349227798605 -0.00865550094935
-0.0379559190706 0.0218898285224 -0.0100853977736
-0.0676642279346 0.0400060495226 -0.0102253309544
-0.021046629797 0.0137216861585 -0.00898998786162
-0.019181468536 0.0114486127076 -0.0091513446986
-0.0303795481652 0.0177562929389 -0.00918617794049
-0.0259074019718 0.0166721245163 -0.00894520095158
-0.0241803063847 0.0137885997955 -0.0108188339835
-0.0117420500831 0.00789504476339 -0.0104353064702
-0.0154209327101 0.0093364910399 -0.011929195754
-0.0290056265827 0.0172198900157 -0.0124067986757
-0.0326244469013 0.0189092451202 -0.0116111576241
-0.0267515410029 0.0154125619878 -0.0116239365448
-0.0638466128866 0.0377846954767 -0.0120801972606
-0.0718805950963 0.0426278285059 -0.0121105646574
-0.0468665223457 0.0273996844111 -0.0115233676034
-0.051450467411 0.0300739723648 -0.0111473845309
-0.0547006771087 0.0320159814126 -0.0108402537193
-0.0257465242853 0.0303644591266 -0.0121559184717
-0.0122503875548 0.0238259912843 -0.0121417676101
-0.0301089905202 0.0323045260069 -0.0122038463713
-0.0196863130421 0.0269782348386 -0.0122621232283
-0.0397744271699 0.0362737067286 -0.0123923379013
-0.0459742665964 0.040112796427 -0.0121863921451
-0.0535504159102 0.0442020388252 -0.0120849062287
-0.0505893937494 0.0434620550147 -0.0118735481621
-0.017133385491 0.0280793812231 -0.0114094437717
-0.0146770286853 0.0264832549328 -0.0116088365955
-0.0115967515849 0.0267971356585 -0.0106133473741
-0.0452285854471 0.0449690840228 -0.00870329807725
-0.0171338728158 0.0306868093256 -0.00960828966165
-0.0408084183392 0.0423342773367 -0.00961629808295
-0.0703385364302 0.0452007038799 -0.00892828811979
-0.0734942614172 0.0451518396487 -0.00918371447324
-0.0673927050948 0.0430528416095 -0.00878210908423
-0.0154080188142 0.022838068238 -0.00864099990577
-0.0801672209264 0.0494331343327 -0.0100391259815
-0.0776572664724 0.0469324831586 -0.0116565987142
-0.0793596697275 0.0516985933593 -0.00369699997827
-0.0721954968883 0.055982635592 -0.00369699997827
-0.0697240009904 0.0504478798822 -0.00973683860841
-0.0749023252395 0.0535273889948 -0.0104730908266
-0.0774367549372 0.049849469048 -0.00461047862521
-0.0709993258823 0.0509582947766 -0.00609602523468
-0.0718852123058 0.0482433460446 -0.00745720379306
-0.0737497734683 0.0498796688786 -0.0058308910541
-0.0759938846069 0.0568767980687 -0.00695269972447
-0.073050320371 0.0578865352874 -0.00681135710201
-0.0810675334709 0.0485272337401 -0.00527226433651
-0.0785831557264 0.0468896919152 -0.00900370168599
-0.0757808608569 0.0472103685101 -0.00720634281584
-0.0731785766126 0.0479593182285 -0.0123287465429
-0.0715303803015 0.0537070337317 -0.0110420131344
-0.074849813061 0.0503952252547 -0.0119578235381
-0.0804015080572 0.0530319485375 -0.00773291233612
-0.0792876032682 0.0559614828772 -0.00457977741638
-0.0780438373281 0.0539412423591 -0.00893817756883
-0.0822309506072 0.0511087481035 -0.0064779723438
-0.0510178513269 0.0509491644711 -0.00369699997827
-0.0653837730352 0.0554987981817 -0.00369699997827
-0.0650271263727 0.0586653029452 -0.00369699997827
-0.062064842438 0.0541840586833 -0.00369699997827
-0.0697209984064 0.0532276632863 -0.00806270235637
-0.0557706905326 0.0456990003586 -0.00559278313131
-0.0594139246924 0.0519268154695 -0.00369699997827
-0.056391964412 0.0489712669377 -0.00369699997827
-0.0697209984064 0.0578370216123 -0.00633768836557
-0.0662951308805 0.0574785150033 -0.00700206617717
-0.0638124189586 0.048145665816 -0.0122307879021
-0.0593396726041 0.0474580013911 -0.0118107739676
-0.0428209512164 0.0456990003586 -0.00436351488137
-0.069337376433 0.0484942394107 -0.0122527802682
-0.0665158794099 0.0465231497635 -0.0124172371284
-0.0668258150296 0.0499689218783 -0.0121297408881
-0.0680450651034 0.0482562640656 -0.00721950462138
-0.0670754182973 0.0456990003586 -0.00861981682495
-0.0547597358499 0.0530347457462 -0.00537549660935
-0.060084197278 0.0563376739161 -0.00409455902174
-0.0628532866772 0.0571905389166 -0.00515879428962
-0.0503312340748 0.0496472592753 -0.00708567375515
-0.0465106734391 0.0477455741598 -0.00688438585668
-0.0581735668328 0.0535124735187 -0.00756104845411
-0.0532772444572 0.0504955527504 -0.00813556706727
-0.0548858242356 0.0466450806611 -0.0113033188025
-0.0605370501866 0.052451155708 -0.00985694017806
-0.0521231020026 0.0469515293477 -0.0103184272816
-0.0575381983364 0.0498017961731 -0.0104497161223
-0.0668786505947 0.0532555487619 -0.0110105441321
-0.0686609536841 0.0557789195363 -0.0092236356073
-0.0635985888276 0.0531947836939 -0.0103338098801
-0.06588339617 0.0556490200386 -0.009285439433
-0.0656255508382 0.0496754201043 -0.00541962706925
-0.0627180324132 0.0465688590742 -0.00632857595508
-0.0622006800936 0.0493133258056 -0.0047761757199
-0.059117163755 0.046630837693 -0.00542664966119
-0.0527055660517 0.0459188282689 -0.00424843519214
-0.0651165240285 0.0524113495536 -0.00386907735373
-0.0552072235699 0.0544870178635 0.00127763523865
-0.0576869830944 0.0557933060477 -0.0002355223598
-0.0526682267592 0.0531625069052 0.00204724132015
-0.0702729970217 0.0504463313451 0.00828766782772
-0.0702729970217 0.0589128185024 -0.00348176654579
-0.0702729970217 0.0495596045957 0.0112789617471
-0.0702729970217 0.0534359354195 0.00985764024595
-0.0500699493581 0.0477144895633 -0.00369499996305
-0.0525016529848 0.0473470017314 -0.00170520281812
-0.0479566038115 0.0473470017314 0.00475476344412
-0.0578698205181 0.0473470017314 0.00554518145426
-0.0615493443878 0.0473470017314 0.00816191127096
-0.0451802521536 0.0473470017314 0.00173344071987
-0.0540112707896 0.0473470017314 0.0036517163994
-0.058000931954 0.0473470017314 0.00181105391432
-0.0672637289063 0.0527242413024 -0.00144707988112
-0.0688446547669 0.0497166235096 0.00457168776396
-0.0699459778099 0.0524140689704 0.00157585324799
-0.0690997966982 0.0550207377099 -0.00314088847426
-0.0621170983121 0.0498157338852 -0.00051743850841
-0.0614708610336 0.0479814565936 0.00244647031028
-0.0682901365113 0.0480913680536 0.00678866792139
-0.0558524046631 0.0478486642583 -0.00105293688451
-0.0591822221857 0.0489312058162 -0.000836788011318
-0.0655855802616 0.0490912576446 0.00313537204287
-0.0650416968133 0.0511462587706 -0.00103034189365
-0.0653519958734 0.0573567199612 0.00712375906119
-0.0683718154903 0.0583176339197 0.00577919488432
-0.067629391592 0.0564094814725 0.00878681839975
-0.0489799578264 0.0490401716832 0.00716131397095
-0.0516180149388 0.0499526527591 0.00776053062298
-0.0544155018003 0.0515081293058 0.00766212674779
-0.0624527374123 0.0562387890899 0.00686897471721
-0.0568374474446 0.053403673353 0.00682935595541
-0.0475443452349 0.0501338122326 -0.00298651693211
-0.0545167183887 0.0540435594327 -0.00179210171955
-0.0521296331323 0.0527919494153 -0.000920268169776
-0.0493485126715 0.0513289566355 -2.82905436921e-05
-0.057267481407 0.0546852148426 -0.00361095617899
-0.0661907005227 0.0502043375169 0.0121344660134
-0.0621683070558 0.0506583056785 0.0112669842305
-0.0660669511035 0.0537691532477 0.0108017779071
-0.0691108563604 0.0593360506972 -0.00109210640676
-0.0649858044019 0.0589919323726 -7.84426230609e-05
-0.0655519787993 0.0587007940188 0.00386855394286
-0.0685484398178 0.0592616310462 0.00320489674182
-0.0620300086791 0.058012616922 -0.00179939022178
-0.0562179128135 0.0502731367335 0.00986397072248
-0.0593440397514 0.0522362877399 0.00955425568603
-0.062329426062 0.0540771439439 0.00927604141237
-0.0544983150749 0.0533040206153 0.00505209856682
-0.0464623502084 0.0496439110675 0.00336884662706
-0.0490983992638 0.0511474675986 0.00329177200467
-0.0629829594044 0.0581770349887 0.00236848868649
-0.057589536759 0.0554827890991 0.00278202042098
-0.060147292138 0.0566609828579 0.0031881333484
0.0291700009257 0.0339264587098 -0.00914096435342
0.0356022654453 0.02730130897 -0.00809099990875
0.0389674104727 0.0259248389711 -0.00809099990875
0.0488151531589 0.0269654841969 -0.00809099990875
0.0466138136909 0.0246342880534 -0.00809099990875
0.0434638283138 0.0238332041287 -0.00809099990875
0.0512014860677 0.0250762862431 -0.00809099990875
0.056950133291 0.0208478003669 -0.00809099990875
0.031956726941 0.0291530890453 -0.00809099990875
0.0405473272632 0.0290161666608 -0.00809099990875
0.0462435286906 0.0213734066423 -0.00809099990875
0.0626593202402 0.0165481895126 -0.00809099990875
0.0682745519835 0.0132849998772 -0.00989679248751
0.0647658334537 0.0132849998772 -0.0105920843231
0.0537326818507 0.0132849998772 -0.0117779989822
0.0540136285033 0.0261556483382 -0.0102586340887
0.0627399430957 0.0197860705962 -0.0117270698858
0.051482029257 0.0281172244268 -0.00949304928032
0.048445111082 0.0294194055317 -0.0117135853101
0.0464531501312 0.0316891117715 -0.00894199241201
0.0441678948884 0.0185922512319 -0.00809099990875
0.0371808037791 0.02294611575 -0.00809099990875
0.0340676523955 0.0228963014592 -0.00809099990875
0.0298396428421 0.014872693712 -0.0110853970413
0.0367874838943 0.0136810692946 -0.0125638953741
0.0364454284322 0.0319946262466 -0.0135850002989
0.038330051001 0.0293913166518 -0.0135850002989
0.0490260588528 0.0248523956229 -0.0135850002989
0.0548134224613 0.0203683115458 -0.0135850002989
0.0409399708971 0.0270825635288 -0.0135850002989
0.0511157048605 0.0132849998772 -0.00952388913411
0.0330708951554 0.0143096383806 -0.0109075467256
0.0291700009257 0.0270882182293 -0.00856299209615
0.0291700009257 0.027868909492 -0.0114997136574
0.0325960687616 0.0192026061158 -0.00886949493311
0.044590263743 0.0156067567846 -0.00841517801517
0.0377328416997 0.0197464997355 -0.0083068497705
0.0341843364101 0.0161668696095 -0.00926142726795
0.0412842361647 0.0184106710485 -0.00822021786787
0.0376249166436 0.0164172769771 -0.00890468691526
0.0306600088234 0.0221846663159 -0.00851863366621
0.0490899586948 0.0207192409918 -0.0135850002989
0.0618652123574 0.0161455719534 -0.0135850002989
0.0430684392212 0.0247163294883 -0.0135850002989
0.0563651490366 0.0144709400582 -0.0135850002989
0.0524233435854 0.0162223705199 -0.0135850002989
0.0555925551949 0.0173339879127 -0.0135850002989
0.0516067615563 0.0191864838882 -0.0135850002989
0.0587647654631 0.0161957159341 -0.0135850002989
0.04083131167 0.0141482270133 -0.0132125230859
0.035025089686 0.036233718417 -0.0111976911322
0.0316126682756 0.0379356670086 -0.00930444185353
0.041618357208 0.0344566340688 -0.00830570730382
0.0434157302495 0.0326048107406 -0.0116378733824
0.0393034563827 0.0350095222934 -0.0106390318778
0.0683264091934 0.0161886178855 -0.00946496485046
0.0605008043485 0.0218122553894 -0.00926030823038
0.0660752043266 0.0177697799288 -0.0103337481801
0.0577577859016 0.02376290946 -0.00970904317144
0.0322906943954 0.0301638038056 -0.0135850002989
0.0431056079562 0.0211884797717 -0.0135850002989
0.0344576778613 0.0267513226376 -0.0135850002989
0.038226971858 0.0245832627221 -0.0135850002989
0.0457591326959 0.0187328132194 -0.0135850002989
0.0344649593233 0.015900817992 -0.0131768128062
0.041930497209 0.0178717297017 -0.013461804201
0.0342387569876 0.0233893880473 -0.0134700875966
0.0313406685277 0.0168275695281 -0.0131276030321
0.0317331932468 0.0219286576816 -0.0133424715087
0.037147695469 0.0214730887134 -0.0134737713455
0.0387334467953 0.0192765536786 -0.0134297067013
0.0496040801347 0.0146986867508 -0.0135467972947
0.0469671097168 0.0162414088666 -0.0135356819154
0.0295301748783 0.0250379391272 -0.0134059975879
0.0434616374153 0.0156081337184 -0.0134135492267
0.0340875989054 0.0197245173964 -0.013319329039
0.0550203709007 0.0142273923964 -0.00809099990875
0.0406952764372 0.0154272776507 -0.00889862360142
0.0481802421465 0.0135170309893 -0.00922006021265
0.0596308524945 0.0210095188824 -0.012712104217
0.0558364545521 0.0237265192615 -0.0126529980634
0.0506028731218 0.0275230734371 -0.0125353842348
0.0528909221049 0.0254723937355 -0.0128745844018
0.0679234469559 0.0156666924819 -0.0123881755665
0.0649610638192 0.0159229095695 -0.0134577218525
0.039961069774 0.0320656245939 -0.0134244170275
0.043563984997 0.0296445336619 -0.0135434540101
0.0464065012105 0.0284320722571 -0.0133613837534
0.0337176346749 0.0336136076726 -0.0132176852523
0.0298686009011 0.0366188213481 -0.0114746255797
0.0297217708713 0.0340261087966 -0.0127919703402
-0.0371567875441 -0.0402961251632 -0.00534400017932
-0.0392601554613 -0.0423621774835 -0.00534400017932
-0.0312355179332 -0.0382950576884 -0.00534400017932
-0.0222987357669 -0.0324381487922 -0.00534400017932
-0.0507836677733 -0.0498111362452 -0.00534400017932
-0.0343246533482 -0.0396770689934 -0.00534400017932
-0.056102508016 -0.0526928929219 -0.00534400017932
-0.0413780265062 -0.0451710445933 -0.00534400017932
-0.0310046188469 -0.0352193797809 -0.00534400017932
-0.0278597873931 -0.0362564385002 -0.00534400017932
-0.0517159709724 -0.0381969450937 -0.00635434448316
-0.051162326432 -0.0356901228486 -0.00795658335319
-0.0555827483857 -0.0386234855134 -0.00796829305156
-0.0592009037306 -0.0396067307564 -0.0090406082521
-0.0634705124442 -0.043212519104 -0.0084728525476
-0.0472100280464 -0.0377617040881 -0.00534400017932
-0.0386448856545 -0.0349176392324 -0.00534400017932
-0.0658566499426 -0.0583626592185 -0.00534400017932
-0.0493378029933 -0.0403784531764 -0.00534400017932
-0.0503064751467 -0.0470204488999 -0.00534400017932
-0.0418615475717 -0.0367243456245 -0.00534400017932
-0.0385487406906 -0.0376101622537 -0.00534400017932
-0.0488566592309 -0.0342502007115 -0.00799394789734
-0.045284919179 -0.0334234505761 -0.00778130165017
-0.041711368937 -0.0324275227237 -0.00768725242378
-0.0449866571772 -0.0355431780301 -0.006223967435
-0.0341780385067 -0.0322935305073 -0.00610645492746
-0.0551540960516 -0.0381693721173 -0.011935999617
-0.0607550044377 -0.0468772698072 -0.011935999617
-0.0486049777591 -0.0326183586711 -0.011935999617
-0.058310111561 -0.0403830836735 -0.011935999617
-0.060149144981 -0.0436784090609 -0.011935999617
-0.0646506937495 -0.0461134987231 -0.011935999617
-0.0360841480573 -0.031764999032 -0.00982056558348
-0.0549129563344 -0.0453244041332 -0.011935999617
-0.0513640530126 -0.0380141916184 -0.011935999617
-0.0529260655304 -0.0412240259829 -0.011935999617
-0.0477933265268 -0.0379186790196 -0.011935999617
-0.0452581098901 -0.0339506330603 -0.011935999617
-0.0359917320401 -0.0342053894188 -0.011935999617
-0.0500437153438 -0.0404630866108 -0.011935999617
-0.0420821866924 -0.0349210057702 -0.011935999617
-0.0455431124981 -0.0400686756003 -0.011935999617
-0.0386986473833 -0.0362879653887 -0.011935999617
-0.049912484328 -0.035154498765 -0.011935999617
-0.0435949858904 -0.0372115255008 -0.011935999617
-0.0574112598717 -0.0416497721888 -0.00680025377562
-0.0669116501031 -0.0497143788896 -0.00722773612801
-0.0662973351332 -0.0445260352457 -0.00891261731067
-0.0567248267464 -0.0444003070244 -0.00554622782529
-0.0631122435712 -0.0501983352497 -0.00569568744292
-0.0639911213968 -0.046501409137 -0.00736559984503
-0.0591313776445 -0.0468656944487 -0.0054994627527
-0.0602990152664 -0.0434378593932 -0.00717357196068
-0.053901408584 -0.0400885532901 -0.00612191310208
-0.0671360974109 -0.0509800711664 -0.0116747457779
-0.066844867638 -0.0478267779203 -0.0119072862738
-0.0624815910308 -0.0533420551505 -0.0109333372301
-0.0659583322822 -0.0535048784098 -0.0112655127931
-0.0575783836334 -0.05556596139 -0.00534400017932
-0.0437504910017 -0.0494294465646 -0.00534400017932
-0.0641319953766 -0.0558018449198 -0.0103536423551
-0.0540532663522 -0.0354430497432 -0.0095983643
-0.0628239235639 -0.0416264505793 -0.0115740817772
-0.0690150650726 -0.0605696919913 -0.00577951787788
-0.066800873817 -0.0579105869032 -0.00894766564048
-0.0635501859186 -0.0582296685595 -0.00849392903542
-0.0626233875189 -0.0597695470086 -0.00606512474476
-0.0517475871548 -0.0441978522004 -0.011935999617
-0.0351432573029 -0.038441542886 -0.0110042258941
-0.0401325631102 -0.0406505212831 -0.0112575265926
-0.0281953568365 -0.0329285968528 -0.011594905927
-0.0449488069748 -0.0432987581182 -0.0113023173556
-0.0527992077234 -0.047741910713 -0.0112241217549
-0.0572142418589 -0.0485178626071 -0.0115959038541
-0.0485530718613 -0.0437787611339 -0.01165978929
-0.0599927846163 -0.0504207997855 -0.0114810637007
-0.0502599060853 -0.0531153238421 -0.00628167333916
-0.0183446259953 -0.0342664237757 -0.00648467321387
-0.0247530556982 -0.0374525471415 -0.00723330985249
-0.0226165438206 -0.0348414763893 -0.00877435701944
-0.0366612512798 -0.0454478648699 -0.00579171840181
-0.0368320102682 -0.0411986052346 -0.0100681529714
-0.0316298372003 -0.0390165722908 -0.00957551689075
-0.0259047858524 -0.0354022499331 -0.00975345587862
-0.0296258986251 -0.0357398333251 -0.0108180940137
-0.0486127534979 -0.0470395715817 -0.0105899538354
-0.0452122646513 -0.0462061023348 -0.00995803381672
-0.0604660582931 -0.0566345043291 -0.00869733740177
-0.05920478895 -0.0536935492884 -0.0102207652985
-0.0551287403738 -0.0529542485525 -0.00932719349419
-0.0507949244183 -0.0513202809844 -0.00863618305344
-0.0464910839074 -0.0504261198837 -0.00705680610426
-0.0542778217637 -0.0546417777954 -0.00727028998587
-0.0287954527067 -0.0384233207002 -0.00880635759746
-0.0353093466181 -0.0429224561405 -0.00810541121972
-0.0434485080905 -0.0479691623191 -0.00778332932664
-0.0377021802576 -0.0441448381741 -0.00826236893792
-0.0415440514927 -0.0457507036683 -0.00885795526728
-0.0687972422099 -0.046049362443 -0.00997391824996
-0.0151782578801 -0.0321278300254 -0.00639074454875
-0.0682885737519 -0.0508034335325 0.0108004832803
-0.0769674961868 -0.0563741950069 0.00344599992968
-0.0781734490029 -0.0508200367585 0.00797231115183
-0.0791906290202 -0.0520616868961 0.00525682391363
-0.0758551033028 -0.0497988091617 0.00922496484196
-0.0732104674392 -0.0491259162002 0.0101044820157
-0.0714601798568 -0.0555537451145 0.00460350256892
-0.0718872186258 -0.0524211701385 0.00654429065611
-0.0706228584618 -0.0500641170009 0.00862184419382
-0.0750428621272 -0.0542228704047 0.00410407581205
-0.0751296141181 -0.0511858702667 0.00645509731555
-0.0800195928934 -0.0532116243571 0.00839880616019
-0.0770762807112 -0.0506199053188 0.0119573309986
-0.0786367367056 -0.056469797513 0.00773345814045
-0.0767594895369 -0.0555607740075 0.010332113426
-0.0741859468229 -0.0593773855261 0.0077881177071
-0.0719625643746 -0.0589310203123 0.00952437115656
-0.0771208902154 -0.0587394029501 0.00622201882699
-0.071441573166 -0.0609998206628 0.00641679992337
-0.0816485965721 -0.0533683641257 0.00398364440485
-0.0798559111959 -0.0572640277829 0.005032569009
-0.0744330911618 -0.0609723937449 0.00523164017484
-0.0721534437064 -0.0562870591739 0.0114881888709
-0.0704811159031 -0.0506903732181 0.0133349997923
-0.0739928420281 -0.049580471774 0.0132513869387
-0.0742513945725 -0.0528361568121 0.0127042705391
-0.0685853334014 -0.0575580525139 0.0112862363645
-0.0705984864968 -0.0537589588783 0.012948036267
-0.0611173381548 -0.051084156524 0.0129350581641
-0.0636589007589 -0.0542732387259 0.0122993676808
-0.0536464561151 -0.0557159250158 0.00344599992968
-0.0633940804901 -0.0574079118197 0.00344599992968
-0.0607055286893 -0.0554675058601 0.00344599992968
-0.0680750012398 -0.0559845824197 0.00871065610524
-0.0680750012398 -0.0593331516176 0.00649262408293
-0.0648680497534 -0.0619534701591 0.00408682156951
-0.0649779000707 -0.0578436891352 0.0106128591212
-0.0653488251141 -0.0604076965236 0.00762046180682
-0.0540974510899 -0.0504929957073 0.0112846576997
-0.0666037894195 -0.0512832756457 0.0132648509849
-0.0680750012398 -0.0532645504877 0.00901211106934
-0.067929171608 -0.0557352986799 0.00552170289134
-0.0653915528488 -0.0542406962049 0.00468988887348
-0.0665173179524 -0.0512577183481 0.00758995189182
-0.0593770113241 -0.0594159482977 0.00576913489469
-0.0620813901657 -0.060293112033 0.00602036529932
-0.0606394260875 -0.0487960018218 0.00825439315879
-0.0637974702377 -0.0489945430698 0.00842643047956
-0.0633172419105 -0.0519001953044 0.00511575547348
-0.0554075105798 -0.0489399008818 0.00739979905678
-0.0578033623507 -0.0507513259909 0.00501862346115
-0.0515949986875 -0.054424455521 0.00559068384131
-0.0520744349633 -0.0521752298196 0.00968168013928
-0.0533637661509 -0.0544443128116 0.00826221529652
-0.056504809134 -0.0579778147668 0.00540215335286
-0.0620333621958 -0.0587502455931 0.00897041999961
-0.0597741259295 -0.0563232722398 0.00994403693215
-0.0570234926898 -0.0550563038986 0.00973222682356
-0.0670602983869 -0.0544870927325 0.0127391566435
-0.0586834901504 -0.0524689127217 0.0119637590071
-0.0587498024128 -0.0456999562217 0.007436055877
-0.0541654589186 -0.0469279812368 0.0094889998436
-0.0634547377175 -0.0463378986351 0.00634732940573
-0.053132101014 -0.0346131762563 0.0127906450713
-0.0611753785099 -0.0403779207638 0.0131362464186
-0.0617869666222 -0.0487960018218 0.0111168357707
-0.0649202588806 -0.0487960018218 0.0118367042047
-0.0579420147419 -0.0411064347504 0.0133349997923
-0.0661840526877 -0.0457215947501 0.0133349997923
-0.068666064026 -0.0471562814981 0.0133349997923
-0.0637286791028 -0.0438318921634 0.0133349997923
-0.0593143703103 -0.0438011907256 0.0133349997923
-0.0578074937449 -0.0483723920863 0.00960685009916
-0.0678087787292 -0.0472112900294 0.0097495133483
-0.0567815854571 -0.0396560618595 0.00978052849868
-0.0517877800613 -0.0449521581631 0.00963105809116
-0.0521449571208 -0.0393687434589 0.00983663742708
-0.0619540444687 -0.045881389527 0.00949682794204
-0.0541208320167 -0.0419798087444 0.009719539465
-0.0565332709613 -0.0442306420714 0.00961166053909
-0.0537684452969 -0.0361173473786 0.00994250793786
-0.0590495641723 -0.0425082911629 0.00965154304376
-0.0654840189088 -0.0441518950649 0.0099067300889
-0.0630368187476 -0.0419089153276 0.010000698306
-0.0568300804212 -0.0367907396083 0.012080488492
-0.0604877446343 -0.0398408633568 0.0100745601437
-0.071220525393 -0.0466985062015 0.0106110194808
-0.0532170731085 -0.0477692335024 0.0124291464282
-0.0515960007906 -0.0434578601081 0.0129756834996
-0.0577601376913 -0.0475037388998 0.0132955155993
-0.0553858920253 -0.0448869132282 0.0133349997923
-0.0615697170956 -0.0464408219788 0.0133349997923
-0.0526631459751 -0.0376284010897 0.0130349194784
-0.055116091207 -0.0409880163872 0.0133185373514
0.0208208664768 -0.0121429477089 -0.00950562897177
0.0260928725714 -0.0137403250933 -0.0099500694761
0.0148830004036 -0.0232867197325 -0.00940248214599
0.0297159999609 -0.030039778474 -0.0116333399158
0.0275604020566 -0.0189105175752 -0.0128255251708
0.0217725712661 -0.0223386666627 -0.0127923570301
0.0185001139102 -0.0283953739749 -0.0125360085671
0.0255963296196 -0.0210328782045 -0.0128746907708
0.0218517939883 -0.0285459168776 -0.0125594358242
0.0270037582426 -0.0246999636169 -0.0127488972189
0.0236770317968 -0.0242836464907 -0.0127356889321
0.025535661173 -0.027784864478 -0.0126200542414
0.0246920275215 -0.0308364409875 -0.0124978858249
0.0228370398855 -0.0133434971759 -0.0127440007347
0.0169152661655 -0.00901425191095 -0.0124878094261
0.0255017778921 -0.0157159785194 -0.0129189474476
0.0207534865528 -0.0156441640686 -0.0127620466601
0.0197745656384 -0.0187500255082 -0.0127104186154
0.0170607663724 -0.0152161021176 -0.0125828919807
0.0164171592576 -0.0198887934858 -0.0125455693147
0.0189421008181 -0.0232325638817 -0.012664149519
0.0151403124289 -0.0127124632615 -0.0124926497791
0.0198256674645 -0.0128702916237 -0.0127204576709
0.0236606656927 -0.018463254302 -0.0128999022017
0.0207210464724 -0.0304690709518 -0.00864099990577
0.0293319470139 -0.0334745587642 -0.00864099990577
0.0272480852295 -0.0265670013346 -0.00864099990577
0.0249161088457 -0.0305254057992 -0.00864099990577
0.0237948428089 -0.0332387590112 -0.0117843996362
0.0267656976452 -0.032969698095 -0.0120763258993
0.0183668370651 -0.0100917092786 -0.00994538648053
0.0289297261954 -0.0141666028533 -0.0118285139985
0.0162017679562 -0.0169272976536 -0.00892960139685
0.017862735627 -0.01967994817 -0.00882421094351
0.0210329678707 -0.0210487207254 -0.0087617377386
0.0195701060754 -0.0237503696764 -0.00867158247637
0.0192490425161 -0.0146455662872 -0.00899796346987
0.0189367355762 -0.0275810949537 -0.00864099990577
0.0171897789327 -0.0313221148359 -0.00864099990577
0.0148830004036 -0.0258254565337 -0.0114698591594
0.0188573932616 -0.0350234023612 -0.0101920759612
0.0203379143955 -0.0323696062496 -0.0118051972187
0.0172779041892 -0.0314199655884 -0.0118641858586
0.0287566426227 -0.0364767866843 -0.00987374919301
0.0235017586926 -0.0167708001871 -0.00907229162021
0.0262611469528 -0.0209774765174 -0.0087612184595
0.0289678616695 -0.0162651612092 -0.00968142152269
0.0775295089754 -0.00683667824522 0.00891471713544
0.0779902567321 -0.00638973607545 0.00566155902451
0.077614815262 -0.00705410820532 0.00247683765306
0.0794104766432 -0.0043513009341 0.00847945176661
0.059386998415 -0.0167970688087 0.00244730219166
0.059386998415 -0.0184778347042 0.00500912167483
0.0654309314634 -0.00607848973979 0.00894000008702
0.0666259702208 -0.00204934207515 0.00894000008702
0.0711366480995 0.00174800003879 -0.00478106834802
0.0706589798766 0.00174800003879 -0.00104396787324
0.0781578763793 0.00174800003879 -0.00657062561959
0.0733046221631 0.00174800003879 -0.00237171827692
0.0648368585233 0.00174800003879 -0.00606531867651
0.0813154947808 7.00920487139e-05 0.00632721748643
0.0809378671588 -0.00101066464281 0.000581570336832
0.0747874594736 -0.00103391383836 -0.00754200015217
0.0646179633571 -0.00239720886862 -0.00754200015217
0.07128924067 -0.000774480225289 -0.00754200015217
0.0625806472819 -0.00602813968433 -0.00754200015217
0.0664759614382 -0.00509452451079 -0.00754200015217
0.059386998415 -0.011828101959 0.00330383681506
0.059386998415 -0.0140670195204 -0.00567737694056
0.059386998415 -0.0175065294835 -0.00345083949131
0.059386998415 -0.0145407797173 -0.000172624601536
0.068221107868 -0.00832570778851 -0.00754200015217
0.0745325643918 -0.00689247327801 -0.00754200015217
0.0713630092319 -0.0108136269659 0.00894000008702
0.062229057553 -0.0123782018796 0.00894000008702
0.068071368489 -0.00851950374157 0.00894000008702
0.0616245247147 -0.00971895162348 0.00894000008702
0.0668158952891 -0.0122018472486 0.00894000008702
0.077350321837 -0.00195852262625 0.00894000008702
0.0693659318857 -0.000126388429584 0.00894000008702
0.0666166381069 0.00174800003879 0.00661449217211
0.078592340354 0.00174800003879 -0.00310060337358
0.0781387636121 0.00174800003879 0.00317449555255
0.0706018644613 0.00174800003879 0.00312430702512
0.0767467140624 0.00174800003879 0.000749261967383
0.0742070062707 0.00174800003879 0.00506363648107
0.0596144359036 -0.0170803913482 -0.00698619380667
0.0739138024136 -0.0101394822205 -0.00754200015217
0.0657125866071 -0.0135574019715 -0.00754200015217
0.0638826670215 -0.0167387868057 -0.00754200015217
0.0663413507847 -0.010476593398 -0.00754200015217
0.0635838536121 0.00138659377088 -0.000540052991041
0.0635042751852 0.00124071210258 0.0070021342851
0.0622150566254 -0.0011226589982 0.0053618958003
0.0630282166985 0.000368010681104 0.00225587140496
0.0615250292133 -0.00287730448622 0.00894000008702
0.0606278017019 -0.00447251226869 0.00492601103594
0.0628956261889 -0.000123407394078 -0.00497530277907
0.061876249943 -0.00238149447751 -0.0027945712987
0.0609780687636 -0.0042013916792 0.000397555815492
0.0608192670181 -0.00523543584616 -0.00437069879013
0.0596821822163 -0.00838834944725 -0.00668535121716
0.0621922187918 -0.00124587461203 -0.000208581215614
0.0597133714409 -0.00776979394196 0.00520008973056
0.0595437747997 -0.00853429209381 -0.00210021987918
0.0595961860482 -0.00829803563064 0.00196266959095
0.0721077873051 -0.011938886576 -0.0026250205546
0.0725086172397 -0.0114912537495 0.000556484346326
0.0753725753188 -0.00892034638963 0.0075605636262
0.0755896245637 -0.00890780764526 0.00352179582964
0.066952788686 -0.0160089071239 -0.00125770855597
0.06540579868 -0.0171626293809 0.000848866436602
0.0683354512792 -0.0147565977059 0.00240260719063
0.0730682386268 -0.0108667143418 0.00498768173813
0.0747240394258 -0.00991111761097 -0.00426740109366
0.0752859723291 -0.00926315329509 0.000704608601324
0.0698207710865 -0.0137396963457 -0.00189669879801
0.0716899999491 -0.0123917342672 -0.00559714958367
0.0706820723753 -0.0128165236053 0.00396968518784
0.065725723668 -0.0170050753216 -0.00429465176742
0.0614033811137 -0.0200015973334 -0.00547866460924
0.0681686715597 -0.0149793924825 -0.00589013723013
0.0805753672047 -0.00224534157316 0.00398950566338
0.0803811847322 -0.00282700602064 -0.00315955324167
0.0637575236839 -0.0178335275081 0.00694502885048
0.0665332041492 -0.0158851715271 0.00644928270391
0.0612358850784 -0.019586490647 0.00747193614136
0.0693195591031 -0.0135049332717 0.00785426333851
0.0600544971398 -0.0211321463031 -0.00272632200679
0.0660549719217 -0.0165092416535 0.00352772586515
0.0629747852854 -0.0190588662801 0.00139599299676
0.0607542578697 -0.0206697721729 0.00416550039359
0.0769160529018 -0.00802894741493 -0.00206831890744
0.0800707894482 -0.00349705656468 -0.00651681147636
0.0793685740733 -0.00462106164728 0.00344782074165
0.07901929307 -0.00518014029592 -0.000613027317927
0.0786245549639 -0.00581198011812 -0.00434499286128
-0.0114890001714 0.0207704659694 0.0055101095446
-0.0114890001714 0.026767002527 0.000112843948779
-0.0114890001714 0.0278604888818 0.00468938790728
-0.0114890001714 0.0247487573363 0.00528005547172
-0.0114890001714 0.0302879235165 -0.00283258331495
-0.0168918033454 0.0288311230425 0.00784100033343
-0.0210796611929 0.0290055464589 0.00784100033343
-0.0250324073687 0.0253149388097 0.00784100033343
-0.0293994378625 0.0269980744742 0.00784100033343
-0.0251925522005 0.029009537319 0.00784100033343
-0.0260339690418 0.0220350849659 0.00784100033343
-0.0208285635717 0.0330629982054 0.00303929369083
-0.0266093334258 0.0330629982054 0.0018719228455
-0.0290148718637 0.0330629982054 0.00364489436627
-0.0241287792403 0.0330629982054 -0.000581012146085
-0.0253669311993 0.0316064221322 -0.00369499996305
-0.0241285569506 0.0187285141162 0.00766319294433
-0.0123360293651 0.0265023396064 0.00784100033343
-0.0232385748619 0.0226049259687 0.00784100033343
-0.0221655313975 0.0251931848695 -0.00279448591904
-0.0181010947884 0.0238763227446 -0.00275434878731
-0.0173427348435 0.0196444260872 -0.000317204967713
-0.0143563514759 0.0226299624098 -0.00269720728155
-0.0264265521035 0.0282669718896 -0.00369499996305
-0.0283495000615 0.0319192451701 -0.00369499996305
-0.0373984582488 0.0325796861306 0.00446870880779
-0.034873419027 0.0312593262975 0.00571774929879
-0.0277838952582 0.0330629982054 0.00709460353824
-0.0160389571559 0.0159652144834 0.00242316329335
-0.0193222409701 0.0165604636482 0.00539959722915
-0.0157939902649 0.0148183960158 0.00531471567537
-0.0123455650519 0.0132183569437 0.00494193028044
-0.020789440431 0.0330629982054 -0.0012210290162
-0.0338170641161 0.0289454463084 -0.000480783232213
-0.0309182470639 0.0287939541943 -0.00197212054863
-0.0139728443188 0.0182819431028 0.000522704174988
-0.0114890001714 0.0306048996174 0.00342947442461
-0.0168307426734 0.0324587588065 0.00639420086454
-0.0141455558652 0.0317406098131 0.00537313124755
-0.0149653972952 0.0328611358885 0.000404117314802
-0.0159663691096 0.0329857445099 -0.00264567475059
-0.0231148972871 0.0230226719423 -0.00123766250521
-0.020351980076 0.0200972065137 1.74088275941e-07
-0.0266907642927 0.0259906148922 -0.00202467553519
-0.0227778292833 0.0189268507217 0.00374757523816
-0.0192337301878 0.0177362283627 0.0020161720356
-0.0319402624509 0.0268128297657 0.000256294421998
-0.0281653819857 0.0223355680149 0.00362714438841
-0.0258077618246 0.0208441335649 0.00355362051452
-0.0348045330647 0.027391801957 0.00233553890166
-0.0302014178094 0.0244466057527 0.00225019420747
-0.027362743538 0.0233202233431 0.000990170331122
-0.0332369412116 0.0315996270958 -0.00189731702952
-0.0362765322153 0.032561013285 -0.000923110453123
-0.0371348546462 0.0293306206 0.00315124867285
-0.0341350633473 0.0264344199647 0.00474689761501
-0.0389967985037 0.0310052582878 0.00172289941428
-0.0285782319256 0.0210114813243 0.00728675694114
-0.0319792357019 0.0242633992606 0.00491887209082
-0.0452743040393 0.036087412928 -0.000535713139917
-0.0460616611054 0.0344540407919 0.00228947332576
-0.0478676554202 0.0367837025645 0.000754103092892
-0.0499471974351 0.0393897195355 -0.000912892808574
-0.0503119410302 0.0360611668908 0.00378867477307
-0.0280936381317 0.0399517340739 0.00157099989575
-0.0402882888357 0.039502714458 0.00784100033343
-0.0468803747506 0.0423895110519 0.00784100033343
-0.0318268068289 0.037566228127 0.00784100033343
-0.0484574205705 0.0394509068828 0.00784100033343
-0.0181745585519 0.0331892990869 0.000679981152849
-0.0361573283466 0.0330640003085 0.0019924192518
-0.0238552078326 0.0330640003085 0.00547026157837
-0.0293830578041 0.0330640003085 3.82095714192e-06
-0.032113387145 0.0330640003085 0.000885824833938
-0.0429940666341 0.0473470017314 -0.00124627366708
-0.0514158282471 0.0473470017314 0.00552034751836
-0.0343111221979 0.0425397700896 -0.00369499996305
-0.04146822062 0.0417563857433 -0.00369499996305
-0.0476726538794 0.0473470017314 0.000113794671627
-0.0503850292821 0.0473470017314 0.00206571515382
-0.0492334769999 0.0413497278652 -0.00369499996305
-0.0438875483939 0.0393214062434 -0.00369499996305
-0.0198775734064 0.0332226159049 0.0065265109247
-0.0313125564455 0.0330640003085 0.00512453012245
-0.0434084746475 0.0334295639928 0.00221398761935
-0.0402029070359 0.0334028209036 0.00460789204141
-0.0461806918415 0.0340712282131 0.00505570262251
-0.0484807863189 0.0348378469547 0.00764422127058
-0.0183263925861 0.0343858538298 -0.00210643521477
-0.0239851959757 0.0376287115593 -0.000167078812637
-0.0209061927381 0.0359844016269 0.000525044763976
-0.0372926157265 0.0449222274861 -0.000441571074127
-0.032596041289 0.0423141680215 -0.000838637634271
-0.0404237109179 0.0463531233745 -0.00208950965286
-0.0289293164945 0.0402188545582 -0.00171486024654
-0.0260125063954 0.0382616578663 -0.00317821959517
-0.0529463553886 0.0411709504773 0.0055941244544
-0.0526885706423 0.0417905610238 0.00188715823942
-0.0537184706332 0.0443640539802 0.00473414241703
-0.0521928813504 0.0424402777523 -0.00108419052117
-0.0511430450337 0.0348477896705 0.00641961348344
-0.0509273471932 0.0380503386178 0.00172863006879
-0.03312480893 0.0423485158306 0.00376217392603
-0.0362094359821 0.0441720366107 0.0029078266738
-0.0304423718568 0.0411580567407 0.00220734552254
-0.0392233150404 0.0453624928205 0.00407917456541
-0.0418637563906 0.0472696902175 0.00225928264269
-0.0436499918973 0.047034396977 0.00549834591188
-0.0249930345396 0.0379960751436 0.00328941939821
-0.0216625734835 0.0353344905855 0.00591518139172
-0.0276594560143 0.0389626504374 0.00508877525051
-0.0179812520848 0.0338722870129 0.00385895636609
-0.0328330124686 0.0411333981965 0.00623870000116
-0.0365668051394 0.04310115775 0.00628635921462
-0.0248424641533 0.0371143190673 0.00578600884807
-0.0282143913994 0.0369645336846 0.00784100033343
-0.0418766548955 0.0451706237804 0.00761416429023
-0.0429247799474 0.0366483256081 -0.00203311460664
-0.0397480760118 0.0359968522272 -0.00254941626632
-0.0340766187944 0.0347364936151 -0.00339413231578
-0.0417123236489 0.0341586051321 -0.000454839629956
-0.0216822514192 0.0135153971864 0.0127371235899
-0.0307752907569 0.0308650005609 0.00996036505038
-0.0216706627094 0.0202156265267 0.00784100033343
-0.0169913580387 0.0166448984255 0.00784100033343
-0.0185421211057 0.0204477574136 0.00784100033343
-0.0154336637186 0.0254527972109 0.00784100033343
-0.0210066743549 0.0250273880761 0.00784100033343
-0.0154861743309 0.0192881472001 0.00784100033343
-0.0137162582089 0.0157910379116 0.00784100033343
-0.0175593443158 0.0231013376446 0.00784100033343
-0.0286095949642 0.0299488069721 0.00784100033343
-0.0413118429987 0.0297827650104 0.0129397656334
-0.0448595551345 0.0297154271031 0.012949395337
-0.0364632728342 0.0288628111928 0.0130713242608
-0.0231597185873 0.0160367556044 0.0133349997923
-0.0336868118994 0.0228157308738 0.0133349997923
-0.0244210273706 0.0151329671752 0.010413932857
-0.0383099527587 0.0230473931479 0.0108399173685
-0.0156137518701 0.0133859585058 0.00874284350225
-0.0191709062683 0.01388843652 0.00919590996971
-0.0211804971009 0.017255408158 0.00800940440203
-0.0124837304906 0.012264923169 0.00867367235394
-0.0281140686714 0.0181021847953 0.00962772792193
-0.0356533289087 0.0230559621126 0.0092486649799
-0.0315596152564 0.0214774668065 0.00862884050293
-0.0140050856706 0.0230008190607 0.0129186786295
-0.0205337041402 0.0245565267972 0.0130329969759
-0.0225857763086 0.0274517007017 0.0127895022115
-0.0279722516249 0.0295548162964 0.0127886456194
-0.0179716609826 0.0239885101378 0.0129831999609
-0.0235633171314 0.0246250667793 0.0131619236804
-0.0155382346183 0.01965011912 0.0131453477402
-0.0123690469753 0.0173987212001 0.0130639097225
-0.0120606229117 0.0138123434331 0.0131908418401
-0.0190149759452 0.0209976388635 0.0132796390797
-0.0330141852061 0.0279920519611 0.0130796098989
-0.0271349138619 0.0269429673697 0.0130420482072
-0.0304602123833 0.0269365959463 0.0131166370211
-0.0146591721251 0.0129726227814 0.0133349997923
-0.0178833870121 0.0135536012513 0.0133349997923
-0.0271993518133 0.0195775051031 0.0133349997923
-0.0297305664914 0.0241507428535 0.0133349997923
-0.0359203621446 0.0247374922616 0.0133349997923
-0.0192814854519 0.0167788253947 0.0133349997923
-0.0215280619175 0.0191986994277 0.0133349997923
-0.0297206238952 0.0212508358183 0.0133349997923
-0.0242939100871 0.0217959054165 0.0133349997923
-0.0118156875533 0.0230085304476 0.00784100033343
-0.0142941712884 0.0301508140035 0.00798304410861
-0.0319733898625 0.0280905827455 0.00814929317861
-0.0421079328054 0.0284118447317 0.00912441763408
-0.0284238861487 0.0243155245968 0.00784498471502
-0.0357826309523 0.0263159000203 0.00853507104642
-0.0330142756363 0.0248353953111 0.00828285828844
-0.0463740633123 0.029441009667 0.00966507636581
-0.0389602715415 0.0253761242569 0.00899321384141
-0.024612258216 0.0295152194022 0.0122503823458
-0.016133891301 0.0271943581091 0.0118847806348
-0.0222546371306 0.030626620672 0.0112211376222
-0.0191828194074 0.0290905056657 0.0114557625254
-0.0124322733215 0.0278138550286 0.0104147862576
-0.0138765571401 0.0101119346697 0.0116626116037
-0.0306726628394 0.0184404072768 0.0113395675959
-0.0163994424455 0.0109637314519 0.0105891573846
-0.0338455154449 0.0203180154435 0.0115394498065
-0.0268788921 0.0164177109405 0.0124739429178
-0.0405341911426 0.0251868564336 0.0129688052672
-0.0439362192582 0.0266841768989 0.0124781828097
-0.0746206011898 0.0454122969438 0.0101112264781
-0.0662257118251 0.0412846535577 0.0127849997953
-0.0399914478483 0.0340625492203 0.0127849997953
-0.0527736019516 0.0367582852653 0.0127849997953
-0.0603455660261 0.0401269880875 0.0127849997953
-0.0341973989041 0.0316791852573 0.0127849997953
-0.047744593223 0.0315017311131 0.0127849997953
-0.0634780965567 0.0403025399406 0.0127849997953
-0.0377955534962 0.0314938241138 0.0127849997953
-0.0560298505612 0.0372335780194 0.0127849997953
-0.0706685478747 0.0434285412513 0.0127849997953
-0.0496857999493 0.0339119592386 0.0127849997953
-0.0444695912252 0.0328925661498 0.0127849997953
