-0.03369997125527653 -0.04241389609728516 -0.025835493398834276
-0.039194515065392066 -0.03819480992954483 -0.025836412571346012
-0.03778356081073113 -0.04448216346700864 -0.02588333980226539
-0.04000074534212264 -0.028353105412291545 -0.021978493055850985
-0.04426323215237743 -0.07386070939267496 0.0254160048660166
-0.04410786025708181 -0.052141708471215985 0.005236571520811683
-0.043474194818568596 -0.06072598551402098 0.012936144357800014
-0.04123446818861085 -0.07252798336038899 0.02297800149351435
-0.044755445855435484 -0.06813062222039913 0.020303978453268607
-0.04428378851239981 -0.055257674557719516 0.008192710806896148
-0.045342072357876205 -0.07230237426260681 0.020856746202738558
-0.04577692967134812 -0.048902412664594275 0.0019426533759968243
-0.04543781363494708 -0.05351301019430134 -0.0036627902649964336
-0.045484805935879155 -0.04964257835871838 -0.006726206354564897
-0.04558654235852894 -0.08389789782699696 0.025897650620050984
-0.0459422103217723 -0.033299565894970816 -0.01690438063060705
-0.044989531109762546 -0.04518204426140769 -0.016106168803113274
-0.04626034197004483 -0.025811235409437232 -0.020412326717955204
-0.045795672945400476 -0.06390085150030352 0.009711780678542704
-0.045883467744745846 -0.05327262032628051 0.0008604936058520514
-0.026064672124354607 -0.07150082940441854 0.0076722735278273516
-0.025502884782737566 -0.05647416274572537 -0.006674089783497282
-0.026569276204325386 -0.08708500577641046 0.025052547420733755
-0.036491580736152385 -0.06915253690418838 0.0012966449310740698
-0.030136514018650105 -0.05914927106136799 -0.014762542293652654
-0.03214398659388985 -0.0647631161070144 -0.006676975748425208
-0.033372109044459086 -0.06052177977586985 -0.011153872508254795
-0.033010781774443616 -0.054919995262047334 -0.017806653519718656
-0.02563342701335708 -0.04496814772813852 -0.022921473946928533
-0.03770079563095078 -0.0475689253536951 -0.019308658158314666
-0.031047407069597466 -0.05028034803561132 -0.019993307635785496
-0.026159544991019537 -0.0638553948122752 -0.0037437532538979494
-0.026184339724773995 -0.0695078340097453 0.0033444023525271717
-0.02645046461641569 -0.07827223628881935 0.01269969984774842
-0.0262673225785969 -0.06132229652517612 -0.007774152948946442
-0.026163627318153897 -0.053788074338967935 -0.01671466378790437
-0.02598866537903998 -0.055748155232495995 -0.012938343611099253
-0.031847565931191146 -0.0891188173816902 0.02971632191722414
-0.03485252726034599 -0.08550811223143272 0.029908061249599764
-0.042203428972594055 -0.08041328375708626 0.030056161053708067
-0.03867734836411233 -0.0822866910665052 0.030034103386810538
-0.02840612647070536 -0.08704265828230849 0.030030052178533457
-0.03918731720455987 -0.0893228978780736 0.02866179803711468
-0.03511603080905299 -0.09182482572159292 0.029046437078217774
-0.026259897296688674 -0.08134386705551988 0.0232907357826757
-0.03195478869577941 -0.03979354498920009 -0.018174705684625498
-0.031193721612043215 -0.04513463055720486 -0.012832930721029843
-0.03767028229834538 -0.03209288570865048 -0.020202039164782082
-0.029600116500267504 -0.06010938248754308 0.0028074795926840996
-0.026509275287741177 -0.05161794579507064 -0.010969397058877456
-0.034438476688388 -0.04740996008225083 -0.006172161805728977
-0.0341390564801216 -0.05469388200154059 0.00202006894639877
-0.029772328458931303 -0.05036769161468697 -0.00842944004784356
-0.028650168529641362 -0.054689708287419106 -0.004728952611454191
-0.02827536771341122 -0.04697143670887033 -0.01426004013876217
-0.03569758587975108 -0.04337560370752074 -0.009366320970544371
-0.03462233173954983 -0.0509066486156831 -0.0018369251191565662
-0.03884562865224373 -0.043065008441632746 -0.005863380797212665
-0.029787126138987423 -0.07118366916346411 0.01605184694479262
-0.03534642638086273 -0.04068569969466487 -0.012958982493422219
-0.02851005119708122 -0.06305567508106066 0.004930639155156369
-0.02620866821297163 -0.06686321901416899 0.006577619894060768
-0.04074708603349374 -0.03443448954391162 -0.013669743507233524
-0.039822177754971225 -0.03973669251817029 -0.008574972969108929
-0.03647379094888118 -0.03757830268436156 -0.015225644207743715
-0.042816228075149725 -0.029246865947514643 -0.017223956095749535
-0.027473618654613136 -0.06848479072828179 0.010037530257123593
-0.03568151787545041 -0.03536819769086556 -0.01879643185547083
-0.02673335334244966 -0.07152104327836314 0.012696205636195251
-0.0318081441727691 -0.06093741945123028 0.006493566734002282
-0.0314621745196664 -0.06453434844058041 0.010295618928504264
-0.029657808312392134 -0.04333157802728549 -0.016839046919661434
-0.04226531550167663 -0.08139350723669768 0.019760938050589573
-0.037778095974843245 -0.07711124724999743 0.011888165727545016
-0.035050111176339376 -0.07312949502510016 0.005383419445424685
-0.03112877273081332 -0.07835742652041865 0.009687316504389946
-0.03818720332308703 -0.08280802496043989 0.019221813783645444
-0.03309520066918001 -0.06696334323313695 -0.0034082793696151668
-0.02979779082508159 -0.06314524771238288 -0.010030509175639395
-0.037954682709306714 -0.07979855139366969 0.015338360485188985
-0.029345829219644126 -0.07595038231549303 0.005679509931553087
-0.03936200479909485 -0.0865161752727043 0.024508427432790754
-0.03285064820143914 -0.08382088253577873 0.01747132228943997
-0.03313715488005786 -0.07105927078772468 0.0017221420136282915
-0.033675050720968235 -0.08637173553530472 0.02111718360368211
-0.03406794394765327 -0.07993806655117683 0.013317644703147273
-0.033555836710157716 -0.0759563888791702 0.008064194522298687
-0.0274828601943641 -0.07123423424539244 -0.00037925357782828215
-0.030004887815528278 -0.08918941516138562 0.023086351209796213
-0.030744556558837087 -0.09319167829368544 0.02915335494696296
-0.042864009980758074 -0.05112218224106749 -0.014361794381720031
-0.04251901478611901 -0.06779480658890434 0.004259102934009017
-0.03645145676657357 -0.053215445063091456 -0.017269433575649373
-0.040059468749076246 -0.06300780420160716 -0.0031944672759193606
-0.03948114641516691 -0.07126806751967471 0.0056955250874569895
-0.04086260354426507 -0.05983930971436116 -0.006125773864869353
-0.034777430223888225 -0.057355045134608484 -0.013954233786572214
-0.04266827108147541 -0.04840971442144432 -0.01759865577810175
-0.04149416162367073 -0.07410992223361378 0.010575750739838538
-0.03738520942367938 -0.06634990292425001 -0.0016073122047340178
-0.03699785235581645 -0.061915120335113503 -0.006954910546734035
-0.04020597475321954 -0.05370829567959874 -0.013618486454180775
-0.039764439656893844 -0.057455166135286236 -0.009733559168361924
-0.04105649840408876 -0.06591998644473063 0.0009287679946663836
-0.0386704137089736 -0.0510966149771165 0.0020710670305901444
-0.042044367857924286 -0.046425033445235665 -0.0008916784523685444
-0.03431692905201407 -0.08007083655458949 0.027171874632076178
-0.03922514246124845 -0.055058027149263104 0.005969549022682014
-0.0335293933147032 -0.07310293600851933 0.020391037049565717
-0.04502626560701266 -0.0323531204999623 -0.012730340199652345
-0.043255053681827256 -0.039141604603445686 -0.007154218976392653
-0.043551668422384636 -0.043010124089227164 -0.0034466185479254076
-0.038314274381808094 -0.06471695767598466 0.01455653157534853
-0.03756566257873448 -0.07160113032817299 0.020636357117671405
-0.030645195010510263 -0.0838609330256224 0.02919638943456877
-0.030742977260591702 -0.07916003190504182 0.024876978303607824
-0.03791207820018129 -0.06137819284152836 0.011297321338318286
-0.03891046783820231 -0.07576885527029109 0.025046765386879492
-0.034600041618535166 -0.06685566356310302 0.015032484859819447
-0.04073111070925382 -0.06829501864538241 0.018855183864575558
-0.040847563918164145 -0.05787617428318397 0.009241166634465378
-0.035034596823119976 -0.07607111472834785 0.0237542099131016
-0.03804224256795089 -0.046932278903095384 -0.002327698216614024
-0.026758458536702022 -0.08350203427553399 0.02674059193608012
-0.028958139593760607 -0.07632254956497872 0.02102071168570142
-0.034908407010922134 -0.05775014551888574 0.00644273003587263
-0.03910374879635326 -0.03613950330967494 -0.02135598015371653
-0.032839420637707735 -0.04274697778328984 -0.0218522656599616
-0.04518054524690063 -0.03809559023715468 -0.019335505654202265
-0.0456409318005802 -0.03008568722526939 -0.0204387211076109
0.0034439999144524336 -0.0755447894506621 0.007104535813914709
0.0034439999144524336 -0.08384983727919394 0.01736493222601278
0.0034439999144524336 -0.09062526556826364 0.021916858973588253
0.0034439999144524336 -0.08687346108993102 0.024542474988207975
0.0034439999144524336 -0.09152598630997417 0.026630314137281404
-0.016030883460372215 -0.06105164627234366 -0.02043158747825223
-0.02139343604502058 -0.05269042154654237 -0.0211166922323676
-0.024775746873709186 -0.049861377174633376 -0.021302370004487762
-0.01549380018117133 -0.08652921834027322 0.028263240456099945
-0.024265762038983188 -0.0861535630730214 0.029123862151371645
-0.01980546514970412 -0.0873208398177685 0.029794216766384368
-0.004759363328053378 -0.08830583823869674 0.02862773049665293
0.0034439999144524336 -0.07537934805999505 0.010854462610931018
-0.017055747745592632 -0.05231104896212114 -0.02113094472815053
-0.004028363557478363 -0.055485279594970585 -0.02018118897146321
-0.011411491585868693 -0.05174389297576884 -0.02072902119553129
-0.022823459824248257 -0.059442149729156075 -0.020161918852708488
-0.02677055127063925 -0.08130104356491417 0.016229207657304772
-0.02731734508690946 -0.05969494426134066 -0.003774814445311669
-0.026935095214019114 -0.07495495336167399 0.010193889610037685
-0.026765341769250755 -0.07664055715831247 0.01690750784647186
-0.009220872821738148 -0.09315111853457451 0.029774081458049297
-0.018160717274784088 -0.09339280381362938 0.029655140778834348
-0.013713716180671801 -0.08940344459523006 0.03004597190455763
-0.02278421811832921 -0.0912995696154776 0.029764117633790874
-0.013336834633757892 -0.09596577059065448 0.02684548533159109
-0.021325143928421466 -0.09577102096530271 0.029139918948618965
-0.009403459109341095 -0.0974619887361517 0.02866043583431854
-0.0014589400476566 -0.06673187381149466 -0.014753951123767903
-0.004728613788323691 -0.06845622260429352 -0.012975328594914008
-0.00024881916227143214 -0.07466132849387289 -0.003756723150317229
-0.007454860792836395 -0.06443598786685256 -0.01891742256340808
0.002896288372940978 -0.08943580224712878 0.01688820044838426
-0.0040537211631759525 -0.07227511323784605 -0.007662998298628407
-0.001667836925012054 -0.0640680770422993 -0.0184140433824711
-0.00014938291927277128 -0.06918870684899471 -0.011184480184363271
0.00023523813711290764 -0.07214029156891474 -0.007102395179503972
0.0027534585612785387 -0.08066690736986987 0.005497999906808406
0.0030006533626936085 -0.0639784912601185 -0.010019978201525618
-0.0003501240300720701 -0.09571122286183709 0.025757862451770367
-0.008388974920361569 -0.07387772327892228 -0.0054589053807173275
-0.005337359949566632 -0.08577466488650806 0.011511306588655007
-0.00027821074566505843 -0.08582677240583571 0.011545927557078148
-0.006026078976301032 -0.0901085983176016 0.017707548116751844
-0.00715393224946905 -0.09497917286466336 0.024673812147708703
-7.549947420429229e-05 -0.0932688525013752 0.02217499665023643
-0.004844513022551484 -0.07700984221923404 -0.0010127121597202368
-0.002940080072339618 -0.08276988318025338 0.0072002510488713995
-0.0008343219889570294 -0.08796257058536952 0.014601191868716362
-0.005388284222969127 -0.09293129364706443 0.02173461770970319
-0.001539849833509486 -0.09082157946191488 0.018690704739418407
-0.010452777617590236 -0.09161756677099629 0.019897874390724178
-0.0069188719311873955 -0.08331238536006015 0.00800650059639087
-0.0024220072384443137 -0.07903411796229304 0.0018598077869192813
-0.008343154346453587 -0.08787339007275397 0.014532891261414473
-0.026639344179588825 -0.07385098723456722 0.003751293302364688
-0.02699299058510564 -0.06681550637665026 -0.000777762604701835
-0.027449996874725987 -0.048721828893784555 -0.01863512320010241
-0.026539028838365904 -0.06257482976124903 -0.012662748202202641
-0.026427445128396947 -0.06658875893967017 -0.00884123051986334
-0.026445713504554904 -0.06906129034542328 -0.005293269370863562
-0.02648299986930374 -0.07852074461709652 0.007833136874128666
-0.022788750362952435 -0.06679386213200919 -0.010868548939341475
-0.022118879958925294 -0.06462108223613046 -0.014157125529386562
-0.02526922196788857 -0.06122971615479165 -0.016840623580872387
-0.024040975934901388 -0.0729260291832553 -0.0019599426464699584
-0.018537148715735086 -0.0702445267799249 -0.007693245435124466
-0.017949469447574896 -0.0661400692683791 -0.013617220466991903
-0.019557898582757614 -0.07760216272320257 0.002916227390592689
-0.019074863367011478 -0.06311900403314996 -0.017509804570994714
-0.013384262040864833 -0.06402827053943966 -0.01794497318504707
-0.020737362480824986 -0.07193288450323178 -0.004668461872191703
-0.014840588239863804 -0.06831951427240043 -0.01149865336734313
-0.023596778353327793 -0.07602119167821927 0.0019149174338608538
-0.024895264927541797 -0.0832280312135262 0.012396609469891216
-0.021130359594477996 -0.07964539339168211 0.006249481936313651
-0.02309815419415908 -0.08646477353726732 0.016390586838204907
-0.011260545934282853 -0.07210055398564157 -0.007277267289939238
-0.020727546164536266 -0.08993876867252701 0.020545879978409363
-0.009728622276780802 -0.0669682997231155 -0.014925036384129928
-0.010940058920607135 -0.08447681825316121 0.009961652549360317
-0.015577338314469932 -0.07370769959692117 -0.003732206565416077
-0.016103751358435114 -0.08767301422755763 0.015986303359685428
-0.014260197778217331 -0.09007618750294775 0.01879972321897274
-0.01892694768214656 -0.08213130902636814 0.009070509722728513
-0.00987479918166528 -0.07998617123400927 0.0033524455185740343
-0.020701422497050048 -0.08404558078621924 0.012283672949798926
-0.011383213416490994 -0.09415014185658156 0.02364356769192801
-0.012450010416878552 -0.07591206910004482 -0.0015820646183851506
-0.014980631547473523 -0.08424914412128635 0.01085394840018828
-0.015479803781317535 -0.08097803897711951 0.006421859580579491
-0.013784127334249696 -0.0780751835934641 0.00184764321464296
-0.024892679917315124 -0.08908249644369783 0.020614644749288334
-0.026071040099883952 -0.09175486120063434 0.02485804657594543
-0.01981235260360266 -0.09233889781815893 0.02368526922858856
-0.01542732431389911 -0.046624606792006966 -0.02035831176689438
-0.021868223828468494 -0.0455260102792535 -0.01985252772177619
-0.01850842690967911 -0.06168096577543844 -0.0005901112040542656
-0.022573721821333586 -0.07979926532442853 0.021405707212020047
-0.012279964207940164 -0.08225962592239897 0.022759651711234685
-0.014112379282429588 -0.06427484123005434 0.0018093798343052237
-0.007972566323514467 -0.08231738365821467 0.022179290497065733
-0.01592346907526948 -0.07996923929432517 0.020605042949926045
-0.020673969053165056 -0.06932844679604405 0.008761714536006817
-0.020209047655926626 -0.07359177550130214 0.013723419110490161
-0.0011319538624816033 -0.08172225759037978 0.020446972181116234
-0.016729106045334265 -0.07105831236887054 0.010209407180030695
-0.00938645646994644 -0.07433503519335632 0.01297116943817287
8.779546909858644e-05 -0.0874717386990407 0.027049028738701877
-0.022112697687510615 -0.05735804358173972 -0.005149484382976048
-0.02511189511494826 -0.06127750507145151 -7.20586934955924e-05
-0.023188179275440292 -0.07726340538682472 0.01850532563200125
-0.004105494532223076 -0.08343250236110868 0.022913153469079354
-0.008122452461325848 -0.085711848587418 0.026208103292968396
-0.012007004130231032 -0.0700360229303093 0.00829190455937053
-0.01577449120521421 -0.06774507402853827 0.006155299141544734
-0.01739529306686116 -0.07680791763421357 0.01709555979896637
-0.0202292836615891 -0.06680639541509428 0.005718164010033881
-0.004424632553865751 -0.07933764394859784 0.018128333034481782
-0.022406148173288634 -0.06448703135556277 0.003308535579224654
-0.011895293438920995 -0.07899734843516573 0.018851500816845224
-0.019768142130718404 -0.08282758130840652 0.024557400871593648
-0.015572967983158081 -0.07461336733660542 0.014231115938011466
-0.007961492786641083 -0.07736760084097237 0.016335746379865835
-0.012631035672291744 -0.07261589761905529 0.01143070246293676
-0.01520092241436948 -0.08381455071840269 0.025034602973986613
-0.0016332648335413793 -0.07663992012326282 0.014110147185251835
-0.023331128639842675 -0.047695108799856833 -0.016591269830840416
-0.0018050134791188863 -0.0602825004051271 -0.006822929676908623
-0.0006607968079485813 -0.07925612932727953 0.017178136681310963
-0.010231468784172488 -0.05589138928082786 -0.00995883992353314
-0.006999717177654428 -0.07151678843403828 0.009128335620651807
-0.0025341385140535667 -0.057721528178342696 -0.009892173841067133
-0.00015961127467424086 -0.07095852815013676 0.006385103751228827
-0.009005154340465692 -0.05066299186053162 -0.017029464000562045
-0.01615321077743129 -0.05187372723882667 -0.013357948625690817
-0.011846303412731372 -0.051789471219528774 -0.014742392199023064
-0.000891948478082316 -0.07349040946396276 0.009850134739299691
-0.008163167518133126 -0.06807427311871098 0.005056924266335136
-0.010526335187741324 -0.06524942283082752 0.002133416638375638
-0.002365288598150958 -0.05326089171834527 -0.01566450168458322
-0.021843398144358366 -0.05087816773568889 -0.012948800614712614
-0.008177418704850559 -0.062366728124100324 -0.0022607272305916375
-0.01846356740390287 -0.04897099399299053 -0.016397018341700667
-0.002620861030145271 -0.06762932101822566 0.0028436530254705703
-0.004943779327469598 -0.07443458471122874 0.012262126084780972
0.0016538043585241982 -0.05755898116764582 -0.011341797086544583
-0.009085060823969312 -0.05973135428832872 -0.005372513133783096
0.0011081477889406046 -0.05493898087607946 -0.014541135964362266
0.0005139841325816803 -0.06279541405798265 -0.004286497427277425
0.0009494223343625386 -0.06624265996037497 6.729672455609015e-06
-0.01839188276219408 -0.05548124804807638 -0.008066638916395339
-0.008148767440064047 -0.05410197892580347 -0.012871580262341462
-0.013904164356000028 -0.06005890945540013 -0.003524165482353952
-0.005170352568934877 -0.06431447371621983 -0.000653225772354861
-0.013840372115570617 -0.05642236991565652 -0.00820817375101391
-0.0006913812936880984 -0.0940900875077222 0.02969960726821248
-0.004463907657559117 -0.09706728759888801 0.029315791382593954
0.022769341166131 -0.015506964946284278 -0.030383000150322914
0.03614294357596642 -0.010553440528534287 -0.030383000150322914
0.011179564793952941 -0.03974191593957562 -0.030383000150322918
0.042416483340728776 -0.014831200328028961 -0.030383000150322914
0.009490782910377932 -0.017101166290591375 -0.030383000150322914
0.010747186861029344 -0.03503813838357105 -0.030383000150322914
0.016125636044520896 -0.018254327271795833 -0.03038300015032291
0.021122220978327607 -0.010638284662421926 -0.03038300015032291
0.027657150366897983 -0.014932567507423571 -0.030383000150322914
0.006685853003508876 -0.042690580255148734 -0.030383000150322914
0.014848099270806226 -0.022472801859859563 -0.030383000150322914
0.0164107036879261 -0.009722518983867398 -0.030383000150322918
0.022470941277604687 -0.005324121778553391 -0.030383000150322914
0.013185478299881172 -0.005967237489189871 -0.030383000150322914
0.0085796884371883 -0.00645096344481072 -0.030383000150322914
0.029944516022932674 -0.018653582367937016 -0.030383000150322914
0.04014711305394464 -0.018768187716400098 -0.030383000150322918
0.0072360232193809364 -0.025624789344141266 -0.030383000150322914
0.02448955457511996 -0.019772463686053718 -0.030383000150322914
0.019049464057359036 -0.02886823982602547 -0.030383000150322918
0.03665026777568831 -0.014502361665231927 -0.030383000150322918
0.03166283743713836 -0.00893028501255497 -0.030383000150322918
0.0207039362464967 -0.025124534499890504 -0.030383000150322914
0.025552975508325377 -0.011179108763373972 -0.030383000150322914
0.0037335601218490655 -0.020212308942175093 -0.030383000150322914
0.04456010516698948 -0.01859397415926986 -0.030383000150322914
0.008854099603943014 -0.021722822329528775 -0.030383000150322914
0.004867607080444154 -0.004916212693893972 -0.030383000150322914
0.012667387103959475 -0.0276528548929623 -0.030383000150322914
0.011610720201087955 -0.010192733671603997 -0.030383000150322914
0.025585189334241382 -0.024732063322573876 -0.030383000150322914
0.007100655554814663 -0.029987003751402376 -0.030383000150322914
0.036269218922736816 -0.01986726140192689 -0.030383000150322914
0.015549996145552318 -0.03366821248906558 -0.030383000150322914
0.0047188423090614665 -0.03935943982885962 -0.030383000150322914
0.029788684563726922 -0.023787881252567106 -0.030383000150322914
0.04889337257801897 -0.019934719563796083 -0.030383000150322918
0.024605821079834046 -0.03557656395831955 -0.03038300015032291
0.016668828507525803 -0.04525427863437873 -0.030383000150322914
0.012220395835213034 -0.044853993309798404 -0.030383000150322914
0.0379305543862874 -0.035253838361977 -0.030383000150322914
0.029417027288734465 -0.035762353964267315 -0.030383000150322914
0.027614584551515088 -0.030924739633181965 -0.030383000150322914
0.02686604097542595 -0.03942185856950983 -0.030383000150322914
0.03466228491870441 -0.02848573046212459 -0.030383000150322914
0.019580040455969557 -0.036345612938670294 -0.030383000150322914
0.015951369351129847 -0.040070641143904843 -0.03038300015032291
0.04625138526916292 -0.02351546048858031 -0.030383000150322918
0.032092896252319834 -0.03154507547202584 -0.030383000150322914
0.02310764856443167 -0.04354265591585496 -0.030383000150322914
0.030562061906596702 -0.041934001532381554 -0.030383000150322914
0.03874930323448073 -0.030845274073172745 -0.030383000150322914
0.04248931016469304 -0.02858398426242534 -0.030383000150322914
0.020157342964587432 -0.040726362562665167 -0.030383000150322914
0.051039225003690326 -0.015502599009866799 -0.030383000150322918
0.04152766868064109 -0.023484297655676924 -0.030383000150322914
0.006848317447684937 -0.04644410379214872 -0.028092191693095854
0.0441394327097281 -0.01024668923068049 -0.030383000150322918
0.029973279055074 -0.004745327469933846 -0.030383000150322914
0.04038034345364732 -0.0017529346436236095 -0.030383000150322918
0.053720559868979625 -0.004499813185550671 -0.030383000150322914
0.009649940609994077 -0.0006880728550379623 -0.030383000150322914
0.018831821902713524 -0.0031411429705880942 -0.03038300015032291
0.04635387095517577 -0.003906214896652283 -0.030383000150322914
0.035561037336077364 -0.005435388453477331 -0.030383000150322914
0.02444996998318623 -0.0009523464114444265 -0.030383000150322918
0.03635419068805944 -0.0008433312127392551 -0.030383000150322914
0.04873240512941059 -0.00933256998880308 -0.030383000150322918
0.05312303533409883 -0.01175325290017755 -0.030383000150322914
0.04129204914949377 -0.006400833402685442 -0.030383000150322914
0.05672366909316853 -0.002413814550716634 -0.0285071741408661
0.05573189025109941 -0.008333288653416902 -0.029383947727260135
0.00439844097284072 -0.01207201975062425 -0.026290229148096384
0.010159028099159929 -0.021699222317663153 -0.025942912235044923
0.014369124590269998 -0.03409075018395754 -0.025576436344960467
0.017043437136710596 -0.010521175243009764 -0.026004929830322113
0.01256546159805269 -0.014517335967218341 -0.026033464271844164
0.013444808226254452 -0.02943464631058637 -0.025697605471668973
0.009780094171823382 -0.032982239705681676 -0.02571512763062181
0.010543605902715827 -0.025938928169755182 -0.02584407104591985
0.012831729866482199 -0.0051075645068423365 -0.026224682178297244
0.029011883584982186 -0.0026852298045721007 -0.025868832458951517
0.028667790457362348 -0.010065907491273542 -0.025722248412749185
0.005413915388047357 -0.0024829446469038486 -0.02646638191002639
0.032210008174167915 -0.013745447991693792 -0.02555580030221094
0.017983861765097576 -0.0036631904390003467 -0.026125527429968813
0.024444329634734897 -0.010267694712904426 -0.02582418960530873
0.01698569502676066 -0.02404837667402015 -0.0257218687709496
0.027806512033896794 -0.015394330831058277 -0.02563183165709008
0.024914973381805587 -0.002477362430132246 -0.025976208062905105
0.022095098777096398 -0.024991974564207504 -0.025573562922493027
0.03795977425182582 -0.0036917668950049057 -0.02562269644979678
0.023887370784992288 -0.017489141270156293 -0.0256863064331746
0.006881016339192253 -0.007077074460397974 -0.02633286969241993
0.021059812646112522 -0.020541650790049895 -0.02569319392699674
0.009299359351102895 -0.0373368717541503 -0.02563562473707249
0.020709770631206652 0.00028505522461992974 -0.02614003527806176
0.015350140076549751 -0.020462019534760612 -0.025838420098581123
0.005191995672666368 -0.0225029856653085 -0.026050886990266246
0.008678556199333325 -0.012091575953564814 -0.02618220812590371
0.013363724917574015 -0.00950031082741514 -0.026118915812034457
0.03359367185441187 -0.0040059735317615796 -0.02572585942762796
0.008130531281021853 -0.029086048327576178 -0.02583854777571342
0.022630544438196128 -0.0065953746801335755 -0.025947029984941097
0.018267352324978444 -0.030559222516003424 -0.025552705332373478
0.01915037341275362 -0.016140897928546078 -0.025833760086758622
0.03275387827741742 -0.00895984372006334 -0.025642780347468815
0.03429183220613523 -0.04409014983201287 -0.029579031623229356
0.029410085332056562 -0.04585822053498395 -0.02958508647965481
0.02392535512256752 -0.04585205087413712 -0.025873044669400463
0.041979457697460636 -0.0043404037784789745 -0.02552138184362799
0.026259820769302923 -0.03274723445673563 -0.025642680811337693
0.01071092749170828 -0.04600000508197588 -0.025616594792846076
0.026943012792211014 -0.02551184550354778 -0.025578366174457703
0.02999925653351167 -0.044523211678213825 -0.025796179864339693
0.04164579123181443 -0.012584526772216336 -0.025599139167723668
0.03680004563628409 -0.013438428083170778 -0.02555877382826922
0.041217175697146835 -0.017410889135048926 -0.025642313017254226
0.030131972332389935 -0.035535876314240974 -0.025709087605462498
0.014676203937445495 -0.03918423845899122 -0.025589439404184264
0.03411625177938771 -0.03649998125493907 -0.025758670917749953
0.018414334106225363 -0.03591208150583311 -0.02559486420991194
0.031585971621717744 -0.023349841439605813 -0.02560382004992723
0.0377282863636517 -0.019367603390799026 -0.025626453681539256
0.033523591852531266 -0.017903823241046113 -0.025569735749894455
0.023188910952100687 -0.038008948119365935 -0.025663546414312406
0.03598262748657213 -0.029222034891626114 -0.02570584497368222
0.037536143258742244 -0.033185891123228214 -0.025760480418954877
0.03864627933185798 -0.02358752133607235 -0.02567721273361455
0.040133513738977646 -0.008826517832985268 -0.02554694410559701
0.03212829223203845 -0.028000342782065014 -0.025655034961339085
0.0393335502128873 -0.041671461773450276 -0.025866426803780606
0.04631269075885064 -0.014642016852323643 -0.025676911537621486
0.0435145565390407 -0.025307025011108937 -0.025751052633256697
0.054438750920919154 -0.01936243225883563 -0.02688994016501455
0.05019683743062484 0.0011214950685105609 -0.025597139780003376
0.0547408319046302 -0.00505501593376251 -0.025765497635040865
0.04982305494814906 -0.029162601779086663 -0.025883228356938553
0.04615396700154755 -0.03099401828278226 -0.029170187083063695
0.04883854873631461 -0.026703171149723898 -0.028861018340197813
0.04417310947969953 -0.035787030174604405 -0.027727911711801917
0.036574774714960845 -0.039967453376083165 -0.030211778026486193
0.05260808483626632 -0.02533011388521432 -0.026052604173827234
0.02841889573109873 -0.045295500833164644 -0.020498150205360856
0.04603192947734507 -0.04177202943205751 -0.017862566623386575
0.04769316179123585 -0.03358840006508847 -0.01868115801218334
0.06312562287675247 -0.045741561577838805 0.00709480546696989
0.04818422637692168 -0.04599365793806043 -0.003261410794719045
0.03516517709639269 -0.0456526573667662 -0.018529844831711835
0.045252698570497844 -0.045848332769804406 -0.007462848488306763
0.03809101651398172 -0.046150703670594664 -0.010404822502812916
0.05238571171421663 -0.04595702541951012 3.2279155421177305e-05
0.06701353891608447 -0.04564134951855098 0.009404079623740052
0.05968855378557313 -0.045812430946184673 0.0048559302745194806
0.048663779736278806 -0.04530264657961991 -0.010535363944418778
0.06820459110046527 -0.04590471745974864 0.018506399555100382
0.06619290143482448 -0.04594970282091043 0.013772752485090346
0.07608332065914222 -0.045863997536145555 0.020971580117439187
0.054908015302525204 -0.046064151426643704 0.0035821406818989186
0.07658234838521744 -0.045803536244977315 0.027995956369971674
0.04369070730386417 -0.04615121200012241 -0.0033789348917729733
0.07236778862402748 -0.03728761514991975 0.005737226420891858
0.05776482651567933 -0.03857709939840268 -0.010468521629430247
0.08241864766311867 -0.043724214858869286 0.022015119912869318
0.0557681389094045 -0.037478147252276675 -0.013576523030278826
0.0750289477080906 -0.04351554019296394 0.01321185319592266
0.06626422263556829 -0.03513918212493458 -0.0029163257338780035
0.07785814858193214 -0.04065452845315311 0.014524823080590495
0.06323450592499552 -0.0337667872447161 -0.007425852836533787
0.06418726330330485 -0.03997330791508384 -0.00196764995198836
0.06988877541445991 -0.03640567026263046 0.00221598044639781
0.07852822939151445 -0.04395428484523489 0.01761831957252996
0.07318643249382313 -0.04192015710790839 0.009937172095842186
0.05818785749452346 -0.030619768565121143 -0.015539790693464294
0.05952355145627504 -0.034895031113346464 -0.010984052451529462
0.052018253544923024 -0.03794216802205433 -0.016880219945223325
0.054447057561013604 -0.03456460408079629 -0.016863124108569865
0.05950814390535669 -0.04155345371120871 -0.006019086330938656
0.06593565991185128 -0.042497286315218784 0.002068918051565112
0.04986450230564682 -0.04320189920730952 -0.015056842189203041
0.053336463037566034 -0.04190908218157573 -0.012509809404163151
0.08519928760320915 -0.031558375866529105 0.03004506386025951
0.08671840155853663 -0.038050173992953684 0.02970068793312171
0.08385007476539186 -0.04123050944049035 0.029823517669293628
0.08062206330156936 -0.044312719975439084 0.029978726969491803
0.0927619581254023 -0.032434247404172264 0.02934302652581329
0.05309380065731307 -0.026236029036368954 -0.01645771332978503
0.07443682601879184 -0.02616784905209029 0.008614073700924724
0.06253118950521606 -0.02624681599059628 -0.00606956908447031
0.056990726283878676 -0.026376711330532734 -0.014491159905024835
0.07000692726998839 -0.026114600905174732 0.004559538298722375
0.08244329247519387 -0.025946419017164088 0.023062687523740553
0.06163492496353294 -0.025886117570259142 5.2220232539154556e-05
0.08796140037592362 -0.026024051227294495 0.02754320579894006
0.07439928300086032 -0.03496886625089004 0.022396433470010742
0.07828642688025385 -0.03087272091088738 0.024380872187020015
0.06906345402102608 -0.0388450477370963 0.018948544472263462
0.056581813136022376 -0.04045178710607916 0.007791103821421244
0.0797461458159529 -0.03949924383881695 0.029338985226452383
0.07035021884482018 -0.04383839663649677 0.022237007211719395
0.04526039129159368 -0.041724217210805284 -0.002405865187594238
0.06292568346712193 -0.042846479003437396 0.014792918709421541
0.06006826805458455 -0.03792797171859712 0.010047658572158068
0.04990140073855038 -0.04402557224438465 0.0029442107878845667
0.0765948063287229 -0.036583446829890044 0.02514535224762736
0.05680522388230395 -0.03562013168979837 0.006000187970003354
0.07001479624459842 -0.031687958896172735 0.016883362950359124
0.07578260997797569 -0.040494201205211314 0.025996854534566922
0.0817111677026368 -0.0311822925805427 0.02775330272150015
0.0527931976892001 -0.04117243693832108 0.004500978019255788
0.06320625829041263 -0.03769451699554109 0.012923396824917938
0.08376304588011643 -0.027741176954855375 0.028270751103843552
0.052895777662914506 -0.03723270210156991 0.0029652722664249495
0.03957428171321947 -0.04359091485172907 -0.007018418891223164
0.06743662222790477 -0.035182648565205976 0.01588957937016496
0.06569290143412673 -0.03965017460458554 0.016089446071909732
0.08017014170837275 -0.034959618148843255 0.027859111545243342
0.07373210382722262 -0.029884389079324933 0.019492354384428763
0.032234922349148355 -0.04308196687913312 -0.014232958344111223
0.0629406677159956 -0.03311848913674745 0.010555311926172744
0.05614554121429822 -0.033444130321526586 0.0029095968201939704
0.06856538210114876 -0.029851994530814357 0.013494648701062937
0.035601307920608324 -0.038039091471112764 -0.01620165538890583
0.06501934357213583 -0.028924921315785446 0.00815001368498601
0.04932142590835825 -0.03362132836261841 -0.005043102309410515
0.04074318219300658 -0.03711078631803044 -0.011154706268967963
0.06059294584871609 -0.02925596135727494 0.0032485959658391326
0.058159510773579816 -0.029048025980269954 9.02499862414051e-05
0.04699329896285727 -0.026527854276979512 -0.016264916043815
0.05478431381444625 -0.02914349019661666 -0.003833839157397524
0.0433786332816037 -0.03276305296623427 -0.013173065320230132
0.03646920231270232 -0.040663876967900484 -0.012041585653524135
0.07434291121236866 -0.026428438620742595 0.016334236552470086
0.04659655079992393 -0.03262486280287942 -0.009487941031696857
0.04047229670774139 -0.03316181515059084 -0.016175539903869683
0.04507070587925425 -0.03618855449862451 -0.007074713134672498
0.05031091975580606 -0.029383122754105002 -0.008900194166107345
0.04348333147456437 -0.029499428759460915 -0.016929470977258967
0.04786259614714941 -0.0375295764969758 -0.0021399018531630485
0.052739974169134556 -0.033320615390471965 -0.0013112699500970621
0.04695537794394569 -0.029620257586388393 -0.012632271941041849
0.05388319728042658 -0.02701786394896334 -0.007439967003809707
0.0787843813369132 -0.02691140482519721 0.02222183841420007
0.0414181213576246 -0.03933765811725412 -0.007698728290673894
0.0711679827299883 -0.02680901322546952 0.012988823027650611
0.062076732620414875 -0.02834249069645305 -0.012571150586442923
0.0707542135670019 -0.03214009622365825 0.00027118986116979327
0.07379016252349699 -0.03360154976659556 0.004856028954508736
0.06756354389017981 -0.0311760759332107 -0.004152185213464258
0.0858513368210794 -0.04198226685561546 0.024849391329946326
0.07552032829924372 -0.03783948836004052 0.009821372550360181
0.08351221422567898 -0.03965640557843623 0.020487942417069013
0.08058635511224665 -0.03635393764554543 0.014760834649381861
0.08073304939958853 -0.028397582975167354 0.011712377389371855
0.0943567207098778 -0.027678607004169947 0.029181711821806802
0.08280094426396716 -0.0322326832380227 0.015952391182853014
0.08966522198718577 -0.028073102802030993 0.023225067405065407
0.06556945677947762 -0.02858388137753791 -0.007978808790335367
0.07920368185596663 -0.03344877345248981 0.011752985252441367
0.08863987127761319 -0.03336304758763053 0.024018826502217885
0.07218366321472611 -0.028040932844681284 0.000424360484659297
0.07582852138123891 -0.029671095353355745 0.005832035087981293
0.08935574724042779 -0.03740144856884377 0.026578313980100424
0.08517076026546669 -0.03319810841186904 0.01943030985142502
0.08614405692887399 -0.0381343704175141 0.02268693446403172
0.0890147135626559 -0.042274161740094164 0.028921460180417212
0.04514313532297314 -0.022132030293830696 -0.02104856427300317
0.07559786596870995 -0.000610999995842576 0.003955549889188935
0.07151758770526107 -0.000610999995842576 -0.001901270721694476
0.06682535961154357 -0.000610999995842576 -0.008321517260833366
0.06495483732737578 -0.000610999995842576 -0.012767902258804989
0.09084282080404467 -0.000610999995842576 0.02172794199689286
0.07614932013677536 -0.02621584057581334 0.011951751775455483
0.08394767274986821 -0.026085363129124205 0.018206838605943576
0.08631941843906007 -0.026016419490898904 0.02186277429169557
0.0658891588857976 -0.02639589222895237 0.003219563341260049
0.05800205203483321 -0.01844482014505163 -0.020106918704458875
0.048647785789185966 -0.026171372967792577 -0.02100545898842391
0.060786702532849526 -0.015556928593422292 -0.019863207443573956
0.06610085435821605 -0.01860905839422243 -0.013284698027957731
0.07492520197525351 -0.01908280036167881 -0.0010964180474109866
0.07050808036980505 -0.02160038828827511 -0.006050345705425682
0.08097552595352986 -0.022593330423898987 0.008586858745124382
0.0726670467250866 -0.01656418362408046 -0.005213658584236454
0.06361715526119714 -0.024037553730628953 -0.014399303330864859
0.07753818692260284 -0.017219903379128338 0.001678556056548727
0.06348047501943452 -0.02033472546846505 -0.016126861531709343
0.0685630384611711 -0.016797095003961825 -0.010693432192422995
0.06462701670951779 -0.01485542136766818 -0.01685041693572922
0.07575341210028905 -0.023633559983986425 0.0019239018129000082
0.07921781301139237 -0.019463791986341225 0.004895264091184584
0.06802234880626301 -0.022140043399990338 -0.009203388608713822
0.07759046104412694 -0.025880982785438194 0.005514164931792199
0.06588429486804323 -0.026307880872683084 -0.002209301291574828
0.05783042571435934 -0.026476136135923107 -0.009945006187231823
0.05348916072322271 -0.026666604711651807 -0.012188551773642343
0.060731590298318844 -0.022886918363733036 -0.01875966804794072
0.09049039650777486 -0.023690672893455125 0.02203695604774775
0.07146850834396154 -0.02560076830317723 -0.0030374586535290796
0.09337474133942933 -0.02260284933120802 0.025476358219154626
0.06537638613312051 -0.02587085390857158 -0.011223270805779409
0.08749503684263946 -0.023620208024664687 0.01791981287130738
0.0850573888595369 -0.023409421295205443 0.014499522965326968
0.06894939028705349 -0.025473442403386823 -0.006530933475589122
0.0742043525634375 -0.011824914069973838 -0.004086237759068248
0.08619441636947839 -0.018642004438262978 0.0140623977217083
0.09450773127634428 -0.018270559927678308 0.025858890087733587
0.08978653860547857 -0.01579630399041054 0.018745123744323775
0.07074591450908894 -0.012835318132251918 -0.008861617238582458
0.09106645759710447 -0.004297857629754292 0.018795394729215677
0.08396713689629455 -0.01684840721143445 0.010609719851848028
0.06759922647686155 -0.013100179388770226 -0.013307549254544625
0.08772492006582223 -0.013542078658071749 0.015457562821382604
0.09614536195171289 -0.003447782734124245 0.025906117587184432
0.0812372577300786 -0.009853613541533775 0.005637606513714768
0.09381457676213702 -0.004793963745796484 0.022790466399143054
0.07841714045434404 -0.012734867270555918 0.002061157613149088
0.08322027229968934 -0.012305275021222143 0.008843560867456548
0.09538138736404644 -0.00959694572729229 0.02576588026460805
0.08379227336597196 -0.008147940138493362 0.009017497930903765
0.09287787876238282 -0.01238755613877588 0.02262688815749201
0.09058787022199419 -0.01048529038705582 0.01906799329979931
0.08618751012121688 -0.00968675559934551 0.01267033874019628
0.08106207396298987 -0.01559952334550406 0.0062746759341886105
0.062103710353662106 -0.01181104387898042 -0.019790663966313047
0.08220993422102223 -0.0028219580915461945 0.005992060341774485
0.0757282745795203 -0.003791996592223721 -0.0030887643915421953
0.07938354134625843 -0.0019567267211868422 0.0018535259254118135
0.07259808094439896 -0.003451515159304551 -0.007586421020813697
0.06901841125059532 -0.0027015781465119307 -0.012779943357782028
0.07968220700974295 -0.0062464388662381905 0.0028816381458000653
0.07600087059231636 -0.008238348028421492 -0.0020704469502868658
0.08753850142492402 -0.004093406398826897 0.013747922289169804
0.0720274513446148 -0.009546714989586225 -0.007535023995937762
0.06503755267265186 -0.005672356510801241 -0.018025701103424198
0.06605411013355139 -0.009711830952858155 -0.016006087502691564
0.07024024320368782 -0.006971408962520963 -0.010442505834992188
0.08505685935461699 -0.018737238855631652 0.026936316033924407
0.058967943018839716 -0.025305437629259766 -0.0029629863027471007
0.08880652895872601 -0.007164029536127411 0.02911539227997534
0.07839385603491711 -0.01394074703236563 0.018009981878272352
0.08104667700613065 -0.0155246265894109 0.021499001408833956
0.0652159136956896 -0.022667974510414322 0.00398539223331467
0.073901009415656 -0.018801810157497267 0.013604261357830726
0.06732454094171675 -0.015561290464818904 0.0050915258204216555
0.07732708372753583 -0.023548590813050364 0.018648588664492583
0.06177035632043337 -0.01829983514738364 -0.0010067833486900285
0.07716480968407255 -0.010586727569381947 0.015871355245092544
0.08397041916205766 -0.012447422826120233 0.02438321572347181
0.08422576621681192 -0.023283840869508913 0.026848214226936517
0.08699811564724125 -0.0029594234523916954 0.026114201619056962
0.07007150606422546 -0.016362370539751793 0.00853716215592118
0.08176995930987571 -0.00891250456866845 0.021046507977289453
0.0679608888476478 -0.024306007077309035 0.007595440965543278
0.0813538679052095 -0.021301765208908776 0.02301777370694014
0.07334272312131299 -0.0106519604640883 0.011312274182281073
0.07331739448004182 -0.023221185087213547 0.01378684495615672
0.07079599714748394 -0.02099174880978769 0.010326387490372194
0.06266756534396985 -0.021674434176949135 0.0007389919127023178
0.05889098490334919 -0.01999144119414638 -0.004114050335303128
0.07254399971597887 -0.014476993634946433 0.011119095390770285
0.08728908620353215 -0.010792563269834009 0.028023302816026954
0.07585754753249024 -0.01612267085358307 0.01541080925756743
0.05484126331635394 -0.022728709262626563 -0.008412935433076425
0.08777660353072624 -0.01636923709652302 0.029672232965306175
0.05316003063911867 -0.0043674184823708035 -0.01639018839910193
0.05102993791387595 -0.020815143662389336 -0.013620785933435403
0.0635199355035992 -0.0010052389441903816 -0.004342161331859948
0.056996960672531474 -0.01810059473513436 -0.006940518265062511
0.05204414300719018 -0.016322830307799706 -0.013827572757117395
0.07786892219983571 -0.006142770945848726 0.015606279370512456
0.07110690559411512 -0.0034400622196416398 0.0061117217477954225
0.07053368235955038 -0.011278400030485702 0.007993163958552608
0.05760665721327844 -0.008414927633148779 -0.009390727657149553
0.06084215565363823 -0.013452484917544161 -0.0036009588522855867
0.07667169677197726 -0.0013705236836810597 0.012495524142631966
0.04757300200050836 -0.021983841851952207 -0.01762544053822987
0.05498587621566084 -0.007297901849255901 -0.013093721157549348
0.06539162540187643 -0.003604554677512858 -0.001097697853128481
0.08400072254585877 -0.004030908207324945 0.02269666434522511
0.06437518687474711 -0.014799634393317928 0.001338142838138942
0.052136562793959354 -0.009560441745686397 -0.01596185169375941
0.0687179429612574 -0.008278511748854753 0.004686431290735688
0.05879295136128754 -0.004233353496149852 -0.009275316947989817
0.08015014065735834 -0.0020858986658021206 0.017154875863970888
0.0752621422544922 -0.005624939728683319 0.01212060167599529
0.04915305738074348 -0.01838291933176804 -0.016816208542775775
0.06025966748747477 -0.007201794332690664 -0.006422668609563122
0.06290542918195459 -0.006474696850381873 -0.0033019819955410912
0.06553704035548932 -0.007317540648665413 0.00032347945319934155
0.06365986314912164 -0.010910386872094762 -0.0008660873422799541
0.05727658615481113 -0.013529963026940515 -0.00810704344866034
0.057096760368742325 -0.005377792075978913 -0.01985718646587449
0.04877433395596782 -0.019096888707978217 -0.020990503863185555
0.052240227858659075 -0.008380819005534257 -0.020185995471870916
0.05694848527792434 -0.012192113793285492 -0.020314085594747528
0.05138128765974922 -0.01434309839724524 -0.020605163822493562
0.05636001671748473 -0.0007305605047276627 -0.019236737647662
0.09131529033024384 -0.020485399495439136 0.02976792764266822
0.09077883788659062 -0.024578042071592986 0.029760202342790035
0.09221870983185992 -0.012354734299861479 0.029798330908415216
0.09283078131271763 -0.016782859382932655 0.029679367896886837
0.09750231894679082 -0.006029681511215538 0.029352241113711167
0.09524462819656523 -0.023184007910075233 0.029363316101508816
0.09258071780278651 -0.004767183263318034 0.02986292457378125
0.09688759284372504 -0.013336771201121575 0.029068674851208624
-0.055668598554210885 0.010780987573316693 -0.02912980984751067
-0.020326948809139298 0.030271724370927074 -0.030383000150322914
-0.010625502248299532 0.019462691959481943 -0.030383000150322914
-0.019883444498435904 0.023275053041849986 -0.030383000150322914
-0.02471771369997286 0.0258623498218967 -0.030383000150322918
-0.02851500196562088 0.018359686071285793 -0.030383000150322914
-0.011404411018044909 0.0029017661387379344 -0.030383000150322914
-0.013523717983277145 0.013225882186206038 -0.030383000150322914
-0.016498977543865687 0.01698706052856724 -0.030383000150322914
-0.011863330815948614 0.028627155660667 -0.030383000150322914
-0.0357656714507173 0.016199186099014412 -0.030383000150322914
-0.014359774354215649 0.022679975778848543 -0.03038300015032291
-0.02894314078609313 0.02309621097977784 -0.030383000150322918
-0.008858492950192927 0.02478067642792315 -0.030383000150322914
-0.015876398547425292 0.001568968921932091 -0.030383000150322914
-0.030333063645717154 0.0070213375126425915 -0.030383000150322914
-0.041947988742738605 0.0026001608180008734 -0.030383000150322914
-0.020346893913270176 0.003921472610469101 -0.030383000150322914
-0.03351358789934221 -0.0001787643918859616 -0.030383000150322914
-0.025971832236870586 0.013466486304230977 -0.030383000150322914
-0.038555926580785355 0.007832365107823569 -0.030383000150322914
-0.04866307575818664 0.0015806595025980006 -0.030383000150322918
-0.011446131278208094 0.008221272551362967 -0.030383000150322914
-0.02675260115711806 0.004487696445213138 -0.030383000150322914
-0.02432997247569162 0.021491602723357973 -0.030383000150322914
-0.016594561788824024 0.027849704712731693 -0.030383000150322914
-0.045527833747034355 0.008724342518472927 -0.030383000150322918
-0.031107856908859532 0.012439838533010006 -0.030383000150322914
-0.03432236012453571 0.008782753172478489 -0.030383000150322914
-0.015964112212704197 0.03340974525126104 -0.030383000150322914
-0.03407909122707514 0.004081751670496649 -0.030383000150322914
-0.022557901358771244 0.01654285432227728 -0.030383000150322914
-0.008288952364063726 0.016379017281290455 -0.03038300015032291
-0.02175091510557573 0.01126649092470586 -0.030383000150322914
-0.02661875650073906 0.008860755084558703 -0.030383000150322914
-0.01749419533240853 0.00834709398543579 -0.030383000150322914
-0.011164965267057058 0.03254505141909464 -0.030383000150322918
-0.006749771231058929 0.03764105118360021 -0.026645733443457137
-0.006899919185706818 0.033186089112062486 -0.02681748876005385
-0.0367716135332152 0.028789791783390896 -0.030383000150322914
-0.02542992828716309 0.0311276485536209 -0.03038300015032291
-0.02075004837241797 0.04066578176004964 -0.030383000150322914
-0.0361343832990214 0.033679388341066895 -0.030383000150322914
-0.03351522308150404 0.0205745539473934 -0.03038300015032291
-0.02961011172533047 0.03030999593460259 -0.030383000150322914
-0.03990919516592805 0.015083450595197962 -0.030383000150322918
-0.01953725127832892 0.03609039674900215 -0.030383000150322914
-0.03210239649230801 0.02584094247758547 -0.030383000150322914
-0.039743133151041804 0.0255342843725964 -0.030383000150322914
-0.04852162160262197 0.0128824254851201 -0.030383000150322914
-0.04104306382907961 0.020349742281929473 -0.030383000150322918
-0.046074080668200276 0.01798600691437619 -0.030383000150322914
-0.03197392037657698 0.034339911110564156 -0.030383000150322914
-0.049825710554657704 0.005627878862865485 -0.030383000150322914
-0.02321151221463416 0.04389883651027715 -0.030383000150322914
-0.03069709360634049 0.040909911911297774 -0.030383000150322914
-0.025166456285420705 0.03908588227913935 -0.030383000150322914
-0.014882313878281922 0.03889460229905697 -0.03038300015032291
-0.023259322160453965 0.03515259867356388 -0.030383000150322914
-0.038549025574977976 -0.0017634553450312054 -0.02622583186180707
